-8.149088016097298492e+00 -7.707169321388479544e-01 1.695863545515955906e+01
-6.807188117728314225e+00 4.063378522229227130e+00 1.438446255981264343e+01
-8.429501898843950514e+00 -1.850768857324267547e+00 1.917376333649682607e+01
-6.513264221727881775e+00 1.219254409977089448e+00 1.289110325014179281e+01
-5.040077843054929119e+00 2.710365160603397161e+00 1.258133254755871633e+01
-3.993298063743133675e-01 5.309554677360173169e-01 1.613390772363850800e+01
-6.076697169713514146e-01 -2.083487424941129706e+00 1.710985138774685765e+01
-5.525605474428705755e+00 -3.848393069178515091e+00 1.840208100317040163e+01
-5.485347454631173569e+00 2.309813227933823043e+00 1.224108517623621140e+01
-6.884736627566253375e+00 3.753467029948529099e+00 1.415625823607743072e+01
-6.702871833586277361e+00 4.081979457978461845e+00 1.690381236736898529e+01
-3.173628511558778342e+00 9.855573463733550144e-01 1.849775195120334104e+01
-8.028853628382371710e+00 -6.417451245687875172e-01 1.955136140735577044e+01
-6.318903659461913236e+00 -1.469795041470648655e+00 1.746011359828828802e+01
-6.618592236466728451e+00 5.918911943020006561e-01 1.467379718640189878e+01
-5.274601356646192230e+00 5.765618852568578090e-01 1.357688095578356879e+01
-3.170731566772406307e+00 6.535633395139820223e+00 1.563366234693341283e+01
-1.918789360309869352e+00 -3.249016995245799677e+00 1.535367548839955276e+01
-7.335460236874293827e+00 3.612519941658437705e+00 1.496002968711680836e+01
-1.748721578111400277e+00 -2.304556953808002184e+00 1.850539620954145192e+01
-2.902502196660624811e+00 5.319799040024268066e+00 1.496221603446370096e+01
-2.903283246487712521e+00 4.601847458132941604e+00 1.678122822723236851e+01
-4.959788711921436111e+00 6.279545562971800443e+00 1.565370746901490406e+01
-3.828566431867136632e+00 5.692039872272559364e+00 1.500074340543082485e+01
-8.291959032536844632e+00 1.606845932892830842e+00 1.718083523099982557e+01
-1.964773553506569126e+00 5.602413474274396954e+00 1.588529475936761770e+01
-7.505791964236548708e+00 -2.882612015966754093e+00 1.910183830949367945e+01
-6.322836590200778595e+00 -3.289499498431356805e+00 1.863251315324242086e+01
-4.065891284054209187e+00 -2.354401692163626603e+00 1.927309512473848940e+01
-2.298208154186359931e+00 -2.200664551089169585e+00 1.460172302564573243e+01
-1.084346315910981184e+00 -1.872565577715371798e+00 1.816875745444815493e+01
-1.278575735991165585e+00 -1.921111905045955748e+00 1.829988758228342505e+01
-5.606225459638706887e+00 -3.013839482198974018e+00 1.967611169410398730e+01
-8.217600355252978162e+00 1.212404804081923970e+00 1.535236766515322415e+01
-1.622877150131130097e+00 -2.716775756552268217e-01 1.826510693268598828e+01
-3.801876261502767029e+00 -3.155304226505065479e+00 1.711818899082620504e+01
-8.173535021720701010e+00 -4.298735873736525548e-02 1.916414584863260018e+01
-1.986124397721905410e+00 2.586290579590162952e+00 1.744225457330846751e+01
-8.222415587578558060e+00 1.395108201652801139e+00 1.534880203599301041e+01
-5.863568546139873661e+00 -8.221407975238917976e-01 1.669714761738153896e+01
-6.536032843821827143e+00 -3.303668890042114725e+00 1.880309710154943303e+01
-6.484170754603804099e+00 -3.251976875322336813e+00 1.869350836253497050e+01
-6.019199380785153153e+00 -2.721215737082343544e+00 1.981651463034708627e+01
-8.166184149146790361e+00 -1.240282831439885047e+00 1.953656321641235394e+01
-3.789885243251351454e+00 5.543125576756475326e+00 1.491376285597269202e+01
-6.560779291112158518e+00 -1.562439908990780335e-01 1.623057943136053183e+01
-2.864159613562955009e+00 -3.979759075079505770e+00 1.684112027788027177e+01
-6.580994555807643920e+00 7.921373126925701502e-02 1.585551679556949267e+01
-5.901899576942088999e+00 -9.172135600177694359e-02 1.975708383343192054e+01
-8.348877252119658365e+00 -5.886376978653771186e-01 1.680375477483806890e+01
-6.154560884623151651e+00 5.140426455128792149e+00 1.507622339472573714e+01
-6.476306551157373192e+00 4.742180584326310289e+00 1.512443432230845275e+01
-4.522692524994599950e+00 6.330425473807926195e+00 1.584844556033691276e+01
-2.504639405575937339e+00 -2.629889247715022194e+00 1.498316341826325981e+01
-5.903661629025202195e+00 -3.717772929031663676e+00 1.896954125671027214e+01
-2.135628816479213654e+00 1.826640417526508853e-01 1.279051801300732549e+01
-6.133542134023378445e+00 3.705076260228371332e+00 1.350839351885551309e+01
-5.731828534292390032e+00 4.098759397176967134e+00 1.369541178969589978e+01
-5.570368999948830613e+00 -5.375825895476342708e-01 1.617968508824689167e+01
-6.980190149023828283e+00 -2.122501549928565101e+00 1.820137240386236499e+01
-6.168454776619291202e+00 -2.747230482677407437e+00 1.815812606943647722e+01
-1.575429573468343225e+00 2.544966468208540000e+00 1.424521257860195433e+01
-7.966292866392517880e+00 -6.495297571715156204e-01 1.674943874037876412e+01
-7.886329578520683281e-01 -2.665265702574446394e+00 1.653918716851455883e+01
-6.885258093226319431e+00 -3.269625250591897903e+00 1.946573055491583659e+01
-8.291275439146916781e+00 1.433329227446387133e+00 1.759004266626268986e+01
-7.668589364993816382e-01 -2.688647420461764526e+00 1.672404179767409005e+01
-1.132997810424337892e+00 -3.362616424870510823e+00 1.678174614817838517e+01
-6.149474505593596874e+00 -1.294734617717410607e+00 1.724847749806198038e+01
-5.379424509984477965e+00 6.109436523940925845e+00 1.546208778370559855e+01
-8.272049117893811587e-01 -2.136938625247098322e+00 1.780740037785682262e+01
-5.730131284794698132e+00 -1.341374889270542936e-01 1.565001600229120271e+01
-5.283711420739405362e+00 2.219352481885029094e-01 1.453450357847696495e+01
-3.281361817942464398e+00 -2.446187768810771157e+00 1.618792131900250553e+01
-5.328721068367478608e+00 6.051234769886168152e+00 1.563143605942779857e+01
-4.971849323837178147e+00 -2.377978932800540957e+00 1.732468134265171500e+01
-7.074006522804655361e+00 9.103307996100197252e-01 1.423577851657883997e+01
-8.507621762942989552e-01 -2.230209112859995013e+00 1.570725351247072865e+01
-5.356030273205453440e+00 1.525876089793467116e+00 1.144050605807809262e+01
-8.746363454454071373e-01 -2.572754077025961372e+00 1.756668328626260234e+01
-4.373645486411620098e+00 -3.550731448790025002e+00 1.755852399602551372e+01
-1.538649958341190782e+00 -3.988075725622802992e+00 1.660911896415803568e+01
-5.657556673347118092e+00 5.795049857626732859e+00 1.552859410165189757e+01
-5.694880060540635114e+00 -3.720071520395138887e+00 1.921123269478821527e+01
-4.542725045242203663e+00 6.494725179321154229e+00 1.564212903905427510e+01
-6.755516206135803614e+00 3.602703769594949978e+00 1.388322090167103440e+01
-5.408396769402905591e+00 5.564268792242434536e+00 1.478609092611372233e+01
-5.730896102174881435e+00 1.945204447138360493e+00 1.183245580134893160e+01
-2.212858257111812943e+00 7.828512085626794237e-01 1.821223867348741265e+01
-8.154253945111245017e+00 2.258031736104529341e-01 1.597783849600678252e+01
-1.979448689730975541e+00 1.726959853135690448e+00 1.780814227581927156e+01
-3.635430218970807648e+00 -3.770095403557209846e+00 1.733256676471589230e+01
-5.493729635405474987e+00 2.292210071973706409e+00 1.889281209374821913e+01
-5.312718969657122869e+00 4.460140292062972911e+00 1.757811357062545454e+01
-7.585492580105089644e+00 3.159113606452865319e+00 1.614789818343655270e+01
-5.619628849684945138e+00 -3.758697257678219827e+00 1.835177510889830899e+01
-6.367340593874249777e+00 4.883035440288899132e+00 1.490635218232539927e+01
-4.157484629772314477e+00 -3.427716827770038721e-01 1.922421619067134912e+01
-5.845176899398903281e+00 -3.565387215319919534e+00 1.836154584635190901e+01
-3.570595487166206006e-01 1.109710880754582352e+00 1.615948970721754563e+01
-8.252513561296154876e+00 1.391859044877139517e+00 1.545468097930582729e+01
-5.962509984226800341e+00 -3.109421055616909513e+00 1.818043244223403576e+01
-5.939891556913008408e+00 -3.299147498853748139e+00 1.825126836976356515e+01
-3.475943220713509696e+00 -7.905198249069946836e-01 1.445621747590078598e+01
-2.806015486480370580e+00 -6.055445188559374081e-01 1.870074057915033450e+01
-7.085585561176094060e+00 -2.911550445578273028e+00 1.973947838547721290e+01
-6.387716007043719557e+00 6.448651381269598915e-02 1.577817137809051218e+01
-4.119266031751975810e+00 4.474399512806930268e+00 1.736629931741142485e+01
-2.838653166923142290e+00 -1.955490744459547070e+00 1.485929527259234106e+01
-1.477624156166803093e+00 -2.713582950988798204e-01 1.355713044159814018e+01
-8.367540455597344717e+00 -2.853761758966643081e-01 1.654407692028026133e+01
-7.288945578546348614e+00 3.340847203051513503e-01 1.968459015123223566e+01
-6.012170532844210769e+00 -1.892994308681575255e+00 1.989738362036557362e+01
-1.753611249432437624e+00 -3.451775758177482167e+00 1.839367264887634690e+01
-4.923036578138336061e+00 -3.802804248024890477e+00 1.921751308478889086e+01
-3.115611394092146824e+00 5.200369392546441816e+00 1.653824553491424609e+01
-6.656974892710049829e+00 1.430906693204072599e+00 1.271592895566258719e+01
-3.344798485697998203e+00 3.395623513617370026e+00 1.756528166273770353e+01
-4.738799479756068855e+00 2.285762289867979025e+00 1.866842542644712921e+01
-5.706263986281522094e+00 8.417866126080045808e-01 1.299373669128531716e+01
-2.854983021556821043e+00 -3.818674296244464195e+00 1.659342053833511699e+01
-6.114637641894974607e+00 1.343649800861665522e+00 1.226830474587153219e+01
-3.618571540828780186e+00 3.236689319733852432e+00 1.333201596108156650e+01
-5.583280022666397002e+00 -2.894469892089537755e+00 1.785074620347297980e+01
-4.589391861343905532e+00 6.279372068732409495e+00 1.518635954926420339e+01
-3.138971651288913201e-01 1.694074100967927876e+00 1.669925221019751405e+01
-8.776222746853983736e+00 4.385159015099476809e-02 1.737780188272535753e+01
-7.780976212242500800e-01 2.729455581308570800e+00 1.679610298960091797e+01
-6.146386671341386609e+00 1.500353211463782532e+00 1.204219934541648840e+01
-6.638978659310438957e+00 9.250182769983886777e-01 1.388948225052364194e+01
-9.553959613270828211e-01 -1.270413581071776044e+00 1.806770790693514073e+01
-6.835840582535995580e+00 1.623667728100798513e+00 1.292531146741564996e+01
-1.307871177598711743e+00 -3.799784001214548290e+00 1.714119011999471098e+01
-2.166774821029910036e+00 2.428688631543804544e+00 1.360606140316461676e+01
-2.934867355554197754e+00 2.373917935111677036e+00 1.787160909018874122e+01
-5.863968849776227898e+00 7.799997577095244550e-01 1.324688271959791663e+01
-7.930912012580701997e+00 -1.051422944903214640e+00 1.736942716694196776e+01
-5.483864366803002710e+00 -6.304372008848631026e-01 1.624854265385882002e+01
-7.704747357438497701e+00 -1.016555414257157786e+00 1.731536722166364939e+01
-3.039852616003110519e+00 -3.814143133736479729e+00 1.684268218700824349e+01
-7.230183713743818519e-01 3.786349935451295057e+00 1.590532637352670520e+01
-4.952333969950993620e+00 -2.272150645118031775e-02 1.485014622911173632e+01
-8.185208847292107848e+00 5.593554024793624402e-01 1.571983652871949033e+01
-2.501325288285033199e+00 5.850074438380095998e+00 1.595725417668147372e+01
-7.675821067637226491e+00 -2.589459963902024153e+00 1.888610781248880244e+01
-3.348915428559597451e+00 1.028855495027813038e+00 1.855758370234452315e+01
-2.600387875531426030e+00 2.055668510149842643e+00 1.301891001733939390e+01
-2.067275584325814819e+00 -4.148880726723693790e+00 1.678506431067593496e+01
-2.659433003402893902e+00 -3.977845486630081417e+00 1.662913013842643295e+01
-7.670598743431755295e+00 -2.455529065478724515e+00 1.971536541146280541e+01
-2.744482530765906869e+00 -4.145126032810094507e+00 1.855101310483681942e+01
-8.479898604154909592e+00 6.329642608862267039e-01 1.620558108137658593e+01
-5.046334716991619729e+00 3.030381874453226487e+00 1.287003585689666352e+01
-5.200674080681346734e-01 1.123615995995324912e+00 1.535195131785545897e+01
-2.639517515585040996e+00 -1.000246360876021257e+00 1.870456890336705413e+01
-7.315761250808334282e+00 -2.706455301460574669e-01 1.985282739311887212e+01
-6.727411986924366261e+00 4.131386381232274196e+00 1.670707557792702147e+01
-6.439464837770614736e+00 3.598294439111954901e+00 1.359348403002926275e+01
-5.919665092802725681e+00 -1.474077435420366733e+00 1.726078462062986318e+01
-4.305149138977668599e+00 5.458218789865510345e+00 1.672938705651334601e+01
-6.507236560139078918e+00 -3.164247373906695415e+00 1.972265693488759553e+01
-6.979289587259783545e+00 -2.823582597968226082e+00 1.979383898564355349e+01
-4.887035783644027021e-01 2.480814945334210986e+00 1.653529381022170242e+01
-2.739519169874347515e+00 4.314792017043683536e+00 1.434438326875904579e+01
-3.098956383829279737e+00 -2.451941954619230479e+00 1.586404862404045701e+01
-3.174117906887564899e+00 -2.310107892721808831e+00 1.588462423425758629e+01
-8.679973633223182716e+00 3.991354399476579884e-01 1.776463352480114821e+01
-7.781424542771837594e+00 -8.144310966435350796e-01 1.976205399925269290e+01
-3.671047343278125652e+00 -2.147086432525053823e+00 1.639100011465743023e+01
-7.670695933838702629e+00 -2.801561413356117747e+00 1.929990056904919271e+01
-3.126364228042797233e+00 4.065873723426043362e-01 1.247931290176488517e+01
-7.916301437927346640e+00 -8.051816935149208598e-01 1.968488835033540596e+01
-2.321851885901438539e+00 -1.156914857198577895e+00 1.380634757327661788e+01
-1.241964693593415436e+00 3.499129695245890570e+00 1.672381335410698000e+01
-1.656982174850738287e+00 -4.096976088566606222e+00 1.677938905449808971e+01
-6.349220220231993395e+00 -7.100516313226463705e-01 1.682744873394980090e+01
-6.115379756005426160e+00 -3.013706111887142658e+00 1.826011107357015817e+01
-1.257325691121441658e+00 6.906633206933534552e-01 1.790963872462425854e+01
-2.431306030091722192e+00 -1.620961053989684597e+00 1.871621604763704028e+01
-1.684461052798172043e+00 -3.992065287588403955e+00 1.639554298249601061e+01
-8.511671139455467383e+00 -1.255694960882911548e+00 1.795042985499257782e+01
-1.006276459930840694e+00 3.916842059196559145e+00 1.634457524950580876e+01
-7.571417639144845779e+00 5.750860553060382907e-01 1.512938361557743150e+01
-4.177332415055628800e+00 -6.976553079114820033e-01 1.535821662633544094e+01
-9.885962939094494750e-01 3.764487286626940321e+00 1.641595141133706903e+01
-9.449523239359474136e-01 1.532570995511137291e+00 1.457265995185291274e+01
-5.166372929805325143e+00 2.027089475584806344e+00 1.892848292460583082e+01
-5.168364999744824217e+00 6.309724452266023853e+00 1.542795989790064226e+01
-6.985450908664658343e+00 3.957163313968063978e+00 1.636511849057391288e+01
-4.506454951587278934e+00 -3.631221676012892363e+00 1.921833904905262358e+01
-3.570926231403752205e+00 8.905296355602038139e-01 1.192588063246081376e+01
-8.281977146470975271e+00 1.827764676676835620e+00 1.598820703496049589e+01
-8.024908167934109215e+00 2.332250189623574332e+00 1.538690739171353528e+01
-4.420681535887476254e-01 3.158209028500907900e-01 1.709398834421922686e+01
-5.276677904302340849e+00 1.776581089839095018e+00 1.164021138906961284e+01
-2.383873165438166186e+00 1.774651835941796207e+00 1.791771653681442444e+01
-1.480041148047295696e+00 -3.842699736823574241e+00 1.639932777762994931e+01
-6.971774048130802370e+00 3.569634858637949826e+00 1.409112011301415990e+01
-2.075795804197055450e+00 7.937105575041661920e-01 1.278749144818592143e+01
-1.178485645874272070e+00 -3.503910596350453766e+00 1.695086883257284427e+01
-3.225329256403269618e+00 -2.412512286269016037e+00 1.607165965681755893e+01
-3.290474089970829574e+00 -5.856727175951493836e-01 1.370965810794438156e+01
-3.590730721172108453e+00 2.129253551165673497e-01 1.887820809841961989e+01
-1.453046563655999268e+00 -3.882391295769856754e+00 1.655461377457194772e+01
-2.868391340681192059e+00 -3.621494356596732800e+00 1.642548600748178700e+01
-7.124227568625741469e+00 -2.486655213877201120e+00 1.848623237105122996e+01
-8.625234166030743665e+00 2.093723688255885174e-01 1.817480804341837342e+01
-6.770612282064428555e+00 -3.042823394775024948e-01 1.993006051898681363e+01
-3.004545384972404420e+00 -3.614479615420817193e+00 1.664744177794000279e+01
-8.635519216267471876e+00 4.266902293317386130e-01 1.680302996970552698e+01
-4.240708761957930228e+00 -2.178917099512597044e+00 1.935431410040135347e+01
-7.655027676472663245e+00 2.959510192663418859e+00 1.494686767651804615e+01
-4.338665248992406021e+00 6.424368751463597427e+00 1.579552730731725063e+01
-2.191078591568763390e+00 4.086388856868568453e+00 1.458125211004087163e+01
-2.926239645277379786e+00 5.013563441225620920e+00 1.657033949726850608e+01
-6.764512715662563735e+00 4.477496437864838086e+00 1.573116521565575709e+01
-3.580823797834624678e+00 2.544458579364865081e+00 1.805966254876150145e+01
-4.705904758601414883e+00 5.624204021124166175e+00 1.656462588520745527e+01
-5.043245465631531754e-01 1.214815677408166428e-01 1.557897494692120688e+01
-8.572533233640310613e+00 6.412047828179531228e-01 1.659648373786544084e+01
-5.361783993097202217e-01 2.199589812814821688e-01 1.743930727360165633e+01
-7.744760425115924107e+00 4.478208750592140852e-01 1.537390109623517276e+01
-7.481993754336764724e+00 -6.882969698136573999e-01 1.683081234380621538e+01
-8.473307545180933431e+00 -1.613718314753100014e+00 1.854837088677309254e+01
-4.182589233188560129e+00 -1.555093448412678825e+00 1.633700400872798753e+01
-5.761405856103545275e+00 -3.522392550842917469e+00 1.823020589225390609e+01
-5.546643687514980492e+00 -3.694199068692407995e+00 1.819833143507202777e+01
-3.056256259812092146e+00 1.290476351827338330e+00 1.220767119164080228e+01
-6.167609409804740039e+00 -3.292242412109569472e+00 1.848253098235571912e+01
-5.187917862619858766e+00 6.046677095211713260e-01 1.347653462669540048e+01
-7.784340292189989796e+00 1.997684058892122749e+00 1.454216054613799614e+01
-5.512487172663657731e+00 6.073411028469656081e+00 1.522913970652619042e+01
-7.338566748417996166e+00 3.567638508813488318e+00 1.474825272428974898e+01
-8.518602408566119166e+00 -1.162074282768083444e+00 1.778926841388386038e+01
-5.815988143318296721e+00 -3.323486183447803999e+00 1.814733382982879561e+01
-4.807258463428228268e+00 -1.348929872104151606e+00 1.958922240544761451e+01
-6.973642602747164077e+00 -1.295693871487158866e+00 1.999825613347397280e+01
-2.516023842125275412e+00 -6.317490942039607482e-01 1.337264281565508384e+01
-8.042556277954949095e+00 -1.043991476161547194e+00 1.962186384361632463e+01
-5.861279397367258337e-01 3.135852667391542337e+00 1.595495829851403613e+01
-1.936568541676470634e+00 -3.248259173528358801e+00 1.852939845797639151e+01
-7.351926892432492977e+00 -4.454333151390174605e-02 1.978723993994871933e+01
-5.950763059793434451e+00 3.727410720690142565e+00 1.345794538675617957e+01
-3.097024584736269848e+00 -3.869588156984714367e+00 1.695414672503909514e+01
-8.408049835527047211e-01 -2.300724439511204089e+00 1.774806582746396799e+01
-4.120027884776855664e+00 7.215932577068661091e-01 1.232636103064895394e+01
-6.702103207380181615e+00 1.909540390186546421e+00 1.907629031658495222e+01
-8.864410506492792052e+00 -5.748041404906165663e-01 1.779961661318317567e+01
-6.029602588356430815e+00 -2.557281055847000939e+00 1.983905276942429907e+01
-5.661239960522247650e+00 5.263291062882712978e+00 1.645443908927921939e+01
-2.262361966948980729e+00 -1.228745642501392288e+00 1.862449214396592367e+01
-8.380508017173340818e+00 -1.610509930621570440e+00 1.932674686232105188e+01
-1.236692498155454123e+00 -3.441188574641016018e+00 1.634076832938758628e+01
-7.396369856078342409e+00 1.794676267415997284e+00 1.879090245356967870e+01
-7.819280766302336261e+00 2.586157713429536820e+00 1.694898478524837770e+01
-6.465573283820633677e+00 -3.241024478083021965e+00 1.966123115744522210e+01
-3.177741992285270989e+00 -3.808454623272727435e+00 1.880080137995143730e+01
-1.920613680588232119e+00 2.210617369437642421e-01 1.287153527940001752e+01
-1.955392568791669117e+00 4.165183951648685934e+00 1.665595930622085064e+01
-8.623135836855524872e+00 6.223443765463679833e-01 1.682975706598474375e+01
-7.640863664653618770e+00 2.971965170473481077e+00 1.656173852887391007e+01
-6.460408891277149124e+00 -3.077768837189613915e+00 1.976530981853454705e+01
-8.702057890508203997e+00 -5.862989758491152781e-01 1.721209823399971839e+01
-7.615619334614905256e+00 1.780587585790752492e+00 1.856306366081075510e+01
-7.885691871432445765e+00 2.630390029494167337e+00 1.637425635435164395e+01
-5.854642589198141067e+00 -3.632895668070718731e+00 1.846927805583290905e+01
-1.674458153558200157e+00 -1.237560649375672117e+00 1.843701053893962438e+01
-3.400098453213911576e+00 -3.974817983776899322e+00 1.730268193654018205e+01
-3.576928101046336295e+00 1.556097851571844326e-02 1.891446733800056279e+01
-4.916359754992354780e+00 1.632818458810976647e+00 1.157043482292194980e+01
-7.373643287550267544e+00 2.376827744289257360e+00 1.394439655705260250e+01
-4.683360036999129505e+00 3.886310309454996226e+00 1.786397634518532840e+01
-5.818041744737186605e+00 -3.783175504530639444e+00 1.881778040379692385e+01
-6.359220602856573201e+00 -3.448641659775570911e-01 1.990415873448959871e+01
-1.953524501772121003e+00 5.768790321487587747e+00 1.564178153875730715e+01
-6.950509266877174852e+00 -3.115874910531593933e+00 1.885574186758190507e+01
-3.617990165458361496e+00 -1.512526927197396009e+00 1.577569152944855091e+01
-3.642888124440343933e+00 5.638182338752089962e+00 1.499970785501881920e+01
-5.935254215311447368e+00 3.555315621647128221e+00 1.814791851807456879e+01
-1.418351955570930301e+00 -1.314342794862521036e+00 1.429117981042810470e+01
-4.433227569841752924e+00 -2.018332079454765893e+00 1.683741041558129581e+01
-5.667404750313356665e+00 -2.008833247846985692e+00 1.748327939462407699e+01
-5.774951532089656059e-01 1.307646230251311437e+00 1.721007557358380069e+01
-4.729875982513760846e+00 8.680033903838905163e-01 1.237467233580776593e+01
-1.725899664605663464e+00 -3.013695573910725400e+00 1.521504633014016861e+01
-7.784506731031520133e+00 1.823413712410934640e+00 1.459193316164165566e+01
-1.049604870332337958e+00 2.765477533254526943e+00 1.495429784238770310e+01
-5.175886120421866465e+00 1.526015528522294495e+00 1.143544964139772446e+01
-2.877094685957805709e+00 -2.398077800664601966e+00 1.524979593496892250e+01
-4.124824196367429252e+00 5.155171043862205593e-01 1.274260202167177880e+01
-8.728204282786387935e+00 -1.237250355879445429e+00 1.817981636459926875e+01
-6.453872194692660713e+00 -2.075055757264689049e+00 1.993177591274638871e+01
-7.159512844291342049e+00 -2.743726482345194007e-01 1.989081826292197519e+01
-8.066801795392699148e+00 1.974409962969617460e+00 1.738725120052782813e+01
-7.492323246540630421e+00 3.381867927355675096e+00 1.573701990301346143e+01
-6.816904273814808235e+00 4.367791242882250735e+00 1.514423701051480720e+01
-6.388533598455969909e+00 -3.374396150810634598e+00 1.880248796314083393e+01
-1.364661988337798393e+00 -3.852815541537228938e+00 1.754885440689788823e+01
-7.664350140234594377e+00 2.197131669853626512e+00 1.804110334230819035e+01
-7.823543157486012589e+00 -1.848905224615578380e+00 1.977269938830698948e+01
-6.454284378430875435e+00 4.805426686644254985e+00 1.592353632959855503e+01
-4.036061098819784476e+00 -3.791193457685902768e+00 1.752235910199787838e+01
-2.938942020305163716e+00 -2.208914459772330918e+00 1.527379011460154601e+01
-6.642071008861504922e+00 -3.194524794773796472e+00 1.871820614548509809e+01
-3.428231007185655432e+00 -1.346732358841604249e+00 1.530400969278613132e+01
-5.102626533697362632e+00 6.343935462326032448e-01 1.335634504789905108e+01
-6.994136437397084904e+00 4.117730425535980565e+00 1.470714309948402132e+01
-6.576672918260589640e+00 -6.994647628623678060e-01 1.996117203099377235e+01
-6.851736580378593899e+00 2.978745530984839629e+00 1.342371617645472881e+01
-3.004481928494142196e+00 -3.793235452791023476e+00 1.876019066582212247e+01
-2.943586354932293592e+00 -2.417320482016730221e+00 1.542454989722443770e+01
-3.204651223096662171e+00 -1.045668183028679143e+00 1.892833434815758409e+01
-4.075093208255207600e+00 5.049463627206903560e+00 1.454452686182509424e+01
-3.031115978260187305e+00 -2.395354430283522795e+00 1.564162945951586892e+01
-5.836378470083143810e+00 1.633139382559201103e-01 1.498725605973985608e+01
-5.523817449378645605e+00 -2.495381987310216321e+00 1.766793128707649885e+01
-5.759383064192505230e+00 -3.174341215893427548e-01 1.976100107568075970e+01
-6.205074835515867804e+00 -1.486989778852722210e+00 1.994408690935502904e+01
-5.951174428772703529e+00 -2.714283220469072333e+00 1.801013749350337179e+01
-7.348587148840403316e+00 2.527657283047738623e+00 1.813427681648431644e+01
-7.516277752780611721e+00 1.710130141460449504e+00 1.874671730593529162e+01
-2.268781416219483926e+00 -4.010773017547077046e+00 1.640980151863650605e+01
-3.270031007669495615e+00 4.428758308468474958e+00 1.427701328357618848e+01
-3.943337275421752608e+00 -2.675428680643107682e-02 1.367553929489128350e+01
-3.607489992595940276e+00 -1.815570415525614489e+00 1.605392495146803356e+01
-6.087538752834347200e-01 -8.527153765645850703e-01 1.550629609553590882e+01
-3.290430780201247352e+00 -2.014545903570271079e+00 1.902836534174810623e+01
-8.077157131247741262e+00 -2.256711453062739015e+00 1.893061711675304082e+01
-4.791201690259628165e+00 -3.387446695739371183e+00 1.766458505847837301e+01
-6.869218314861939234e+00 4.212770034379909490e+00 1.615089020821530141e+01
-4.423071542643237652e-01 9.029106443322861830e-01 1.715049802326407757e+01
-6.867071793208262775e+00 9.120418284085535232e-01 1.406838936288558983e+01
-5.002824273943478062e+00 1.584437119686398887e+00 1.149500361495726608e+01
-2.231995278542481920e+00 -4.053774330431353379e-01 1.848955249733324280e+01
-6.925271694411588186e+00 -3.287834185963175671e+00 1.928939636018181858e+01
-1.203556171886543291e+00 -3.220585734158510238e+00 1.793792378762395145e+01
-7.554219204946774013e+00 -2.611960682144437440e-02 1.590266856106143223e+01
-8.600496910559350283e+00 -3.577082706144571467e-02 1.670961654151819431e+01
-9.900080835859839112e-01 -2.500897906028777484e+00 1.570730369943875360e+01
-8.394785724097772572e+00 1.543870656360140092e+00 1.638511398226840754e+01
-5.170749843543109847e+00 -4.058155412796359940e+00 1.856018804538410905e+01
-4.530085750024532842e+00 1.672782426677902112e+00 1.176989498665880873e+01
-5.180600826881279986e+00 6.333090694693390255e+00 1.523804615622978531e+01
-7.136452637089261586e+00 1.561947485587591444e+00 1.913675929484023186e+01
-7.427532449131229342e+00 -2.056619104209534421e-01 1.980250232850861636e+01
-1.998627121109292526e+00 4.978620096741253498e+00 1.522829710462413999e+01
-6.509886884864348744e+00 1.116211144742322858e+00 1.951911130654297466e+01
-2.546254920056943316e+00 5.767917176418461800e+00 1.602565947385714651e+01
-8.605927416248716710e+00 -1.408765765325151520e+00 1.895786238519184508e+01
-9.473711536186757431e-01 -2.254841516693190773e+00 1.796379889006748698e+01
-1.897893526594655489e+00 -3.048845376354306858e+00 1.519157356392660319e+01
-3.911378268922098833e+00 -1.068056048522214585e+00 1.924136261555108263e+01
-5.703317190278334614e+00 6.836192860247922720e-01 1.341226164766407436e+01
-8.384343791920203515e+00 -1.924399689342493946e+00 1.928141031679907513e+01
-4.970469587475682793e+00 -1.334582237897477430e+00 1.964588120014660433e+01
-5.204743639973059999e+00 -2.903126133150059740e+00 1.765402292942380313e+01
-5.566962795765009187e-01 2.938692983534326508e+00 1.598332986440821202e+01
-1.716457153087237009e+00 -3.628017774408147211e+00 1.580621682428845531e+01
-2.071021243692992453e+00 -4.027622167465549019e+00 1.636445056671431075e+01
-6.374224584768418467e+00 4.859242465604032724e+00 1.505532396892141378e+01
-2.532488395343678533e+00 4.591204393823420382e-01 1.246144012432151982e+01
-7.563777918574656312e+00 -2.205133230210964967e+00 1.983099610522832279e+01
-6.135874462848468269e+00 -2.485127036737683870e+00 1.800207420959639393e+01
-8.468313442019063331e+00 1.228971110979019787e+00 1.634165309801946364e+01
-1.920310769691389030e+00 -3.969095856436438918e+00 1.622603080399587583e+01
-3.551820583641042361e+00 3.072288789115564356e+00 1.780546771525233396e+01
-7.453200056885467717e+00 3.197628227282888869e+00 1.675527197432077031e+01
-5.941933199918056907e+00 -2.308582706874644064e+00 1.780263752652277276e+01
-8.001071015069722847e+00 3.549123312627583404e-01 1.571090510538373763e+01
-7.745744955893105299e+00 9.422742709019088503e-01 1.910485962215184941e+01
-5.130616729444364310e+00 -3.906209403389674151e+00 1.912594593548128330e+01
-4.276903632414390088e+00 4.730914776028485313e+00 1.726985883644220365e+01
-7.552718851629098396e+00 1.385605770394746639e+00 1.896769273302418668e+01
-7.758558503008732288e+00 -4.580159045668199536e-01 1.647571391628320470e+01
-8.232475907155647477e+00 -2.183103294125575466e+00 1.914535097193362390e+01
-5.256110909790766783e+00 -3.817889825065961862e+00 1.812448148835907347e+01
-1.896681653659151090e+00 -4.031519209809214743e+00 1.636500883603407885e+01
-4.214398876659184445e-01 1.939570537535718397e+00 1.676672848591197607e+01
-2.103363544096881199e+00 -3.964328124941668641e+00 1.622915962001736290e+01
-3.379478082268431383e+00 -4.348424675840491638e+00 1.847297399394494732e+01
-1.937686477431274534e+00 -4.082616705339422225e+00 1.823206828132848045e+01
-2.187813581926952633e+00 5.368286201609222985e+00 1.532673300875982392e+01
-7.175196827620444751e+00 3.898607942270519100e+00 1.555862030579245925e+01
-6.314068549090933402e+00 -3.496632248509421448e+00 1.902000040472778153e+01
-7.961655080887064528e+00 -2.036319061082610293e+00 1.967913157149676806e+01
-1.076272915406583541e+00 2.957958267349573234e+00 1.498799877753506848e+01
-1.099422193254913305e+00 -2.073454649338568156e+00 1.816183882597258759e+01
-4.777457664479451971e+00 -1.368105864523451731e-01 1.940869385397753177e+01
-3.921961582526854784e+00 5.252790225630582732e+00 1.681474950263923773e+01
-2.555788043588707037e+00 2.993842588663974347e+00 1.744432804294304162e+01
-1.680590743524029262e+00 -4.198312958968506869e+00 1.758693381447301363e+01
-4.803490373711523098e-01 -6.894653265856383051e-01 1.711797179648736744e+01
-7.995705907020798975e+00 -1.829464074011561969e+00 1.968542282913716690e+01
-5.724317951932051507e+00 -6.563145162897845442e-01 1.642819328185564842e+01
-8.327643220447519923e+00 4.381876968873688050e-01 1.599837815586889178e+01
-3.666613815927628028e+00 -1.415576118385254989e-01 1.352402267913273093e+01
-3.251998493850040806e+00 -1.794487152594744561e+00 1.552255394263712418e+01
-5.545338021586280419e+00 -3.925887741436069778e+00 1.878637528297738868e+01
-6.951027532372977547e+00 1.237821782487983358e-01 1.983146322407078088e+01
-8.106743618807895402e+00 5.720551300112040050e-01 1.894578562343385641e+01
-2.476971516534347106e+00 -2.798640256585761321e+00 1.507937197126388895e+01
-8.475097627425224545e+00 4.478081305089780528e-01 1.625019945285439604e+01
-9.410407090672954222e-01 2.517598204303237885e+00 1.499512362050020897e+01
-5.136874815768670111e+00 1.037649045356969779e+00 1.926151374937438732e+01
-2.572873189860021448e+00 -1.242472189333167165e+00 1.871771717044511973e+01
-3.488676374290896831e+00 2.772403461254990820e-01 1.274180590136555580e+01
-8.114696449186304505e+00 2.210415889649449905e+00 1.636026408903243379e+01
-8.500280576423438816e+00 -1.529528711609641878e+00 1.842395340051610475e+01
-2.721518682156764068e+00 6.032627086931409366e+00 1.591041520895422678e+01
-5.802922640428294088e+00 -3.103794371054619639e+00 1.805384216292043220e+01
-3.728752308978757757e+00 5.070107708621133247e-01 1.251315455707035085e+01
-1.295037770226024954e+00 -8.522927081595299548e-01 1.415354393769393937e+01
-1.254667865305264529e+00 -3.698586227675782379e+00 1.715683513306705521e+01
-6.202165991816233515e+00 -1.885568769534288869e+00 1.992183696221616884e+01
-6.762784866150171936e+00 -1.273875704822399868e+00 1.999150372547200050e+01
-2.639475935836094855e+00 1.323799071206577693e+00 1.817276310029439657e+01
-2.017372998975996978e+00 -4.238267518736060779e+00 1.814661502025866469e+01
-1.292023581439904367e+00 -1.243259335146604361e+00 1.437398125204094512e+01
-4.576906068552300866e+00 -3.713473639298279672e+00 1.770464225695707938e+01
-3.792007555523005724e+00 6.203902346257817335e+00 1.526582642792307354e+01
-1.800325176543521088e+00 7.595253163132407170e-01 1.809030346031443770e+01
-5.654408215515504210e+00 4.653220960310805454e-01 1.399539630217867625e+01
-6.783541349794854014e+00 4.645279763089673608e-01 1.501238503444098171e+01
-5.508134095773318251e+00 1.312338550193973497e+00 1.181097661171412128e+01
-3.389031987798159840e+00 4.787431124149393646e+00 1.689708067548296810e+01
-3.769620952322938034e+00 -2.013749410954262853e+00 1.919859897321065034e+01
-2.726439140635807501e+00 2.135266391891052606e+00 1.296670407666580971e+01
-8.101225690959445558e+00 -1.742995554287369409e+00 1.841349317529982699e+01
-7.147870351624174390e+00 -2.259320984785762043e+00 1.989656864130022029e+01
-1.027409717243838339e+00 -3.066466413687276571e+00 1.713833383131392196e+01
-6.327570136697108438e+00 1.105663856909373965e+00 1.951866344272136189e+01
-5.484244215041657711e+00 1.250201202048727644e+00 1.192657102933701907e+01
-5.568855464448480674e+00 5.166940222743208189e+00 1.669925908824430394e+01
-6.752898285703322401e+00 2.923201348654205223e-01 1.980070465016043357e+01
-6.673248470057096426e+00 -3.334676678307139763e+00 1.946551180626567401e+01
-5.920824712413255142e+00 4.687180201141582181e+00 1.707019244095891963e+01
-5.756544756085824943e+00 5.731437478772535954e+00 1.528473340373814437e+01
-1.802241084795112913e+00 3.501541857466167196e-01 1.289457628213184037e+01
-3.554492979688359977e+00 -2.168449661266927730e+00 1.628917416128265927e+01
-4.914879632996839831e+00 -3.920004215426704519e+00 1.911956580450617338e+01
-6.630144401216853112e+00 -3.032335295269073416e+00 1.977807322137583412e+01
-2.292992736099993767e+00 -3.465900162779205651e+00 1.559014427494291510e+01
-5.705620712981793297e+00 2.497028460813457862e+00 1.881643953608131881e+01
-6.174107773371742880e+00 3.966744605647569255e+00 1.773099330701828080e+01
-3.755927141374518108e+00 -2.932411364690790112e-02 1.344116668541348147e+01
-8.670660841578772260e-01 -2.800080427866872834e-01 1.430745890233826501e+01
-1.517044989996167548e+00 -3.101757371186461221e+00 1.833621594686643164e+01
-5.627340322952099960e+00 -3.550433282736738860e+00 1.813658534213936946e+01
-5.396705850376465108e+00 -3.358717516214143828e+00 1.790604094250620903e+01
-4.075454679992262186e+00 -2.187292766523090404e-01 1.425402418599015419e+01
-3.589168165295673507e+00 3.704932222970657163e-01 1.265384971908637723e+01
-3.837191430657240776e+00 -1.178264486209155582e+00 1.566101166214950524e+01
-3.084926220349015313e+00 -2.611309493630879164e+00 1.893930333909550967e+01
-2.511503228466726245e+00 -1.812813206324341841e+00 1.439547644673031357e+01
-4.572419437514988694e+00 4.013102705066148301e-01 1.347493402618274061e+01
-8.466406888613992265e+00 4.940457334665604439e-02 1.639822940542609331e+01
-1.271163656912041251e+00 -1.450543069222047787e+00 1.828755614207667435e+01
-4.802240869830987080e-01 2.111325103368073108e+00 1.576497630042089781e+01
-8.259454221925996986e-01 3.063673431923094048e-01 1.436397168491295062e+01
-1.457233649016385524e+00 -1.687078425749266586e+00 1.451083601237374410e+01
-4.220086801399077103e+00 -3.748434518057982778e+00 1.757138272090405451e+01
-5.908801068473302998e+00 2.235932103151642814e+00 1.897765641416251015e+01
-5.471325007193639678e+00 5.431177272790065125e+00 1.639465922206125015e+01
-8.113911496837756587e+00 -1.997239829252739796e+00 1.868960330192827968e+01
-8.568846115870085711e+00 -7.489849702929776698e-02 1.851713572323767210e+01
-1.270856793744215452e+00 -3.680455686471556298e+00 1.753777960641397016e+01
-7.629579944272929737e+00 2.953967513748794627e+00 1.482975744784090466e+01
-5.556872503774790140e+00 1.009785731471640746e-01 1.962181849401137157e+01
-3.118288807334784529e+00 3.013858153465863499e+00 1.764842566654566980e+01
-7.434411589681985788e+00 -2.789754414646601344e+00 1.966662553462998630e+01
-9.469543540461602404e-01 3.973784078927319552e+00 1.627524227954585712e+01
-8.611302591604298229e+00 -6.305839077063275511e-01 1.708699021840475751e+01
-4.526862455113463746e+00 2.835891842627867199e+00 1.832824434250523638e+01
-1.330984103630458826e+00 -1.167229098870662618e+00 1.829419281231539429e+01
-3.200653301610214996e+00 -2.972644687508922967e+00 1.648477628616960544e+01
-8.155059039888859829e+00 -2.177635885873653976e+00 1.947365889191276267e+01
-8.337054058106271981e+00 -7.374129582285335882e-01 1.697433867562221366e+01
-1.589364150549110288e+00 3.333503318965681306e+00 1.695505117888288993e+01
-6.187568028732504999e+00 1.507383234633905000e-02 1.572052008571127857e+01
-1.686553678008198887e+00 -4.294156913289118860e-01 1.831398696790356695e+01
-3.348315391738908797e+00 5.268803608276177997e+00 1.658517066743458201e+01
-7.099720513434045088e+00 -3.033058637592435325e+00 1.888326921847620099e+01
-5.302592150976741081e+00 9.374314568295846195e-01 1.258968979469491245e+01
-7.938968776775308100e+00 6.703516397804543114e-02 1.597575757909063299e+01
-4.470160081109894712e+00 -3.745779602040879563e-01 1.508258101030292408e+01
-3.616325744312772095e+00 -4.852326491351147131e-01 1.409671244598481721e+01
-2.250117997514280876e+00 -4.233100128009610330e+00 1.719082800884254425e+01
-5.202852309803027708e+00 -5.432128492478833781e-01 1.594347628018876151e+01
-1.060041848558023192e+00 -3.068664230264676718e+00 1.633906584666600992e+01
-4.014142574714051115e+00 -3.190971591610870295e+00 1.725602867642319893e+01
-4.740925316719181382e+00 6.080722107413268240e+00 1.603651932104406086e+01
-1.481499463314970289e+00 -3.741237210982891970e+00 1.799499085780601604e+01
-6.801793726472720181e+00 4.270450153751225386e+00 1.458441574240052674e+01
-9.830506632370257236e-01 -2.458141965756857950e+00 1.796018896274934207e+01
-4.366999355746119527e+00 -1.937910606045309514e+00 1.674591064875106383e+01
-3.269033080542574687e+00 -3.613502148459944330e+00 1.696867461367678231e+01
-1.458601880964814468e+00 -2.652911358836020472e+00 1.514996419302071473e+01
-6.967467434172203156e+00 4.174326156744164962e+00 1.590979213676578752e+01
-2.214523720069260904e+00 4.977432174241765317e+00 1.509533620889729377e+01
-8.163594332929328345e+00 1.610268339489108858e+00 1.517176419552514943e+01
-4.578187435514097459e+00 5.610488658105519555e+00 1.485780609551427034e+01
-7.998733864722687770e+00 1.582728184065072874e+00 1.496470010857999711e+01
-3.303037901600522908e+00 -3.045363116954760141e+00 1.895882052382594907e+01
-7.367508653218560966e+00 5.813872376843995937e-01 1.495476553371526052e+01
-8.764862382367585525e+00 -6.066569865223757629e-01 1.737891159091274318e+01
-6.142707999514083639e+00 4.788366521917414076e+00 1.440008430929582772e+01
-2.398894380722413455e+00 7.889827690227170232e-01 1.826714092922251353e+01
-7.238309300868660756e+00 5.566392425785682274e-01 1.490291305074489259e+01
-5.331166806080428699e+00 6.242133035684509501e+00 1.526400835696098568e+01
-1.098314185265698795e+00 -3.254577233083137955e+00 1.670950803524904416e+01
-7.508288478739341798e+00 2.347795112901147618e+00 1.811213361780769304e+01
-4.136892565435555724e+00 6.623931814571361265e+00 1.559003773455899733e+01
-5.081298897334693976e+00 5.466388965099661768e+00 1.662275234294702386e+01
-7.120703506101314417e+00 3.960967034598120495e+00 1.494015377813262546e+01
-4.334344136859319185e+00 6.530405354950421959e+00 1.566895119256646041e+01
-6.827964604274967542e-01 -2.401048825912559082e+00 1.674787448168355297e+01
-2.818279262527670692e+00 -3.205498217502190439e+00 1.586142675347111464e+01
-7.376458806386349210e+00 2.170376180478414962e+00 1.391765267721437027e+01
-7.833743741346491873e+00 7.071644052529756364e-01 1.524891317193737450e+01
-2.479076533428305584e+00 5.331924934456632847e+00 1.515593712802623116e+01
-6.338468662817513533e+00 1.095516093564139481e+00 1.301259885812666184e+01
-8.738738328877323269e+00 6.133434742635501813e-03 1.717476416876412060e+01
-1.079268904066074342e+00 -2.668828392248431491e+00 1.803115271297141220e+01
-6.647240167978530678e+00 7.027196602218670485e-01 1.443126518704029948e+01
-5.283563402394471531e+00 1.993006255046021913e+00 1.192441861278275184e+01
-7.930017006576676408e+00 2.132720585113944134e-01 1.580912183059414389e+01
-2.290446644444604996e+00 -3.881981644923782948e+00 1.615389399646873869e+01
-7.792018528371333019e+00 1.390634208224211132e+00 1.871563236257851770e+01
-4.898801868290199479e+00 5.594374113143215865e+00 1.654710129928683671e+01
-3.181111784885720439e+00 -4.210918430626445996e+00 1.862491041002461145e+01
-7.283637292419475884e-01 3.309091537974050645e+00 1.643827670288815312e+01
-3.322943452685401589e+00 6.438437822187598414e+00 1.573152317288430879e+01
-4.095712516685780180e+00 4.860822723776967891e+00 1.441366673506943741e+01
-6.489937641429843751e+00 -2.645417003443077952e+00 1.827712544744500178e+01
-3.641638520223224873e+00 -3.203493340841488735e+00 1.704228864147533073e+01
-6.842031724795401004e+00 4.346545353432680336e+00 1.591731474602785568e+01
-3.654359722884521489e+00 1.012860722255791712e-01 1.311715316161989264e+01
-8.185520173720947312e+00 1.802261591381762340e+00 1.541356539036443962e+01
-3.116835857939218357e+00 -2.803134035953824821e+00 1.622126118807372563e+01
-5.591393822325292362e+00 -1.917615154500906360e+00 1.981944391083284529e+01
-7.861143615214237101e+00 1.576008142549768731e+00 1.842375928392270623e+01
-3.551116169598602212e+00 1.890192227938491398e-01 1.290255931629294395e+01
-6.190980152005749027e+00 -1.179701230458697125e+00 1.718150334015781766e+01
-6.307826422898726193e+00 3.711400016180661066e+00 1.789447264908310586e+01
-1.499911939946461548e+00 -4.391377422555520216e-02 1.336437748926613267e+01
-3.543320667901906695e+00 9.890434631673908905e-01 1.865020936247257310e+01
-6.659023666962433197e+00 3.005987532033926435e+00 1.328256614074311415e+01
-5.882508150965781724e+00 -6.135925879401358252e-01 1.647259074314712990e+01
-3.274303921549013285e+00 -3.029963631821236181e+00 1.660975119297440727e+01
-7.416366177628088252e+00 -2.431222684767503139e+00 1.981371874795794952e+01
-7.929131934071763865e+00 2.144180780358722949e+00 1.753484297940305225e+01
-1.712655194976427264e+00 5.382676593347270000e+00 1.589869268662238966e+01
-6.721781004556969918e+00 1.767544122913220495e+00 1.916055814465905627e+01
-8.845911707596933127e+00 -7.866860850035377606e-01 1.778985770115333054e+01
-4.588564042836095425e+00 -1.971983893871180893e+00 1.689059781878344069e+01
-4.778507172500622957e+00 -1.923907782111920817e+00 1.696132060981817347e+01
-9.915379703168361036e-01 4.728502549678663236e+00 1.583516897439225346e+01
-3.116958112621014187e+00 4.417283400358638090e+00 1.696997684992074085e+01
-2.380236517992416978e+00 -4.312661031284646285e+00 1.828244286766269511e+01
-4.469733236463314441e+00 5.012490341485740686e+00 1.448102724910263461e+01
-6.735054406042687347e+00 -2.225567125962814252e+00 1.815391056621957944e+01
-8.116339557243005487e+00 -1.822204593420055030e+00 1.851430193455737339e+01
-1.780868564518853114e+00 1.542807958585747041e+00 1.781585494885832333e+01
-4.618797865882524611e-01 2.330130711823197309e+00 1.658915352099870688e+01
-5.500049715654649063e+00 5.094947154603966410e+00 1.685769492294168259e+01
-6.741667975246754096e+00 3.355946257979958158e+00 1.792423744916461459e+01
-1.450090022399525669e+00 -8.750342690829916448e-01 1.399310281874148032e+01
-1.512229632361632881e+00 5.179575810351010112e+00 1.591523628021554515e+01
-2.862199518413208743e+00 5.168723992247552523e+00 1.487109561172241001e+01
-1.499721571029878575e+00 -1.653399005939270694e+00 1.839828766701507590e+01
-2.358907337915050917e+00 -4.227941030591285454e+00 1.835332664932021629e+01
-3.706668827029830027e+00 5.087379334571471290e+00 1.685442136571725769e+01
-2.737638211325948312e+00 -1.825506849264205922e+00 1.460767985291573368e+01
-6.208854374641011198e+00 5.122481376891439453e+00 1.569857898131958507e+01
-6.838537577090736619e+00 4.195999180217891977e-01 1.511089730428775368e+01
-7.022375040859262896e+00 2.792176874732644087e+00 1.821739250337316207e+01
-8.023526152659856692e-01 -2.236876320645171834e+00 1.769694601531804778e+01
-1.880809849440466808e+00 -3.459586541057403153e+00 1.555061904659627459e+01
-1.323588075868475045e+00 -6.397115682816332249e-01 1.400599529431770307e+01
-5.188946456993162037e+00 3.161512181721052528e+00 1.297433694442459640e+01
-6.898629785530042469e+00 -3.197686727206960011e+00 1.959055620329369418e+01
-3.119310042676266548e+00 -1.207369162808622942e+00 1.446053326807743744e+01
-6.336728406653772794e+00 1.144924206732235827e+00 1.285001503565830916e+01
-1.051622293167753019e+00 1.649229452721384659e-01 1.396202164335517537e+01
-8.759778740360475879e+00 -8.407715337649341869e-01 1.842488597177212029e+01
-6.093882482235884801e+00 5.215837239394629954e+00 1.509952815892977185e+01
-9.795938092653666551e-01 4.714955319126389099e+00 1.592388019878187322e+01
-6.542861826171781914e+00 3.215786944614059895e+00 1.819469974577970817e+01
-8.400624527327281044e+00 3.845054408702174298e-01 1.859625781592954041e+01
-2.110997501623811168e+00 -3.830928374804358771e+00 1.601336930417852500e+01
-8.303009749110222160e+00 1.790810800757945298e+00 1.638089742763110479e+01
-5.092388107707051859e+00 3.298062929532225684e+00 1.827359106455983095e+01
-1.746592820162475412e+00 1.687006972299158192e-01 1.300649703175907845e+01
-1.986922077175616419e+00 2.564430236628143511e+00 1.384541081646999316e+01
-2.277345712523660026e+00 -4.074910072856938292e+00 1.659222744899680180e+01
-6.926169957391787868e-01 3.504109397120519276e+00 1.629674120368756718e+01
-4.745982057921451780e-01 5.055902523157015382e-01 1.553683549229405969e+01
-8.437545602821106883e+00 -1.798539320041326217e+00 1.881639376277082931e+01
-1.127376778229216558e+00 -2.490797804331316367e+00 1.813250770440900084e+01
-3.208218640047990178e+00 8.913596991199149722e-01 1.196116206120770187e+01
-6.160434250537909051e+00 -3.569954633034147840e+00 1.902865538584558891e+01
-5.767931975302701630e+00 5.691028848911071414e+00 1.547395165229012548e+01
-7.178995043110933949e+00 2.205098990034827011e+00 1.353426344953216542e+01
-1.741208833119871624e+00 -1.821877357792818231e+00 1.849511605367106171e+01
-8.631040464792672395e+00 2.885017899298686350e-02 1.679029667123698033e+01
-3.814799055608090406e+00 -3.779710600954038657e+00 1.742554369773833400e+01
-7.728631119387500803e+00 2.798835712221073191e+00 1.494517282952620008e+01
-8.090151897701414185e-01 2.090025231058747046e+00 1.503081483735427071e+01
-1.782398974323029739e+00 -1.355087378551761201e+00 1.408298402889430179e+01
-4.100803509272547664e+00 4.061320749554958809e+00 1.757053782934212194e+01
-4.588871029925886802e+00 -4.829891714229480604e-01 1.538586541755403658e+01
-6.960038669794914590e-01 -8.558323734696088314e-02 1.457137075668588366e+01
-3.792917906774860626e+00 -3.572032519679081197e+00 1.731953267553204512e+01
-6.293097932109615655e+00 4.539529093418485317e+00 1.429754279435624298e+01
-5.938483332421009564e+00 9.163263801075461901e-01 1.952904479540103466e+01
-7.841241158078807061e+00 -2.230481879970354964e+00 1.970202086749717552e+01
-1.538342065014192794e+00 3.159743004042368408e+00 1.702309372551410860e+01
-3.104086587746532899e+00 -5.496508910983329832e-01 1.346813134539247514e+01
-7.842757360202227801e+00 -2.026161340244242215e+00 1.974688219045924598e+01
-5.416007712201669211e-01 -2.718959931306827449e-01 1.749185567434554400e+01
-1.201683214978998882e+00 3.284048796622611732e-01 1.797948460034280060e+01
-7.413354553327129892e+00 -2.263506563954107875e+00 1.985339271869540312e+01
-2.448139641029184244e+00 -4.151965568615703650e-01 1.855577181571393908e+01
-6.911054651594019660e+00 -3.252325577295190673e+00 1.908276568457930722e+01
-6.526215291755697478e+00 2.134614742154110067e-01 1.554743177760458650e+01
-1.879223247417765474e+00 -3.657293975523227214e+00 1.576692503070914597e+01
-2.240894540925861378e+00 3.098874166660898322e+00 1.393661434369233376e+01
