-5.990527099275467116e+00 -4.608872592111397992e+00 1.855348258825544860e+01
-5.559806833432543449e+00 -4.370828929039225486e+00 1.839270485713736747e+01
-5.377449184230919776e+00 -4.390389117511745098e+00 1.843661254125514404e+01
-5.297225442445633092e+00 2.507092741931917779e+00 1.270708009517614556e+01
-5.558807855496151085e+00 -4.573499785610751545e+00 1.859425260751819309e+01
-4.755595362976200668e+00 -4.338411055618966117e+00 1.845171153371418882e+01
-4.951180474734690584e+00 -4.476409705978841913e+00 1.856415567229465324e+01
-4.175054186994115568e+00 -4.399053344610003080e+00 1.858568115852057190e+01
-3.970920473137185880e+00 -4.278009188644277927e+00 1.852551540101647731e+01
-4.146537870360330835e+00 -4.511304991408373155e+00 1.870573510968945641e+01
-3.770709350111337343e+00 -4.262352696610600233e+00 1.855968884791627005e+01
-3.375133271581624683e+00 -4.311907832254078698e+00 1.868427331130506985e+01
-3.902666700890260465e-01 -3.438323797179461128e+00 1.846160862023168647e+01
-2.430537706878275195e-01 -2.361155061166038127e+00 1.968476486498600764e+01
-8.506396633124786888e+00 -2.566856719261056519e+00 1.803836797947921866e+01
-7.518969596121334309e-01 -3.204680673596734142e+00 2.018654219011062168e+01
-5.952209763335642556e+00 -4.579746849022992450e+00 2.001614018080778834e+01
-6.363539481423775790e+00 -4.508077590172002047e+00 1.996208014049240376e+01
-6.945160705368801146e+00 -4.274002243508812526e+00 1.986863367703953287e+01
-7.162038360728288033e+00 -4.306923801685172748e+00 1.977259144100884214e+01
-7.201636646326247337e+00 -3.898314220141761322e+00 1.985243320412979529e+01
-7.182207236290810037e+00 -4.129044600531100784e+00 1.780462480944068915e+01
-6.954406471171505011e+00 -4.199710326136584015e+00 1.792071965484554852e+01
-6.762794620677451185e+00 -4.371011675504997029e+00 1.811859808343359646e+01
-6.720169696902978274e+00 -4.496528116316351742e+00 1.825669248589704807e+01
-1.566535622886044310e+00 3.494836447762253773e+00 1.656194887284605244e+01
-6.587611700295745720e+00 -4.490130262013304119e+00 1.828469578246402705e+01
-3.331382655042832486e+00 -9.316037151390819115e-01 1.491951226830187238e+01
-5.814369272942897737e+00 -4.763186708389252288e+00 1.881265443248730662e+01
-4.923777506331062703e+00 -2.379622314065142241e+00 1.703949067889091396e+01
-2.797264883792660140e+00 -4.655242006414415101e+00 1.949169821991174700e+01
-2.763159670949933311e+00 4.272192671683453291e+00 1.749944684893522862e+01
-1.956317462003081431e+00 -4.409510430897334743e+00 1.973905815433370492e+01
-6.778484142089670428e+00 9.003091420070715722e-01 1.276232478245211865e+01
-6.850468450603826476e+00 3.271012695414965865e+00 1.716777728488303012e+01
-6.247258091776386468e-01 1.269842139386508251e+00 1.563925676939803822e+01
-5.831679768427566302e+00 3.586303696239502070e+00 1.424533004615302900e+01
-8.501236380329313391e-01 1.301289331117127190e+00 1.499867773363633461e+01
-7.990621067416934231e-01 1.330768686930968725e+00 1.517478172190637764e+01
-1.609076470077028587e+00 3.620951942604578644e+00 1.678009753717156372e+01
-1.141695592363397349e+00 1.109987861837096634e+00 1.404202683929726447e+01
-5.451539293008186071e+00 1.364364225382084683e+00 1.150613906952561649e+01
-7.515008309761304517e+00 8.497464474732198125e-01 1.402135589454868381e+01
-2.235677893371813774e+00 3.658196012238797756e+00 1.557941340037014299e+01
-6.968889891689183713e+00 9.061617001336500499e-01 1.320577260291398858e+01
-3.527047513775534604e+00 3.139909800539748552e+00 1.362953991265362674e+01
-4.455991086008374680e+00 3.781567538827511843e+00 1.782181144691833197e+01
-6.764133637339411642e+00 1.102215662275077168e+00 1.282845643486577814e+01
-1.404530574385723263e+00 2.338648035103174649e+00 1.507889781555657294e+01
-6.805240301361725308e+00 1.079347609872545632e+00 1.289090464151911419e+01
-6.873522784492442028e+00 1.115501571856092555e+00 1.303529877967738315e+01
-6.630557954730702086e+00 1.287722776380760825e+00 1.267614373769137615e+01
-6.712573169823315311e+00 1.304923036241278478e+00 1.283957373213838338e+01
-1.559124776083528952e+00 1.013091906222055361e+00 1.329644416056119383e+01
-6.012318388935321778e+00 1.484963712453343465e+00 1.211446572417209211e+01
-1.764534468844241477e+00 3.704957304424953080e+00 1.636386144835434919e+01
-6.104619163246438163e+00 -3.444217840608055692e+00 1.752205486147972380e+01
-6.521648874849381272e+00 1.394131445977085937e+00 1.259687467786775272e+01
-6.782038529125819615e+00 3.368305145914098020e+00 1.479399423478497511e+01
-6.690200041735769432e+00 3.640801091979239956e+00 1.494193890738691977e+01
-6.629264855365161857e+00 3.579470964184348070e+00 1.479099123037892838e+01
-1.840994653507892043e+00 3.819179187594533342e+00 1.639497024092602828e+01
-1.792685590311953625e+00 3.320680640166420616e+00 1.571658186067184459e+01
-6.059106169334945946e+00 4.580661974293319005e+00 1.544405993922195108e+01
-6.654634964085452076e+00 2.644266105813083634e+00 1.392838776908909182e+01
-6.261597569530552576e+00 4.235258257019044237e+00 1.515105166292647709e+01
-3.669674929904509497e+00 2.132855916301803045e+00 1.224570849329828803e+01
-6.016733607105260617e+00 4.426996677683050940e+00 1.520889023317281641e+01
-1.930504828795342132e+00 4.128600031951810578e+00 1.701047263991283387e+01
-3.298440284260069522e+00 4.746564638843350892e+00 1.718780910593160627e+01
-5.831869768585727698e+00 4.449285830309312573e+00 1.516235404667794739e+01
-3.243526938749406785e+00 4.364397145623367891e+00 1.746285736881612394e+01
-5.695872191304379051e+00 1.948855573605875691e+00 1.226054250528027012e+01
-5.606749488221963063e+00 1.704470115036804678e+00 1.194213486335207364e+01
-5.039889196651671455e+00 4.930617739932692700e+00 1.564482237755196081e+01
-5.323033717612124960e+00 4.658916381895039649e+00 1.532980533652132493e+01
-5.020451939436093802e+00 4.747519728745663414e+00 1.543166906517719639e+01
-5.492874873015660242e+00 1.926340198818731420e+00 1.209481967326648544e+01
-2.665201251239934788e+00 2.448301959016742746e+00 1.863714920468795100e+01
-4.813559980593171694e+00 4.667881540239694260e+00 1.531833606094011202e+01
-5.086710427518424282e+00 1.312604490843580773e+00 1.132882820773967580e+01
-4.657116648842492879e+00 1.330171744421158930e+00 1.127072512476781441e+01
-4.489322556583075219e+00 1.309040859368244547e+00 1.126383808145890697e+01
-2.273395498172573248e+00 2.720249573915581642e+00 1.433875990463747740e+01
-4.641575266027575530e+00 4.596436758848492232e+00 1.519409509432410488e+01
-4.454510098814768781e+00 4.610144713573241404e+00 1.518493105228434814e+01
-2.290185990415665174e+00 1.074272045886912608e+00 1.238437476535032289e+01
-2.053800919684717563e+00 1.094107619938281095e+00 1.262207866920368105e+01
-2.061684369028361274e+00 4.029310137612580611e+00 1.642633273633116175e+01
-1.464882020200248824e+00 1.960371207447880959e+00 1.446059966111481287e+01
-3.048824330422567730e+00 4.614637482289849046e+00 1.608261273421793902e+01
-3.035157385269219077e+00 4.475790523373275320e+00 1.583797444066652105e+01
-2.799649422992191550e+00 4.146438036625578860e+00 1.560168846271329102e+01
-2.821622825066540052e+00 1.513529732835468433e+00 1.222334276506811079e+01
-2.922636358000821666e+00 1.652778021842546519e+00 1.229152746809068475e+01
-3.109805953434496839e+00 4.427052061116263815e+00 1.568067885947855444e+01
-2.696898706145892888e+00 3.138767485984849337e+00 1.441574930938261190e+01
-3.429044987598943717e+00 4.644939831761025317e+00 1.568213892145613642e+01
-3.314807810988228187e+00 4.449308270996738202e+00 1.548220227877587973e+01
-3.036437873577627400e+00 1.702981739994851029e+00 1.223932539227174487e+01
-3.475733648904683726e+00 1.494502064963644461e+00 1.167553088942284489e+01
-3.267984021756725976e+00 4.262895790496726178e+00 1.526379547601426623e+01
-3.872837066842885534e+00 4.950391881823644757e-01 1.937943143411032310e+01
-3.375626076457610925e+00 4.400607515639355150e+00 1.535695553764747956e+01
-3.215393076925073146e+00 3.813332085797578319e+00 1.473025848541807648e+01
-3.298525725650648166e+00 2.015435042972006041e+00 1.233149439747680987e+01
-4.048400902478942243e+00 4.286231537064088215e+00 1.484822335040434638e+01
-3.901358095443991481e+00 1.977071218117588902e+00 1.200454826018937382e+01
-4.046752496260333842e+00 5.031312460491259131e+00 1.589098656486326178e+01
-3.588598059238149229e+00 5.079634638818145476e+00 1.692402365661165931e+01
-5.510813895075364677e+00 5.179447295174893995e+00 1.597683211425491123e+01
-6.536789480000656738e+00 4.492919213416302071e+00 1.585282142245655734e+01
-3.872591395547031468e+00 -2.349701427380779251e-02 1.196269496274621957e+01
-3.131848341130618163e+00 4.925694037060417863e+00 1.685774555650417028e+01
-2.292721927794392656e+00 1.629849317213546867e+00 1.287954897574610413e+01
-2.953885245037354945e+00 4.671421682782977314e+00 1.706112806970544682e+01
-2.928080968590432320e+00 4.710632496744075581e+00 1.676554047544553327e+01
-1.943001697112715309e+00 -4.449304071015374618e+00 1.961808305943560526e+01
-3.617922087990463442e+00 4.843123923960193977e+00 1.713396687259644580e+01
-3.859004205747869953e+00 4.558583416262004917e+00 1.735235051964794195e+01
-4.228670664154502212e+00 5.176001354414902167e+00 1.679332951435872445e+01
-4.452179914858162668e+00 4.966557340836621925e+00 1.696644507791494760e+01
-5.775614865825630773e+00 -6.363544880722626917e-01 1.329323340509047569e+01
-4.648670035858660121e+00 5.154865146850257318e+00 1.676655090119641045e+01
-4.834294837169965220e+00 4.827119047818208664e+00 1.698529294260396227e+01
-4.976341732598299039e+00 4.993538031150615453e+00 1.680364728878513603e+01
-4.780134741378506469e+00 5.001428518531555234e+00 1.685638665499035227e+01
-5.338523605422440532e+00 1.021092739520090165e+00 1.113444055616614037e+01
-2.560592422844901073e+00 6.797532809776500873e-01 1.188841729159041449e+01
-2.591723795146469556e+00 5.488053405702415510e-01 1.188868547096285511e+01
-6.052389907465797414e+00 4.302215100657987179e+00 1.507846971906857902e+01
-1.943059505032693757e+00 8.206946679699638203e-01 1.262602792164100407e+01
-2.442635193795398063e+00 4.386938946334939082e+00 1.716735175023161730e+01
-1.930463225420479656e+00 4.113813900716413841e+00 1.690227152131948429e+01
-5.943098465040749900e+00 -3.420365515291763803e+00 1.754418832044262899e+01
-2.816191232001857614e+00 4.665604006833037332e+00 1.664175991137903310e+01
-7.997380791070711759e-01 1.513935939392717200e+00 1.541698906615893350e+01
-2.595677988844014461e+00 4.483015794078179184e+00 1.707353833943689381e+01
-2.566433215318214778e+00 -4.361231268257022009e+00 1.885689316548213412e+01
-2.906304615254153401e+00 4.738685912292929459e+00 1.670667457665494027e+01
-4.535884254316653319e+00 -2.936826841282460965e+00 2.019997444673955300e+01
-3.752783138104565985e+00 -1.333369099641356748e+00 2.004722161992170015e+01
-2.841980317853901372e+00 4.470787925287085685e+00 1.726733033140140350e+01
-3.063642419153337570e+00 4.560578368703243513e+00 1.723102507368995617e+01
-2.077309374375615914e+00 3.635189213904665539e+00 1.578881218665361530e+01
-6.446382248571036477e-01 1.457226669729990043e+00 1.584361791949024223e+01
-3.426055250265289231e+00 4.516626580474969010e+00 1.738772925360125754e+01
-3.225207667609083284e+00 4.611620658052448363e+00 1.725793678389018027e+01
-3.436739360577677260e+00 4.321357380685942218e+00 1.755136413407657869e+01
-3.585046226054751983e+00 4.346126803385494952e+00 1.752900630117052572e+01
-3.775828327300253306e+00 4.098093367724347402e+00 1.771565159712913839e+01
-4.017761743518161843e+00 4.206594081694428944e+00 1.760107668862514174e+01
-3.440502523323219375e+00 4.098064071139451592e+00 1.486522131191547658e+01
-4.179410162978216547e+00 4.621587013613202899e+00 1.728068576643733678e+01
-4.708295217371998298e+00 4.691959697037709986e+00 1.712908241680150212e+01
-5.956750378656106015e+00 3.336572239567395570e+00 1.400353324191735993e+01
-4.602238881396876202e+00 4.618813462476051512e+00 1.720451672577999602e+01
-4.425202020188972796e+00 4.282606713132842913e+00 1.748869003207293105e+01
-5.024220666375535771e+00 4.881565209708827346e+00 1.688080128330900465e+01
-5.457008993678965858e+00 -3.903073170664246305e-01 1.948249899603809610e+01
-5.369911720946327627e+00 4.632185025479058638e+00 1.696953910938440657e+01
-6.150323767859645407e+00 4.419334342469665167e+00 1.675015091683109603e+01
-3.122905968159632284e+00 -3.365547091164091675e-01 1.975124934994605042e+01
-3.754794168345077843e+00 4.115794136579871143e-01 1.126760834979756254e+01
-6.072982655721537171e+00 4.538069268510337650e+00 1.669339873044917510e+01
-6.746676759779535182e+00 -3.791414274459899314e+00 1.761986761731029105e+01
-6.790356805174750043e+00 4.248035184584219692e+00 1.636161881484819247e+01
-6.471206772206432589e+00 4.288383311192506042e+00 1.662293638063174228e+01
-7.110444324399844973e+00 3.797734431770636743e+00 1.579294421085466382e+01
-7.335410379989130369e+00 3.417057960142371176e+00 1.590501311653898853e+01
-5.584350798486595657e+00 7.133720458643246776e-01 1.133151045973934856e+01
-4.715160494621719600e+00 -1.762291192036045562e+00 2.006307858936927602e+01
-5.444670497467433812e+00 6.448539745517049004e-01 1.124696191745005791e+01
-4.978256167980396718e+00 6.579480443072370788e-01 1.109204480210789967e+01
-4.277100826983353699e+00 -7.291178874828438961e-01 1.979318061703275333e+01
-4.509189071658052050e+00 7.231053408199619170e-01 1.094015799046923121e+01
-4.335120529059109273e+00 6.950644329067949823e-01 1.092636452546781811e+01
-4.760122933018130276e+00 5.257532698643206936e-01 1.110184325006493822e+01
-2.222024398344317309e+00 2.435712837962706878e+00 1.402875988226205095e+01
-4.462117489553253158e+00 5.660210155585940761e-01 1.103127846093460107e+01
-5.191752094938189899e+00 1.891826419577316010e+00 1.860891404231553992e+01
-4.101866061517558393e+00 6.908277951440638942e-01 1.093403201500101574e+01
-3.871950418234225033e+00 1.106902880623458651e+00 1.111174033302449971e+01
-8.193959983549123915e-01 1.684260995129922334e+00 1.564021667399284610e+01
-6.030215089141281126e+00 -4.982168594274385853e+00 1.919661615365993157e+01
-3.122855263680156312e+00 8.908956088451558397e-01 1.147304337299005539e+01
-2.471373825391957268e+00 3.999463007179316909e-01 1.212673235101448910e+01
-2.682242320409045089e+00 2.762141853756146403e+00 1.394599607805784558e+01
-2.555527583299619820e+00 3.751246176136908694e-01 1.207467459662024112e+01
-2.119271432576255165e+00 4.462971588801442069e-01 1.261526377262850218e+01
-2.148904989170103086e+00 5.043703744456181637e-01 1.248801676400907468e+01
-4.204569976571635337e+00 4.970858921856402546e-01 1.110751385567294136e+01
-1.768611381170478225e+00 6.414069815454677137e-01 1.289518414550963143e+01
-7.198931772674506568e+00 2.414619518874300041e+00 1.456276220770789820e+01
-1.685093578726071240e+00 3.783865940971411046e+00 1.697331509257544013e+01
-3.712654769281367173e+00 -5.686653437324755700e-01 1.979610630751344047e+01
-2.098903020047262036e+00 4.110722262377542791e+00 1.734452720096147260e+01
-3.225380094688620858e+00 3.962646802538298818e+00 1.779259986004240801e+01
-7.367511883239298065e+00 -2.421384824854820650e+00 1.630575561009388963e+01
-3.043439025501247119e+00 4.079759056727276345e+00 1.771018756500684077e+01
-2.792524349504452275e+00 2.464954933559192707e+00 1.344474223028591098e+01
-4.726394988690206134e+00 1.710763999722724638e+00 1.170414043316205266e+01
-1.650934765734783038e+00 1.378327042834537997e+00 1.345692442324251914e+01
-3.451513624247442902e+00 3.704446028125728319e+00 1.794515428784442435e+01
-5.571906438919186577e+00 -1.818955021850654497e-01 1.231842289021327730e+01
-3.840688269948330458e+00 3.848562524035439303e+00 1.786054718161429378e+01
-4.772549361036207749e+00 4.837344876942771599e+00 1.553213154256237516e+01
-3.644914527192782749e+00 3.595955632232612942e+00 1.800422985565083422e+01
-3.026149318708724500e+00 3.836429774791380698e+00 1.788420724085263203e+01
-3.434705279423624802e+00 4.096529580940062587e+00 1.771900419904858381e+01
-3.657951464190190016e+00 3.877175221554384432e+00 1.785955473525384463e+01
-4.213923098077138718e+00 3.973926570666397318e+00 1.774191119318824406e+01
-4.409418613660336383e+00 4.034413191899963280e+00 1.766744621642985180e+01
-4.625254792879551324e+00 4.138189935655104179e+00 1.755234695019798608e+01
-4.575272825029837342e+00 3.908335363970703469e+00 1.772050271048141212e+01
-4.914863530613790665e+00 4.114342250357592157e+00 1.750156532545481269e+01
-5.679303016596715104e+00 4.303781519679579226e+00 1.709627856081542774e+01
-2.305402494761375376e+00 3.460830423712838666e+00 1.525505292684179892e+01
-2.180034415827680316e+00 -4.482026036785590861e+00 1.963063283835183626e+01
-6.097152324353913855e+00 4.304706780677830302e+00 1.687821378994441801e+01
-5.348734905154194585e+00 4.387364564942545897e+00 1.716872705894712681e+01
-6.382359452509265729e+00 4.239982435377751102e+00 1.674498552894760195e+01
-6.607044287411993011e+00 4.010204344925414333e+00 1.677287185658452984e+01
-4.309143465754568858e+00 -3.188478742698619417e+00 1.764859016359598343e+01
-6.646243717071401491e+00 4.120649814310406889e+00 1.662859895509752306e+01
-7.486265671415773149e+00 2.775402868519585731e+00 1.553396484920396858e+01
-6.771713764638097821e+00 3.842853657475830520e+00 1.678061978974960056e+01
-6.083380062041025660e+00 8.683530894067312822e-01 1.190417774775090010e+01
-5.800356576515919294e+00 9.701923246989877514e-01 1.162927754457102481e+01
-2.974702965596484727e+00 -3.004203893512820134e+00 1.768276139507886313e+01
-6.047038352871085820e+00 1.113202325105345558e+00 1.189629981431121308e+01
-5.946904533443912122e+00 9.582440440359158984e-01 1.177901620969590368e+01
-5.778596953791184099e+00 5.028944755446947967e-01 1.170537306912240894e+01
-4.068061381966713519e+00 4.969187742039585132e+00 1.577537665523180976e+01
-3.898921421046492419e+00 -1.696373195239179843e+00 1.651086698938000552e+01
-5.834756659171335791e+00 3.841539415956080061e-01 1.184371278940152905e+01
-4.710119244575128761e+00 2.910940199502383141e-01 1.134805138664120250e+01
-3.382088276235331481e+00 2.136685037998842240e+00 1.239474845092044575e+01
-4.919243782526802278e+00 2.144934991971800819e-01 1.146986854031616332e+01
-3.584000608091539419e+00 6.327202466996673103e-01 1.110039100136348367e+01
-5.517153215317541104e+00 1.611653165474718374e+00 1.178671525915689244e+01
-3.250949561129831356e+00 2.512193929106883994e-01 1.172629291715836075e+01
-3.516307208388688821e+00 2.530128888322507041e-01 1.158872526106434009e+01
-3.492249231238074181e+00 -5.386128965357372955e-02 1.220395883369128853e+01
-5.930365705151966482e-01 1.274380425339204592e+00 1.575442773732816448e+01
-3.539364325939330147e+00 3.680602569927682310e-02 1.199840660414657378e+01
-2.976640838602807371e+00 1.534446208522675104e-01 1.207330452549346234e+01
-2.368148945433882435e+00 3.182045384457570236e-01 1.242080562576893499e+01
-2.436364677863940287e+00 2.027946565217508823e-01 1.253037104147352920e+01
-2.166518968357215247e+00 8.016025108355528950e-02 1.300878958938418606e+01
-1.149495789628486975e+00 3.109476932685840023e+00 1.706360687969615952e+01
-2.221247185811651370e+00 3.961592160101579996e+00 1.761016296394549130e+01
-2.288992652971640229e+00 3.894272274333005157e+00 1.773256360202525883e+01
-2.619736054470503284e+00 3.818584539884178675e+00 1.786360226969739529e+01
-3.556430637053332511e+00 -4.020847269051280648e+00 1.840567638783475246e+01
-2.816989507484129351e+00 3.845936370094592771e+00 1.786830860335466298e+01
-5.124595125115141592e+00 -7.687182559882421717e-01 1.354190183275515125e+01
-2.916919059133182390e+00 3.483795479213839474e+00 1.808900063679065795e+01
-9.530253579388310303e-01 2.000002299939294570e+00 1.572906585219268294e+01
-3.457084654120206046e+00 3.092713831896283239e+00 1.828544336296053530e+01
-3.600425099169209719e+00 3.117464451733952036e+00 1.826238603849751030e+01
-4.257751188895798400e+00 3.439209849291522847e+00 1.803296209403997352e+01
-4.627955194884854073e+00 3.659975954109637275e+00 1.785716606531014605e+01
-4.701302780757844246e+00 3.558067583604823447e+00 1.789243100261283814e+01
-4.830415403097815030e+00 3.789115291313633893e+00 1.774073021298289632e+01
-5.537966449395914204e+00 -4.646581903882664122e+00 2.003885821975949000e+01
-5.046679669609067886e+00 3.822514964742595556e+00 1.766072665915783801e+01
-8.209563044474228022e+00 2.804683846953953674e-01 1.576183150697428914e+01
-4.811324159567330838e+00 3.405205027847605592e+00 1.794532840856685851e+01
-5.295979940844968148e+00 3.953298394966769713e+00 1.750492910267148261e+01
-5.657338636376488594e+00 3.889740539736265657e+00 1.742182764593871269e+01
-5.888345491278766275e+00 3.937961380273102829e+00 1.729052565639408812e+01
-5.801959562179768604e+00 4.638566161885121275e+00 1.535326973611142876e+01
-6.081745583877640193e+00 4.091595616896407606e+00 1.707891173329510792e+01
-6.530742082454580988e+00 3.748557376999277047e+00 1.706936341841200999e+01
-7.094859532153880544e+00 3.580602469981590819e+00 1.665791093450283711e+01
-6.230789483894006331e+00 6.295161541237459524e-01 1.205947237435881902e+01
-6.378613499894259853e+00 4.856284153476548848e-01 1.237212781078033430e+01
-6.203870199123485030e+00 4.489388121545347943e-01 1.217902163487266165e+01
-6.279911953683376957e+00 3.309431393325905635e-01 1.237153781731330326e+01
-5.999458195156106122e+00 2.484245043645977313e-01 1.212272432596404315e+01
-6.897428665615116472e+00 -3.010464892811724358e+00 1.694591237758320545e+01
-5.126112889110046034e+00 -7.189432444873866679e-02 1.193304001255281577e+01
-5.261659823948658499e+00 2.976110015821187282e-02 1.182917271243191237e+01
-4.948025221660680373e+00 4.936553220792561092e-02 1.169618179277864556e+01
-4.731192996701543585e+00 -1.604787210191171987e-02 1.176815306007613060e+01
-4.183039450121157188e+00 -1.839554905455043077e-02 1.185186689798482007e+01
-4.287384209882669772e+00 -2.189193462996450457e-01 1.220498094956593604e+01
-3.677335675331875997e+00 -1.694581429076866819e-01 1.236019516441964328e+01
-3.581106471829292648e+00 -2.367078431170255293e-01 1.255029445724230897e+01
-3.832581470976854199e+00 4.713374527220417498e+00 1.545821099329968717e+01
-7.029878011431557105e+00 -4.300660310013528331e+00 1.798905432288537298e+01
-3.139312027205253930e+00 -6.057448032226186996e-04 1.227806948385393326e+01
-1.913390428019501321e+00 -1.922403820497203597e+00 1.674687195718276911e+01
-2.786588983273639020e+00 -6.204127238415835244e-02 1.262735349956158615e+01
-2.847776653555635029e+00 -2.859127206544465061e-02 1.252234416012386475e+01
-2.617533931512810330e+00 -5.465964104126652678e-02 1.274462560089673957e+01
-2.855232466664695767e+00 2.071103150997413600e+00 1.286988066540230591e+01
-1.763646454666003560e+00 2.264254946873367480e-02 1.360520279751977313e+01
-1.534031828448299883e+00 4.438120401393916836e-01 1.326953786095516818e+01
-3.071027643693271081e+00 7.202609678039817442e-02 1.959791777851764039e+01
-1.619534023844326764e+00 3.022497187708527155e-01 1.332971066638842217e+01
-1.133620190248081361e+00 3.079026700417105022e+00 1.734678650999654081e+01
-2.649382187554522705e+00 3.335926667759521180e+00 1.814054619858104189e+01
-3.030159421999764291e+00 3.100035691768395552e+00 1.828592453111777161e+01
-2.375862001156765047e+00 1.747917523431913089e+00 1.295574203193629614e+01
-3.842553424363040371e+00 3.182296352428576558e+00 1.356814756977367864e+01
-3.462413843225155219e+00 2.721194943202256411e+00 1.848232962094373732e+01
-5.957074142382577264e+00 3.521005015945931405e+00 1.421059715867613704e+01
-3.283290582226732646e+00 2.548539898994350850e+00 1.858655716610444131e+01
-7.431508745199651322e+00 2.007811367325519569e+00 1.469708896583067315e+01
-3.663890248670581329e+00 2.533385360793595886e+00 1.856296086800082890e+01
-4.267881241343248533e+00 2.992367996378372474e+00 1.322447588952110920e+01
-3.365669395960663834e+00 2.444578895901561744e+00 1.863359836830470329e+01
-4.025123011722171462e+00 3.052044268651847858e+00 1.825235220306272055e+01
-4.212216692016536257e+00 2.891366762752021202e+00 1.830462237419429528e+01
-1.822475256679227051e+00 2.396280511106043676e+00 1.445540310415462670e+01
-4.466832402628766907e+00 3.189919401627660189e+00 1.811919376727445297e+01
-4.681655074954139018e+00 3.131427559907927982e+00 1.810692498172044651e+01
-2.089612776100608471e+00 -1.724567750585150439e+00 1.654793356550974437e+01
-4.442886715725957281e+00 3.062739483258934303e+00 1.818631567199417276e+01
-4.061162395309241724e+00 2.758986875058670130e+00 1.839151080265097704e+01
-4.902466519336888595e+00 3.094528943326370296e+00 1.807739488061864819e+01
-4.832758734144666946e+00 2.966568076295072132e+00 1.815154947443409128e+01
-5.270947077065089914e+00 3.421552251031477532e+00 1.782504717793761273e+01
-5.612545483003989588e+00 3.121230414373100448e+00 1.787242897200041369e+01
-7.431492892866217836e+00 8.041441294050299948e-01 1.389252422375425766e+01
-3.512933590967063591e+00 -4.027843002225848235e-01 1.294685285070426772e+01
-5.815419684247808085e+00 3.605765597579028370e+00 1.754676690759615099e+01
-5.635370862541085657e+00 3.376399571240061181e+00 1.773659931164469583e+01
-6.043365666621479448e+00 3.610614855160753311e+00 1.743799984053408991e+01
-4.297054732974772584e+00 1.294122247090649935e-01 1.946943891270913696e+01
-6.367101286456136933e+00 3.569590283989597435e+00 1.729600853959361473e+01
-6.663470561328358244e+00 3.250133157540060935e+00 1.732535488495852860e+01
-6.924194486788014302e+00 3.366584905507638226e+00 1.703432324884200710e+01
-7.578754466474204143e+00 2.687290714067578801e+00 1.651460199213840241e+01
-6.585656887577643559e+00 6.260343697096024673e-01 1.255710419021409052e+01
-5.818387096776349132e+00 4.889973533782605131e+00 1.572083991081148469e+01
-6.550303160165277028e+00 5.216012817027307902e-01 1.257835481702415592e+01
-7.415915739349409286e+00 2.765139222428139476e+00 1.534994293223239481e+01
-4.795243191590053300e+00 -4.547659117992736810e+00 1.865357336163597068e+01
-6.696641587493993519e+00 5.190972953244979982e-01 1.281234348841378079e+01
-6.468683371982400843e+00 3.483157913246633930e-01 1.261387915581133257e+01
-1.140122323508586666e+00 -1.990848477122353355e+00 1.692251254771202440e+01
-6.648357303219230907e+00 4.018986924292871077e-01 1.283629042886400384e+01
-5.753568281312612775e+00 -4.589547213345198884e+00 1.859007139197878189e+01
-6.589127758169394333e+00 4.400893007687505243e-01 1.271176316529247430e+01
-4.469432865212642270e+00 3.635183257169552373e+00 1.397786134070416608e+01
-5.184510753656080162e+00 -1.626456099882709339e-01 1.210445978284786150e+01
-1.538900868907843833e+00 1.800760265224232270e+00 1.879205871740042255e+01
-5.270996941596742147e+00 -2.104811774483164033e-01 1.221679439118863542e+01
-4.132932153733091418e+00 -5.050527343549502390e-01 1.294035177111647528e+01
-4.189254885981279486e+00 -4.634185759935693927e-01 1.279797812854619110e+01
-3.783107923176889820e+00 -4.657353392476411003e-01 1.298143149935913954e+01
-3.153593176630112627e+00 -2.757373951538024670e-01 1.284241958007336137e+01
-4.058635469222210190e+00 3.575606391660197225e+00 1.399643966476128298e+01
-5.369700383794613785e+00 -4.346876259131930098e+00 2.012413057293884577e+01
-2.954092959826107645e+00 -3.046057563899744469e-01 1.304229982243005281e+01
-2.708739293581209129e+00 -2.572681969482693010e-01 1.311736610866937980e+01
-2.531107262898947052e+00 -3.947346074313564657e-01 1.372578362964366505e+01
-6.842297717987550598e+00 3.013259469473738683e+00 1.454126320581573850e+01
-1.864613643022974276e+00 -9.427777219586785939e-02 1.370412554379133496e+01
-7.218126380389158214e+00 1.453556957320346843e+00 1.388576454768264057e+01
-2.153483680222049834e+00 -3.475863684646005591e-01 1.398916992225129974e+01
-7.376583944595465070e+00 3.077019077488476917e+00 1.560795372087044086e+01
-1.560352196209729980e+00 2.820368345960333478e-02 1.385985576699611244e+01
-1.614588626544117611e+00 8.650959098758015386e-02 1.368850501840185530e+01
-1.441252587122219930e+00 2.935495876419476069e-01 1.359552496596960935e+01
-1.173463137648794730e+00 4.542295203584894026e-01 1.387844958380185290e+01
-1.818563372033229264e+00 3.444692868059120450e+00 1.785261193766355348e+01
-2.863019910620344888e+00 3.889306174719026732e+00 1.520467536817690757e+01
-2.192399349566051647e+00 3.026868676312334472e+00 1.822258688555794492e+01
-3.078140463841676944e+00 2.465823749031055279e+00 1.863177408029888937e+01
-2.239026025174799095e+00 2.465949082755810373e+00 1.856231637548825830e+01
-3.460558371980093195e+00 2.182352545253740672e+00 1.878696946308878069e+01
-3.653546845314727065e+00 2.161485038540693182e+00 1.877409569031946290e+01
-3.912545687502216651e+00 2.439755139175932896e+00 1.858708089886390269e+01
-4.106589776718417184e+00 2.279212446550397786e+00 1.864765257686859456e+01
-6.083648601103945452e+00 3.297671320038329856e+00 1.762347415008373019e+01
-1.830766563200416641e+00 1.630276081786481202e+00 1.343205138011150268e+01
-5.875554363719493800e+00 3.335954842560978850e+00 1.768088580146950761e+01
-2.108643554470944981e+00 -3.202948603352794077e+00 2.028596389559556457e+01
-6.454541314703786448e+00 3.055182245528780260e+00 1.755943326948079886e+01
-6.357032239013351571e+00 2.977621502891297567e+00 1.766016658077884927e+01
-6.326309400620891310e+00 3.127246430566952728e+00 1.758997768636295689e+01
-6.522793987976711172e+00 2.918723418061341945e+00 1.760107662327969535e+01
-7.576507385987135912e+00 2.455993641249901049e+00 1.687442505186407971e+01
-7.756130104418891946e+00 2.182555037875441251e+00 1.649544259898769383e+01
-2.241431710895662732e+00 -2.518576140918976858e+00 1.734378223294930166e+01
-3.328683698657366019e+00 -7.773201042486146406e-01 1.435868207851279976e+01
-7.023688112929083793e+00 6.618162548870074602e-01 1.329032822650609802e+01
-4.975840255270350454e+00 -3.912800012301417940e+00 2.019679269098616459e+01
-6.646138639092042943e+00 1.158417992935864005e-01 1.302543796241679530e+01
-3.496151342843954346e+00 4.768284995099240087e-01 1.942502590978284616e+01
-6.645596348235888406e+00 -2.121318968129193294e-02 1.315072351805095252e+01
-4.940975877901285784e+00 -4.415596983748242277e-01 1.257789752006127770e+01
-4.299442928569181532e+00 -7.401230922292088010e-01 1.369318884775983491e+01
-4.156088147637077235e+00 -6.936048470734157423e-01 1.356259938592875613e+01
-3.721372709787845956e+00 -6.702707885179597369e-01 1.369071712490546844e+01
-2.936862069173306278e+00 4.605673904004994323e-01 1.946823532830917003e+01
-3.953746884121732030e+00 -7.205641261109267948e-01 1.377339745993194953e+01
-3.162549207518436045e+00 -4.971734829530758404e-01 1.343568179035690946e+01
-2.808620229731343176e+00 -5.211571017063492128e-01 1.383168581938498676e+01
-1.351996709316170220e+00 -2.188882668538369103e+00 1.710453094092250836e+01
-2.979603571555770714e+00 -5.100944412927264082e-01 1.360165319570147346e+01
-2.523757132653523083e+00 -5.179728925381255067e-01 1.411797131870063993e+01
-2.457124270888150441e+00 -5.427202079622701625e-01 1.426106790386262446e+01
-1.197194570005808867e+00 2.778944829164897712e-02 1.439974379032140206e+01
-4.495095925602759834e+00 9.044745906788185241e-01 1.916586960936459150e+01
-1.218651301296680867e+00 8.226743252835477804e-02 1.429065202221129027e+01
-9.275004730653024776e-01 2.518128117899674390e+00 1.762903333324889132e+01
-1.525053752745741065e+00 -1.765389670646798859e+00 2.017441538570656689e+01
-9.763375004633711995e-01 2.631937174310301497e+00 1.760140889934775998e+01
-1.176846235904368099e+00 2.605989917772449704e+00 1.795478999195854186e+01
-1.127809966799348196e+00 2.646589585301884817e+00 1.785843665976233297e+01
-2.094862350099868653e+00 2.329001833647377229e+00 1.860868373905598361e+01
-4.771022097407281670e+00 2.357117213553706847e+00 1.242555125359979940e+01
-1.783721363698869133e+00 2.537176157831991574e+00 1.840194685018165188e+01
-1.888971807032602701e+00 2.235115385086757556e+00 1.862611034883570937e+01
-2.422421931368227366e+00 1.800592196664440259e+00 1.899621366534459810e+01
-3.502026351445333585e+00 1.806872193898333867e+00 1.897192380259298972e+01
-3.049979853383153028e+00 1.826267442279829734e+00 1.899984557522398632e+01
-3.722509969397638230e+00 1.498944514750377932e+00 1.905771176184241256e+01
-3.495494519651344945e+00 1.684391085178881919e+00 1.902100210532968561e+01
-3.625287858084213610e+00 1.623610780278464283e+00 1.902139739690533560e+01
-3.907490161206457202e+00 1.772571977290163803e+00 1.892244971298890732e+01
-5.027041358885806943e+00 3.771493113981548628e+00 1.422824930978766389e+01
-7.119086020414570726e+00 2.310120810315844153e+00 1.756347889483489411e+01
-3.832795744299039242e+00 1.619240466661194811e+00 1.899586952130611195e+01
-5.483810234470380074e+00 3.893330150718746996e+00 1.450297167205694393e+01
-6.788823212499966786e+00 3.565480595749543458e+00 1.501288711727409719e+01
-4.900794274484659319e+00 1.785043905649902785e+00 1.874413293491194565e+01
-4.253588719914757732e+00 2.369970247295072330e+00 1.243483268950416232e+01
-5.225595604464507105e+00 1.739075245722922602e+00 1.868247122416511274e+01
-5.196026685822196178e+00 1.513525687656325225e+00 1.880345618055612533e+01
-6.165555471604191595e+00 2.728914528911480453e+00 1.788407463857799939e+01
-1.057389021889541869e+00 2.084344893404385779e+00 1.546888020409112841e+01
-6.346884566351315371e+00 2.685777299933373552e+00 1.781622166370798510e+01
-6.660049258159817853e+00 2.819395172940683203e+00 1.757546718932491814e+01
-6.231055618932266782e+00 2.983772502150697115e+00 1.380215668998071266e+01
-7.116333716032763768e+00 2.518172824517013630e+00 1.742710531482433112e+01
-5.965048861425744420e+00 -3.940375563577116491e-01 1.292610570788953339e+01
-5.544826683537757539e+00 -3.923433731805621161e-01 1.265605588931023817e+01
-5.568713696906467447e+00 -6.007073646762539632e-01 1.310420370526539102e+01
-5.305005576682956914e+00 -6.692478716744385547e-01 1.316939859222009090e+01
-6.697797531224294332e+00 1.876208012777039080e+00 1.326478156826626531e+01
-6.330444500826726717e+00 -2.382391569627224204e+00 1.998705973215528786e+01
-5.494940292932254167e+00 -6.503976924732579601e-01 1.319485875457052515e+01
-6.388767120917015596e+00 3.709042442429122843e+00 1.466156697195598468e+01
-4.734061088210120616e+00 -8.276159586755824638e-01 1.393612471212290416e+01
-4.314748364947460502e+00 -7.952497930874589116e-01 1.392074214408425092e+01
-3.896977355091992834e+00 4.466863644686663193e+00 1.511739075921325082e+01
-3.845010680337824560e+00 3.640905488990960670e+00 1.413058575660375737e+01
-3.084902800479013774e+00 -7.175473589289949050e-01 1.432716390645492055e+01
-3.657952571108205042e+00 -6.970799930099247366e-01 1.383503909917845931e+01
-3.580691571822949282e+00 -7.266529621372102010e-01 1.399234370756867207e+01
-3.279417150405447678e+00 -7.132927554955470484e-01 1.413972331030291230e+01
-2.524243796500587500e+00 -7.602965681231952377e-01 1.486341289765907447e+01
-2.116963249916017809e+00 -5.826800754142156258e-01 1.461864177118981445e+01
-3.899739859551459631e+00 2.159129041186274467e+00 1.222375372932533821e+01
-1.024369793367076786e+00 5.022712768237859171e-01 1.416009859210347344e+01
-8.077725968798461498e-01 8.830535885343665514e-01 1.473518934779885114e+01
-7.480195205345712139e-01 2.282664822821114825e+00 1.748042131449974335e+01
-3.664716674821675291e+00 4.876526622979399095e-01 1.940366683268089076e+01
-1.405776993260146046e+00 2.580358517503905880e+00 1.817295141867066377e+01
-1.423694529331860803e+00 2.229395931790712382e+00 1.842849718971756090e+01
-1.699824902959791828e+00 1.868194055082120553e+00 1.882069889102113081e+01
-2.624786730657559630e+00 -2.320731626802783332e+00 1.712899159586697806e+01
-2.471970467693146212e+00 1.481546459694913720e+00 1.913537131231902322e+01
-2.291087930595464339e+00 1.384277170009855507e+00 1.915759582245043902e+01
-2.695043908346900885e+00 1.420683325819501297e+00 1.917717866948945726e+01
-3.674613214758010393e+00 1.107624350777540734e+00 1.920255416016093619e+01
-4.312975594975024585e+00 1.611364331641131020e+00 1.894688882797323970e+01
-4.475899782962893703e+00 1.574548990663243941e+00 1.893692665247102980e+01
-5.450010842169663583e+00 9.444643170701688684e-01 1.898905252811051980e+01
-5.493096299346251321e+00 1.166265926866268066e+00 1.889264416159278426e+01
-3.119536280637974279e+00 2.205952360117996669e+00 1.276296974162131193e+01
-5.666862204838913009e+00 1.587466947151406904e+00 1.866199997716116599e+01
-6.041248465667303336e+00 1.529921764989373267e+00 1.860177275069965930e+01
-5.095411937554060522e+00 -8.835000797461884936e-01 1.407888283858973466e+01
-6.624347530021738706e+00 1.520032451309239807e+00 1.839505862723448359e+01
-6.427087394974412504e+00 2.169971321692270916e+00 1.806450696554342983e+01
-2.430783016471820712e+00 9.159526338090272501e-01 1.213665937855681420e+01
-6.405410464972996820e+00 1.967248903459576592e+00 1.820178689853480591e+01
-7.751615774859887509e+00 1.745088484214574409e+00 1.714349820079044662e+01
-6.801099255877208982e+00 -2.115317558449616442e-01 1.352520246523808112e+01
-5.837842263698424183e+00 -6.667220470616173067e-01 1.339366773273334132e+01
-4.290057805779308175e+00 -9.787893421391462567e-01 1.477322834100792193e+01
-4.506831042102033891e+00 -1.028227394055929445e+00 1.491698698231586206e+01
-4.000552569160927163e+00 -9.399923312194642389e-01 1.466371475224622145e+01
-3.887219125623223803e+00 -1.042111142736323437e+00 1.509174700433004546e+01
-4.109275999864546947e+00 -9.999828715493896958e-01 1.488943931768432805e+01
-3.920917256015163943e+00 -9.666173817752823361e-01 1.478266441301411760e+01
-5.774895608116016099e+00 2.323599419287109669e+00 1.821962612399263293e+01
-7.569186760430621774e+00 -2.189711519651051486e+00 1.956550624591872634e+01
-3.769071270878615820e+00 -9.664779765294255753e-01 1.482058021930593839e+01
-2.579730968522738976e+00 -3.632468724236044277e+00 1.824518856277665435e+01
-1.893030584612933165e+00 -7.793319745539684096e-01 1.505643650971857994e+01
-1.415945494109938529e+00 -3.628224107934145959e-01 1.469368260845474339e+01
-8.483249573400890586e-01 -1.896382554825750688e-01 1.511927902567832405e+01
-7.556164216671059641e-01 3.825536482711819897e-01 1.488645747414446419e+01
-2.115478213021413811e+00 2.109266451539526077e+00 1.372623340705442274e+01
-5.478652714181149186e-01 1.855543610093179474e+00 1.740561293191793624e+01
-5.995464046625312848e-01 1.787645747580449473e+00 1.773962945860822060e+01
-1.464421424138029337e+00 1.633760886684076929e+00 1.885945883810405377e+01
-1.462182499551112125e+00 1.418875986666818800e+00 1.897374346089429764e+01
-3.093925620258250131e+00 4.249464089747598372e+00 1.544454692887650538e+01
-2.676280213033593203e+00 9.715240064793834174e-01 1.930940858186558273e+01
-2.892534780506586856e+00 9.799954749195802783e-01 1.930007549920298260e+01
-2.739748287587911779e+00 8.481539961388436799e-01 1.934640079690542080e+01
-5.032669232179069141e+00 3.877742562050708219e+00 1.436193784370398419e+01
-3.284748996421309020e+00 9.045446114763984191e-01 1.930545434902950319e+01
-3.252436170750302669e+00 8.126191193742819951e-01 1.933644971886870678e+01
-7.016311658604606372e+00 3.201169835660599094e+00 1.497505804146960884e+01
-2.714528118402486090e+00 6.528411707359258465e-01 1.941011840762939755e+01
-3.538018532441747688e+00 -5.231933790228435743e-01 1.979329648020548404e+01
-3.501180250944428085e+00 7.709654685173433775e-01 1.932380572905524474e+01
-3.674273888901750773e+00 6.722131080324197372e-01 1.933330747742267874e+01
-4.686559228521494092e+00 1.132109223976661472e+00 1.905470295119741309e+01
-4.496481354153971211e+00 7.065357383799144575e-01 1.923456226304017491e+01
-4.321214930135384158e+00 5.939510778754506504e-01 1.929326897935725071e+01
-9.508892101838235522e-01 -6.815642320738299897e-01 1.541336462687684161e+01
-5.068759492540299227e+00 6.924498261219511619e-01 1.914221262573983751e+01
-5.069224592558859044e+00 9.264223709870654799e-01 1.906086304603204695e+01
-4.863017304556793263e+00 7.186022858136504876e-01 1.916772848445619104e+01
-4.265830805093925981e+00 2.626000688172895003e+00 1.275651900350503354e+01
-3.343106648609626586e+00 -2.583479432431772249e+00 2.025370985494438969e+01
-2.011690323024869498e-01 -2.786054962853079520e-01 1.857291085812338594e+01
-5.536863135004891134e+00 5.215710049163708728e-01 1.912070387393199411e+01
-6.451778897260724399e+00 1.337211838572363254e+00 1.858432659051119629e+01
-6.922654486122439721e+00 1.050646087284281105e+00 1.851844925284554222e+01
-6.821334438585486382e+00 1.356253266955223191e+00 1.839679530763482518e+01
-7.048782486867119168e+00 1.393825007359408064e+00 1.824363595904998903e+01
-6.750067686467211558e+00 1.476322150447599402e+00 1.836423631755353369e+01
-6.788164930179307888e+00 1.999560691760840392e+00 1.800580797563208080e+01
-6.525067597608668279e+00 -3.360742410169890615e+00 1.734383627541766515e+01
-7.082639220881339348e+00 1.857759756861788070e+00 1.790675416592295477e+01
-7.160520590621733739e+00 1.725314204283755259e+00 1.793777288056237751e+01
-7.421840033968794437e+00 1.552810078032905494e+00 1.783294218879597537e+01
-7.550873398488032961e+00 1.500523061490110166e+00 1.771676642705030957e+01
-7.973386520783265041e+00 1.178425802169460024e+00 1.715035107357473976e+01
-4.176251457088594243e+00 -2.208186607957864922e-01 1.225314812988861490e+01
-7.164810440320671603e+00 1.176470146077979173e-02 1.374423120874277515e+01
-7.055947372577023202e+00 -5.498222957151277512e-02 1.367244015692814685e+01
-4.732263189933881620e+00 -1.039829623340843945e+00 1.488677329995760346e+01
-4.277703904817149905e+00 -1.167199799767733026e+00 1.546939155364585616e+01
-4.536918900184448766e+00 -1.130176196371575070e+00 1.530859504791209247e+01
-3.761105037175339838e+00 -1.217300525821682022e+00 1.574346604794727256e+01
-3.251244017899994176e+00 -1.202132897863559702e+00 1.584408646136596133e+01
-1.504585901264324121e+00 -6.092746079474846699e-01 1.497772273516196151e+01
-6.088209811119731363e-01 1.598371176880455824e+00 1.804225578351675097e+01
-7.353423793211166348e+00 8.518234776792589225e-01 1.382480930605307634e+01
-2.299775340573119831e+00 2.428569930941588684e-01 1.955127536660111076e+01
-2.696017507139499614e+00 4.400517706162854203e-01 1.948469390463763062e+01
-5.123600878238708134e+00 2.632040554274549748e+00 1.823025744807233650e+01
-4.306400928268912409e+00 1.290866106753350451e+00 1.127697037159879301e+01
-2.709279279806735552e+00 1.080568055532407090e-01 1.960005035281461261e+01
-2.475300071636532095e+00 3.028234656268705693e-01 1.953269025700513595e+01
-3.097425110529176351e+00 4.742444702566422920e-01 1.945726294409019630e+01
-2.910408060761649818e+00 2.197242448083231992e-01 1.955559257915239613e+01
-4.482750057649386832e+00 4.351085079183421023e-01 1.933284260268948174e+01
-5.655544363014588960e+00 3.405802841642974199e-01 1.916543704781483370e+01
-7.189185956380501619e-01 1.968767593034506991e+00 1.648045014354500637e+01
-5.382960339322515608e+00 1.629614231665887925e-01 1.928476586431932560e+01
-5.430134284490627294e+00 2.287115039982734466e-02 1.932452437820489166e+01
-5.731169083609705339e+00 -2.501307269750974172e-02 1.927904041246612366e+01
-4.632342869685416531e+00 5.279632750303743904e+00 1.613346654909449995e+01
-5.853999647275498042e+00 2.993119364001735061e-01 1.913723822665725294e+01
-7.026333322403579551e+00 8.073136826007287770e-01 1.857338423256550897e+01
-7.145103780928792503e+00 8.142810590637377111e-01 1.849933071235199833e+01
-7.298149672329375726e+00 1.040382794740046135e+00 1.828498888417488644e+01
-7.260757739027583924e+00 1.530951078735995896e+00 1.800022524171222926e+01
-2.711048070374600716e+00 1.458142046602350028e+00 1.226869917609085547e+01
-7.405922484576372256e+00 1.352082786868092246e+00 1.799938752657922691e+01
-4.704509761891574549e+00 2.183306344632564233e+00 1.222465764059829496e+01
-3.014359150708037394e+00 -1.253056405523948591e+00 1.600240048135752602e+01
-8.188771330300454565e+00 5.828119645761098422e-01 1.705813493310625972e+01
-8.196170817514621731e+00 6.137734210106844390e-01 1.683321342417555400e+01
-8.192957237406254478e+00 6.590252953939359504e-01 1.640942138177471321e+01
-7.806288336172734432e+00 1.134644384271368267e+00 1.461826314567876040e+01
-3.574982873030055242e+00 -1.956036189735895103e+00 2.018814436963371151e+01
-5.141622237447488253e+00 -1.174589850950833014e+00 1.512707850891235495e+01
-4.860113444511456215e+00 -1.162322058606327868e+00 1.528917228941907780e+01
-4.665850146890427652e+00 -1.169957063425199006e+00 1.542104100277585843e+01
-3.321722070928562420e+00 -1.411927393075105286e+00 1.622764992941814199e+01
-2.672732146097995809e+00 -1.196402354381601363e+00 1.588849413393572263e+01
-2.864782549397419498e+00 3.719154419492229469e+00 1.498378450655039984e+01
-2.546528038610981426e+00 -1.243916157442139347e+00 1.597137136685930159e+01
-1.828292238817502913e+00 -9.964578625829823011e-01 1.542902381589738781e+01
-5.864359874824848440e+00 3.480842916359121020e+00 1.413466280085236093e+01
-3.362932250080463259e+00 -1.743494376279160818e+00 2.016649233966944621e+01
-1.288699494277116164e+00 -6.011512548398707523e-01 1.508900345158503598e+01
-2.639087015301273098e+00 4.459245360360012178e+00 1.642518548191417693e+01
-1.023375084407792235e+00 -5.815743178530152768e-01 1.525645033348230584e+01
-7.378261994181849026e+00 2.714251123142424227e+00 1.520183060089898675e+01
-4.555450372641096646e-01 1.550544929059460841e-02 1.577218830853998810e+01
-4.007111479927426556e-01 1.550724472528344222e-01 1.588933591569983150e+01
-2.416384930563095335e+00 1.496679168038510310e+00 1.258342190750740741e+01
-1.103693743950767248e+00 1.047963201557347235e+00 1.897640981025670470e+01
-1.912980610656913161e+00 -2.924464559049830825e+00 1.773689406956322046e+01
-1.099774468149597784e+00 4.336947582838029946e-01 1.923330111588993674e+01
-1.689130082131014010e+00 6.007214709761765636e-02 1.956770995452253459e+01
-2.343555429286436453e+00 5.982134801404981328e-02 1.962021867478890869e+01
-2.706660001154725492e+00 -6.058501641142322036e-02 1.966444995214671820e+01
-2.098703096942102775e+00 -1.829286914190642044e-01 1.971066472033377437e+01
-2.090011824467165269e+00 -7.031633886758714702e-02 1.966564646280802720e+01
-2.891472404874225965e+00 -4.978835737980584764e-01 1.982592053230227691e+01
-2.905986515659091829e+00 -3.704296132562612254e-01 1.977613056860985807e+01
-3.908663398369130348e+00 -3.643262193855454356e-01 1.970341106274501897e+01
-4.508474694263308713e+00 -6.049242821612788035e-02 1.951437808128868312e+01
-1.523978710723680630e+00 3.378097074540903133e+00 1.643009717863820640e+01
-4.743869507461053736e+00 -4.828626700017646378e-02 1.947891353670765113e+01
-5.280360356075950001e+00 -7.717184887441241870e-02 1.939430760053723901e+01
-4.895191942384250261e+00 -3.222669431979339194e-01 1.955892478242598997e+01
-5.281103827220811731e+00 -2.011569596973215024e-01 1.944134884000021657e+01
-7.866807127679373846e-01 2.287624141967943281e+00 1.680712803003230960e+01
-5.281847298365674348e+00 -3.251420705202299199e-01 1.948839007946317281e+01
-7.498332605533024164e+00 -2.345980763844522698e+00 1.618574122799164883e+01
-6.074916682371457988e+00 -2.295986681666084550e-02 1.920067391041196458e+01
-2.526333289840684060e+00 -2.604540535809515056e+00 2.026756597770044976e+01
-7.055253983611503799e+00 3.294430164253960847e-01 1.874050915424490427e+01
-6.860537059195062959e+00 8.046914378696401471e-02 1.892562193933905945e+01
-7.448657311947814996e+00 1.849843380816224014e-01 1.854854058891449853e+01
-1.299602192328633388e+00 -4.114116077629423884e-01 1.968767911825997174e+01
-7.579579735061614087e+00 9.117769122537557891e-01 1.808683733520955883e+01
-7.829875195678122068e+00 8.434407193696085159e-01 1.779343005137039313e+01
-8.200545916796377455e+00 4.848919209248769846e-01 1.602458553991910151e+01
-8.190633845034177796e+00 4.218367072951720864e-01 1.580659604015709618e+01
-7.771609230568715887e+00 9.155595484367923254e-01 1.435240646466562708e+01
