-1.094232325373363013e+00 -1.743126630387741072e+00 1.641319083182984784e+01
-8.631845556136834574e+00 -1.308636264263013826e+00 1.905739614632041068e+01
-2.595990255742028463e+00 -1.737392377417805944e+00 1.714111213458992822e+01
-1.479515048974046287e+00 -1.021831194463824755e+00 1.571066758929137208e+01
-4.263565161131501746e+00 -2.072638017158980439e+00 1.813129153777372338e+01
-2.482527391351786683e+00 -2.734556341265748536e+00 1.850862580387230238e+01
-1.327471221645548649e+00 -1.118288039312315352e+00 1.581787096705257412e+01
-1.134882718401480473e+00 -1.098791481282853644e+00 1.598933115011161377e+01
-1.449133208727905853e+00 -2.574179894784620615e+00 1.738326204046847678e+01
-2.329036745623627613e+00 2.939947590448915626e+00 1.881845827264384141e+01
-7.859499479505265285e+00 2.836753579104714262e+00 1.716877612616347548e+01
-1.498073851091779929e+00 -8.639764611589346721e-01 1.965628689595107303e+01
-5.358689307381302669e+00 5.166505952780841682e+00 1.827168365589459498e+01
-7.645019647925084705e+00 3.255977650996093153e+00 1.725333760170658692e+01
-8.445869069822885544e-01 -5.660922427054533301e-01 1.613226074502027174e+01
-5.119099338252497411e+00 3.317747835566020598e+00 1.463236525657067588e+01
-8.621448948724960815e+00 -9.492059347113688261e-01 1.944212867478641371e+01
-2.688149207968366206e+00 2.461637648340416540e+00 1.461572021458320236e+01
-6.240872209339559662e-01 -6.246059452772724230e-01 1.894005568245334459e+01
-8.522023203567933081e+00 3.297664107964121127e-02 1.926724605881198826e+01
-7.600457151023443103e+00 2.695159514035660564e+00 1.898385825223342138e+01
-1.302832059725544722e+00 -1.069997026597225620e+00 1.965038057803719695e+01
-3.865604859147932171e+00 1.291976552998316485e+00 1.422918075105810587e+01
-7.702623517499734618e+00 -4.811971854445047381e-01 1.688489742630681079e+01
-3.852346843644034013e+00 4.671756527030810346e+00 1.752136154258019118e+01
-1.290271400245791789e+00 3.431388826869131492e+00 1.803593226051575371e+01
-6.709071669544700356e+00 1.421203560992826187e+00 2.019599221024530422e+01
-6.107247113156067719e+00 3.701558936966327096e+00 1.585270896402973406e+01
-2.039088245373420705e+00 -2.815044030849179535e+00 1.941967644258729209e+01
-3.668738294379015219e+00 -2.935139787461016780e+00 1.967749676671520476e+01
-7.112438823991488412e+00 -2.181604812217570633e+00 2.046289013508381416e+01
-3.683128921196459515e+00 -2.704188362677490964e+00 1.981147982233538940e+01
-8.277242468578904777e+00 -2.000068991776776883e+00 1.984254606010613387e+01
-4.052349440306154627e+00 -2.762331736370465585e+00 1.992087267900660308e+01
-2.672276997580509850e+00 2.649331387359866063e+00 1.499030243731472822e+01
-5.487075534027771262e+00 2.178335670044343697e+00 1.350606677630001329e+01
-6.703325266627528922e-01 8.101335783607190866e-01 1.657876127654056475e+01
-1.103043005063606641e+00 9.316632490223099028e-01 1.921709523671772857e+01
-7.676905048128613629e+00 -7.560874538414401602e-01 1.724696724261064062e+01
-7.863893832736820855e+00 2.850060210133346317e+00 1.757395762360193814e+01
-9.239446912655956412e-01 -1.396106523950861655e+00 1.637116487669965537e+01
-7.764293075325054971e+00 2.123844626284667192e-01 2.031061555187412537e+01
-2.319181326613247496e+00 -1.273917273923934834e+00 1.605737431407620974e+01
-8.569888668496481898e+00 -6.266136297757931573e-01 1.782921112101163530e+01
-6.282191014282989983e+00 -3.178127905297587930e+00 1.980291047177923858e+01
-6.734116813395850665e-01 -1.447483957543354682e+00 1.872995118312063667e+01
-7.735648523141310129e+00 3.870582555533439439e-01 2.027853287939947435e+01
-3.092138062155913580e+00 -2.505658027111541397e-01 1.590144283710025874e+01
-2.333967734842551600e+00 9.332197219099672703e-01 1.938589080828558409e+01
-5.232945869576726139e+00 -2.967213151398977011e+00 2.026049175361979238e+01
-7.803761367076167410e-01 -2.220372581087392660e+00 1.747442099879155464e+01
-8.300742547182203168e+00 -7.715084729152865695e-01 2.007055523924769957e+01
-6.532213656608539587e+00 3.094302541399782669e+00 1.940941030822979130e+01
-5.549616247726425478e-01 -4.673437390600658770e-01 1.813910239490313714e+01
-3.309582178955778442e+00 3.422788751378107452e-01 1.531130349120122602e+01
-8.469451493189676938e+00 4.181885320404266082e-02 1.944475883475886135e+01
-5.564177252167890941e+00 3.865492387849982947e+00 1.585179892531775536e+01
-2.498832957554173451e+00 1.266856723528178019e+00 1.405410635432706457e+01
-8.679456164552657782e+00 -9.338968273930929875e-01 1.867638894019414764e+01
-8.645605655270379941e+00 -7.386168961235868302e-01 1.828909066070832878e+01
-2.645703771012327454e+00 5.699143926478726918e-01 1.451015242065231448e+01
-6.941185549300778135e+00 -9.201435103684443284e-01 2.052647844878941541e+01
-3.952980028483279895e+00 2.911579214383224645e+00 1.913771651071757063e+01
-8.662732490172949440e+00 -3.680073324172922211e-01 1.867959591992051216e+01
-2.189496319565016780e+00 -2.117658682210612042e+00 1.675451663055946838e+01
-7.624057178844346749e-01 -1.673557288070128157e+00 1.913318110474031286e+01
-7.331996359888743875e+00 2.061806700628619371e+00 1.974908676477794600e+01
-8.498470300602676275e+00 -9.246445784495016529e-01 1.806330326098986561e+01
-8.186557927825454328e+00 1.887486086683211939e+00 1.671186611613763162e+01
-4.923905311838261412e+00 4.628881147092242188e+00 1.703363626843954037e+01
-6.962564339138651803e+00 3.322945161674621062e+00 1.901663206245300941e+01
-2.451475337482776240e+00 -2.725194468375455870e+00 1.868213616579816616e+01
-8.047790333876764235e-01 1.681096362229780317e+00 1.856261423588052750e+01
-8.539936624239555130e+00 -7.677862199642324637e-01 1.788851155423153116e+01
-7.492723665420295553e+00 -5.864313939803085240e-01 2.050281615187659057e+01
-3.129604560844581940e+00 1.932932442000352857e+00 1.924892993999565149e+01
-4.893048571079380515e+00 -2.869323143559820544e+00 1.880916117764070705e+01
-5.986056075136296784e+00 -5.685399002944260261e-01 2.021156236731881606e+01
-8.311755207675584955e+00 -7.237394543287030135e-01 1.746706743368563153e+01
-8.115304048300629347e+00 -2.054890349978517605e+00 1.958690565286459773e+01
-3.858412707932604047e+00 -2.326655558370548604e+00 1.988576896921480497e+01
-4.084046351139088316e+00 2.863699582868657778e+00 1.382230840839982378e+01
-5.148877010585789726e+00 3.951064037393071438e+00 1.581269089877558898e+01
-3.929537010306965339e+00 7.373286002535697214e-01 1.528760809668210996e+01
-8.314164108368522932e+00 -5.336143890631083186e-01 1.728413189797555205e+01
-2.453941012370896235e+00 3.509093618781844448e-01 1.467652509839087216e+01
-8.409259174624484245e+00 -4.506961726550762215e-01 1.733421556719001799e+01
-5.866487390507194810e+00 4.455631278978121834e+00 1.692368516886406482e+01
-8.042959057675890477e+00 2.263459614820710897e+00 1.836320358000513764e+01
-8.334388872410645632e+00 -9.885698458391842802e-01 1.784683054647755185e+01
-4.719218817429883472e+00 1.893451769241908611e+00 1.956942691052742234e+01
-7.116635285035461500e+00 -4.455194326559053231e-02 1.651526768748499663e+01
-3.474403109971466286e+00 -6.937845984356154627e-01 1.691024870025175986e+01
-5.929374646639143931e-01 -9.854159026369371244e-01 1.775852989162320839e+01
-1.576164561138631237e+00 3.111302713303239820e+00 1.858427405668320276e+01
-4.063208568707255885e+00 4.044036536645403412e-01 1.595857472833088408e+01
-2.021135019562217305e+00 -2.790475987059554797e+00 1.806528237582307739e+01
-3.471704311787773722e+00 -8.561292840078758015e-01 1.706142353059306416e+01
-2.968443089016408631e+00 3.126033346268756397e+00 1.884080880190562013e+01
-7.713576953661279489e+00 -2.232435435356648235e+00 1.958022470158019601e+01
-1.392720398635122203e+00 1.688759414468665288e+00 1.910749147720989427e+01
-2.680303618922213360e+00 -1.246863022809152177e+00 1.672303474459843287e+01
-2.802272555243578545e+00 -1.144450243638019504e+00 1.677348194685284355e+01
-7.924973598150095278e+00 2.712174136310792072e+00 1.774441472681952447e+01
-7.260948344420634193e+00 1.173964491182233782e+00 1.599971455767474637e+01
-1.739117777656748354e+00 2.987296309938988870e+00 1.868718450921864971e+01
-5.281797227071702849e+00 -2.321242446432425055e+00 2.025256644300049302e+01
-4.351381155545598567e+00 2.094642275108567375e+00 1.945040332560317964e+01
-3.687725176291458240e+00 3.101474247303868559e+00 1.455499609576786568e+01
-4.856158011646084738e+00 -3.144196896604916525e+00 2.005715920911088190e+01
-2.663505600034615117e+00 -2.671765868790038745e+00 1.950510739429347851e+01
-1.502715251581960398e+00 -2.660469381304605641e+00 1.748435396677219344e+01
-7.378114063727837291e+00 1.747220784194492005e+00 1.606256468681170801e+01
-2.348286559886714198e+00 -1.459700765559515556e+00 1.624980421939204334e+01
-6.159335928574804164e+00 4.476167300528916648e+00 1.860084339724079783e+01
-4.494958296515592089e+00 2.461227343610937091e+00 1.295061765246729735e+01
-5.292523054843895736e+00 4.361454882121595378e-01 1.639877630763281147e+01
-1.319143133352112640e+00 -2.111162518532680998e+00 1.679978535598617029e+01
-4.502060219937447982e+00 -3.205784983870655580e+00 1.985046230667762401e+01
-2.430791551310765186e+00 -1.167483239095901348e+00 1.610920539379730698e+01
-8.089233498397600641e+00 2.286224029510965483e+00 1.776876408530037921e+01
-8.612122820633782538e+00 -3.485164794759384455e-01 1.908623156764290840e+01
-2.561793482881368877e+00 -2.286339146408263190e+00 1.762975589100734553e+01
-1.062032803771287170e+00 -2.503521412095312648e+00 1.936532883749098133e+01
-3.977642843379065596e+00 4.768394840719139438e+00 1.831445068391665032e+01
-1.610433648249259164e+00 -1.232549274674167750e+00 1.586838208443928622e+01
-1.667368309840583374e+00 -2.087314174472032491e+00 1.962795551964820717e+01
-2.927910895651680168e+00 9.006831783416098247e-01 1.941918232087983043e+01
-5.089044610811590097e+00 1.399736529659374451e+00 1.453191147355992641e+01
-2.084143981694437819e+00 -1.889042915860622562e+00 1.957437064855323072e+01
-8.507631926046169468e+00 4.469925131460618650e-01 1.730505970357925705e+01
-4.018238031256978537e+00 1.950164000842853573e+00 1.329027658342171136e+01
-5.725741861707200009e+00 1.081555449800550406e+00 1.995437411781932369e+01
-1.650597379623953920e+00 6.159325836592310921e-01 1.947490277563241179e+01
-9.664999492278392168e-01 2.760484207930129052e+00 1.820576611703204506e+01
-2.950492317206335091e+00 2.300660222744540739e+00 1.911452704622529453e+01
-1.454403791479646380e+00 -1.218853321024062408e+00 1.586243995612116109e+01
-6.782836414676914893e-01 -1.648530198843322081e+00 1.868615135217307355e+01
-1.237895718502438847e+00 -1.203474715275490325e+00 1.594950347887376907e+01
-4.251338488736378096e+00 2.136947333183388587e+00 1.307621823162959274e+01
-2.610520596292333462e+00 4.322164153574613366e+00 1.822089583748610053e+01
-3.297771954741975708e+00 2.051495541784550958e-01 1.551700452213117742e+01
-2.602905714439272433e+00 -1.550391184331006977e-01 1.518957472529752906e+01
-1.095909845904221580e+00 -1.369911636429917312e+00 1.617080604201989402e+01
-2.378603800214874386e+00 2.107011448487547955e+00 1.911711894900284037e+01
-8.217174357486796143e-01 -1.413364259336553852e+00 1.651054319089984190e+01
-5.936660686598754788e-01 -3.959236676959189127e-01 1.866205831295394191e+01
-2.180692108475141389e+00 1.993030478281986317e-01 1.945661686671012447e+01
-2.326288992105689069e+00 -2.014988600765717841e+00 1.683309107796971560e+01
-8.548795230493887232e+00 6.756663355018690531e-01 1.773089060238438108e+01
-8.541274852777867466e+00 -1.182166270512341244e+00 1.966920610174007678e+01
-8.219827827502083295e+00 1.946515458564426648e+00 1.756957667295725756e+01
-5.911181732909431830e+00 -3.212912910431255931e+00 2.003990991869499183e+01
-8.652407378472718458e-01 -1.176616607847762452e+00 1.633451750569254202e+01
-5.944281032981329815e+00 3.437039008444655153e+00 1.534177184105422143e+01
-8.326567754328932924e-01 -1.025971359482320322e+00 1.630419292776202767e+01
-7.827077894513791989e+00 2.919661356490913739e+00 1.738187771421319283e+01
-9.877195961305327288e-01 -5.844124116203717190e-01 1.946904465594366584e+01
-7.732535214493089448e+00 -2.232773395884378509e+00 2.031804148014823497e+01
-7.621797630846558480e-01 -1.116103935065629882e+00 1.642000058005733010e+01
-8.086142228156695921e+00 2.322869018130663044e+00 1.715574112212656743e+01
-9.280753200242642942e-01 -2.027377815217442425e+00 1.679533402680585752e+01
-9.599556509125093395e-01 2.315848613727788052e+00 1.844176325034977637e+01
-8.563981812855601561e+00 1.147459680826269923e-01 1.749000121875272029e+01
-7.314107622735447345e-01 -8.049124640404294873e-01 1.641249988470392296e+01
-7.461556031104072950e-01 -5.750292187963551571e-01 1.634343693578469825e+01
-5.469228064156739677e+00 8.602629820975278285e-01 1.578909282471630959e+01
-2.475012375091378392e+00 -1.893558645652132943e+00 1.957016971286971696e+01
-7.743967999496711441e-01 -3.296707585906401006e-01 1.620626006350376613e+01
-1.218167659304603134e+00 -2.598171131149516810e+00 1.749217012129405546e+01
-9.615481535019660964e-01 -9.417779560325192367e-01 1.947203303818952591e+01
-5.876345971757656272e+00 -2.331239639822503484e+00 1.878748566469869630e+01
-3.551293352767325384e+00 2.325322297870409116e+00 1.923404715676449328e+01
-7.894980358495869766e+00 -2.098184368761423890e+00 1.950803997623600949e+01
-8.508631709693680989e+00 8.578128530681891073e-01 1.809010439771013878e+01
-1.702891109338799502e+00 3.827425950544309785e+00 1.800874947803688642e+01
-7.983043064738208905e+00 -1.228681763224999113e+00 1.819081371063150598e+01
-8.434042085239065178e-01 -2.419184769008591473e+00 1.748813531458048587e+01
-1.552178263373864331e+00 1.964772998293596418e+00 1.906240683266505798e+01
-9.771320021879978945e-01 -1.106619206060431404e+00 1.950411153545404019e+01
-1.672572093745280597e+00 2.228350940728615726e+00 1.600594312289972621e+01
-7.265518354278663438e+00 -1.166951725684177932e+00 1.821204498313759146e+01
-1.264986897538320054e+00 -1.466517258075440422e+00 1.965046594753443898e+01
-3.122664115406952767e+00 4.017079357594552036e+00 1.698907693220290938e+01
-2.305186802562143811e+00 -2.292832002111406808e+00 1.956841424661570628e+01
-5.932052708142585118e+00 1.502400892132995214e+00 1.994741665697973687e+01
-8.301613196789556781e+00 1.046672469669844840e+00 1.912701868348701950e+01
-5.184736533530391434e+00 4.678262057039170307e-01 1.631255100842010464e+01
-5.467798098601035939e+00 -1.066032078995325483e+00 1.794767841025933919e+01
-5.249355562122352659e+00 -2.499877612674074712e+00 1.863820579516996290e+01
-5.458353959278000822e+00 -3.284833980670873288e+00 1.999372060981098187e+01
-2.636374010706298954e+00 -2.540645313004353589e+00 1.955739709354097400e+01
-2.076571380027686153e+00 1.832340009571898021e+00 1.480973809303578648e+01
-2.521116519692812474e+00 -6.940281066489242257e-01 1.950772544419744392e+01
-6.904427881698372182e+00 -5.679987424024455223e-01 1.761454086471566072e+01
-3.087514694667956583e+00 -2.707281910697929561e+00 1.965882381540223278e+01
-1.147255386582363590e+00 -2.423336656872730366e+00 1.944279371423642644e+01
-7.663148489857389833e+00 -2.481680385129599209e+00 2.020493696977733933e+01
-7.510616635740932523e+00 5.512449554462244272e-01 1.634032890035812002e+01
-7.544503666918429552e+00 6.561746790871774149e-01 2.028922231255918618e+01
-4.238971129259268444e+00 -2.088088609852167821e-01 1.678871844325579943e+01
-4.909362399929264598e+00 -1.560894781736074988e+00 2.006600638299909534e+01
-5.714966758899543642e+00 -1.309438143063803572e+00 2.020666351651025749e+01
-2.674152337174811933e+00 -2.837454518075451126e+00 1.928764146550379976e+01
-6.551284146331788349e+00 3.435871348561870597e+00 1.916737937068398523e+01
-2.659595439376133630e+00 -1.437279814582152593e+00 1.693175507380205502e+01
-3.502994566569594959e+00 2.024315289446889654e-01 1.577870256171900465e+01
-3.294657400022734439e+00 -2.863421885879913198e+00 1.962234846838969915e+01
-8.239612180413736553e+00 -1.204731966089024997e+00 2.018275663590126712e+01
-3.504539348109694252e+00 -2.885800991383462133e+00 1.966304058338353045e+01
-3.330600037611301190e+00 -1.877810502169438012e+00 1.970261804913667092e+01
-8.090510615733073507e+00 -6.121700092077674293e-01 2.024410232517858432e+01
-1.522340102981895038e+00 1.218463096443949567e+00 1.520139080071294657e+01
-3.255523023881264688e+00 6.914654794419015094e-01 1.472598750214948282e+01
-4.332622539282990459e+00 1.359798885649704969e+00 1.430704839756427660e+01
-5.101901911624571184e+00 2.517899999723993254e+00 1.332549454808517098e+01
-3.811510034602509478e+00 -2.937063346840350420e+00 1.975125385807995926e+01
-3.923353240969253530e+00 -2.928454352669783489e+00 1.981299087217961485e+01
-7.136125199794738805e+00 -6.220645227446902625e-01 1.749749930052358948e+01
-8.355896110547220701e+00 -1.810267312691547614e+00 1.941920939196755924e+01
-1.920611222059134038e+00 3.822926298717431060e+00 1.779752686838078901e+01
-7.998673285810615319e+00 2.284496786346681851e+00 1.854756951459618719e+01
-3.747737577721900859e+00 -9.226071412568370711e-02 1.646654961820584262e+01
-5.666342522368389645e+00 -2.271836904278345948e+00 1.868346840907162587e+01
-2.252956617171178344e+00 -1.446094375372287910e+00 1.613625755400284234e+01
-1.492813601734179096e+00 3.015519655709685942e+00 1.722926733119929210e+01
-6.146525737601898909e-01 -4.075033817476384490e-01 1.878261595182439336e+01
-4.280668280053111729e+00 -2.887064962840363513e+00 1.999457297190864935e+01
-1.891246933849987988e+00 -2.773837112918020154e+00 1.850154968682992163e+01
-4.508937940659283328e+00 3.362439880677127846e+00 1.478959903765033701e+01
-8.387974594356606417e+00 -8.800015461861516730e-01 1.993832030228687202e+01
-8.590618069406517066e+00 4.634068653074421285e-01 1.787098808375536052e+01
-7.700238367589818722e+00 -2.018686191459301504e+00 2.037063299469827982e+01
-8.463726107844063762e+00 -1.142710559574489082e+00 1.983356657236749854e+01
-8.132373322320752607e+00 1.301426447743760262e+00 1.655068335785511735e+01
-2.968757119044666215e+00 4.383129279955745972e+00 1.763436648699756759e+01
-8.551810281870832142e+00 -1.395276357344616303e+00 1.966062635665076286e+01
-8.622684401326196735e+00 -1.386689083482019802e+00 1.921358735636153980e+01
-5.740726476480944918e+00 3.076632663077115915e+00 1.941740911943383807e+01
-5.662756956241631556e+00 -1.003188774218537693e+00 1.795813456764165394e+01
-1.234194567771567108e+00 -2.940243162010819589e+00 1.843937166044072384e+01
-2.329991715772506300e+00 -2.435794656080776832e+00 1.747098624624140584e+01
-4.703187938169281601e+00 3.758625578600224060e+00 1.551775890123321133e+01
-6.470972840544331639e+00 -3.105617563582356411e+00 1.984568981518328101e+01
-7.537303405356864383e-01 -2.599794329641250457e+00 1.890893829115389124e+01
-8.569128642776167482e+00 -1.419015700968961236e+00 1.903593362787734478e+01
-2.363427172583648428e+00 -1.159667822907656021e+00 1.599244025450511586e+01
-7.357167514877833270e+00 2.180900097785501757e+00 1.966374585656910412e+01
-6.329734734994724832e+00 1.741695229946245815e+00 1.454397408138005332e+01
-6.595416224956498930e+00 4.706872910667521559e+00 1.762760271442307314e+01
-6.310489250351569268e+00 -1.509992307369829589e-01 2.027580066075089249e+01
-8.495977378670467317e+00 -1.138298228457739203e+00 1.846023190505875178e+01
-6.356123466183515092e+00 3.000473633806741702e+00 1.950383782031574853e+01
-8.466322965574452297e+00 -1.284326300739396132e+00 1.869004942792828317e+01
-2.525295229666118413e+00 -2.761763001988677857e+00 1.884143958461513435e+01
-5.483335635481279446e+00 -9.622964460943028708e-01 2.010141468703106327e+01
-4.470534092987113794e+00 -2.825066353679922315e+00 1.867441358593893241e+01
-8.536686261943874143e+00 -9.653343737467872110e-01 1.822371490655070048e+01
-8.271195963177586208e+00 -6.690985146787251647e-01 1.734982925912465745e+01
-4.066416947092836409e+00 -3.051408421119264247e+00 1.946850757106309615e+01
-7.012915207961373909e+00 3.716784870693862430e+00 1.859441069625852450e+01
-6.595286630777609460e+00 1.176712873538974691e+00 2.023776235636413290e+01
-7.895713499824266179e+00 -3.201599141065510912e-01 1.686114152028144630e+01
-5.305077888248463047e+00 -1.220872473949756176e-01 1.707107057034788866e+01
-2.850196480688955702e+00 -2.776427125754914904e+00 1.834147091360275184e+01
-6.715868499005971382e-01 -1.395818091600232957e+00 1.694234435790938775e+01
-4.875028375980599904e+00 5.992759192333566576e-01 1.594443829853837613e+01
-7.944638617154359927e+00 -1.995865385034805817e+00 2.026154455264062548e+01
-1.230965801308062657e+00 -1.724781716553295263e+00 1.633997830061717949e+01
-7.169944074709924564e+00 2.948852780574098276e+00 1.612227771941793364e+01
-6.426782505739829787e+00 1.575185329809057011e+00 1.476067084830364351e+01
-6.804299257648131594e+00 3.420704794326618448e+00 1.611966051469448402e+01
-7.131224235080781071e+00 -1.589140059579964293e-01 1.666764574312104585e+01
-4.797428652224755119e+00 4.080427683290546170e+00 1.883984147863523972e+01
-2.937073996975834600e+00 3.592217150958988192e+00 1.642278924329591305e+01
-6.309392655497472191e+00 -1.344976232903297708e+00 2.041968557695492237e+01
-6.882735061384675390e+00 -1.913209678020824089e-01 1.695768839893492341e+01
-2.282665885551284024e+00 3.854128555962844871e+00 1.739395231407365472e+01
-7.538978256820039192e+00 3.485500221889859418e+00 1.763373714188178454e+01
-2.729436938871241836e+00 3.354368517676296513e+00 1.624017848728312785e+01
-2.377721678944249462e+00 -3.437595428373535489e-01 1.521558717974923880e+01
-1.876451084880574660e+00 -1.384325601769556657e+00 1.599607978630897875e+01
-1.488408884255521869e+00 -1.848033968123984794e+00 1.646508876309799874e+01
-1.018901254989483363e+00 -2.194140568838137462e+00 1.693819233568571647e+01
-7.353438994636243287e+00 1.268502479673543348e+00 2.016607295197733052e+01
-6.867193490359054131e+00 -2.570890950426397703e-01 1.709258826357131866e+01
-1.453830227787611840e+00 -1.444850964315684827e+00 1.605846894974662931e+01
-1.464199970819793029e+00 -1.319600005215094463e+00 1.594687099579306633e+01
-2.113422128117173227e+00 1.223253622145112907e+00 1.438649911867122810e+01
-6.908499979786147271e+00 -7.560285615662762915e-01 2.050818440818200017e+01
-4.274011020276837769e+00 9.283045666209764901e-01 1.508136064968758561e+01
-4.218434259744536341e+00 1.507216847900961554e+00 1.402029724096494689e+01
-7.414976301764220068e+00 3.546554069740420978e+00 1.815993218755656002e+01
-1.257395476509921339e+00 -1.539690173429663966e+00 1.616913331639139173e+01
-1.993517011771437364e+00 3.694613029987071862e+00 1.751795961996711171e+01
-2.506617656822040630e+00 -2.539453659509628203e+00 1.778822014597021806e+01
-8.373545821435314451e+00 1.277834205547281998e+00 1.831874757474461646e+01
-1.069554476367209350e+00 -1.610656086640571028e+00 1.633772890930094590e+01
-6.123972206179995936e+00 -5.598214340523418597e-01 2.025678694461946705e+01
-3.080316033563822220e+00 -5.719918216416564061e-01 1.633107636963585563e+01
-4.536244708982870577e+00 -3.376837469250323354e-01 1.984097576704658294e+01
-8.728449534911254526e-01 -1.600042826677236851e+00 1.653546350692306888e+01
-7.890616916576065343e+00 1.980303370258346130e+00 1.917351620229414166e+01
-6.326504721819426358e+00 4.406908048953654067e+00 1.856080021364416766e+01
-7.092291559160068815e-01 -1.003271717868444490e+00 1.651110898760086698e+01
-5.274528295363231756e+00 -1.895777703521740909e+00 1.834273922010159552e+01
-5.338666446844070990e+00 4.879809876486965514e+00 1.748252364805256676e+01
-8.809755363142374174e-01 -2.662881684756491119e+00 1.911835337621223729e+01
-1.063978358118365053e+00 -1.467231352480099504e+00 1.957350098057316856e+01
-1.287066658810249065e+00 -2.244275833535493092e+00 1.954067125452889897e+01
-6.320315135315372146e+00 1.015703211007133344e+00 1.534551065953509763e+01
-8.249733257532916753e+00 1.656663083732815567e+00 1.832071856350299655e+01
-7.039881687597964621e+00 3.456932764061157570e+00 1.646000006496482726e+01
-1.462968904739080367e+00 -2.308310925432407679e+00 1.956955881343906256e+01
-7.414361180967189213e+00 -2.678301180186513086e+00 2.019572535145631420e+01
-3.112368588847602258e+00 2.397186596913653212e+00 1.383951517678887555e+01
-4.483061502108766305e+00 -2.544799673806241280e+00 2.008530768351910112e+01
-5.732564744319018857e+00 3.454587167911999934e+00 1.926066842459683315e+01
-7.999905025686685711e+00 -2.134992551188250154e+00 2.019191718680098901e+01
-1.623862582883966565e+00 -2.053035861073022161e+00 1.664044332088583289e+01
-7.188261777543114128e+00 2.095358906477558847e+00 1.982157150573218374e+01
-1.312867061913959743e+00 3.010253240702226663e+00 1.739365795979572837e+01
-7.294598519234366307e+00 -1.393444124612523760e+00 1.844329111833570423e+01
-3.278198064801303158e+00 4.603414939362461489e+00 1.779989291571920873e+01
-2.093035593096443048e+00 -2.483234063316269946e+00 1.955257680679615007e+01
-6.892459307792424106e+00 2.206132563465464269e+00 1.988320605880801040e+01
-4.072705584052060956e+00 2.204166027274546025e+00 1.294557874378057605e+01
-5.501047787481399887e+00 -1.148307152508349915e+00 2.013027684915649829e+01
-8.220521411915083121e+00 -2.398676849775900344e-01 2.001540922575742698e+01
-3.937122358046472037e+00 1.937252041471932307e+00 1.940551101950989832e+01
-5.580334914817693281e+00 3.895958873751256490e+00 1.904181674576571126e+01
-2.741537656552188285e+00 -2.488098725374243259e+00 1.960618748624394314e+01
-3.496742992422674501e+00 -1.889900834407085783e+00 1.974901148978740295e+01
-3.878855002514481232e+00 2.201541347491835221e-01 1.615292588871202284e+01
-2.259768033851278890e+00 -2.499279958292929038e+00 1.954929272878522184e+01
-4.670307659220192420e+00 -2.748840362850174301e+00 1.859054198932164681e+01
-4.692618723419452742e+00 3.985826587350811967e-01 1.617326877788579154e+01
-2.482172999132752356e+00 -2.473211128273868020e+00 1.956314367082234540e+01
-2.465372043575219330e+00 9.007258894398427751e-01 1.424181419725566045e+01
-4.844186504841137442e+00 -1.937350622851036208e+00 1.822549254101890526e+01
-2.902116022944416063e+00 -2.678986817223981909e+00 1.960616916414153010e+01
-3.074314370633982385e+00 -2.884186872058478457e+00 1.947138955368756186e+01
-2.275898055735866343e+00 -2.856120855045120699e+00 1.928443354394086029e+01
-3.127395403133534035e+00 -2.826369548677617693e+00 1.962551637707052876e+01
-7.555212416310459478e-01 -2.081440176540156450e+00 1.914654642739023771e+01
-6.281523341536717098e+00 3.306580416018229940e+00 1.541005514804819754e+01
-8.092431614779691529e+00 -1.179587056441022908e+00 1.810513143537483316e+01
-4.307911047725074383e+00 -3.138548257751346604e+00 1.987405780303734915e+01
-5.372021972769643661e+00 1.067203640038599577e+00 1.986645193397957243e+01
-1.210052155876843338e+00 -5.958343539070579675e-01 1.570147975190193890e+01
-4.901389605028317220e+00 -2.715280946333464840e+00 1.864214512022329373e+01
-7.508857065754208193e+00 -6.387823321892681649e-01 1.709374111760795856e+01
-7.889534944554235096e+00 2.200507481908328344e+00 1.895269175257731220e+01
-1.271226719432817287e+00 -2.228848784196544308e+00 1.695336058187416128e+01
-4.565380819689480063e+00 2.105949761260101472e+00 1.948966053643475149e+01
-7.498399505349312655e+00 -1.812674038291468781e+00 1.896073653513730406e+01
-5.561483744510993255e-01 3.467021277298558690e-01 1.855566019676898648e+01
-8.330978059128710811e+00 7.140911382761188086e-01 1.687004958209233862e+01
-4.471869172765131850e+00 -3.101885296172801176e+00 1.999851073837806226e+01
-2.610013851144080910e+00 -2.770731844750094375e+00 1.824982958288367385e+01
-5.733562229802944721e+00 -9.446321430849158318e-01 2.016539968271260719e+01
-7.321906727341475296e+00 1.802402281728564093e+00 1.991784992791960818e+01
-5.054549098160244114e+00 -3.064206168778940587e+00 2.018894095496884589e+01
-3.488742671781729143e+00 -8.900311474602973227e-01 1.967362401335024558e+01
-8.304134831929680161e+00 -1.773701905041729310e+00 2.001534987266697740e+01
-1.841095079708237270e+00 -2.691668083138809564e+00 1.952069370503496160e+01
-7.545538198497142801e+00 3.494461518667478117e+00 1.740206981147171561e+01
-7.758469872304478709e-01 -2.381476366591321892e+00 1.788965474751399043e+01
-3.157458343384584420e+00 2.957759125196624872e+00 1.486899707401066806e+01
-5.443206111519601542e+00 -2.939273710768482317e+00 2.030329848238142532e+01
-1.481019771254529216e+00 -2.050602581440929661e+00 1.962953811145510130e+01
-5.485627239934780519e+00 -2.781918642512534845e+00 2.033329739529773050e+01
-5.692558125817802406e+00 -2.776132462592538097e+00 2.036957284868451623e+01
-7.519533273400555551e+00 1.845691280580571636e+00 1.973950714642038307e+01
-8.470129167742928900e+00 -1.740101724400574090e+00 1.964219888259941982e+01
-8.450442524240781239e+00 -1.752943879227810475e+00 1.947045819130845601e+01
-8.513510202331350030e+00 -1.584151522692224257e+00 1.925656688863510979e+01
-8.459661573187588601e+00 -1.517692776825049883e+00 1.904005710292652864e+01
-8.295246698214938874e+00 -1.948833098748631310e+00 1.962172257465057257e+01
-7.395668970046608059e+00 3.309522290795893440e+00 1.857277719733886912e+01
-3.899458997010853079e+00 3.368445413293478907e+00 1.502526813321125942e+01
-3.551487082979124743e+00 2.929469460371290523e+00 1.903220617923099311e+01
-4.764336299327411872e+00 4.739106828438197638e+00 1.723532160520281664e+01
-2.414910623380949861e+00 -2.605493074145206478e+00 1.775733799792272194e+01
-8.527475672176546340e+00 -1.365232262427852561e+00 1.887973035456031923e+01
-3.340149417490244854e+00 1.016237358863442353e+00 1.434634487531729619e+01
-6.216498485206345848e+00 2.907529079044917530e+00 1.483544125892015941e+01
-8.654003519053905080e+00 -9.633489272979174345e-01 1.927000210353707033e+01
-7.646065845716304210e+00 -2.177049296068843454e+00 2.036353868017667779e+01
-4.483874613233917117e+00 -2.745817817515149306e-01 1.695450323530259240e+01
-8.280376988667285332e+00 -1.110491414323515391e+00 1.805355765442295635e+01
-5.957694909659681848e+00 1.902517901966838121e-02 1.701266623261612310e+01
-8.244623771831069092e+00 -1.059943904171855689e+00 1.789233537238961347e+01
-3.534951115803496080e+00 4.387648344089820185e+00 1.725739668721304199e+01
-5.528928837346176905e+00 3.399150021067310234e+00 1.502522988580741625e+01
-3.808700579717978485e+00 -2.600522339404411021e+00 1.833317614065631673e+01
-8.020186715272512146e+00 2.134500984050760941e+00 1.872085220139961237e+01
-5.355879245063904115e+00 3.088306050243304846e+00 1.438184542426641954e+01
-7.495922364106907265e-01 1.752934049522844706e+00 1.840662529543154946e+01
-8.062891475824159215e+00 -7.380902167511846912e-01 1.729332542974474407e+01
-3.495560767243933054e+00 -5.412813872389556913e-01 1.675630829143617362e+01
-7.873684636784242130e+00 2.482065848294333854e+00 1.868535340895197194e+01
-5.862298398192074877e+00 -1.381558816500805476e+00 1.824050271790251898e+01
-8.066503976034013590e+00 2.200948174805935909e-01 2.006611323201375185e+01
-7.242688191760576544e+00 -3.690435693931705119e-01 1.684878995484677588e+01
-3.859770403314515708e+00 -2.819215517568519402e+00 1.865111775591768506e+01
-8.965578902302899778e-01 -2.044725442895074963e+00 1.932625832267274646e+01
-6.174714468851862925e-01 5.152301671515702175e-03 1.674568306693651820e+01
-7.297054134910703205e+00 -4.603795318479726451e-01 1.691890828897465937e+01
-5.842158350936384359e+00 -5.205474612101466114e-01 1.761732652331013682e+01
-6.062909922696112730e+00 -1.079213772458833986e+00 1.808663489050293904e+01
-7.491977783449748074e+00 -1.634942114599847174e-01 1.661418448891454247e+01
-8.412145179299240993e+00 -1.049132569601472609e+00 1.809309075557666446e+01
-5.473188196826726859e+00 -5.059032336332418556e-01 1.753075353669634140e+01
-5.091714992702965681e+00 -6.370603874645114351e-01 1.753624963474905130e+01
-2.657611224680796802e+00 -1.820196944236512460e+00 1.730393866423709781e+01
-7.100996706035424211e+00 -8.636958632981597273e-01 1.791391569514125948e+01
-5.586813805037670555e+00 -3.050824979281641980e+00 1.911335032159078295e+01
-7.801500633300529230e+00 2.958099782529084898e+00 1.777055779727531970e+01
-1.257007095777299188e+00 -3.583647265839353668e-01 1.556447688989684863e+01
-7.789099053837045261e+00 1.916773985748125186e+00 1.940000501809469213e+01
-1.258402927041105679e+00 3.364812232839552664e+00 1.824391065500000408e+01
-2.666819649741385412e+00 -1.612408645661751461e+00 1.712042670324244753e+01
-5.772955904502485858e+00 3.877104439950548986e+00 1.906663133287230849e+01
-3.493522607950982017e+00 9.654489408646826920e-02 1.958874380329381992e+01
-3.074400668872071307e+00 -1.122985222407585360e+00 1.960167305886797706e+01
-1.271710592881284629e+00 2.035946350220907419e+00 1.639596245705330446e+01
-2.577408631432117403e+00 -1.573264971853864491e+00 1.695655095301102122e+01
-5.577789058908297015e+00 5.098405695358608547e+00 1.831359603294987082e+01
-1.657204377893237046e+00 -1.652105046459989568e+00 1.623722860300465598e+01
-1.451496959971224410e+00 -1.568110823763808614e+00 1.617611676021352096e+01
-6.765827367369345424e+00 3.913316979471678891e+00 1.864006919658316619e+01
-7.499878414266839322e+00 1.309733421970041833e+00 1.619548446829264421e+01
-1.039809479740057441e+00 -1.823142488912275594e+00 1.652322990861541641e+01
-7.662298227339583434e-01 -2.753198384874776750e+00 1.870620739895487716e+01
-2.087002814051705180e+00 -2.665086455752772920e+00 1.950622321020098227e+01
-5.643744165581105143e+00 2.392124721638910323e+00 1.359118515197309662e+01
-8.954798965237162900e-01 -1.762826755654562261e+00 1.661158880986313235e+01
-1.029670818929353526e+00 2.691530014226795942e+00 1.834145649621162377e+01
-4.935493713368272140e+00 5.012279892782328439e+00 1.780301216305243273e+01
-8.796353478991038033e-01 -1.876858137760957446e+00 1.932833264222865566e+01
-2.737853167159824519e+00 -1.462981147429003759e+00 1.706387060994142857e+01
-1.076209754387940531e+00 -1.859559959844600874e+00 1.953582997289992917e+01
-4.100701234566270337e+00 -2.084280887660986181e+00 1.995435683741797916e+01
-4.754447794593727572e+00 5.058188599249804795e+00 1.822124196478702984e+01
-1.673751393976296020e+00 -9.171729851972856284e-01 1.964923405614510799e+01
-1.112209606291017394e+00 -2.308760215280547534e+00 1.945425784085588461e+01
-2.151783524263517933e+00 2.343926847084033760e+00 1.902839391495171739e+01
-7.165119363469821812e-01 -1.991458996930207226e+00 1.792319974010238681e+01
-1.679773322501077581e+00 -1.995394994131623578e+00 1.655503747008811999e+01
-1.489410459139125509e+00 -2.463148380507564461e+00 1.953753060358238614e+01
-6.889613220491948020e+00 4.465324205081790510e+00 1.761201792016358425e+01
-7.674441763873018019e+00 -1.948707418031880634e+00 1.921994633517156004e+01
-4.869298227445060689e+00 -1.032917748094322352e+00 1.771325765324927559e+01
-5.310143361806400009e+00 -3.207481978865047267e+00 2.010569080637726458e+01
-1.710933419517979281e+00 -2.663705625869517313e+00 1.953167659881075124e+01
-2.840188877448597271e+00 -1.041485596323614926e+00 1.667381225358149166e+01
-8.694085449016372147e-01 -6.792702596568179763e-01 1.934134394283404745e+01
-6.672897834451815946e+00 2.952211080332765469e+00 1.545507744113434612e+01
-2.494798124943300444e+00 -2.688388409944407087e+00 1.946089061404599718e+01
-6.311626036549222718e+00 -1.567282349849238088e+00 2.044377130986790903e+01
-8.582804456734097753e-01 1.990413738886839923e+00 1.847750423371318007e+01
-7.751656716377757661e+00 2.047688665554282750e+00 1.933914372233569523e+01
-1.987170482915387559e+00 3.360268064083300921e+00 1.705973262691806625e+01
-3.283098748514458265e+00 -2.926815412472517863e+00 1.945036241738288751e+01
-3.864513048038051846e+00 -3.060497057906952811e+00 1.964620689444547352e+01
-4.571765659917955027e+00 4.116144098619488823e+00 1.878544705277253613e+01
-6.708932485169598614e-01 2.131343124798376287e+00 1.799173479666415076e+01
-4.100012212244052989e+00 -3.125598488087633520e+00 1.965406757530029225e+01
-1.309482490642408514e+00 -1.881808284596396375e+00 1.963379814685356806e+01
-5.070108687156522187e+00 -3.201542184819825110e+00 2.003126765128116560e+01
-4.073517657432556227e+00 -2.811976631429426554e+00 1.867230711027886159e+01
-5.369606780085846687e+00 4.941550276050969970e+00 1.761032133783300324e+01
-5.268965570521642938e+00 -3.091661113853657383e+00 2.021417492053572929e+01
-4.497595046015320008e+00 -2.780018041884936508e+00 1.858906370695298804e+01
-4.262868835373613052e+00 -2.458712149354229659e+00 1.834711030912487573e+01
-1.063416803788766352e+00 8.317621911581795091e-01 1.573620401213183939e+01
-8.406443479502524241e+00 1.295676567225087172e+00 1.712181676294009591e+01
-6.208025149088277628e-01 9.938811942250369569e-01 1.848569159978017851e+01
-1.825734740448184956e+00 -1.301451755969978530e+00 1.963323598959479099e+01
-2.254904004161075282e+00 -2.432600213228190533e+00 1.730971022853471553e+01
-5.477620810076678559e+00 -3.149342693557823480e+00 2.019349400772400926e+01
-8.143295078703539636e-01 6.766282577425770661e-01 1.595550419644212425e+01
-7.347758616759043626e-01 1.817578570222474266e+00 1.720667727983400042e+01
-7.784399922486336942e-01 -2.577426340898547608e-01 1.917933705163182978e+01
-5.732949728756862484e+00 -2.983808550043920427e+00 2.032575751961868704e+01
-6.747980872466778024e+00 1.810960479050185201e+00 2.009748031660938139e+01
-6.092565546756805617e+00 -2.907716484038455285e+00 2.035371217853072423e+01
-3.751024640794937248e+00 7.400845326191627382e-01 1.512100493375329435e+01
-1.710246927613673806e+00 2.415457782147245602e+00 1.618715968084172729e+01
-6.482294340120430931e+00 -2.588727256835882784e+00 2.043930536453171598e+01
-2.938779538582432238e+00 -6.830131358726166946e-01 1.630694065717290542e+01
-4.090125838029464944e+00 1.551679582773901389e+00 1.390920771537300382e+01
-4.083929947736429256e+00 9.536589566070127200e-01 1.493848391776813500e+01
-8.246359716073556001e+00 2.686738662515817389e-01 1.980340837861065850e+01
-8.101359643623311513e+00 -1.184076848943156790e+00 2.029305901049670169e+01
-1.103939211211635962e+00 -2.350192783153891796e+00 1.713738631344721952e+01
-3.482392812042581554e+00 -2.905776906687453476e+00 1.924717620141290197e+01
-6.328426913136759868e-01 1.824488851713754967e+00 1.809299734258967263e+01
-2.835731247578413772e+00 2.880809564078812279e+00 1.518029069988918778e+01
-7.105262758235563858e+00 -2.347262065833683131e+00 2.044114593683721992e+01
-7.327867030561467487e+00 2.825970626248763828e+00 1.917300286165883350e+01
-8.462753683665528825e+00 -1.699764755976035824e+00 1.978076553659312609e+01
-1.508824503344173840e+00 -1.876443327357147917e+00 1.965910451888249710e+01
-8.285528914832429592e+00 -1.183031835886764638e+00 1.824412858469768750e+01
-4.172379356275328632e+00 4.977368470784130139e+00 1.805946593665445832e+01
-8.287936726632626261e+00 -1.356557704778249773e+00 1.862044871374521549e+01
-4.672768908795434051e+00 -9.261723944874751258e-01 1.993533236129477260e+01
-2.851487816614020510e+00 2.482530989557973911e+00 1.438795953595820620e+01
-7.517242030786218443e+00 -2.979469524914373224e-01 1.670554353094701483e+01
-8.182202546768305496e+00 1.907464340094623179e+00 1.816601117996495773e+01
-7.394616798803239632e+00 -5.560734284407181649e-01 1.700811909920610177e+01
-7.507443306608371891e+00 -1.023372361352744342e+00 1.790411933379854403e+01
-5.692708176507965234e+00 -6.560502694652470268e-01 1.772104495623215925e+01
-3.785660417420918300e+00 2.829707683322800982e+00 1.912103455993851142e+01
-5.503980900175888813e+00 -6.499774350819437219e-01 1.767726672417493106e+01
-2.320514904422736002e+00 -1.799699771855865160e+00 1.648956899087476202e+01
-6.516830451104590693e+00 1.525505221895472330e+00 1.489433760732635292e+01
-2.250663721284718033e+00 -1.769155108299406587e+00 1.636755765791201256e+01
-3.321099130500703378e+00 -3.023193918585953543e-01 1.959138045695473451e+01
-7.296426256779966479e+00 1.132264163524165923e+00 2.023626900798380390e+01
-5.959045826757757069e+00 4.509320461445287975e+00 1.865074801307219232e+01
-4.747847797530990732e+00 1.354011828584384292e+00 1.447713565579588035e+01
-8.144632933723254808e+00 2.946768920951992055e-02 2.003423209935264637e+01
-1.719935757345032457e+00 7.194954900011361065e-01 1.944605262484272501e+01
-4.660689978895296903e+00 1.580666317147860211e-01 1.652018286053452911e+01
-5.762289859470477893e+00 3.275754794430564054e+00 1.933689267981494098e+01
-1.653206482410846556e+00 -1.770031944450420669e+00 1.635081771155786967e+01
-8.529439395045617101e-01 -1.844017308025171387e+00 1.673978044329156845e+01
-1.475850033366311154e+00 -2.486070541976348025e+00 1.724625647398291406e+01
-5.655685333043624086e-01 -3.888654593648330771e-01 1.835918355305805605e+01
-3.098889842375947890e+00 -2.321556622419815419e+00 1.969236966614099416e+01
-5.304459840642150148e+00 1.243168118649504716e+00 1.494091631809439846e+01
-7.075834709954897939e+00 -6.706385109979637882e-01 1.765407542676305397e+01
-2.347727510409403529e+00 3.769057919933299416e+00 1.722165576451167013e+01
-6.686132482043919190e+00 -2.184743922102837743e+00 2.049431143175900516e+01
-4.745756615066674122e+00 2.692924924655881291e+00 1.935860030934614073e+01
-6.299469627202932465e+00 -5.823711134455511473e-03 1.698768956640867245e+01
-7.304615144256071391e-01 -2.056004302597256306e+00 1.891372807034163017e+01
-5.489380710034166277e+00 2.936435891145299237e+00 1.423766926476156769e+01
-8.287749779410631845e+00 -1.644655412878180956e-01 1.705447781654286743e+01
-1.237986941512589922e+00 6.293547881218206630e-01 1.536863321806030669e+01
-8.243902920063838069e-01 -7.349440900013826106e-03 1.600383646335328436e+01
-1.563834503433675138e+00 3.362719918469005087e+00 1.846807548088701978e+01
-6.989454714248973799e-01 -1.826934256550041491e+00 1.733699050764321115e+01
-7.395358645719671387e+00 3.121589106543392944e+00 1.881331512897856229e+01
-8.996600325142128929e-01 -2.253156997573472431e+00 1.929629740304585894e+01
-5.794282519253239450e+00 5.123168260345222436e+00 1.823963617107940038e+01
-7.525768336333773512e-01 -1.462983850566128119e+00 1.914266018428495286e+01
-4.855696375366767015e+00 -3.189120890418169374e+00 1.963004156688112189e+01
-7.191297448227832234e+00 3.936817472231004977e+00 1.802775439753585474e+01
-2.933410463055117656e+00 -1.027986586818279147e-01 1.951673302249212227e+01
-1.312160793898714317e+00 -2.676294169997224692e+00 1.943259920778992367e+01
-3.649213507153872271e+00 6.552645485918867641e-01 1.517473831483217239e+01
-5.314777251911057654e+00 2.526388274983063509e-01 1.666239868883890196e+01
-1.474303609490683398e+00 -2.633055845513325721e+00 1.949329101789879459e+01
-1.859701188139893269e+00 1.840355884530643582e+00 1.520775606437858229e+01
-2.231765661818512658e+00 -2.711688197231863384e+00 1.946542373559103467e+01
-6.415227185959462286e-01 -1.438362107274737012e+00 1.713614303746777168e+01
-8.204667357658983917e+00 1.460905275217861954e+00 1.895566706986497607e+01
-6.122362266293505328e+00 1.622048901748230465e+00 1.442500948511596093e+01
-8.648249808771577563e+00 -5.576086457136222307e-01 1.805451658217168287e+01
-7.104992098640717790e-01 9.419069005343153611e-01 1.875634519210839457e+01
-3.672403992832257824e+00 -2.985068921635396499e+00 1.947186996779075585e+01
-1.722625751511329684e+00 -1.121225813469413080e+00 1.965097922754118898e+01
-7.093899408871354950e+00 -2.785071909786128508e+00 1.983818236457082307e+01
-8.897754028931988968e-01 -2.390129253735241655e+00 1.731503258034573989e+01
-6.196196381660547203e+00 2.358873582287428938e+00 1.425897324723628046e+01
-3.865163257223038329e+00 -3.040966887804950503e+00 1.952009491976214761e+01
-3.897887917258245682e+00 -4.360343547624198068e-01 1.689430466299512190e+01
-3.850401685908290350e+00 -2.018242714364703261e+00 1.796733982574272304e+01
-8.358966102353804217e+00 1.463870481418329428e+00 1.771663644435941265e+01
-3.726134926923452273e+00 -2.975896724332213195e-01 1.967100830331478178e+01
-7.525475965369818887e+00 -7.704498596215807460e-01 2.051445119247026483e+01
-5.462900164081233356e+00 2.269535556586484759e+00 1.341328083048233921e+01
-6.088390528688087500e+00 -3.121327974051539833e+00 2.018934599274458819e+01
-1.700864550373492268e+00 -4.859121777041556234e-01 1.960390878363709888e+01
-6.298718205889387356e+00 -3.014626957498417248e+00 2.030881531113488947e+01
-6.519421453796011789e+00 -3.014367437255057069e+00 2.028508958616984259e+01
-4.896280904651709953e+00 -6.844349630126793649e-01 1.749257168895117687e+01
-6.479813627274223720e+00 -2.797302804746660598e+00 2.039759130558941891e+01
-4.495750526971849403e+00 1.612624741707842313e+00 1.397238404198470718e+01
-3.267970897563635013e+00 -1.400668979494558819e+00 1.736879635226302909e+01
-4.511393790247198332e+00 1.441937668374595916e+00 1.961964309456526578e+01
-3.693363337276384772e+00 4.822825932731133136e+00 1.801408881341120960e+01
-6.711636416478372169e+00 -2.746779329194461994e+00 2.040932099103479302e+01
-2.455368091519991136e+00 3.054983311701764848e+00 1.604491147901287817e+01
-4.126433364303913720e+00 1.676037200046238906e+00 1.949439319204212140e+01
-1.223235182901656781e+00 -1.727546207029553527e+00 1.961611326712595016e+01
-3.496397673572276155e+00 3.616556498367410333e-01 1.551831958197318428e+01
-7.092044219360793988e+00 -2.569183556061321205e+00 2.041186843324507194e+01
-3.267270166929151287e+00 -2.822363219741502505e+00 1.865991004499602823e+01
-8.047071842569160083e+00 2.169048679246181610e+00 1.852041825882443860e+01
-8.365216196043366637e+00 -1.819453555352166019e+00 1.990494547414249027e+01
-8.444407462349893478e+00 -1.705962068537650422e+00 1.932273032593559137e+01
-7.536808549514050881e+00 -4.838031570212251165e-01 1.686854176692824225e+01
-3.431788852831167080e+00 -1.605826345030375135e+00 1.757490606272933675e+01
-2.631395104521043748e+00 -2.750710228054253470e+00 1.844385045189946126e+01
-7.475843727398803651e+00 -7.890134416610592449e-01 1.743374896237721927e+01
-2.929120822062966756e+00 -9.023334130838336353e-01 1.956856141069848221e+01
-3.466478829446792531e+00 -1.831271526173668507e+00 1.772663524173617233e+01
-6.836836985319706406e-01 3.970970636978201074e-01 1.598261974700616506e+01
-6.040009028859109286e+00 -9.046091032016430056e-01 1.795594974297627644e+01
-2.755183640505837861e+00 3.893624459244005465e+00 1.707859643931020699e+01
-6.165845749907259865e+00 4.738771486429225632e+00 1.742785067698708090e+01
-1.286401020584421850e+00 -2.770742069968976651e+00 1.775642340593037360e+01
-2.567219648673937371e+00 -2.196213371066695785e+00 1.755227431349594625e+01
-7.130218725673908020e-01 -2.251672363849704261e+00 1.893355696798950660e+01
-6.050641662096000184e-01 1.554323179964397061e+00 1.813042392859874852e+01
-2.550805677497560708e+00 -2.099435711835367258e+00 1.744662062534689184e+01
-2.504785916543450952e+00 -1.836395704794834272e+00 1.710066758677178100e+01
-2.229957070902060412e+00 -1.934622413437469879e+00 1.654165264480091579e+01
-3.042716277815634918e+00 -2.018471826004757830e+00 1.768965864146837319e+01
-6.087446880270102056e+00 -3.208707879046141187e+00 2.002744278783667298e+01
-9.068163213006360523e-01 1.010360223669964919e+00 1.619642981432964390e+01
-2.047272775372724229e+00 -1.444339434762543339e+00 1.606092186206651107e+01
-2.334103888088101098e+00 1.939185086259237245e+00 1.916240795556158716e+01
-2.079430407458641383e+00 -1.987403022562935329e+00 1.654402173801804921e+01
-5.087318834649921406e+00 3.943270488419728381e-01 1.638661488674026501e+01
-7.084443824273766843e+00 -2.108489659475591971e+00 1.908729335811827710e+01
-4.262711750038040925e+00 -2.877652654172745628e+00 1.886646525424963627e+01
-1.184437675779775434e+00 -2.641226877574845311e+00 1.939362764432726394e+01
-1.501399919780619596e+00 -2.828905209049972669e+00 1.943015530323326701e+01
-2.705398988881347222e+00 3.004857842864473660e+00 1.561628977908135241e+01
-4.723150074263837261e+00 3.945525475449707109e+00 1.888747753509453631e+01
-7.618305751568134276e+00 3.348314861459469327e+00 1.737925855443926437e+01
