-7.792481817240315856e+00 -1.642298982380348882e+00 1.617877657380757839e+01
-2.207022171462767357e+00 -3.743732325353700041e+00 1.758320248885439341e+01
-7.021842639950773624e+00 -1.882859424065938647e+00 1.572274143528904133e+01
-5.170316467011696560e+00 1.758501261663989901e+00 1.330502059551971072e+01
-4.796464231476272211e+00 2.845725187642612841e+00 1.609520970251515948e+01
-7.027118993967649274e+00 -2.994786803780474571e+00 1.702068931181075939e+01
-6.008902073120854226e+00 3.205904340627757421e+00 1.871026956433216171e+01
-5.440753191900799202e+00 -3.182258440013995937e+00 1.705497524188513481e+01
-5.589775086598683274e+00 5.506152882063158893e-02 1.511584146447335897e+01
-1.770930343715155786e+00 -1.812616868634126188e+00 1.855499115108617403e+01
-2.152689060684251920e+00 1.642616431459322346e+00 1.457413135769569479e+01
-2.462029996123588305e+00 7.457652571911198569e-01 1.395241622755120048e+01
-6.807962351410638213e+00 -1.881052435379396037e+00 1.570555072432156507e+01
-3.229302016164956601e+00 -3.033408392412572319e+00 1.866334076877103954e+01
-6.606538776546565295e+00 -1.852906975618108021e+00 1.574161879176516621e+01
-5.798366963946316233e+00 3.174789035762357603e+00 1.878967931880373854e+01
-2.062533131224212557e+00 1.684707931035904327e+00 1.485360500230695990e+01
-7.943000987951218672e-01 1.373682046855777106e+00 1.826952060602841854e+01
-6.221515233956851354e+00 -1.465059860257934776e+00 1.572900634499650252e+01
-2.611764962347936425e+00 1.991546807905297256e-01 1.461532690265697099e+01
-6.076334146212881926e+00 -1.666153308668319788e+00 1.611649321372122401e+01
9.156368016527879905e-02 -6.703203945418451104e-02 1.685909890605856631e+01
-3.829874434340886591e+00 -2.840713134050938837e+00 1.675667941525243876e+01
-1.845372812125611217e+00 -2.355252466228209496e+00 1.621094102793385971e+01
-5.636532019916361769e+00 -1.486788267076738723e+00 1.637294416876300929e+01
-6.190019260159242975e+00 -1.770361039958212590e+00 1.605701429591791296e+01
-5.178325113012346215e+00 -2.633345884478427656e+00 1.903683783133124408e+01
-6.239522169850112654e+00 -1.868268612170118637e+00 1.609972887892748261e+01
3.574844220766701386e-02 -5.207255968652075850e-01 1.610162037900977694e+01
-6.389951661159303242e+00 -2.316319219910020877e+00 1.648328365891983438e+01
-6.996358738439243830e+00 5.230420343547202977e-01 1.520561793961453034e+01
-1.199607156899690441e+00 -3.097286049437729893e+00 1.626300660302127099e+01
-1.218399910301340094e+00 -2.988939623673450452e+00 1.616136699769196028e+01
-2.418742903846850201e+00 -3.209539572007195085e-01 1.508930450713869575e+01
1.969151025703066993e-03 -1.107103955932732919e+00 1.554516800977046742e+01
-3.205856933419052091e+00 -1.247919961595805205e+00 1.891363629906448196e+01
-7.581480333413414208e+00 -1.886878544154791282e+00 1.610289030926016451e+01
-7.570985410812552274e+00 -2.578845125803359561e+00 1.709476526133773788e+01
-7.658319385174597649e+00 -6.829735956887982296e-01 1.596067188161877581e+01
-2.147543225540260003e+00 1.248044674355822670e+00 1.396362816856659705e+01
-6.805188912743129204e-02 -1.158709664998846200e+00 1.784659814153294022e+01
1.030331546590353142e-01 -2.934563251625038838e+00 1.701927167949382991e+01
-1.111272633600640880e+00 1.404505959575977236e+00 1.605779319300014762e+01
-7.006841532620990520e+00 -2.260810603950332620e+00 1.613077623505546754e+01
-2.044767639016714655e-01 -3.583026414244304902e+00 1.718067897001996513e+01
-2.443438849520493061e+00 6.094504588673519407e-01 1.883892787874542663e+01
-7.319775202088375288e+00 -2.784283365246794872e+00 1.828413865674505345e+01
-4.181662690000643501e+00 3.473254115346017468e+00 1.732709762713777124e+01
-1.280989989031713350e-01 -3.169556900699018964e+00 1.749931832176742219e+01
-5.204256816033947963e+00 -3.129891481495521433e+00 1.894329136941331271e+01
-1.402281208609678753e+00 -3.777442421210687407e+00 1.740581280439196021e+01
-4.177063396162328246e+00 -3.942623032505543357e+00 1.838064556628460267e+01
1.070482130596317472e-02 -1.391423512055777412e+00 1.771662240796011289e+01
-1.283047087233339267e+00 -2.607185546745147686e+00 1.834446779557640994e+01
-6.427650930794119866e+00 -1.884849434573018900e+00 1.590547076099558765e+01
-3.210356782699161471e+00 1.466231297702861092e+00 1.347167276063886376e+01
-4.401314719861970204e+00 3.548794125109668851e+00 1.889680076685429455e+01
-7.386207746628886461e+00 -1.020508463435290114e+00 1.854808135446290507e+01
7.666153697930008781e-02 -3.156893411764271740e+00 1.656390176825119553e+01
-1.361638034987251666e+00 -8.170643766763835414e-01 1.851215757920546778e+01
-6.654753174877654942e+00 1.519063255130315149e+00 1.562999763529863273e+01
-1.014236268756040449e+00 1.484151638123132777e+00 1.639998930556130219e+01
-1.191364380981406956e+00 2.012200472305641696e+00 1.705272616280199216e+01
-6.956707744537071747e+00 -3.556139558752982488e+00 1.806799258425027332e+01
-6.859992041663236506e+00 -3.647915602361463616e+00 1.776913947639685531e+01
-7.228573086049723706e+00 -2.945273875672750119e+00 1.707611435125463473e+01
-7.671585221565451640e+00 -2.395576910027430007e+00 1.705175850533682436e+01
-3.378852770280642570e+00 3.170681524179690847e+00 1.891806449232326415e+01
-1.432045915999905272e+00 5.317655839423127695e-01 1.416620036727042375e+01
-4.589500833725357332e+00 -3.723977970630230061e+00 1.742905062974066155e+01
-7.583598117746564782e+00 -2.354230843153416686e+00 1.670871294138621366e+01
-2.762503783457070039e+00 -1.681746054226838094e+00 1.623670773603203443e+01
-4.768474756246466661e+00 -4.537912540673588735e-01 1.912909262523625742e+01
-8.102004591044981163e-02 -2.107544809658749685e+00 1.776809116851667270e+01
-7.634623109750361181e+00 -1.950883760027472213e+00 1.629788385819439256e+01
-6.595019428949119522e+00 -3.204475052999211648e+00 1.871603858850852120e+01
-7.160162594960145732e+00 -2.741861192418187931e-01 1.502167499280032459e+01
-9.843491476054012645e-01 2.201834423320691236e+00 1.806126437395373685e+01
-1.412386158885116372e-02 -3.351009792605869286e+00 1.662420196191652977e+01
-7.702004074991645410e+00 -1.757359213753128202e+00 1.613556001453865818e+01
-4.412141313048953406e-02 -7.009977466028450843e-01 1.550530832279036630e+01
-2.783005615740612892e+00 3.667860844666027909e+00 1.829968202772771591e+01
-2.631791777892541262e+00 2.486814482873600962e+00 1.587338413487132627e+01
-4.028948134565244033e+00 7.702686738734243477e-01 1.420268844031840771e+01
-2.407600574482178679e+00 -1.927357993472480935e+00 1.625907186717035913e+01
-7.936558444813781588e-01 -2.118540743699637741e+00 1.500507656190608330e+01
-4.953223892177461174e+00 -2.654783322327456840e+00 1.900791010831409622e+01
-3.767116242851480834e+00 -1.056999771509725683e+00 1.901340239339682014e+01
-1.016486203937808419e+00 -3.495892365871496210e+00 1.665144160256879147e+01
-1.249993428585874256e+00 -1.689988498843921771e+00 1.483258284148552875e+01
-2.582476095305125341e+00 2.161782047137745799e+00 1.885445775875502861e+01
-6.349450758429823871e+00 -1.776986736349743357e+00 1.586643511713656451e+01
-2.096927823556644643e-01 -3.357377974200760562e+00 1.639285909459449542e+01
-4.033121300594709191e-01 -3.723233685939172588e+00 1.721429948843126212e+01
-3.590216051625348292e+00 3.757102552614233648e+00 1.886266709629396487e+01
-6.401867536392041202e+00 -2.154281502973479867e+00 1.628109841518235967e+01
-6.607538514369666771e+00 -2.404460948978582202e+00 1.645631512808583707e+01
-6.136787699794929996e-01 -6.980957099829920853e-02 1.475512276673803669e+01
-3.814188687323469829e+00 -1.446029350427585403e+00 1.899107730042738851e+01
-6.827498653584687105e+00 -1.063209956251214727e+00 1.898836896856046863e+01
-6.418195784530251302e+00 -2.525258488295885506e+00 1.664565652322126610e+01
-7.013463575768049907e+00 2.177094498761635855e+00 1.836410391803098108e+01
-6.431278104886257729e+00 -2.787159630700645874e+00 1.682710980582607263e+01
-7.925488328963070650e+00 -9.273938672878824230e-01 1.736257564067286197e+01
-2.768528038392402912e+00 -1.442687912400105521e+00 1.879666733336501849e+01
-3.607644790358390363e+00 -2.024311474403023281e-02 1.501944077301554259e+01
-6.199916740845170970e+00 -2.555994267139749088e+00 1.673096534679438108e+01
-6.914830747974404446e+00 1.555053995351645568e+00 1.858231514519522776e+01
-2.074818422723862632e+00 -8.523793140490770748e-02 1.449009169383819184e+01
-1.003951633088116857e+00 -2.416723733091153292e+00 1.829274810553336650e+01
-5.057273817060360166e+00 -7.022224964960960270e-01 1.590353574323309616e+01
-8.908734815691309039e-02 -3.465823529643971668e+00 1.710748560505125582e+01
-4.219290333031512574e+00 -1.522038319840213205e+00 1.630184664415169138e+01
-3.410062843450942793e+00 -1.569490673539806203e+00 1.622891549835774683e+01
-5.756246474192845408e-01 -3.791653005843555135e+00 1.737893089894759768e+01
-9.890687632404677743e-01 -3.841685299906282047e+00 1.758905425511324339e+01
-5.872431787748944032e-01 -4.206649209210062690e-01 1.825413467214918128e+01
-7.862032451135512190e+00 2.052382729445328957e-02 1.738438251233180765e+01
-2.058715700388598635e-01 -3.597746274639108677e+00 1.698708940943854273e+01
-6.215898534871189263e+00 5.631198470978774351e-01 1.444438851974500082e+01
-3.161331182410799023e+00 3.316778096633105744e+00 1.725724032835342214e+01
-9.761583941487125271e-01 -3.007550053488190933e+00 1.820907844042081436e+01
-1.805043595580935190e+00 -3.839906951604032948e+00 1.780415455132360236e+01
-7.446199583509447884e+00 -2.901062874275086578e-01 1.557499217180668083e+01
-4.001849806467456361e+00 -3.933208906011764761e+00 1.835341846957970446e+01
-6.612552481814174321e+00 -3.844134852549411896e+00 1.801602654521753877e+01
-6.590858740500793012e+00 5.745957233803066222e-01 1.447169012742702066e+01
-6.170102137011564736e+00 -9.657663378018387368e-01 1.548649323816671952e+01
-2.170469598367801289e+00 3.412504743939657637e+00 1.850352581137652308e+01
-6.764633292389300223e+00 -3.744717981461974432e+00 1.800497904828455731e+01
-5.993556645178964359e+00 1.514690177725207310e+00 1.447733509704717747e+01
-2.640109336167199672e+00 -3.034662041879421235e-02 1.886980829834763185e+01
-7.524341481394829501e+00 -1.826507932913315368e+00 1.594984070873185900e+01
-7.217857459323790970e+00 -2.154166251269531429e+00 1.606296051809620806e+01
-2.614945548544928555e-01 -3.793413024983685045e-01 1.805703792802616547e+01
-6.994653607416108088e+00 -2.092324307037737974e+00 1.592735250838009264e+01
-7.481529224918327614e+00 -9.840454792078912050e-02 1.572250522132466344e+01
-3.394704181955080724e+00 1.158109541761797701e+00 1.904748383299601144e+01
-6.813041214229586195e+00 2.069362965588460668e+00 1.667021845665819413e+01
-3.581498364541300550e+00 1.275010665975012003e+00 1.369184457944805544e+01
-6.435421590334775566e+00 -2.075443993112962904e+00 1.614313147383978375e+01
-7.758086878541115006e-01 -3.809010441883570408e+00 1.738975525487655105e+01
-4.600378381067139699e+00 -6.308403955519107376e-01 1.577122485847545263e+01
-6.053472648785276355e+00 2.338739395903411289e+00 1.627144036777550795e+01
-6.570327859470505238e+00 -2.589606524717366742e+00 1.664699657196086591e+01
-1.998195369759364182e+00 -3.587381257199986351e+00 1.699884926287648668e+01
-1.838333012757468743e-01 -3.248535953744892790e+00 1.623016774862301403e+01
-5.402958928875060352e+00 -3.992722819161788728e+00 1.803743830582031293e+01
-5.403165255502727859e+00 2.779970444456740353e+00 1.893847395703703640e+01
-6.775041958927528363e+00 -2.031652635754597203e+00 1.894650479841814317e+01
-6.210817333047844890e+00 2.764090941548561275e+00 1.735602227140164544e+01
-4.212707986996880649e+00 9.705403668338868917e-01 1.401759703325879158e+01
-7.516329220128677768e+00 2.191452355108202410e-01 1.813716156357902420e+01
-5.921595605092902836e+00 -1.322761628583134286e+00 1.602521081791806878e+01
-2.310584055133112213e-02 -3.118082802334424031e+00 1.621127998111952095e+01
-7.432330538233355988e+00 1.832990323163461888e+00 1.767899193552968384e+01
-5.829653896782408751e+00 2.171422764749889822e+00 1.563138760114499703e+01
-2.717773901791321056e-01 -1.066739427771072002e+00 1.494853559162526935e+01
-7.698160933232951919e+00 -3.140573690851965472e-01 1.613986665063428561e+01
-7.695127735287054627e+00 -1.624211587090773623e-01 1.788334348376536198e+01
9.023273642126183880e-03 -2.924952970964565413e+00 1.621775671552293474e+01
-3.981498379382185870e+00 -2.041362715681929618e+00 1.895479202123586404e+01
-5.850020299394628864e+00 3.464345169038580696e+00 1.847316983243254285e+01
-3.596399015958912315e+00 -3.863497114627578277e+00 1.820302693338299704e+01
-7.310881264810129565e+00 -3.108513375528276335e+00 1.763416507378856934e+01
-6.156765734602143603e+00 3.135441528873717854e+00 1.867743116285742033e+01
-4.625142319881180519e+00 2.530857060412541770e+00 1.507061124454981993e+01
-2.220859519992770093e+00 -6.736423425592364955e-01 1.529491839758858518e+01
-4.804784167807925499e+00 2.966284568204936356e+00 1.897443897169855731e+01
-5.559629325808916001e+00 -3.062376530912562789e+00 1.898869839306476237e+01
-6.597453450279766152e+00 -3.820575409855945459e+00 1.783234671897731616e+01
-6.189492176542669144e-01 -2.734285542006133607e+00 1.560830003311878400e+01
-7.502393052068194734e+00 1.736979858204759974e+00 1.785943843778789031e+01
-5.406061985239876577e+00 3.745486362503539279e+00 1.870513111465108480e+01
-1.556621979701881264e-01 -1.058093672458028323e+00 1.505632914412712253e+01
-1.939624736614166789e+00 3.053057216365898885e+00 1.806248856651150092e+01
-4.196795297607898156e+00 -2.244872624625028568e+00 1.895825267209139398e+01
-6.167098050322685765e+00 9.558854158860455863e-01 1.428308509942821658e+01
-7.403846768900566033e+00 -2.379718868203243076e+00 1.645731945458914325e+01
-7.574180835899896991e+00 -1.502944645897816400e+00 1.576779586637013963e+01
9.365288519512640630e-02 -2.154763329023268170e-01 1.678904891344992123e+01
-6.226601700970928022e+00 -1.118070357672670045e+00 1.551070300855621653e+01
-2.201858368221623063e+00 3.034099151672071670e+00 1.769838509914638180e+01
-6.778620063218883551e+00 5.128652206368575772e-01 1.463891619024995450e+01
-6.933870680195482805e+00 -2.445431052017133400e+00 1.637933788709645810e+01
-1.001304926704961851e+00 2.396235993275245557e-01 1.839832000744310747e+01
-2.382601334721007103e+00 -3.816836636534024052e+00 1.779292911963857549e+01
-5.809554720201430378e+00 2.126712038738325372e+00 1.899999812159089529e+01
-5.070257206452539300e+00 2.944124560793499601e+00 1.666052867960975803e+01
-6.783908129163630285e+00 -2.344827090307726181e+00 1.629271944038083220e+01
-2.047367272718244813e+00 -3.400958268980031729e+00 1.831664464995011699e+01
-1.614892935076285729e+00 1.002940504337736627e+00 1.860710610140551680e+01
-3.849638584456501089e+00 2.862718849708033364e+00 1.586339822805304678e+01
-3.008365198353690761e+00 3.566805507898473504e+00 1.880872678214319293e+01
-6.799312968898388654e+00 -2.614288403994085019e+00 1.660918451777202520e+01
-6.634320261183215273e+00 -2.714684975875611528e+00 1.673659020668193520e+01
-2.771707099965686982e+00 -3.496697199164306102e+00 1.698415904546714827e+01
-3.206895362980922481e+00 1.748087137079621822e+00 1.341918502321120243e+01
-2.200770967135200207e-02 -3.302554902447857543e+00 1.643213349756741692e+01
-5.599579076234302732e+00 -2.256177427791471679e+00 1.910230873524578854e+01
-1.570236978804661065e+00 -3.793553819748330724e+00 1.756341879260572014e+01
-6.621031994511371366e+00 1.781178044475210387e-01 1.897583365504819497e+01
-2.092454840985799258e+00 -9.444720034095309691e-01 1.542545065067769983e+01
-3.798634212537757460e+00 1.693797549018110971e+00 1.330421012826153415e+01
-3.038216805752691929e+00 6.292142763501337166e-01 1.428220871817660864e+01
-3.029039754221766190e-01 -3.676620097062203385e+00 1.706214389378137142e+01
-2.003989144361288943e+00 1.783521746829346721e+00 1.870917051657143659e+01
-5.811134659095465338e+00 2.379262254130002585e+00 1.895658991693041528e+01
-2.605953539183732737e+00 -2.212919460989907883e+00 1.868296221737020701e+01
-4.824832670269240786e+00 -2.806312754160107836e+00 1.896758526714268456e+01
-1.968654088249754963e+00 -3.847702902831128036e+00 1.781278342605164156e+01
-2.195638651107352679e+00 3.217857205021719125e+00 1.809525667887383449e+01
-5.020738962148359796e+00 6.326199770317528781e-01 1.449617507409351802e+01
-4.018733894974545251e+00 1.158391584836043986e+00 1.382742384023720561e+01
-7.010977842496727952e+00 2.373873651715953770e+00 1.830193820008329553e+01
-1.495857494322130554e+00 -2.142489695432799657e+00 1.540464770912572945e+01
-1.357375702802858353e+00 -3.233237486657385418e+00 1.823387429390296077e+01
-2.580971793001223702e+00 -3.715589619084834538e+00 1.761660979577036201e+01
-3.812789989820858150e+00 -5.385440516807246114e-01 1.553827397655024001e+01
-6.644685173182232951e+00 9.375297689065781315e-01 1.501624318228409649e+01
-7.281143801063426402e+00 2.035355487181656375e+00 1.813048788023386848e+01
-4.962538263248067238e+00 -3.880743315855358588e+00 1.772404700079384199e+01
-2.394829534483184919e+00 -2.785083756662348975e+00 1.855560895329832860e+01
-2.997576546375458229e+00 -3.814347280126185069e+00 1.799682217269939244e+01
-6.584724279061128449e+00 -3.571692783181048547e+00 1.742729393752312106e+01
-3.007010546512504767e+00 -3.523051995426639049e+00 1.705834084111038962e+01
-1.348587786194315630e+00 2.622738910717543614e+00 1.829944261295824148e+01
-2.971803425726888825e+00 -3.442058272990170309e+00 1.694661623246836157e+01
-3.912323058643721874e-01 -2.531899053697294066e-01 1.494561597090892135e+01
-6.374549164043743055e+00 -3.033233819394717035e+00 1.889207815490960840e+01
-2.003604999280128141e+00 -3.638160264706731262e+00 1.720469779591622128e+01
-1.968675207568663099e-01 -3.546635170411740479e+00 1.679234115743767219e+01
-2.380903691722467297e+00 6.181878384527133008e-01 1.402858345330988143e+01
5.991188743577499642e-02 -1.135222000188933489e-01 1.652620099297617529e+01
-5.094964796438432308e-02 -3.165514043023301749e+00 1.737241782091634335e+01
-1.328009352661273512e+00 1.585493437924298199e+00 1.849064506782213257e+01
-2.302430427948277680e-01 -3.484429841802680894e+00 1.659769804087693146e+01
-1.622791503199658258e+00 -3.738598602523154568e+00 1.739889739351957942e+01
-3.994389671152835941e+00 -2.597289302522858723e+00 1.888341445919334305e+01
-5.650420398921361276e+00 1.037463698498175102e+00 1.407564891752709357e+01
-1.782356570468796253e+00 -3.708491883989760929e+00 1.738891839799575578e+01
-1.736126146333084375e+00 2.699381650320286763e+00 1.760398386066628618e+01
-2.214513675787785019e+00 -3.663380464650739299e+00 1.739450063517270095e+01
-6.960418163986106244e+00 1.892473590632108849e+00 1.664550443326278284e+01
-3.644059980193373960e+00 -3.697344326582457263e+00 1.765630932241167628e+01
-1.138343674761234103e+00 1.375701401586463479e+00 1.594995221120285933e+01
1.142407913016352250e-01 -3.799685338984400973e-01 1.747844823682185122e+01
1.012619100618098733e-01 -9.135520789257914887e-01 1.671576147597678030e+01
-1.017126544647632969e+00 1.396584379004436105e+00 1.837057378831069698e+01
-6.350483985945716725e+00 -2.645097411075593374e+00 1.899998951331368957e+01
-6.650350547034530102e+00 -9.908831278411295296e-02 1.481395943386280223e+01
-3.798575174941964949e+00 -3.705899768873138100e+00 1.763888430518020911e+01
-6.841694781512840606e+00 -1.263872165166008976e+00 1.533303327229048207e+01
-2.815003777354683212e+00 3.128461713213818829e+00 1.883292956724130462e+01
-7.575190525893145121e+00 -2.610014994649298536e+00 1.766896255969090745e+01
-6.407108108964503224e+00 -3.617108224858040622e+00 1.741282486105243876e+01
-1.418342900523489991e+00 2.209785718760819861e+00 1.706193587652414223e+01
-1.997907274609970196e+00 -1.230220065715810218e+00 1.866199897671507202e+01
-6.048740980167381931e-01 -2.230821620762201807e+00 1.509560269084618866e+01
-6.976782096288998147e+00 -2.832113473089607592e+00 1.683290058905050657e+01
-7.555594511467238483e+00 -2.231073785920268948e-01 1.815961105477065374e+01
-3.397738710226558378e+00 -3.575778101164868605e+00 1.721462303541654038e+01
-4.784681582156046886e+00 -2.042510883038967773e+00 1.905307379783937094e+01
-1.790935013271348630e+00 -3.492118322914315343e+00 1.679511971400513559e+01
-3.403159651384233708e+00 -3.644092585285028996e+00 1.739569930214744531e+01
-3.232785137668366726e+00 -3.647944734975231640e+00 1.740277178572432959e+01
-6.733975429112144973e+00 -2.828234626636850102e+00 1.879807659063798653e+01
-7.473766405444532523e+00 2.792139713365415776e-01 1.600926003772564243e+01
-2.205684587461550716e+00 1.478580308915082298e-01 1.437379024740888767e+01
-3.587277146493928370e+00 3.568596642382682482e+00 1.888700269666244580e+01
-5.420133068115763564e+00 1.559567841375723685e+00 1.363165850499840204e+01
-1.127610529893732783e-01 -3.703999840609943917e-01 1.553792090511350565e+01
-1.357556733348591393e+00 -2.476936390576339075e+00 1.566373892299008830e+01
-1.781505912521230250e+00 -3.649665468325852924e+00 1.717136221741126789e+01
-5.419267620939034913e+00 2.144405867748803818e+00 1.505702581162060838e+01
-4.390491707691974277e+00 3.763609383542402043e+00 1.886104213660906836e+01
-3.195682440810474034e+00 1.334109085610136969e+00 1.901953497116526037e+01
-6.409361726908364254e+00 -3.024634120134279236e+00 1.697347245398310989e+01
-7.030789909632043866e+00 -3.192228398039439252e+00 1.724245313921782596e+01
-3.235986259075202653e+00 1.764271983343630890e+00 1.325157907319240636e+01
-2.213218025140361256e+00 -2.509940133456134426e-01 1.875690637247150860e+01
-1.603486433560287416e+00 -3.689787029977923183e+00 1.721668161138854813e+01
-4.785849096983929130e+00 -1.710387188445217532e+00 1.650386514786783820e+01
-6.365022796637082259e+00 1.499822100607575148e+00 1.507718618757454365e+01
-1.617503975012016149e+00 -4.190388968342216858e-01 1.859511786887167162e+01
-2.404712799985744720e+00 2.128926925552710792e+00 1.880869537427551919e+01
-3.180000496744923577e+00 -3.675338391450739373e+00 1.760530391514616255e+01
-2.225722037702384082e+00 3.380022655153402500e+00 1.862416807139449659e+01
-5.794860754547536352e+00 2.980332996142289748e+00 1.883367466606115315e+01
-6.586313332477291560e+00 1.979244092125731491e+00 1.873743236522428290e+01
-4.415093930735160654e+00 3.136904017510060871e+00 1.896821984710824083e+01
-1.762934860838198947e-01 -6.131846551831129366e-01 1.797055360397224533e+01
-4.831468081948361304e-01 -1.136809722782055609e-01 1.495855255946620233e+01
-3.410349952704732512e+00 -3.686942902413303358e+00 1.767099119304217325e+01
-2.836155911418894449e-01 -2.034248300342273552e+00 1.515329561193074781e+01
-6.233802710552004633e+00 3.655556198395526479e-03 1.485222574177916144e+01
-3.403658073529618910e+00 -3.675306946582050038e+00 1.760419707907363218e+01
-6.634036161558380051e+00 1.813318560877461127e+00 1.873748521712101578e+01
-1.649200351908178597e+00 -4.629385720577415819e-01 1.448170461341804227e+01
-3.593292211364685240e+00 -3.558428869571355069e+00 1.720360419614708647e+01
-3.574959621830609002e+00 -4.987371280899646209e-01 1.548552970161177100e+01
-3.226741534212014706e+00 -3.227699708449633498e+00 1.860372741963584176e+01
-3.181815388303886660e+00 2.575373321794241832e+00 1.538303794355639198e+01
-7.208228754157297580e+00 -1.744558632676894483e+00 1.566602942839552171e+01
2.659108630280956898e-02 -2.734364343783352247e+00 1.621378074078018372e+01
-2.213813574101305193e+00 -2.356161492344601704e-01 1.479125031231550125e+01
-1.269620827023740794e+00 2.885235940453628745e-02 1.421178381454953765e+01
-1.772679053561995399e+00 3.024122234799703879e+00 1.851680981148304639e+01
-2.686834359379800530e-01 -1.409790040226749586e+00 1.803028021667588732e+01
-3.198877096438744960e+00 4.116645993051604613e+00 1.877085006438438697e+01
-2.825793805003512738e+00 3.943349935476389234e+00 1.871704867659327576e+01
-2.455933914545864738e+00 3.755718962115528026e+00 1.864083714779144785e+01
-3.983886306898441365e+00 4.101136354403481121e+00 1.883807799633207125e+01
-5.434403992694032404e+00 2.547350555559452001e+00 1.606137374042810606e+01
-5.433058233872293918e+00 -5.081512710552599232e-01 1.572265240369437223e+01
-7.018163686763055686e+00 -4.167425698888818086e-01 1.883816578831714494e+01
-1.634532989896563704e+00 2.586346378941668522e+00 1.750741073104423506e+01
-4.351288416149913019e+00 -1.652003947080693091e+00 1.639571762661912757e+01
-4.601283087038166464e+00 3.976672107444755522e+00 1.874937907100990842e+01
-2.533353714561893177e+00 3.642343866014891685e+00 1.852947539831796675e+01
-2.254266841391773468e+00 3.523094321233664949e+00 1.855902364547780437e+01
-6.180376369784736923e+00 1.964523687479843073e+00 1.893483485205765149e+01
-2.621644606706186043e+00 1.419790351963660768e+00 1.359110010548607406e+01
-3.651719690560490506e+00 -1.333683141089593516e+00 1.611733069149473252e+01
-1.643341258584335662e+00 2.966625478379363745e+00 1.830543264327895159e+01
-1.601610033709652159e+00 -1.219214399091070877e+00 1.856255176578386212e+01
-4.937096845672647838e+00 -8.132209001130118464e-01 1.597772848849226435e+01
-1.852950868842803356e+00 2.777249521546913069e+00 1.858526439224769078e+01
-2.780135700328993043e+00 3.786410951359989507e+00 1.872825756755496585e+01
-4.424092979213005705e+00 3.093217423832350654e-01 1.475982426793285285e+01
-4.833051104117137342e+00 -5.067472912806123553e-01 1.570397919680318566e+01
-3.188204337529408239e+00 3.526429063005486864e+00 1.884408713515897560e+01
6.760646987299551158e-02 -1.279844175574393894e+00 1.609626322832545853e+01
-2.195620989830211478e+00 -1.770758275788805847e+00 1.864722880271422056e+01
-1.838261887021944485e+00 1.687930019930386827e+00 1.524964661203446425e+01
-4.798919485834367116e+00 3.796096618099236153e+00 1.882046081212963529e+01
-1.540314955484711534e+00 2.863166851084189446e+00 1.830291421605795321e+01
-2.338566718702454750e-01 3.864134415551458979e-01 1.794505513991184742e+01
-1.578094148999706681e+00 2.799895560400855743e+00 1.847148997083366950e+01
-7.355056951463584625e+00 -2.713656786837578938e+00 1.687824127085186277e+01
-3.175542261829273905e+00 3.150037928390399866e+00 1.889333344766336964e+01
-3.830879697994024724e+00 3.532315216086866716e+00 1.890933713596061594e+01
-1.511545824391849147e+00 -2.369226115615042705e+00 1.579246103693612824e+01
-3.592099378091063056e+00 -2.052277983504960268e+00 1.890793313000803622e+01
-4.609640367877617884e+00 -2.244530822672837544e+00 1.901151796929967830e+01
-8.470796473001387383e-01 -4.578778684461491943e-01 1.835888314132344945e+01
-7.478463202096057749e+00 8.042891789883118703e-01 1.810367529184638968e+01
-4.169342512310683979e+00 -3.046980863548561125e+00 1.881366751818290695e+01
-4.592627351279470638e+00 -3.925856234673048561e+00 1.801497653349218453e+01
-2.395752534253497323e+00 -3.663046927043598799e+00 1.739944355883211458e+01
-1.396784212163993510e+00 -1.627288483163459532e+00 1.847929747959354430e+01
-3.022857749086614643e+00 1.254784906984296011e+00 1.364328833107459715e+01
-6.970306873691047400e+00 -1.427790455199955844e+00 1.890106114399710791e+01
-3.023189561955224924e+00 -1.070716608303450723e+00 1.592242064041260008e+01
-3.824985532964533252e+00 3.772616853618376176e+00 1.887597085192528468e+01
-2.555106356485860264e+00 3.078079198703766117e+00 1.729120551789995730e+01
1.063839048007695076e-01 -7.481505577111228211e-01 1.742552457659821030e+01
-6.987475521550064350e+00 -2.621546990094156815e+00 1.870496931660399653e+01
-5.988137343982342653e-01 -2.230381661470590249e+00 1.818454309326635965e+01
-1.413428204570888136e+00 -1.476590208649924740e+00 1.480972636492196060e+01
-2.671261234846431964e+00 3.074362467687190570e+00 1.880791914653541497e+01
-2.635200547263128357e+00 2.238037544736800832e+00 1.531244759380785680e+01
-7.944854077525499214e+00 -1.085418674676255635e-01 1.696205872656058844e+01
-3.983635736337675315e+00 3.151152698410897290e+00 1.896386273337594375e+01
-5.760238623231835220e+00 6.573298594344534340e-01 1.911660405465172019e+01
-6.772194075331300134e+00 2.564028891355454309e+00 1.751784576723015974e+01
-6.588684451930240549e+00 2.991846903061320617e+00 1.812557672985932911e+01
-1.157667003111084281e+00 2.191814635993460936e+00 1.839945011458874902e+01
-4.403954093372096423e+00 2.345989101734900828e+00 1.906545166676496095e+01
-7.150686996048142952e+00 2.392475106901077897e+00 1.808333979902910826e+01
-2.131362288994187448e+00 -2.433274164081851598e+00 1.855630731713774750e+01
-4.605716834838007756e+00 3.164462427577741543e+00 1.895341734184168914e+01
-1.207926479261473007e+00 -2.010601053580577613e+00 1.839547658259981588e+01
-7.682267756916155044e+00 -7.607549216176637819e-01 1.803082648497117546e+01
-4.385596416010265841e+00 3.735723404514894597e+00 1.799014117049963701e+01
-6.276441418175852327e+00 2.604624742275606142e+00 1.877085174385140576e+01
-1.422292700247440145e+00 2.178025984692468775e+00 1.849753668462061640e+01
-3.390645700589598466e+00 -1.431564294482187805e+00 1.893398828970674330e+01
-6.545450235080079171e-01 1.225220811995887393e+00 1.660940838545775122e+01
-5.603215569854150147e+00 1.751896171689717452e+00 1.907149821931045253e+01
-5.983464403514025420e+00 1.769016059961153520e+00 1.902252405977902683e+01
-4.836312595889149080e+00 -1.357840621997648878e+00 1.633046132518911620e+01
-3.835821855078575648e+00 1.612224065132611628e+00 1.338528009730096713e+01
-3.992224116463623851e+00 -1.623883902997373507e+00 1.899616083069468786e+01
9.688091218035507768e-02 -5.284623470230553899e-01 1.667989173293220162e+01
-7.740413166525458522e+00 -2.022084742387126877e+00 1.774978271054086676e+01
-4.577476819711022493e+00 -3.661778751327751102e+00 1.869758178178993191e+01
-6.142581630702567352e+00 2.548912684149338581e+00 1.883215999541394936e+01
-3.055729443369527232e+00 2.141443485290094539e+00 1.896799796809282768e+01
-6.761150241852324605e+00 2.929841078988250747e+00 1.818833014270492399e+01
-6.979962218239018412e+00 1.175475736838039742e+00 1.859651759096199797e+01
-3.014924021493576856e+00 -1.775655786024393779e-02 1.895508195090536319e+01
-4.991142339062625055e+00 -2.507715491511639527e-01 1.914569602684918337e+01
-6.393931613977243522e+00 5.728506691344548152e-01 1.901312315532080177e+01
-1.105011662260710681e+00 -3.015388260366858919e+00 1.612470535948405015e+01
-4.638823644846399752e+00 1.956768930841000564e+00 1.305514695828688687e+01
-7.874650678221771116e+00 2.628617581868493702e-01 1.722556138149938576e+01
-6.163718972347666636e+00 2.365366199175301887e+00 1.886537693171565522e+01
-1.204677670853564475e+00 1.968113976832596812e+00 1.843284104543077362e+01
-3.385838366074624073e+00 1.750477500852518631e+00 1.903728994242210959e+01
-3.599056678347850369e+00 1.536353095990401485e+00 1.906443636740312186e+01
-2.167973011773578040e+00 -1.257954380777482228e+00 1.869537221729057919e+01
-5.853694191187948981e+00 1.188385739033862798e+00 1.403342510038242708e+01
-4.016233663729243730e+00 -3.893719477947515273e+00 1.814027145103665006e+01
-1.251383198136660990e+00 -8.507833344316896307e-01 1.452929376430742181e+01
-6.004864529839935905e+00 1.540872896428131966e+00 1.904141389951915997e+01
-1.821825833074916634e+00 5.823123415734332564e-01 1.393306338688433854e+01
-5.382957926380110614e+00 -6.163964017607530543e-01 1.915472094946288095e+01
-5.027871698373151510e+00 2.339972735647291469e+00 1.506137413872408004e+01
-2.667268221998710942e+00 -3.742353824586124311e-01 1.527804947762200172e+01
-3.368738197441327298e+00 -2.150791781764086474e-01 1.901648147586451998e+01
-6.401682510225740863e+00 -3.867306027298752724e+00 1.779827144222575086e+01
8.854841321962761413e-02 -2.966478999095715441e+00 1.678386941313099001e+01
-6.161786959314540013e+00 1.750367270595784674e+00 1.897677572288595016e+01
-6.251090875155645321e+00 1.795065841861629874e+00 1.893831317026794281e+01
-6.800006003460398851e+00 2.367076758321609020e+00 1.849651724769477212e+01
4.986776867067813090e-02 -2.494147064454965701e+00 1.625270276451614038e+01
-2.834675634451670145e+00 1.461523150820502881e+00 1.348163800993260608e+01
-6.412395528190010019e+00 -3.369837772908377271e+00 1.720789243480617259e+01
6.944380098902730447e-02 -9.601690071820477845e-01 1.753837757497658245e+01
-5.218361895878324219e+00 -8.671757084838471741e-02 1.915462590602097137e+01
-6.213698337686084372e+00 2.187132775704093923e+00 1.888679105376273881e+01
-1.155072619699490655e-01 1.955362146067234907e-01 1.783852706029884061e+01
-6.409539127593875119e-01 -8.806766727307403508e-01 1.469198842162304075e+01
-6.404294707530560515e+00 -3.215955152937822525e+00 1.880426495156737232e+01
-6.334523343165747278e+00 2.346457383394686680e+00 1.881006503590276324e+01
-2.597915079051269061e+00 -2.335472776305292708e+00 1.644497601978821777e+01
-5.673271193005431368e-01 -2.388766897104022124e-02 1.493886811180345475e+01
-6.171175640296071130e+00 2.772957790968246350e+00 1.876640092844928986e+01
-4.141485923274604852e-01 1.393829048539553472e+00 1.740027196437184287e+01
-4.810494426997927953e+00 -3.943029828716583474e+00 1.799796738642056582e+01
-7.016920954332162452e+00 -3.345826622807360096e+00 1.744258794467809182e+01
-6.357460396338890263e+00 2.961962461876745056e+00 1.863745286726608796e+01
-1.374813425902416064e+00 -2.620783086843953225e+00 1.590057829750647400e+01
-5.216741505095923159e+00 -3.165703762443592417e+00 1.704592252779231032e+01
-3.130421364108295190e+00 3.138543518847699332e+00 1.685368198054164068e+01
-3.432568151737021012e-01 -2.806185236209137290e+00 1.792855327010401467e+01
-5.933078638214377420e-01 1.638662939112786265e+00 1.761114678928504773e+01
-4.340486542823881244e+00 -5.780688078552715936e-01 1.566909195626237405e+01
-6.835289587451057969e+00 2.789989511437586334e+00 1.832896798884757672e+01
-7.312931178340235761e+00 1.977844815035471271e+00 1.756024089381611120e+01
-7.369814417895144132e+00 2.013313067944724644e+00 1.787411630615319424e+01
-4.237136383350355473e+00 -1.150258125765447392e+00 1.609220269390496227e+01
-4.047082436246724590e+00 1.990039033537526869e+00 1.301149421980864318e+01
-2.219777948957885272e+00 9.871377305447042172e-01 1.378700547276458721e+01
-2.319932889000085208e+00 1.114418066105298921e+00 1.369794696161308778e+01
-5.614017555535991022e+00 3.778660035903538827e-01 1.913643026705974037e+01
-2.405098944732745547e+00 -1.055514307080373193e+00 1.876224618887458107e+01
-7.634176557979963640e+00 1.173807965609105608e+00 1.763046723555688189e+01
-1.973879715504381904e+00 -3.486045568621245483e+00 1.683304467611387523e+01
-4.274976210968349788e-01 1.086322538948493843e+00 1.678685038536049845e+01
-1.986930212414262487e+00 8.088671330695664796e-01 1.386667223281800787e+01
-1.507048734361334352e+00 4.113037520112117762e-01 1.402629296389862290e+01
-1.316832559298169336e+00 3.709629341206943653e-01 1.419170632317986147e+01
-1.781921637261016711e+00 2.853666434141954866e+00 1.786051116124236771e+01
-7.271739723979384173e+00 -6.233956758698945277e-01 1.864033404527120652e+01
-1.408397885741381028e+00 1.726278325405019576e-01 1.414497570637803747e+01
-6.005437197807568239e+00 -3.382576351947379933e+00 1.716996751044350944e+01
-3.115061594429215930e+00 2.355393142309095467e+00 1.896508686862627613e+01
-1.062280385493830526e+00 1.414024010517526408e-01 1.437476471031063241e+01
-7.928651950399736581e-01 1.823721466398720015e+00 1.818979076493353020e+01
-7.829301686935056459e+00 -1.214925087265112502e+00 1.772458601152154145e+01
-3.606670646762733856e+00 3.822313641888556379e+00 1.831517493866074275e+01
7.610658827583885455e-02 -1.925439208966059468e+00 1.685949938638264101e+01
-1.369476289335908925e+00 1.751121199283816043e+00 1.621123237348543356e+01
-3.765654575317080699e+00 1.772861306999592657e+00 1.322289687680441617e+01
-4.967466275004581711e+00 1.040532289007153999e+00 1.404380201748326229e+01
-4.228310347276968528e+00 2.468043852807149552e+00 1.473368148697013780e+01
-5.530860108559862987e-01 1.666741683535160501e+00 1.784178707570043443e+01
-3.629524759075668960e+00 2.864305087555362395e+00 1.589671021061736766e+01
-6.853282388970121985e+00 2.627631150041360719e+00 1.839137632268819900e+01
-2.451686870095708404e+00 1.701447499799115359e+00 1.425205287096961015e+01
-7.693054584138375729e-01 -1.632115497568061180e+00 1.829341107278446188e+01
-4.193906304473530966e+00 -2.511137913859153858e+00 1.670895977159340262e+01
-3.976216890088484224e+00 3.818470371416176512e+00 1.812071634872843973e+01
-4.776869946705932790e+00 -2.313177045941351206e+00 1.673775480378834501e+01
-3.385012447723043660e+00 2.219183321855180857e+00 1.425090627457555215e+01
-3.029403336397607838e+00 1.142236008297704775e+00 1.898613924201863412e+01
-6.196476934939752823e+00 1.150115547760295565e+00 1.902379513350538431e+01
-7.399171360482097448e+00 -2.815348694992746648e+00 1.807222870973894757e+01
-6.334245796830458630e+00 1.340514589749802532e+00 1.896275835576106417e+01
-6.390438001992365891e+00 -4.247805847413916869e-01 1.911084467972213119e+01
-6.384572643746287746e+00 2.166789002454373669e+00 1.882065938134237015e+01
-5.306057585172319069e-02 -3.074925851150784872e-01 1.591930949246397731e+01
-3.237387774877988456e+00 1.142573532775319478e+00 1.378848896773448374e+01
-7.496846653469146027e+00 -1.300975764215341446e+00 1.565839662527509901e+01
-6.580400917775667047e+00 2.337783522174282425e+00 1.867044077248216993e+01
-6.425098289233392990e+00 2.569313707668313462e+00 1.870929196767209746e+01
-6.379156650372413750e+00 5.644301664570476884e-01 1.443453000419646415e+01
-6.534815759461449325e+00 -4.364166536443174760e-01 1.907640201125141388e+01
-4.816741955440999590e+00 -3.147674708370156615e+00 1.701021814879544891e+01
-8.048325962771158970e-01 -3.224747228761578821e+00 1.807854145876757102e+01
-7.318388742492846433e+00 2.147442095489590308e+00 1.803940415910925665e+01
-5.430482620781601710e+00 -1.565891730457694031e+00 1.646102947425880458e+01
-7.356653958443432728e+00 1.998906793483768318e+00 1.806049660611131813e+01
-4.669030209172045920e-01 7.978394358448632762e-01 1.811510404586371337e+01
-3.065224131479535319e-01 -3.647834092473647427e-01 1.499135152039824348e+01
-1.545203535922539118e-01 -1.391700944638778026e+00 1.791866318286491477e+01
-1.211001823705613711e+00 1.571638019551903742e+00 1.844557213498195480e+01
-2.616916520380808464e+00 -1.364976918100421432e+00 1.604897464855327271e+01
-5.754695076024077594e+00 -1.215049259250273739e+00 1.916692215326177617e+01
-4.190918202957614191e+00 -3.776381884752193052e+00 1.857388756515293338e+01
-7.880426254097968375e+00 -9.555286364046381431e-01 1.753632509010754958e+01
-4.058934447028931913e+00 1.785078294655351616e+00 1.321752200364433705e+01
-5.923840843577172777e+00 5.159811343983148335e-01 1.453083150963594861e+01
-1.990364596512552486e+00 -1.456139169947610057e+00 1.571634043377232004e+01
-3.612172660049712380e+00 -3.813442585287551090e+00 1.802026140939002730e+01
-3.158328507596464441e+00 1.674640249349366172e+00 1.328524811573391773e+01
-7.067602011313059762e+00 -2.526896539987695256e-01 1.492323754040370076e+01
-7.445063610449408564e+00 -2.839027243109858212e+00 1.789405993897110037e+01
-1.854820757180237534e+00 -4.211690426789552744e-01 1.865852381600235432e+01
-2.455829620102196298e+00 1.350683028291639776e+00 1.367371679298227249e+01
-2.617249605679571545e+00 1.019398470148419555e+00 1.376783801010995845e+01
-4.183862448337094087e+00 3.401770526577258202e+00 1.892898647842037363e+01
-4.637276891241696397e+00 1.004639772460787395e+00 1.403911302577955311e+01
-3.545557207641043984e+00 -2.254345679490503684e+00 1.888059672986721083e+01
-2.233565546312367811e+00 5.636753248539505545e-01 1.401363556035208191e+01
-4.420248004709109502e+00 2.456803058482121660e+00 1.473957289398108017e+01
-1.772573160097942746e-01 1.077089264264248225e+00 1.717602589582289951e+01
-1.996457842950406514e+00 6.686872618498465037e-01 1.387527226926794910e+01
-1.599157837358544887e+00 3.710439175608740703e-01 1.401862691044815179e+01
-3.025037004544682162e+00 3.283590117296615762e+00 1.730161899631072586e+01
-2.560994210468009236e+00 -1.030620252708402962e+00 1.581171858434636235e+01
-3.813433633792213673e+00 -1.524276489823349845e+00 1.623746930411787659e+01
-3.570521475432919534e+00 -1.555319873992880186e+00 1.623190576405221819e+01
-7.029946168176811838e+00 -2.397372117269728875e+00 1.873643294485713184e+01
-7.794259553335390889e-01 -2.192647483806287045e-02 1.454311823325484099e+01
-3.374677242000258204e+00 -9.675801621850433909e-01 1.586238629819674983e+01
-6.199525993924173584e+00 7.425397797871440275e-01 1.905655460191461614e+01
-6.594058805662876388e+00 2.178870892914722468e+00 1.869348023968489159e+01
-6.548929530232389773e+00 2.567122247308878169e+00 1.863962510986992882e+01
-7.060779644058088778e+00 7.377294270700305301e-01 1.561448435168879811e+01
-4.987853002939722558e+00 3.015314041903608633e+00 1.675144567855123157e+01
-5.813610509993334396e+00 8.192470837250114268e-01 1.426971927754228275e+01
-7.396139896443623130e+00 -1.824142870096777447e+00 1.851710480884869625e+01
-3.429305336095737733e+00 -1.742077459130809469e+00 1.631008103368405315e+01
-6.659290856151687699e+00 2.567921137773386597e+00 1.855868368532058454e+01
-8.784920625801502236e-01 1.596221741088122759e+00 1.687666274604236705e+01
-6.853630331380440310e+00 2.000100488308988567e+00 1.853909682521378599e+01
-2.997435910941300463e+00 -1.997241653411417683e+00 1.879568084948437345e+01
-7.363987372293456790e-01 1.167657005067463727e+00 1.635593277587058125e+01
-7.205497888895429526e+00 1.791325376949431281e+00 1.826654242634252867e+01
-4.612537410323644060e+00 1.252756172285547920e-01 1.913297523976427428e+01
-3.856366007717473288e-01 -2.297070980846351862e+00 1.520933275411151797e+01
-3.208776804682351713e+00 -3.624858875584427320e+00 1.847048835997479799e+01
-7.370964815127885927e+00 1.615013532849594480e+00 1.810863063126994987e+01
-5.805764547125710884e+00 -3.004075016152078614e+00 1.697724901369097594e+01
-2.678849094005470999e+00 7.857669500022196329e-01 1.890075295909625552e+01
-7.369962438336481902e+00 -4.937796146460974311e-01 1.539919325961432506e+01
-6.175892342149367220e-01 -8.094281647607818320e-01 1.827622328500466509e+01
-3.801198398807005496e+00 -1.708194308413396367e+00 1.632749737024666459e+01
-7.607583166863324031e+00 1.229010182230934722e+00 1.748593634746346126e+01
-3.970876619262436513e+00 -3.279376995019912755e+00 1.870942522274523512e+01
-1.548499594613471420e+00 9.986853481423301204e-01 1.454421858270537271e+01
-5.247363692651249245e+00 1.652701412825372529e+00 1.344541068721971655e+01
-3.616492642601262020e+00 2.126512546106659407e+00 1.383504936629787707e+01
-2.792441337324349071e+00 1.621591742750748022e+00 1.360856479378986350e+01
-3.236277042223416167e+00 1.584595334670504396e+00 1.337002560700583231e+01
-1.673830038767565975e+00 -2.330659172705968896e+00 1.605063738589658939e+01
1.076998398633488840e-01 -1.152368300292639258e+00 1.687760859044960071e+01
-2.819961476511579690e+00 1.127068143781947640e+00 1.372217211710614393e+01
-2.422428841965786894e+00 -8.456243738603693716e-01 1.560595243703727064e+01
-7.886423334902027626e+00 -3.357065776561680703e-01 1.737505491657145384e+01
-4.149045438822832388e+00 9.823108823701263148e-01 1.910737720871754775e+01
-3.627362388774742818e+00 4.592390611901563946e-01 1.450807234940331014e+01
-6.585448927353268367e+00 -1.830667352266591497e+00 1.904376653953280751e+01
-4.167106313920990068e+00 5.531196390206334357e-01 1.911340039534526269e+01
-4.367620895305607931e+00 -2.052173050977667224e+00 1.657535900808002438e+01
-3.402392309038701157e+00 -3.852710513486025334e+00 1.822416617533538741e+01
-2.828674588195767559e+00 1.010794781350396576e+00 1.383461232885131764e+01
-2.226253286252342090e+00 3.961394438864908607e-01 1.414814038255004291e+01
-1.629516578853747122e+00 1.538322470402179176e-01 1.412035229047271301e+01
-3.998953792074765534e+00 3.760478668363223420e+00 1.795086276998587138e+01
-7.043494388078233470e+00 -2.257750965668174015e+00 1.876001538119186662e+01
-1.588666423680076489e+00 -3.536694391147399141e-03 1.420470710701276218e+01
-6.038993795797940045e-01 1.185942574135764760e+00 1.817680470284836147e+01
-1.981885468656742200e+00 -2.297735032421210466e+00 1.625491124852687719e+01
-4.031435818927263881e+00 -3.180212520459997805e+00 1.874937890226895476e+01
-3.095821836150373318e+00 2.077534643693118355e+00 1.430871532772210131e+01
-5.009097988771413767e+00 5.908070929857585085e-01 1.914003400716325487e+01
-6.603942941405727574e+00 -2.399441338973645754e-02 1.900864317193319764e+01
-6.463828630748101212e+00 2.257957228462865729e+00 1.876279880928325028e+01
-4.629748311833189689e+00 -5.636103756733584769e-02 1.913096363436221381e+01
-4.042849010612265204e+00 6.715817330112998640e-01 1.430600578790080490e+01
-5.397289487506283123e+00 -8.069463645461893986e-02 1.915645641290240420e+01
-1.604357604360908462e+00 -1.170621930256945387e-01 1.427478813072858443e+01
-1.964598717294935515e+00 -2.573159644055970752e+00 1.849881432681131699e+01
-5.027171344942467535e+00 1.227089433759647186e+00 1.385432905708126938e+01
-7.201122321524777270e+00 1.979424865114680188e+00 1.822855853121786751e+01
-5.762406427989104962e+00 -2.230486809207820054e-01 1.915528097695925780e+01
-7.043660840318333172e+00 2.063276280550413677e+00 1.705867346754584091e+01
-1.778078401685098342e+00 -1.032762891656020532e+00 1.493047388954721200e+01
-1.973700959485784390e+00 -6.332746864975336010e-01 1.868170183085811331e+01
-6.613093557438972425e+00 3.864974864624042827e-01 1.895193728365409314e+01
-4.457590300208074119e+00 1.086690354127245906e+00 1.392881380630158006e+01
-5.246740454898166206e+00 -1.459956687677554932e-02 1.525276988561301650e+01
-1.054563726346998020e+00 1.656420534596176886e+00 1.663720813294898804e+01
2.472369311887323562e-02 -1.477126388187707806e-01 1.635168757882643931e+01
-6.872455900783312366e+00 1.002558283667674521e+00 1.871455055262518030e+01
-3.403725134134197639e+00 -6.379371054461239199e-01 1.899374617415166355e+01
-7.134061703762387907e+00 2.401350584304737801e-01 1.506914363746773589e+01
-4.798856350366904167e+00 2.299113221320128631e+00 1.467665960221036769e+01
-6.817770918594801444e+00 1.415239334771088320e+00 1.868296244651406468e+01
-5.545227161783961023e-01 1.310993024505419768e+00 1.697465076156641928e+01
-6.370146130757806446e+00 1.317365719937458657e+00 1.487005905125485938e+01
-6.234958259686255388e+00 -3.375584021579265404e+00 1.878548482484136528e+01
-2.465650190781823459e-02 2.040156421103153095e-01 1.773073022113102226e+01
-5.621517689592583356e-01 -1.215301956614375900e+00 1.824467190316013543e+01
-7.011413629352414745e+00 1.592857536878105496e+00 1.849405174159607057e+01
-5.891387477728978084e+00 1.682880597690746827e-01 1.487085227448779889e+01
-6.988816504422050713e+00 1.771389790671995090e+00 1.847721888508044330e+01
-6.619300379717011573e+00 2.852421254097575520e+00 1.790518949253097603e+01
-6.075826813643979030e+00 1.945523498383109562e+00 1.545658081851040677e+01
-7.436127107555516424e+00 1.406500617877954440e+00 1.806463048449444742e+01
-2.066753077775082215e+00 1.859824943661026797e+00 1.526780675119423947e+01
-5.464925500173488437e+00 -1.062533869078497784e+00 1.614645544934714749e+01
-1.073881019507400669e+00 -7.990075811206290846e-01 1.842907439010612691e+01
-4.844646681820611533e+00 2.235701533987827894e+00 1.457124758464173553e+01
-7.675079781374104293e+00 1.033356518579060523e+00 1.762263152221945361e+01
-2.631821435846014801e+00 -1.674763411061525265e+00 1.621113814584592561e+01
-5.985494674849958230e+00 -2.216393416252556925e+00 1.662262434137668166e+01
-4.028307414587063207e+00 -2.986460744999742012e+00 1.683557559359242717e+01
-7.815262597247001786e+00 5.902342930386615949e-01 1.740031655651279507e+01
-1.252992603450586273e+00 -6.140980797765617227e-01 1.445472842154401505e+01
-4.822620345497213634e+00 1.205818133567212236e+00 1.385718977676122776e+01
-3.611604183332473461e+00 9.918939865102176512e-01 1.396495918524276547e+01
-3.398351121547947162e+00 9.399240552279475303e-01 1.399978724042425071e+01
