-5.372109398792807688e+00 2.933032518646660591e+00 1.539021443338720729e+01
-5.460981804853779487e+00 1.231138867506196943e+00 1.759212423068307629e+01
-1.645262694283433191e+00 -2.028719458948095244e+00 1.627460415754526224e+01
-3.958822862224680161e+00 -3.347184686062882442e+00 1.772729272724977534e+01
1.713285517809373104e-01 -2.442943616790000050e+00 1.626223146654105989e+01
-6.743171871922537086e+00 9.047548517572814308e-01 1.560504675731202440e+01
3.834969013903206658e-01 -2.643403256936830203e+00 1.627347136622715595e+01
-3.270427378608004254e+00 4.056572039693890019e+00 1.815226136495945752e+01
-4.595744320436010000e+00 -9.278723925070269107e-01 1.804407835166033180e+01
1.136849502673169088e+00 -2.049936669736272421e+00 1.601931480890587522e+01
-3.773485100230615341e+00 -3.331478933499794515e+00 1.779089819612640611e+01
4.265182758784655803e-01 -1.325545908996464739e+00 1.876470796432987953e+01
-5.803239354999148780e+00 -2.734432237989794956e+00 1.717633344743640578e+01
1.283127170128343764e+00 -1.642306644985506603e+00 1.598902203462870375e+01
1.518496347648837119e+00 -1.827664160416549555e+00 1.653963076944116040e+01
1.122173268068404894e+00 1.038591965706255893e-01 1.764480844092071976e+01
-3.854558014484097406e+00 -3.283881751212399891e+00 1.556197309708495169e+01
-1.699982713847287830e-01 1.016499606914184728e+00 1.431374343359899370e+01
-1.944856437534575599e+00 -1.147090523485524205e+00 1.859080240061185663e+01
-3.837553162435746401e+00 3.630547642273858067e+00 1.810063912282189591e+01
-2.921386697127214216e+00 3.695840682226736895e+00 1.593876276769323397e+01
-4.028769012360692514e+00 -3.469987429280643632e+00 1.548729652864410866e+01
-5.560697696437801874e+00 -4.642015449527706394e+00 1.599978625094549756e+01
1.156434435538428840e+00 1.588922041239881344e-01 1.746167775439413106e+01
5.957840140518551042e-01 1.198829474536541539e+00 1.709470264809837659e+01
1.035157223375759994e+00 -5.021901201077068055e-01 1.826950093268959563e+01
-5.525332157339401640e+00 -2.483297806135902341e+00 1.737157459320408748e+01
-5.203997314519233086e+00 4.602070121004796510e-01 1.777308381330190201e+01
-5.111205720267395947e+00 2.494613305242573631e+00 1.461299471821529750e+01
1.197565700917353038e+00 -8.827134567103971374e-01 1.802075184309810396e+01
1.322149159167845589e+00 -1.420863127707498341e+00 1.789153494284597201e+01
1.407511920375129399e+00 -2.455491193107744330e+00 1.778089126215466820e+01
-2.947775980266343243e+00 -1.691241780238038617e-01 1.407149777236029564e+01
-1.608324450761567936e-01 2.746401476352731130e-01 1.896010836124153087e+01
-3.556906020592809359e+00 2.994470121094387594e+00 1.457821598015792830e+01
-5.650673916663861540e+00 2.576366001500813296e-01 1.754965930285121800e+01
1.211999311549001312e+00 -2.435464438123830178e+00 1.813288554704020328e+01
-5.403464057437472157e+00 -2.935859585327744270e+00 1.729719279142187105e+01
1.253326436739110150e+00 -2.907035367563415740e+00 1.795207280202708944e+01
-4.410434873342182982e+00 -3.267882252698070644e+00 1.519660579338765416e+01
-2.380816349068601845e+00 -4.501528881506712487e+00 1.659998115917790784e+01
-2.813887419265273859e+00 -4.666351225994172403e+00 1.664954702850532442e+01
-2.840737627100536677e+00 -4.525639483776931371e+00 1.646336740967905143e+01
-3.219651402176901378e+00 6.029729230710767496e-01 1.852688159064994977e+01
-3.205751169367859088e+00 -4.469261988635478744e+00 1.629679165562563981e+01
-1.388206858834323931e+00 6.085392261158757421e-01 1.357759736758459468e+01
-2.079560583119699047e+00 4.190299513191042990e+00 1.796426442385838840e+01
-1.005882493707350500e+00 5.870664530174696250e-01 1.373776555669501676e+01
1.114455529318631566e+00 -3.597943264013382381e-01 1.796843985062606919e+01
-4.081691183642570664e+00 -4.861414275422989206e+00 1.639500808406557297e+01
-5.311159590756223459e+00 3.543082276410465248e+00 1.621703693581447681e+01
-6.787771669425507248e+00 -2.091685305331653311e+00 1.573288236001088336e+01
-3.204713918917788451e+00 4.188188065712444619e+00 1.686761584770918176e+01
-4.618276641158631790e+00 1.785300804287903942e+00 1.335223952019400429e+01
-4.419790422464368262e+00 -3.160370584418755513e+00 1.763122700012188204e+01
-6.103628100585638094e+00 -3.276642073311163195e+00 1.461536419205773996e+01
-6.060393437908243364e+00 -3.074951070668213049e+00 1.449328896892833995e+01
-2.949068494008173058e+00 -3.615252320178958811e-01 1.445984343064240818e+01
-3.842595603566148488e-01 1.569423386500068629e+00 1.495833133585620089e+01
-6.264109945487707165e+00 -2.433948393608607930e+00 1.449971083141607409e+01
-2.765142651576854682e+00 5.099637324273642580e-02 1.377505769659467205e+01
-6.708457466399289082e+00 8.724001499413192029e-01 1.619057060093612677e+01
-6.555783690003781139e+00 -2.461472794065320713e+00 1.505951799899106902e+01
-4.139617910368368570e+00 -3.488044461586736311e+00 1.542660441620462564e+01
-1.454826941899716619e+00 -1.089823699406796020e+00 1.604692930334587686e+01
-6.146067180171869815e+00 -1.934280456141694637e+00 1.721659644907575881e+01
-6.646967707418949267e+00 -2.289371993607581146e+00 1.527802111793692319e+01
2.124193488002346086e-01 1.106391451495810863e+00 1.852290476951394993e+01
-3.838563138096040106e+00 2.056180382464058098e+00 1.829889103544358164e+01
-3.425592176739827632e+00 2.843533547852149290e+00 1.834608509300180401e+01
-2.409500522829908231e+00 1.455694332129861213e+00 1.869642444511765689e+01
-2.169489889405379568e+00 -4.418568178755990061e+00 1.755534529145914746e+01
-2.967390160956524525e+00 -1.557915332094720773e+00 1.841322167673932597e+01
-6.070533387149045446e+00 -1.457835716165130302e+00 1.414001841248450830e+01
-5.500217831840361171e+00 -2.657669614932579805e+00 1.422897571639695258e+01
-4.620130830033533087e+00 2.835259850340659860e+00 1.790605495702432393e+01
-4.864053398465185474e+00 -2.860277809745110922e+00 1.463507025775124504e+01
-1.547127884329896119e+00 -2.143627126380323489e+00 1.843151480718265134e+01
-5.269597346835444007e+00 -2.736450681459480450e+00 1.435554664402964420e+01
7.719719457528857465e-01 -3.321353774911775858e+00 1.651483721150636796e+01
-3.372389067969143284e+00 -3.130293015033556614e+00 1.798812411358563423e+01
-3.250162396384472352e+00 2.685270984311499021e+00 1.387711629429406202e+01
-4.654274551827517925e+00 -3.077413805318978568e+00 1.493258460963567558e+01
-6.413626055031197204e+00 2.217609423553937642e+00 1.641491490019759425e+01
-1.307309058939452706e+00 -4.830955366933473716e-01 1.530476426600711193e+01
-6.753779375184707057e+00 -1.694165799713122533e+00 1.650846245516069644e+01
-4.457551250333282589e+00 -3.460643212733801377e+00 1.521523938991661140e+01
-2.824182922426499154e+00 2.672744040146941558e+00 1.852399559343306379e+01
-4.481666460874928148e+00 -3.623474743635706652e+00 1.525588315078502433e+01
-5.657060183262884401e+00 2.221846480416337144e+00 1.737116366037977855e+01
-8.283242082691255614e-01 1.713140730610273055e+00 1.425855068355216559e+01
-4.234966759608621345e+00 -3.784883333823005458e+00 1.543012353350240318e+01
-1.621476081549577897e+00 3.890400420033700790e+00 1.806951884469707892e+01
-3.622984487478192239e+00 -3.832059478039197664e+00 1.574725108000802720e+01
-3.391245400173419799e+00 -3.700449040819782986e+00 1.583922501531477423e+01
-3.049631929226972904e+00 -3.657243288281642357e+00 1.597380151167771345e+01
-2.973279874174872273e+00 -3.290992375744589360e+00 1.602183547064807811e+01
-2.632408502002454131e+00 -3.472663044361303797e+00 1.611849607304969112e+01
1.509054759217319575e+00 -2.227733616757996415e+00 1.655438141576205169e+01
-2.208634676905527172e+00 -3.478529126045617481e+00 1.620650414461003663e+01
-1.819779956378966279e+00 -3.452269694179159742e+00 1.629268602780609854e+01
-1.233762495976249429e+00 -2.463430595844598336e+00 1.644483658356134725e+01
-4.050411897460518551e-01 -2.791852966531140900e+00 1.644065606158687132e+01
-5.879531847890302032e+00 -1.615944678470974560e+00 1.394386461346955031e+01
3.658319552447897305e-02 -2.690931298035753372e+00 1.636993080029865411e+01
3.562434685458508721e-01 -2.878380590245593673e+00 1.636097354369567114e+01
-3.379582302547630146e+00 -8.336045199904318359e-02 1.360407120006644277e+01
-3.352673378576106256e+00 -5.554584342630457527e-01 1.445110745871163260e+01
-6.297556901530835027e+00 -1.700891901673041717e+00 1.718175324867102205e+01
-6.580578489248851248e+00 1.777026016026507671e+00 1.627704052387689870e+01
-3.038924583271606306e+00 1.212628244391238619e+00 1.222236092371252170e+01
5.493102616074980737e-01 -2.628327765484080203e+00 1.621369115170178787e+01
-2.782364248021222064e+00 3.981201397698505007e-01 1.324705397997340839e+01
-7.523352866858565857e-01 1.285864730130057865e+00 1.889591712122695810e+01
1.522661246207622998e+00 -1.881893739955466271e+00 1.737987401635992768e+01
1.147711348012754096e+00 -2.435305199501656581e+00 1.615630092361980985e+01
-2.316882975391281185e+00 3.681466921696350703e+00 1.652133778666841124e+01
1.356023412126341476e+00 -2.441641037089445909e+00 1.634228517811110493e+01
-4.956853913229358533e+00 -4.229916867232399014e+00 1.688151962442312026e+01
1.361159973991157734e+00 -1.826533000239192850e+00 1.616818494896157432e+01
1.549436511975835984e+00 -1.858182915075085928e+00 1.720002332034802350e+01
1.307775596954916519e+00 -2.020268582461778095e+00 1.619601225863029015e+01
-4.924957436514413978e+00 3.477287722801753134e+00 1.768194095928518550e+01
-5.280099899586496726e-01 -3.497732953217602692e+00 1.799855739996188220e+01
-5.431351050288679261e+00 2.984371361115523591e+00 1.551235623513207429e+01
1.223270754235993962e+00 -6.960245611954614109e-01 1.784874930482285293e+01
1.195437255515513275e+00 -4.683358108240043283e-01 1.783435925942012545e+01
9.519004836027262773e-01 1.112866683248143751e-01 1.803247312161018101e+01
-6.067615253090391292e+00 1.042428790700589136e+00 1.718000245845610152e+01
-1.391082178414500881e+00 5.019420473224114332e-01 1.891251916621559559e+01
9.788797150865276020e-01 -2.573010464448748369e-01 1.824103601348708281e+01
-4.373279345148383124e-01 2.298683216519202155e+00 1.679613883234529226e+01
-1.963850882857986146e+00 -2.313356833784824040e+00 1.621400791220352033e+01
1.483665735665841812e+00 -2.103373148009638705e+00 1.758128855737307106e+01
-5.518495501849150386e+00 -6.401137307432249735e-01 1.358995113654906817e+01
-4.800672003445740188e+00 -2.586163292541308500e+00 1.446193914294151739e+01
1.366184223213085414e+00 -3.437072503943549684e+00 1.755694288891282184e+01
-1.986182957536557492e+00 -9.937567790611312457e-02 1.453627699048160338e+01
2.301467603530789052e-01 -4.194724028696318108e+00 1.718548102839704228e+01
-1.586535132377206780e+00 8.494035629217027150e-01 1.317864095864705831e+01
-3.215855491656030907e+00 3.873856100667494751e+00 1.822416771866179630e+01
-9.442640886628679286e-01 2.020136548027104517e+00 1.479134714506184167e+01
-3.742466489439764121e-01 -4.097359523739627640e+00 1.680716151548795523e+01
-6.421440976295637038e-01 2.582581194214730758e+00 1.695479027815978412e+01
1.113973208509728252e+00 -1.212177660929492085e-01 1.780043061923132086e+01
-3.958491624243452467e+00 -4.143407189428142345e+00 1.736686452478321030e+01
-3.653442269016752508e+00 -4.253664050704595745e+00 1.593121343780478583e+01
6.382676905471873496e-02 1.252163453985797315e+00 1.859395020754299566e+01
-4.858949757548940873e+00 -4.713605777598387725e+00 1.595519125243688308e+01
-2.199887132048265137e+00 -1.154413774903348067e+00 1.588208926686103695e+01
-5.225367465768641750e+00 -4.644022673135583368e+00 1.579539115298221930e+01
6.315744958827409494e-01 -3.828083670522728355e+00 1.681000020501846137e+01
-3.861649346089750967e+00 2.654544325239610592e-01 1.293833085052656884e+01
-5.910907336496738829e+00 -3.240716011501099558e+00 1.449638817537528723e+01
-6.149708537903894268e+00 -1.865715623671795997e+00 1.430106932536664743e+01
-1.358998543376801482e+00 -1.943063338513528082e+00 1.848329463075415902e+01
-6.431711066542296962e+00 -2.257311213992757359e+00 1.475417815998771687e+01
-6.559330740453805930e+00 -2.282909749346136330e+00 1.504968713610076492e+01
-5.789088065542945749e+00 -4.111499027117382354e-01 1.368048591696590677e+01
-5.296857413767703804e+00 -2.876731123960253100e+00 1.443971407132704599e+01
-4.897985010534903871e+00 -2.042604440888155182e+00 1.398081224808298373e+01
-4.684251296032507561e+00 -3.672995531503909561e+00 1.517323995023344452e+01
-4.468936599539530263e+00 -3.828283942384911320e+00 1.533927654070873103e+01
-5.390685038791284356e+00 -4.582883408066719788e+00 1.569551444066120638e+01
4.562246755958270228e-01 9.060452264226956931e-01 1.830347459722054282e+01
-5.870944643512951089e+00 -4.319828518086655578e+00 1.607948976320299295e+01
-2.018897929764412069e+00 -3.645940576397308064e+00 1.625606961648425397e+01
-1.222046688455931562e+00 -3.111371212647697782e+00 1.647557138092464157e+01
-6.039894393277232432e+00 -7.776082435373394830e-01 1.738582146805320150e+01
-1.458179421503284612e+00 -2.863026359788524822e+00 1.640934087401203811e+01
-8.404429795021249872e-01 -2.838861332679411653e+00 1.648903837443962317e+01
-9.771454204584265613e-01 -2.908356476711820626e+00 1.650639396949933513e+01
-6.143156693339283381e-01 -2.857573528088637183e+00 1.647079864981840558e+01
1.802179234281184872e-01 -3.058253432151526674e+00 1.643917606633714001e+01
3.792827028537395506e-01 -3.090072589144721604e+00 1.642745532019230126e+01
1.540019013393655989e+00 -2.822949901316860633e+00 1.674404777734868333e+01
-3.020416597593960084e+00 2.273306018655190996e+00 1.301976974987229596e+01
1.612998715814373263e+00 -2.439016914520660606e+00 1.714459046754725335e+01
-1.735857937284819297e-01 -3.318225516004407183e+00 1.807008030491506645e+01
-5.833523313559185741e-01 -1.330510018769334168e+00 1.869643752678418025e+01
-1.468403741546083774e-01 -6.985271521795424210e-01 1.503886244658483662e+01
-4.027571755039989654e+00 -5.700945153090613005e-01 1.371841397605403046e+01
1.548716265380853496e+00 -2.114473183193142702e+00 1.734220902030106970e+01
1.361811553351040427e+00 -3.353186198131888673e+00 1.676128137995225842e+01
1.564904353728385100e+00 -3.046555021008114039e+00 1.732037072595322513e+01
-1.338199313244055499e+00 -1.731335574287230061e+00 1.853344206564175778e+01
4.595720392929536491e-01 -4.115771977686141447e+00 1.714295565295446977e+01
4.507848064322839132e-02 -3.985332511704568148e+00 1.683430652504041802e+01
-6.283049676318934296e+00 7.089978038953554940e-01 1.700565506885040179e+01
-5.869709872642054016e+00 -2.150091785180122450e+00 1.730404562458139139e+01
-5.129837291484299122e+00 3.555889182256666281e+00 1.612774765361660911e+01
-4.137045843932838807e+00 1.349252985237793467e+00 1.821358164682699510e+01
-6.269009271276803075e-01 -3.879222577888373102e+00 1.659075813195222793e+01
-1.175491602654568979e+00 -3.947164114624145625e+00 1.653002338388647985e+01
-6.474736140452654887e+00 -1.276781579871751227e+00 1.490060287318270582e+01
-1.793770753518526995e+00 -4.085894998570997139e+00 1.643204196404359863e+01
-5.924304556453121151e+00 -6.414802289715586525e-01 1.744819590322661185e+01
-1.025540823359827325e+00 3.230136152649366821e+00 1.846327162831074276e+01
8.334237664703783022e-01 -1.293265812733611853e+00 1.858524067722563444e+01
-2.572881196426670236e+00 1.234874065485613848e+00 1.866390950049516562e+01
-2.428636315742005003e+00 -4.100552127584762729e+00 1.624527867966033767e+01
-5.469781441349412798e-01 6.214390614511183797e-01 1.387006375096051158e+01
-2.652578798466720400e+00 -4.032004162465203656e+00 1.613902015923510902e+01
-3.826275187125417254e+00 1.995770854514669734e+00 1.284701085491169437e+01
-3.716056703061489053e+00 -3.130940624565825559e+00 1.787783719805463534e+01
-4.015378789009555582e+00 -4.220289783635177372e+00 1.576973482450274133e+01
-5.680489734839627047e+00 2.892764521203496031e+00 1.724939558850740440e+01
-4.256570329902850780e+00 -4.059561159742072434e+00 1.555908979085169364e+01
-1.775377885823821611e+00 2.181055296321526171e+00 1.361904795437154547e+01
-4.728416030250716773e+00 -4.654944293183739035e+00 1.667602902835579926e+01
-4.635157604874493131e+00 -4.337712084554816272e+00 1.566274095500408237e+01
-4.585375850046863988e+00 -4.582632852764641385e+00 1.589480402439851758e+01
-3.979270246945059597e+00 4.600298096904974487e-01 1.830580663006947617e+01
-4.457617613136033441e+00 2.254519309904989388e+00 1.369545012749785684e+01
-1.827785584697696031e+00 -2.711563557775809485e+00 1.627358134294239278e+01
-6.179849919414099446e+00 -3.450082636782505041e+00 1.659022925283036187e+01
-5.694714272394426402e+00 -3.893556226304119017e-01 1.758914013669705412e+01
-4.811453680140287403e+00 -4.493638519985486468e+00 1.574365133942011141e+01
-5.668637034516905260e+00 -4.235228959055199027e+00 1.522083697105376388e+01
-5.620664530849985852e+00 -3.908478197125445419e+00 1.496518161674534042e+01
-5.653474909424771155e+00 -3.698338607090112085e+00 1.479973086166562268e+01
-7.015590216150021652e-01 2.340749902895363554e+00 1.620716127592386613e+01
-2.005446329461953781e+00 3.948605342954322417e+00 1.746303479731304975e+01
-1.219173473231212945e+00 2.573852095374096649e+00 1.873591942795844290e+01
-5.079217137491172096e+00 -3.439434045889204761e+00 1.485830896986104932e+01
6.109005261611253346e-01 -3.610674572799641879e+00 1.663492372747425208e+01
4.263052290414435230e-01 -3.152434957651111702e+00 1.818645706381490612e+01
-3.643873246069661231e+00 -3.469520121276203461e+00 1.570355061365913940e+01
-5.066409553082568351e+00 -3.855681000912362322e+00 1.512419906461525443e+01
5.770669586201671031e-02 1.993952574284658441e+00 1.779073922539388519e+01
-3.989751365788736681e+00 -3.374233725355970659e-01 1.829497732702003532e+01
-2.615470831789409978e+00 -3.865219459910730571e+00 1.610535818764135740e+01
-1.004254350241152505e+00 -3.053914443025354863e+00 1.650849174529803065e+01
-1.832043533989353046e+00 -3.247168781891546452e+00 1.628375530747695166e+01
-2.303988769794349079e+00 2.919228394012379213e-01 1.871573439249505100e+01
-5.113483525962110310e-01 1.763979237328629823e+00 1.517724821304991423e+01
-4.600725888930117691e+00 -1.374358205414778267e+00 1.372121263873094676e+01
-6.333514384087806093e-01 -3.252556628548543216e+00 1.650823975834391888e+01
-4.157703490780861877e-02 -3.431759379465441739e+00 1.652638706792785683e+01
1.050871015941589715e+00 -2.863842117795903697e+00 1.630379106302908809e+01
6.446277867036152021e-01 7.308207474646616353e-01 1.810850088360602683e+01
-4.491198458384671355e+00 2.063841788855282466e+00 1.347523882387979199e+01
4.098419125527892337e-01 -3.827537331232035989e+00 1.675787547319538362e+01
-6.049593410875004906e-01 -3.689863896536264676e+00 1.654907168006840834e+01
-9.874441190196548979e-01 1.844589646962648599e+00 1.883625528919647962e+01
-3.297690177787071963e+00 -4.748253524291032868e+00 1.662707324092864525e+01
-6.415333126879420256e+00 -3.353157862573433512e+00 1.601888618981423917e+01
-1.007244249113506296e+00 -3.467614697684885172e+00 1.649668150650033027e+01
9.832852980809061449e-01 -3.417078712342593860e+00 1.658595592667907681e+01
-3.588803027378698829e+00 3.070267516661581375e+00 1.826661824274588497e+01
-2.495985058771910126e-01 -9.646477070600667503e-01 1.529048715936163916e+01
-3.985280141777435059e+00 2.033344411917514361e+00 1.824871115414183720e+01
3.444138509635641388e-01 -1.650374032750435260e+00 1.560173146157737989e+01
-5.745355129156164864e+00 -1.865458940219103079e+00 1.742100562867764779e+01
-5.440288999975026130e+00 1.621522028767884205e+00 1.426981910549682908e+01
4.048402899238447983e-01 -3.634902498866769527e+00 1.662196641349499515e+01
7.850268120533046012e-01 2.924448703465756250e-01 1.824947195776150721e+01
-4.661001798416443798e+00 7.938128164673996512e-01 1.284500734231295382e+01
-4.813328640279552317e+00 3.453532646612865520e+00 1.774252005264458631e+01
-3.383145635327077461e+00 -3.295694932665412802e-01 1.399922309982735413e+01
8.521898637600069382e-01 3.251595409997461994e-01 1.809147395713360140e+01
8.048061384619662473e-01 9.233692725442199656e-01 1.710647978232992017e+01
-3.943766584685178156e+00 -2.841367853584757519e+00 1.546485043469509435e+01
-4.202903905554991937e+00 2.448028153729519651e+00 1.813276872077678092e+01
-1.681686648141038409e+00 3.869702842193716741e+00 1.789959801466361711e+01
8.288010884117971155e-01 1.151255666606992856e-01 1.827338869679472566e+01
1.351288030213049662e+00 -6.390416621516346041e-01 1.645785483359954071e+01
-4.808210726541700453e+00 4.450552061635186796e+00 1.736181362389574190e+01
6.340548270949717402e-01 -3.980673525352021791e+00 1.700083848954521670e+01
4.067812628998939140e-01 -3.205953827851692139e+00 1.646534584828365411e+01
-4.713015672551810198e+00 4.438822458384845682e+00 1.707004279058166674e+01
-2.848530482509999739e+00 1.886360047926181949e+00 1.237967924523264429e+01
-3.858003600304189984e+00 4.644234460103463746e+00 1.759729338304512680e+01
-1.672114907812196627e-01 -3.931097744624112877e+00 1.671862236520438216e+01
-4.193729535117097562e+00 4.585229901685891285e+00 1.753894584105285048e+01
1.346975034517109648e+00 -1.080889187461944401e+00 1.761103884788926877e+01
-7.568051514656803924e-02 1.758847792935189558e+00 1.634384074389446795e+01
-2.215928152541930540e-01 1.986914804667770262e+00 1.656219357892681643e+01
-4.051463453918941582e+00 4.422272291074141215e+00 1.774104188426894524e+01
5.547510719556267844e-01 1.146044518959240754e+00 1.669845432728340029e+01
-4.688962380004555452e-01 -1.642641016880138194e+00 1.605013269452907565e+01
-5.088015394028247762e+00 4.272453517733461936e+00 1.725377133529936913e+01
1.200599453138477379e+00 -2.684187309280765099e+00 1.629209414871100137e+01
-4.792264519736281869e+00 -4.521398112134987990e+00 1.675324293246258378e+01
-5.200874217055994286e+00 4.243110652053075249e+00 1.707165808479344093e+01
-1.598563785987223262e+00 -2.503475460308147049e+00 1.633121521511392871e+01
1.525895955090265765e+00 -2.714684106591388257e+00 1.746722037191060650e+01
-5.303662294328013616e+00 4.078400736520754855e+00 1.684838400765483613e+01
1.247273887816882088e+00 -1.181637265373931100e+00 1.586231055881137308e+01
-3.087447420491935990e+00 4.647335463340782624e+00 1.780810464718967268e+01
-3.474583464836696667e+00 4.429427855993017360e+00 1.793391422491099263e+01
-5.346054184451558555e-01 -7.344674081677331490e-01 1.884533737175139834e+01
-4.207668886951078768e+00 3.860190896849219122e+00 1.791334346428654811e+01
-5.303905178822374999e+00 3.900254154505349291e+00 1.728236693507793120e+01
-1.383918822084351463e+00 3.390941705861370892e+00 1.725100705285603908e+01
1.466236178696437520e+00 -3.256260995008316783e+00 1.683960777442840850e+01
-5.169837329874825471e+00 -1.901038947034680460e+00 1.379410003639736004e+01
-6.094092034512391898e+00 2.841968428225583487e+00 1.622860063569317646e+01
-6.011840320591506526e+00 -1.542563220843199412e+00 1.736252769059234424e+01
-6.235813317241970744e+00 2.702818865807954829e+00 1.640435682139955986e+01
-5.463054786641763805e+00 3.847387918073178703e+00 1.718443834992761765e+01
-1.801109298698582606e+00 3.926139306155306485e+00 1.837188833550016653e+01
-2.465947009668775891e+00 4.050522140636566348e+00 1.829997921548247319e+01
1.050797075222284827e+00 3.234323629682784862e-01 1.589175550656624125e+01
-2.557693697806842081e+00 4.204834725024637621e+00 1.823426379409271192e+01
-3.913386319973989114e+00 -2.706405917697797925e+00 1.794684790317948853e+01
-5.057353299047408157e+00 3.250719856208306169e+00 1.763718574499779379e+01
-2.147711498145996600e+00 -4.579444770607060455e+00 1.680984184665607728e+01
-3.215816699840308601e+00 -3.200951920609169221e+00 1.800569115842100842e+01
-5.099327286927410441e+00 2.893007678372655711e+00 1.764571669193745151e+01
7.029413385118898905e-02 -3.099828821986192473e+00 1.818414189235917888e+01
-5.104622504591143084e+00 3.081337705516061121e+00 1.762559757060380861e+01
-3.990781835977969205e+00 -1.973247484506552185e+00 1.808038864592367645e+01
-3.713643648330781311e+00 -2.141596219792431199e+00 1.813611206814750432e+01
-5.925857039129584614e+00 2.662889829406198672e+00 1.707220186322403777e+01
-4.001800055582817706e+00 -4.749813302044581853e+00 1.629506873996998451e+01
-6.401246433081827725e+00 2.190840359130778126e+00 1.656797680912148962e+01
-2.025071128014603428e+00 3.497030978016134384e+00 1.849283714546270829e+01
-1.565326744257821368e+00 3.193569670486462009e+00 1.857611310547654426e+01
-4.391066696919368795e+00 1.643032474195012194e+00 1.810788906024929901e+01
1.571456847257581391e+00 -2.241473524391982330e+00 1.678057705210090944e+01
-5.698297184499517831e-01 2.662973062272059543e+00 1.841007165440220206e+01
-2.012335106977249932e+00 3.046633609170195101e+00 1.859919730266732785e+01
-3.567506309363767780e+00 -2.890628624476749842e+00 1.569494152804091414e+01
-1.517482437540671247e+00 2.815259977839132510e+00 1.563728068820603312e+01
-3.991382459235842450e+00 4.581482782859871428e+00 1.730126224234734877e+01
-1.607905878967964108e+00 3.804775423753942398e+00 1.838663299135291851e+01
-2.208125654459967890e+00 3.477212042289339777e+00 1.848659790390826885e+01
-2.438275654307155094e+00 3.271790952209846282e+00 1.850406124591206947e+01
-2.457394127681476359e+00 2.720052790435798507e+00 1.412074759973068439e+01
-6.344144995098677242e+00 1.662506096940601141e+00 1.684437044556248964e+01
-2.038200828808598875e+00 -3.470163340373539462e+00 1.624421870039966365e+01
-6.500414910300877480e+00 1.706115601062241138e+00 1.581985300832155161e+01
-1.284726277965535290e+00 1.550916265546672390e+00 1.287480796029419139e+01
-3.023765921106016386e+00 -3.079905089772231541e+00 1.599616978680958823e+01
-3.132574226208708623e+00 -4.288292630371939751e+00 1.749870670402684425e+01
-1.379987082549413380e+00 1.646545856530245322e+00 1.298773315978958465e+01
-1.562482174322544548e+00 1.252016173148129852e+00 1.274424908682770763e+01
-5.366393880577106756e+00 8.121102625645095774e-01 1.767075994514365789e+01
-7.461979760694081865e-01 1.045797108886474813e+00 1.350763603613425801e+01
-4.342091941999586258e-01 9.732339165546444182e-01 1.383006596095437857e+01
-6.363014907215103655e+00 2.284907693890934954e+00 1.621888828331621824e+01
-4.299218247675546389e-01 8.789384884180770907e-01 1.381264101812637080e+01
-8.163515094889177703e-01 3.077903984952525818e+00 1.839834351807400736e+01
-1.598319745592398977e+00 2.683445973454417377e+00 1.871912398321796900e+01
-4.523577823330363401e+00 1.261111790929233756e+00 1.805822752281134314e+01
-5.155537127476047310e+00 -4.299713831818655407e+00 1.672648046294708735e+01
-5.141418272162444403e+00 3.084005143319531683e+00 1.543339837819370075e+01
4.983823203068715735e-02 -4.109241716738019079e-01 1.487609796296663944e+01
-4.392607896896350894e+00 1.239436997451989431e+00 1.811646488214996253e+01
-5.471628746555111000e+00 8.411064161636940817e-01 1.760673750622532197e+01
-1.156153532595223243e+00 8.530171762375786670e-01 1.893547347169282347e+01
-3.037189231689982449e+00 1.018729626461246873e+00 1.241338126701985090e+01
-3.353402565680245750e+00 2.438898080938070478e+00 1.841392618562869643e+01
-5.185367571416401589e+00 2.360644409738107186e+00 1.456730340176795835e+01
-6.069583976193018593e+00 1.307983210438193655e+00 1.716820763309513609e+01
-6.411176951862462836e+00 1.443987479829628828e+00 1.678471272335588793e+01
-1.325638469982524326e+00 2.740358688749002347e+00 1.582991642628825701e+01
-6.659283103647904767e+00 1.504227347033874729e+00 1.619358992825436871e+01
-6.638773399398166575e+00 1.265134365946614547e+00 1.564171466792222986e+01
-1.688616974877074739e+00 1.293460463820999440e+00 1.269715148635764734e+01
-1.556202995821565072e+00 1.090162238043509202e+00 1.288835637359770914e+01
-1.389633321855922032e-01 2.586477954086879860e-01 1.437676190431357526e+01
-1.779465924283579525e+00 1.063902477038750627e+00 1.282509155680514112e+01
-1.037191178982597828e+00 7.123459058409616906e-01 1.359040117293230310e+01
-6.810235926421954744e+00 -4.993043819428168995e-01 1.577796306940867055e+01
-7.936141889409137340e-01 8.457476613642145313e-01 1.358405031953396502e+01
-4.350983891034612583e+00 2.134391776568904664e+00 1.341507238769654720e+01
-2.794438866915730735e+00 2.745143795619615190e+00 1.391444514028540169e+01
-1.755535623271220258e+00 -2.379236944865676939e+00 1.838632903130159946e+01
-8.737998631203532929e-01 3.260434962567210881e+00 1.826562561120972816e+01
-5.092688035741056218e+00 -3.307870629714773081e+00 1.477865158879220076e+01
-9.884885606019441218e-01 2.894485618385225223e+00 1.858821624404342288e+01
-4.733809923969545252e+00 -1.235957824083809831e+00 1.362682954509165256e+01
-8.447337931095688646e-01 2.847317592072462489e+00 1.854428401710869423e+01
-5.154999135322942294e+00 -1.978117477980643413e+00 1.764136331943886660e+01
-1.377707032920215457e+00 2.703130258418390497e+00 1.871858805940534864e+01
-9.806688625329051945e-01 2.633835345052982113e+00 1.867629626630960615e+01
-3.759006343927039584e+00 -1.352169091526588263e-01 1.837663443558759013e+01
-1.378810541561036107e+00 2.485148931873585099e+00 1.876453706984195691e+01
-1.539881756386967560e+00 1.839310633096913783e+00 1.882799266221016410e+01
1.236948545390990528e+00 -1.071862892982154092e+00 1.799056032621978574e+01
-5.783377441505240135e+00 4.192428925765850911e-02 1.748921136305021662e+01
-1.715323208627586249e+00 -3.678257621058236282e+00 1.798145186922390337e+01
-2.274799612717089303e+00 -8.117165449859888859e-01 1.554963132976902074e+01
-1.652324564042812138e+00 1.940800267537185375e+00 1.326086006725068245e+01
-6.721381021506810605e+00 1.046598660776752343e+00 1.601819763720265399e+01
-3.341607034235158924e-01 -5.340168423352518179e-01 1.493353808128854610e+01
-6.272394023069232105e+00 -1.940228221436806733e+00 1.715111780592604873e+01
-2.612510088693372978e+00 -4.576071265355859730e+00 1.658518680448719351e+01
-6.650248004707820293e+00 1.062684140468214355e+00 1.545698807901997895e+01
-6.671112095482108373e+00 8.479467859786335993e-01 1.524421673059979554e+01
-3.435110470943020911e+00 1.651882925429894122e+00 1.225273807839744933e+01
-9.405550631997140476e-01 -4.150683226944025250e+00 1.768573605268136362e+01
-3.567220579971389416e+00 -1.530735145375531792e+00 1.827280004790205226e+01
-3.279003988155321014e+00 9.741192879353075540e-01 1.240667221007275600e+01
1.597077428381040498e+00 -2.259470233188221933e+00 1.697820036349970962e+01
-6.845873389434100176e+00 -1.139346817392101752e+00 1.625838596916550216e+01
-1.813529573963223340e+00 4.604964683278224835e-01 1.360513588123637163e+01
-3.732093348939599653e-01 2.525111666327624071e+00 1.798876407150005718e+01
-8.345182633197645306e-01 5.269924850387001092e-01 1.385026350692649544e+01
1.050042161833652621e+00 5.447946995105381607e-01 1.728068882024166442e+01
-4.023851877964126800e+00 -2.906276848578825067e+00 1.785069196716927564e+01
-3.094620802582920049e+00 -2.502030272496980068e+00 1.824866481773632643e+01
7.600917818509371759e-01 2.926213208337824501e-02 1.526630952808434927e+01
-6.124668548286493319e+00 2.324969397102259361e+00 1.580083812294398626e+01
-5.611500307914361052e-01 3.745742533129211571e-01 1.411466563439786626e+01
-4.842427475061074627e-01 2.613619214336248220e+00 1.836120104482091620e+01
-6.780648128184774137e+00 -3.297903965626888256e-01 1.552836440166174725e+01
-6.282011075773136000e+00 -2.848565229631172535e+00 1.469690052140535386e+01
-9.595596930821971293e-01 -3.512528529415278378e+00 1.800675066792789636e+01
-1.205378168001510986e+00 2.229713405053695752e+00 1.879613028433820432e+01
-1.191386403456938581e+00 1.842687097586439116e+00 1.884131333355537663e+01
-3.584864735540217229e+00 3.317319175287247290e+00 1.822994609998323767e+01
-1.418236514269022974e+00 1.635259025211572181e+00 1.885181268481838401e+01
-4.766337686364294335e+00 -3.325055354844084210e-01 1.802389803816005553e+01
-3.847308226625783423e+00 1.458370676884857664e+00 1.229152559934589561e+01
-3.810801267046656449e+00 1.230159393409376634e+00 1.226555915951358600e+01
1.164883382953894042e+00 -6.664189277906640285e-02 1.765369743158830573e+01
-3.437766436293788086e+00 8.492465580213697240e-01 1.250292564289330244e+01
-5.963287970855207121e+00 -2.754497251580584560e+00 1.708016336751081354e+01
3.266636233090691732e-01 3.684470460801809732e-01 1.878178222122174645e+01
-5.764890360402750602e+00 -3.942832710121277451e+00 1.660549740788083284e+01
-5.769618768668556275e-01 1.908010175074180026e+00 1.873836262408926245e+01
-9.686361534986596133e-01 1.082249795404968795e+00 1.893131392526940004e+01
-4.600970351636512135e+00 -3.550752298204339574e+00 1.741471665813350711e+01
-2.578239864823254734e+00 3.287353781337227332e+00 1.534314291725995361e+01
-1.390845447413247893e+00 8.545315430145939972e-01 1.890938748539517178e+01
-2.033315403580838732e-01 2.329442810808737274e+00 1.780401579467638129e+01
-4.861164533600041082e+00 -9.849836760843480032e-01 1.794620006212387153e+01
-4.946466395728809751e+00 1.352279551418702486e+00 1.341696122720704665e+01
-6.051145698965633812e+00 -9.650940108252028526e-01 1.739338060862662871e+01
-6.495084171619081026e+00 -5.429030120729883002e-01 1.700147920870038121e+01
-1.690996897360292683e+00 -1.468284656387407461e-01 1.476394784291928630e+01
-5.241210791169151229e+00 -4.022024293282893126e+00 1.686119242138455832e+01
-6.708705166665644981e+00 -1.814066792258538063e+00 1.658390394403550516e+01
-1.600343345707327281e+00 -4.083191225930548285e+00 1.649334375326358071e+01
-6.635094538790092145e+00 2.636890342529892850e-01 1.659793889892154084e+01
-4.334350203646242683e+00 1.002552889721785245e+00 1.258055270486130439e+01
7.556520377404722932e-01 -2.999808786369992930e+00 1.635026684892797988e+01
-4.004610452713668778e+00 4.886636747644397816e-01 1.275782196905874599e+01
-2.581500927422003322e+00 1.356902500314574045e-01 1.374831629666161348e+01
-1.177965491982562618e+00 1.558968296075972648e-01 1.431169853216022148e+01
-5.433058721429136817e+00 2.050317399042429489e+00 1.754093801405189623e+01
-1.370667838617178891e-02 -3.798719983282960122e+00 1.664655185278978422e+01
-4.575650862884630854e+00 2.351576856226192280e+00 1.396625917606458245e+01
-5.982018010378298278e+00 2.736457581061956468e+00 1.598305089415664781e+01
-1.106562239221372757e+00 2.072993622906338373e-02 1.451875797242813348e+01
-9.023763622628411252e-02 1.578885753800108871e+00 1.862468559642492494e+01
-8.123557811578012711e-01 3.109081400782665483e+00 1.803119100012502685e+01
-8.164639969918244811e-01 1.617929276479857403e+00 1.885531584547496209e+01
-5.337308737109132117e-01 1.507899216328317360e+00 1.882493148480084955e+01
-3.067057829738729424e+00 -4.908232858870105186e-01 1.458623167574945256e+01
-3.259572613799273544e+00 4.001325207230685521e+00 1.634925879705713925e+01
-3.788930865969282191e+00 -1.764255158866194773e-01 1.342672736913050358e+01
-8.450331021881433147e-01 1.398568027780351608e+00 1.888738533567430977e+01
-7.656341039092825485e-01 1.063379681901644336e+00 1.892706921836437317e+01
-5.943128562544650606e+00 1.927491715696135977e+00 1.520319992586954072e+01
-2.238525194422969378e+00 7.314071836969776585e-02 1.404295979841683817e+01
-5.197176879309926001e-01 1.307448967408086471e+00 1.885524162276904292e+01
-8.067537010058315472e-01 8.385400999005909739e-01 1.895876788259465684e+01
-7.843015956111567544e-01 4.505821942979196248e-01 1.897920078643155506e+01
-6.814530392211457510e+00 -1.150029473631222210e-01 1.618437348465502623e+01
-3.583700692577139524e+00 3.062497014289354169e+00 1.471244456247316634e+01
-6.774666537716345083e+00 3.007907655983976802e-01 1.539843831870670954e+01
-6.730168088961613115e+00 3.585966937888870332e-01 1.516507164211439829e+01
-4.773394792456285174e+00 2.784956554933137873e+00 1.475188150315015179e+01
1.114247932454932588e+00 -1.002430486346473693e+00 1.568874194289023905e+01
-6.667694572888318127e+00 1.615327667072139484e-01 1.503729695112439657e+01
-4.051651641600701126e+00 6.542950002627390127e-02 1.306098700159431303e+01
-5.845268827343105933e+00 -1.938147544391723764e+00 1.736253833953932713e+01
-9.579195411187003684e-01 -6.947011626279975260e-03 1.453717536346911743e+01
1.465534765948861562e-02 9.475677115888797575e-02 1.455567229846650434e+01
1.882909541874251413e-01 5.964650290868469540e-01 1.475498577119711285e+01
-3.084351961138392273e+00 4.410533362103245203e+00 1.740242580157236318e+01
-3.583959368525624911e-01 8.680429174114276947e-01 1.890305564976506503e+01
1.013923215819074741e+00 -1.032092035301419131e+00 1.553848455511928961e+01
-3.732167064270806023e-01 4.912018988384685980e-01 1.895878898098344223e+01
-6.459625004676448512e+00 -1.123964488938586470e+00 1.710249477725165690e+01
-4.162000234261848064e+00 4.497069106405339411e+00 1.766728051080305306e+01
-6.313323006284227823e+00 -1.419341364324973043e+00 1.721654567690888626e+01
-6.743211836671830994e+00 -6.971771819484244848e-01 1.665533623832513399e+01
-6.749728167349062780e+00 -9.338605848422016908e-01 1.669233531656583835e+01
-5.354933869946433056e+00 -4.101458054035839851e+00 1.673847445579424686e+01
-3.047673761181198149e+00 -6.809877082170225915e-01 1.849410865739694998e+01
-6.691700308369133765e+00 -2.877948517578915455e-01 1.519137549919897623e+01
-4.278535252811160206e+00 4.950174722090986412e-01 1.276444124893449583e+01
-5.599242645686946851e+00 8.724547131838334968e-01 1.752945066539327712e+01
-3.977625415431543576e+00 -3.467996005264644133e-01 1.350199658155457172e+01
-5.158913926813561979e-01 -1.146789702790903531e-01 1.459675241936257351e+01
-2.999207190380647425e+00 2.254866567184698134e+00 1.852642340500437257e+01
3.905343578546076611e-01 2.736816022138882087e-01 1.477997143561781002e+01
-1.552829141908405930e+00 1.877778278493234865e+00 1.324795608184935958e+01
3.952124678973940597e-01 3.568001655673583850e-01 1.477817662558393863e+01
-3.478154137767440979e+00 -2.468105033415653793e+00 1.571261799249061397e+01
5.766005183108919852e-01 6.579871537001092952e-01 1.546499870261011012e+01
-6.167692347448872070e-02 1.242551351476318899e+00 1.872329031614544448e+01
-1.618746415008970319e-01 1.100494159950490269e+00 1.879665078572043768e+01
-1.508754443119244559e-01 6.964114462615481616e-01 1.888201212872749579e+01
-5.418682976908204552e+00 -3.670716009092860332e-01 1.772707023531677351e+01
-3.149425789314181046e+00 3.142410878238461436e+00 1.472955124131214433e+01
-9.063127048604817659e-01 -1.083660430297008093e+00 1.871895628636352882e+01
-5.825477042094081348e+00 2.828457669518218864e+00 1.584946153026255189e+01
-6.182937659204521985e+00 -2.550504695127442822e+00 1.702439722144981005e+01
-6.346437248541236364e+00 -2.127335174448989008e+00 1.702507847418664255e+01
-7.285806787811537344e-01 -3.604674429374851385e+00 1.652462395173377985e+01
6.626847101857686884e-01 -2.915809831973668054e+00 1.830826903222072133e+01
-6.619256616194912013e+00 -1.355087325911688234e+00 1.691487423452943517e+01
-3.687859197113813714e+00 -1.235441904275789149e+00 1.501443439580074823e+01
-6.854811394497448696e+00 -1.291339564464328626e+00 1.611765132981329884e+01
-5.114654207062631741e+00 3.365700553237855885e-01 1.319164562904052929e+01
-4.712496668487723639e+00 4.338892536412049417e+00 1.746504924626803046e+01
-2.549700187480761659e+00 1.949441176506111262e+00 1.254922726500723940e+01
-4.619942710958095056e+00 4.297207593912716894e-01 1.289145848334185729e+01
-4.276104313633110721e+00 -9.976305485523595529e-02 1.314556791216599407e+01
-4.401432497393519938e+00 9.037803778475961280e-03 1.307039019145641134e+01
-4.994441677333512075e+00 -4.334541101754142645e+00 1.679171205821142365e+01
-4.412730406203420941e+00 -3.752122623265164991e-01 1.332407321300826908e+01
-1.920131008536302142e+00 3.823002201509543063e+00 1.731211600466580336e+01
-3.892672940487938771e+00 -6.403444957413320093e-01 1.395706557160604433e+01
3.996331938266421968e-01 -3.465533080693490753e+00 1.654574545537864338e+01
8.938740173047021731e-01 7.352907836976662059e-01 1.644695548593266210e+01
-1.675556830480831483e+00 3.169039835441059161e+00 1.623511422483629474e+01
-3.600865182356282723e+00 -5.179659533535789784e-01 1.411624040175531292e+01
-2.547972319285916054e+00 -3.134518885445212177e+00 1.813003400682384125e+01
-3.706622310831937828e+00 -6.517631891654989129e-01 1.419658922034512472e+01
-4.447597975303242634e+00 1.475654950674254451e+00 1.290070894592319917e+01
-2.924985372617904034e+00 -5.603802842717060528e-01 1.484121078522242243e+01
5.565229681554981767e-01 -2.132251714170839696e-01 1.499654390892516886e+01
-3.248295181041787494e+00 -6.825445430239724942e-01 1.477786206445298944e+01
1.400029051632045718e+00 -1.196254616442174790e+00 1.625162032594460726e+01
-5.446252016204878643e+00 -2.776240288667574774e+00 1.732722861533178360e+01
-1.385955098465563751e+00 -3.184709640610414727e-01 1.511467773991308405e+01
-4.642309314348809224e+00 2.448727316896583517e+00 1.793874896658723372e+01
8.959710166971168732e-03 -5.327057921357167825e-01 1.493762772614095269e+01
6.180784181744185535e-01 3.803253600433089687e-01 1.514399680612784493e+01
8.722226553544760730e-01 3.966951939706545582e-01 1.569107485412353498e+01
-2.425357296084742487e+00 9.855013177349957187e-01 1.266011474393440750e+01
-1.000699571944219324e+00 8.977730121594619250e-01 1.341652861659990492e+01
3.493126196596796351e-02 7.257144848512060431e-01 1.881027807216187853e+01
1.291450501913704585e-03 -1.197687787913861435e-01 1.897378542018846304e+01
-5.357521940269732497e+00 2.144437945228312881e+00 1.458505043426744407e+01
-8.107665664176051390e-01 2.082734275277498881e+00 1.527244047739042543e+01
-2.807385562842588556e+00 1.056208870181399195e+00 1.244185655335943608e+01
3.381819398143903754e-02 7.921082398449680317e-02 1.895583069039539481e+01
-2.482668751096356097e+00 -8.879476569292017452e-01 1.555201185337169534e+01
-1.940898286095990688e+00 -3.324151520189607467e+00 1.811627422478484561e+01
-4.195833930106656950e+00 2.378778625305552730e+00 1.373967089886231463e+01
-5.798600554666706763e+00 -3.164145767370470708e+00 1.703820887023021413e+01
-8.219155335536207918e-01 -3.070358283907337338e+00 1.650685774117054905e+01
-5.935200354426098279e+00 -3.120552212055020647e+00 1.697823781698720325e+01
-6.384443018399212910e+00 -2.340577542467011440e+00 1.692317336382074444e+01
-6.563799074684458112e+00 -1.901238164380551821e+00 1.684715733181860031e+01
-2.793858369481386994e+00 1.257852912190287054e+00 1.860983946744386941e+01
-6.570620733080351883e+00 -1.711703533194763649e+00 1.689398540798812576e+01
6.299663832832871346e-01 -5.587314491134969252e-01 1.512619265624255860e+01
-6.803168786748991614e+00 -1.318190245131585892e+00 1.650529630897570854e+01
-2.068198390113337837e+00 3.908935828935069523e+00 1.727880306631818996e+01
-6.754491641193542506e+00 -1.155840889288007878e+00 1.668645508084356521e+01
-6.777452699632058319e+00 -1.548514390354500891e+00 1.650089119578030505e+01
-1.355551500411823262e+00 -1.560601731790763891e+00 1.857054107541728172e+01
-6.849141702245749919e+00 -1.494210493532883488e+00 1.591153523804909753e+01
-6.106684571630188074e+00 -5.901998083735593426e-02 1.397108125035283166e+01
-6.167332233243397965e+00 -2.449308487129370882e+00 1.439588041137731977e+01
9.753766179921086188e-01 7.083688111483555927e-01 1.667093130159538106e+01
-5.908272140068571154e+00 1.686803857235376625e-01 1.379941486338517365e+01
-4.128903181092926644e+00 -1.387297147086525628e+00 1.813453182621744020e+01
-5.253497142077243609e+00 2.429187850768394163e+00 1.471570232060328465e+01
2.773837939936019126e-03 -1.160564337788490219e+00 1.535373884496870289e+01
-6.077412563336970663e+00 1.644946912953232365e-01 1.400171991407870564e+01
-4.767135129050283915e+00 2.822962930338100418e-01 1.296231879371357110e+01
-4.652741215440583389e+00 1.149858539234405175e-01 1.302263672555318408e+01
-4.194671726791530553e+00 -7.610034353197574486e-01 1.371135912008379165e+01
-3.075604397208751895e+00 2.886912725569814597e+00 1.423046498797624793e+01
-3.571199873919030043e+00 -8.071919850938851226e-01 1.459059218292148330e+01
-2.818849745704733678e+00 -8.659417013347141534e-01 1.538183231588339339e+01
-2.663420152687696607e+00 -9.934840000776146152e-01 1.560955708966474020e+01
-1.198001252333009692e+00 3.517498730237248239e+00 1.807160472006616203e+01
-6.054590020214895674e+00 -1.349347180033974913e+00 1.737372161591540021e+01
-1.758238646357880075e+00 -5.473712013443909896e-01 1.543705898538537014e+01
-2.769878151142672884e-01 1.441677081736617128e+00 1.492742752426149622e+01
-1.071456438346920281e+00 -1.250270510279019476e+00 1.603346440208096624e+01
-5.047684816587474366e-01 -5.098936735699775014e-01 1.494918853812999515e+01
-3.238518264247145062e+00 -1.115267240044398367e+00 1.540621993116386790e+01
-7.084112851943664690e-01 -5.996501044692292837e-01 1.510648530890203745e+01
-2.873791773172036379e-01 -7.789925527429359953e-01 1.513767897876331148e+01
-6.038799133768049998e+00 -1.087455171853035862e+00 1.401484857636347670e+01
-1.531896265687015202e+00 2.094368198181222773e+00 1.377273269161462110e+01
3.489930096924962477e-01 -4.865725757377881155e-01 1.497983704779677794e+01
8.727109700806396919e-01 3.699916748434561864e-02 1.546667942863798118e+01
-3.619435406424908575e+00 -2.736403791053872325e+00 1.804220057738783112e+01
1.855468536848228212e-01 4.175109346171952396e-01 1.883462616039228266e+01
-5.719744901514337343e+00 2.737600304119644612e+00 1.561504707654336954e+01
4.552252237996405881e-01 1.294396214907849174e-01 1.874016470221511099e+01
4.553033116969342764e-01 -2.487560573033319677e+00 1.846360527066413937e+01
-3.252272354686772449e+00 -1.805331873849062019e+00 1.574649844084542849e+01
-5.873524240430437970e+00 3.051202811633579870e+00 1.702731022724776722e+01
2.512542733713802878e-01 -4.809765179780476352e-01 1.893444942904656614e+01
8.837186178554934379e-02 -7.142396561004582534e-01 1.891869025747601540e+01
-3.394126974751242809e+00 -3.996894556451029423e+00 1.760111443670398756e+01
-3.203756801570058155e+00 6.834333602508504413e-01 1.272527886667877084e+01
-1.401060809343037672e-01 -1.916338640783645131e+00 1.858299066502672758e+01
-1.946077828278998112e+00 -3.517179120671704240e+00 1.804479820162303128e+01
-2.312244275327954846e+00 2.869616642571459764e+00 1.463539239059298325e+01
-5.270921295081673064e-01 2.471617675987467511e+00 1.699718970613267999e+01
-2.198187347696971550e+00 2.752983371758938702e+00 1.448455470115389687e+01
-5.598276986826473234e+00 -3.515776477766362262e+00 1.697799412023348964e+01
-4.596665550982774739e+00 2.643617745034078759e+00 1.794027468055418240e+01
-6.817289750095072876e+00 -5.042982629508256931e-01 1.618296309878568451e+01
-5.597240876504582019e+00 -3.714525451905553943e+00 1.686903241180159085e+01
-1.902368592213401488e+00 2.654845260921758765e+00 1.463271707796801024e+01
-2.570390442664168607e+00 -4.364958190889693945e+00 1.754734314407080120e+01
-6.276273541653609733e+00 -3.121187267232492957e+00 1.669216866257414011e+01
-4.871816613210956604e+00 -3.692625590794997414e+00 1.510523070941571433e+01
-6.803520969248427974e+00 -1.735719519905774666e+00 1.630007319790476572e+01
-6.502821413849789067e+00 -2.730239627727889307e+00 1.651983323449429264e+01
-2.276078715743366843e+00 4.066678080201334033e+00 1.831028277102003443e+01
-6.570515984896275974e+00 -2.541258222499342523e+00 1.647828449214765101e+01
-3.743588584802108432e+00 -2.095601328978377254e+00 1.548103529979791659e+01
-6.822144118016737480e+00 -1.885019983342863581e+00 1.586217071372876575e+01
-2.751240250783796526e+00 -5.862895934701641831e-01 1.499085150948673828e+01
1.221867605157597847e+00 -6.172762187653253463e-01 1.599167378554984253e+01
-4.927588199262575408e+00 1.002972211183926543e+00 1.318527481680076363e+01
4.888961957734083708e-01 9.361876758941133359e-01 1.592582389480459426e+01
-3.827261801039650635e+00 -2.829035871175625161e+00 1.553312305645554403e+01
-4.099220519465874624e+00 -4.013510274837717162e+00 1.558765547967237097e+01
-2.856910373496560407e+00 -2.634841894154179576e-01 1.433857412107814611e+01
-5.591663829340818737e+00 -2.043078597826659681e-01 1.350709132213411579e+01
