-3.518584993464681343e+00 -1.421397861864717171e+00 1.824808437975687170e+01
-6.854827533928290251e+00 3.628625559430832759e+00 1.606026825574113204e+01
-6.003048331510145275e+00 4.436074944297043743e+00 1.670889010007090647e+01
-1.225408046129561113e+00 -8.511481946690024891e-01 1.757296393958444369e+01
-7.872839950546943300e+00 6.659368841132120576e-01 1.613616291038158934e+01
-4.086507977367643818e+00 -1.470377466123510501e+00 1.854002532584457086e+01
-4.800800015367029161e+00 2.820435981795495817e+00 1.794378688448689374e+01
-3.929190022162905915e+00 -1.656022884319167776e+00 1.838476744457040368e+01
-6.654411012321428842e+00 3.662268885355026260e+00 1.666935456771848933e+01
-7.297919366480542180e+00 -1.240745139752323034e+00 1.729228640486577362e+01
-6.794280646590246775e+00 5.367250042526083842e-01 1.887517472370722871e+01
-5.766862805719830121e+00 4.009591492043236727e+00 1.498634174433940203e+01
-3.886431195332999966e-01 2.807988567120924372e+00 1.564637105603944534e+01
-4.061658419957753452e+00 1.197622733527901273e+00 1.119246605066432565e+01
-4.835311480330078737e+00 -2.406121649163698084e+00 1.732446997314881187e+01
-2.683383058656261255e-01 -1.238386963295368570e+00 1.647936970881975682e+01
-5.263852334104530684e+00 3.564537882345756969e+00 1.765706574520537586e+01
-6.916128739239203682e+00 2.221551099681245756e+00 1.337175936351950511e+01
-4.888644903887209736e+00 -4.092038214462481172e-01 1.568248926477652461e+01
-7.482858202535597414e+00 -2.629203779399880148e-02 1.853878591333551995e+01
-4.999880727818956316e+00 1.946471697794362576e+00 1.110252015872249487e+01
-5.714149788983384326e+00 2.324858296009715275e-01 1.453170524510220574e+01
-5.843337329755027287e-01 2.345875914313567900e+00 1.374892071522729609e+01
-5.464300107285327002e+00 1.057194498134079730e-01 1.453629003693017196e+01
-2.834096381330572179e+00 1.589424578913104957e+00 1.115424122016412056e+01
-4.895044278298223972e+00 1.099359110037647191e+00 1.139159182381763813e+01
-1.273796505513902666e+00 -3.313000419252170037e+00 1.722749034205088137e+01
-6.081331656391833818e+00 4.718036960770664034e-01 1.430961515459819466e+01
-1.104978763071356340e+00 -3.047621632751287724e+00 1.737452519256673256e+01
-5.266286021329261047e+00 3.229489380263594889e-02 1.455212866177631881e+01
-1.527411632075148962e+00 -2.232671979905101356e+00 1.517458528779518545e+01
-7.499747255230072795e+00 1.826569199750993411e+00 1.758041607836907971e+01
-5.767782757562635254e+00 1.510526686277313679e+00 1.128304967985481611e+01
-1.510855338406217774e+00 -3.400030769975642020e+00 1.718546126051826306e+01
-4.021368137954100419e+00 4.999771431113066100e+00 1.655733427441395023e+01
-5.332264533446272381e+00 -2.413687192944734328e+00 1.879173325331302280e+01
-4.851479618719821474e+00 -3.125890658701968583e-02 1.476612663269346015e+01
-2.087670745298394248e+00 -7.426180285160370875e-01 1.408159742118506230e+01
-5.587610179201069727e+00 3.853499706094600796e+00 1.451681967307850485e+01
-1.483704226654809499e+00 -3.850524124840655205e-01 1.364325820117217702e+01
-4.683894237831607299e+00 9.673029249522109296e-01 1.842999223416361687e+01
-5.084018546843074304e+00 -1.200819058062243538e+00 1.686115320867093814e+01
-5.563097097521923828e+00 2.025880925193815685e+00 1.829693730402966523e+01
-2.891832669798306110e+00 2.135415636295375563e+00 1.774205328994322528e+01
-1.460131514520931040e+00 -2.755145162495051814e-01 1.357438189479321622e+01
-6.935891504347681646e+00 1.804565966954301270e+00 1.294726176842243959e+01
-3.040734892840865733e+00 -1.078979587965390508e+00 1.551996581702560363e+01
-4.824537099867727719e+00 1.309354545213433418e+00 1.105064494753013449e+01
-4.664702431725132215e+00 -2.875722259596639407e+00 1.846330579324838439e+01
-7.284153167736707735e-01 -2.850913011535847197e-01 1.418789024681944611e+01
-4.603490882647241378e+00 3.537019349932849721e+00 1.766159366162225908e+01
-2.496565154771856476e-01 -1.065041247814006553e+00 1.649460638794493050e+01
-2.895284943032636171e+00 -2.038469019744810762e+00 1.786942707199237290e+01
-1.618538963795004282e+00 2.586679509066708960e+00 1.705880163467055510e+01
-5.256251913372905094e+00 4.548813811802264517e+00 1.546654723824437738e+01
-7.340460304162990113e+00 4.430160714953587098e-01 1.857191627542274048e+01
-3.477857458397437540e+00 -3.002133609331588904e+00 1.763933572305152708e+01
-5.063805930030444102e+00 -9.310072515315792607e-01 1.654235842077092045e+01
-1.305537361167280475e+00 -6.495919480529079859e-01 1.758413820208449962e+01
-8.137879731047426013e-01 -2.511174838688873479e+00 1.730308113544559845e+01
-1.093342326557197319e+00 4.032092737072401789e+00 1.599705683287689695e+01
-5.069417366096097055e+00 5.895821965964491707e-01 1.253423440860351334e+01
-2.322708554126999836e+00 -3.075397881646779741e+00 1.784345226014345442e+01
-3.080339825737810067e+00 -2.011674084805124441e+00 1.788852198249555769e+01
-4.895988151659945942e+00 2.761589162271739228e-01 1.334429053579645696e+01
-2.362336471209593114e+00 -2.887644244323862797e+00 1.793203575275016348e+01
-2.680489624742326438e+00 -2.255054660796735888e+00 1.792195458621866422e+01
-2.520950523848588087e+00 -9.574579886557952335e-01 1.485524768777463933e+01
-3.462670436775998617e-01 2.241945409838236980e+00 1.589725606745885855e+01
-4.276416322970382211e+00 -1.648879525063294604e+00 1.859344042855565604e+01
-4.097768152548301401e+00 1.950460432814667300e+00 1.106766769913356185e+01
-1.593987322887263636e-01 1.622777370953075948e+00 1.519038140972068973e+01
-7.274381358500040307e+00 1.941112090972564985e+00 1.401066048881511605e+01
-5.119809346138657347e+00 -2.656961719676842026e+00 1.758309331641314444e+01
-5.099196175365968031e+00 5.372493921410148587e-01 1.860162820033506748e+01
-6.793376722192533634e+00 2.749649384241092953e+00 1.758584861815129941e+01
-1.452609548210316293e+00 9.382941548622584227e-01 1.282552688717094114e+01
-6.257021442656766297e+00 8.551544844494742836e-01 1.343770506022529432e+01
-2.724514187814220278e+00 -2.038778355616229110e+00 1.790070904952676401e+01
-3.012753819563871893e+00 3.561430241133585639e+00 1.401902362320611317e+01
-6.024373555607551722e+00 3.834793260696147232e+00 1.492257197799307633e+01
-7.078840103257283189e+00 -1.060674074235143483e+00 1.894855914540000086e+01
-6.824831910225343634e+00 3.033560375659112296e+00 1.722308001529294685e+01
-7.643617448573092332e+00 -8.259811660989644366e-01 1.829225614562626490e+01
-2.853884115336972727e+00 -1.861943103852871761e+00 1.787714134748064154e+01
-5.021503340760586909e+00 4.847230663772883474e+00 1.591906870410417341e+01
-2.901806979439298217e+00 -1.640072450977313245e+00 1.790997325398567241e+01
-7.277100258803333332e+00 -1.658893313091351907e-01 1.553842015925510722e+01
-3.460893495235824346e+00 -1.510155292006544858e+00 1.813827886407893075e+01
-5.972607994015977084e+00 4.600133750174354219e+00 1.628575270692634902e+01
-7.060236453280046121e+00 -2.161729381749308398e+00 1.809649037917359138e+01
-3.437344324568718079e+00 4.598037595706512271e+00 1.554687608844067981e+01
-3.917564453002612357e+00 -2.871158065111802049e+00 1.825524299965473674e+01
-3.677424454929590691e+00 -1.627029894536339949e+00 1.821352562325568769e+01
-4.246644782226230319e+00 1.469583887302483349e+00 1.077919633824669532e+01
-5.453398850207486603e+00 -1.024139054243720093e-01 1.532644859260701864e+01
-5.633061436343460571e+00 -3.818082911106079891e-02 1.882730732475252822e+01
-3.839832653611191304e+00 -1.672258254959645640e+00 1.831305286586317393e+01
-7.119953839040002563e+00 -2.030763727008761954e+00 1.867740493750340036e+01
-3.460960049129001792e+00 -1.076661297175531828e+00 1.836048063393766583e+01
-1.659770219860949636e+00 2.284140222177657442e+00 1.268171897545410687e+01
-3.615853917697220421e+00 4.403002017946195501e+00 1.710929108047431768e+01
-5.376720476408165084e+00 4.754754195683860374e+00 1.600608324386038461e+01
-4.093852392666494922e+00 -1.662256006054612989e+00 1.848987872892883289e+01
-3.479100065533176966e+00 -4.596778959563803113e-01 1.493529256847606845e+01
-6.235624282952825226e+00 2.945304506187403248e+00 1.779501872555078634e+01
-7.863840555312652469e+00 -3.675409143680394841e-01 1.654226625807217843e+01
-5.928686459430016598e+00 -2.712050507740564331e+00 1.823099408801691013e+01
-3.473414434746654678e+00 4.959535726820991641e+00 1.648792866091863019e+01
-2.705270473526208530e+00 1.927140015567440745e+00 1.145653843199523791e+01
-7.583374897114911306e+00 1.621211826358004204e+00 1.758620836649039987e+01
-1.940157086433589750e+00 4.496200113609241100e+00 1.636149010416015770e+01
-1.980632634018012261e+00 1.778810831832991601e+00 1.744973088149708573e+01
-7.072887319960083019e+00 2.801069052202256326e-01 1.494327019085682551e+01
-5.485065992952430136e+00 8.094451971873506402e-02 1.471226910108456210e+01
-3.328850870429842512e+00 -2.602336153988705991e+00 1.682803825893733674e+01
-1.257698350802608722e+00 -2.159914268461321729e+00 1.508394509021971075e+01
-5.997719324656127782e+00 2.503992350959022062e+00 1.248946393259484822e+01
-5.577973611064657167e-01 -1.107409198209927670e+00 1.494531644857027786e+01
-7.723631399979876022e+00 2.157223386074786475e+00 1.584489264899635330e+01
-5.258385945325716904e+00 1.769408647928219169e+00 1.065650382798061102e+01
-7.390809334027769850e+00 2.124429687890012630e+00 1.462671765899482423e+01
-2.215865552504186820e+00 -8.632021777885556801e-01 1.437459191879729659e+01
-8.925596990053515922e-01 -3.006134897474057599e+00 1.622106856750435711e+01
-5.304403561732595307e+00 4.932868838406662348e+00 1.624266557856771342e+01
-2.289215828083337456e+00 -3.319847456061926216e-01 1.366721008265076520e+01
-4.420797149152795313e-01 -1.181882132086474080e+00 1.527872783213697616e+01
-6.906019916994168284e-01 3.584226786988067293e+00 1.552304792777531972e+01
-4.403152030318212340e+00 3.781573152361390022e+00 1.753847697170153808e+01
-1.687276453596219250e+00 3.707299913657983170e-01 1.760747930246732906e+01
-7.067345880531265223e+00 -5.425132495281363987e-01 1.592456111866547630e+01
-7.392977271822525509e+00 2.269846310275267953e+00 1.725414297249675499e+01
-3.673724532181141811e+00 1.482400368621315412e+00 1.083810851330926184e+01
-3.957655185882397175e-01 -1.192219983932496064e+00 1.543423552395754328e+01
-3.243291395023586876e+00 3.906264435880161034e+00 1.448473091475984731e+01
-5.018599880587562012e+00 4.512043641911040126e+00 1.526878429123135206e+01
-4.719489025628760714e+00 -2.289447978050489940e+00 1.865853434522442811e+01
-4.237622966429370308e+00 4.208212963256793948e+00 1.730384100503306044e+01
-1.591896133022834281e+00 2.009185292725205407e+00 1.233795860007382927e+01
-2.893117835340036637e-01 -1.398502356401911229e+00 1.628338143235641056e+01
-3.164429374117191940e-01 -1.234776438962421174e+00 1.669388650350908065e+01
-6.826633704402237157e+00 -1.646326168424983027e-01 1.544897521393497541e+01
-7.358061400184498169e+00 -1.838430403416193126e+00 1.831866455186355225e+01
-5.681460875634821051e+00 3.051643596085014565e+00 1.316604836989088412e+01
-4.217876689753975228e+00 2.726034746772609374e+00 1.243808157749181831e+01
-8.832807547548314764e-01 -2.857913705182634434e+00 1.721478911372661358e+01
-1.074917435523341291e+00 -2.886060144578678877e+00 1.745418022078805009e+01
-3.795358773053915780e+00 2.750612195544815286e+00 1.783557349513906942e+01
-2.268710041109621933e+00 -3.192352198360147053e+00 1.775503131261587342e+01
-2.921150145100395612e+00 -2.258517768304384443e+00 1.789055771886784285e+01
-1.486006650921935401e+00 1.882768986474982142e+00 1.224049136845406949e+01
-7.494053733510519066e+00 -1.324779903730715080e-01 1.569142386448580950e+01
-7.415978383377082039e+00 -1.353712196514445854e+00 1.755872493285883351e+01
-4.522222624760184218e+00 -2.858705874207509101e+00 1.738158436399781337e+01
-3.275598149051150987e+00 -1.706612231644602407e+00 1.796266058329613813e+01
-1.096638196377466068e+00 -3.234759290737335480e+00 1.641584393970708433e+01
-3.468541414331169914e+00 -1.652336343889329484e+00 1.807090744519654280e+01
-3.687999201575381303e+00 -1.165479070070881029e+00 1.607474832709733548e+01
-3.586576035810801866e+00 -1.705097204217553841e+00 1.811380641729791208e+01
-6.559676044566320474e-01 6.743947475671888681e-01 1.394925182586286283e+01
-6.887272276861761355e+00 1.999491941838183573e+00 1.300119535089869416e+01
-2.998217153423613723e+00 4.834269566992742462e+00 1.633984352050330457e+01
-3.892810224149079179e+00 -1.886409197323994924e+00 1.828033932266479766e+01
-3.236080776418772231e+00 2.738263026371972053e+00 1.263758480448426624e+01
-6.685242146688581855e+00 -1.471290043151553650e+00 1.913259074126422732e+01
-4.225977097580141617e+00 -1.847457301073616165e+00 1.852380315126466215e+01
-4.043023796962895489e+00 1.355950408128596241e+00 1.095566712977077017e+01
-1.077516513937587073e+00 -3.242466391222294408e+00 1.702727376435654705e+01
-3.755205520384037321e+00 -4.135685321071309595e-01 1.507878918461265627e+01
-4.229458157192066636e+00 -1.731332525832669500e+00 1.855438253926309145e+01
-7.717575708652995914e+00 6.052038950794238481e-01 1.797942171477525264e+01
-7.381766345443622868e+00 -1.423191445443268588e+00 1.862085039319926594e+01
-3.400042937755086925e+00 3.811485188019188453e+00 1.736221651681704614e+01
-7.875894407514055118e+00 -5.537419674569656891e-01 1.730959909716685630e+01
-6.174608124228944561e+00 1.700905209653678529e+00 1.851819280177892679e+01
-1.486049958068920818e+00 1.199807042573623139e+00 1.265574694771388309e+01
-7.421612021422333783e+00 -9.532870539567328549e-02 1.556953611990202191e+01
-4.087647160009597158e+00 1.778398835493744556e+00 1.815072593048642702e+01
-5.199604835506111300e+00 -6.503485647122762003e-01 1.880352797978107660e+01
-1.172692134028162914e-01 6.228676848739941319e-01 1.534663584628648536e+01
-1.571044965687379058e+00 1.520259038623456682e+00 1.231184939153137137e+01
-6.409790539591361025e+00 1.259365182690770801e+00 1.280794139749569283e+01
-6.111173985537330822e+00 -1.245871182613436545e+00 1.915813038691141301e+01
-6.267267571507817436e+00 -1.259387326712515520e+00 1.918038657384518686e+01
-6.260342584395763410e+00 -1.457117528781530336e+00 1.916532303883493071e+01
-7.089665859033399187e+00 4.474173418008027259e-01 1.475038369105671521e+01
-5.205527127890055894e+00 4.571637819358686627e+00 1.703114245989774744e+01
-1.857772292180570606e+00 -3.379428263717323855e+00 1.664584993572156080e+01
-5.204481197480865795e-01 -1.598105215985486272e+00 1.547573127881169697e+01
-4.481808197152254536e+00 -8.385510560646820544e-01 1.864994135203393100e+01
-2.128245446683890041e+00 -3.306191063181669332e+00 1.671886737303324466e+01
-6.610317263530093967e+00 1.922121058169606655e+00 1.832734035326701516e+01
-1.954354685222498667e+00 5.976009143568329351e-01 1.264357793555235432e+01
-2.098197945805818865e+00 -3.612974486102280558e-01 1.363031333649874099e+01
-6.301751263085765942e+00 -1.066800039340696671e+00 1.917064800095050359e+01
-6.644309154854068922e+00 -1.046143697922594651e+00 1.914139642512554573e+01
-6.648003905866644914e+00 1.498335879712392682e+00 1.854453147204742081e+01
-2.615788372302698228e+00 3.799488242591680720e+00 1.711053817741924021e+01
-4.648790101524825857e+00 -3.525030509059923212e-02 1.859345911377565486e+01
-4.485050614731511232e+00 -2.052537965033769396e+00 1.861696337827529746e+01
-5.085764334358096050e+00 -3.663286835352643767e-01 1.572356700907916505e+01
-7.099575344042817093e+00 -2.207629918061906338e-01 1.889987268162871104e+01
-4.296105985470703104e+00 9.616862208761364217e-01 1.156766872418416980e+01
-3.188820980380043801e-01 2.788336831269032423e+00 1.539766259735294440e+01
-6.412602979620666943e+00 -1.923040282242576282e-01 1.568420546351568490e+01
-7.609067132779184561e+00 -1.153492224892438411e+00 1.829661162706117850e+01
-2.747538774940879502e+00 1.262783131167681372e+00 1.157705300572385099e+01
-7.639398325745043294e+00 -1.009680161236395257e+00 1.828477793568334064e+01
-1.542332054715745748e+00 8.790074294261855936e-01 1.747789576957564961e+01
-7.442058308615825624e+00 -5.038417529003338391e-01 1.592917690131199393e+01
-7.875831868286855553e+00 -5.194295433712987631e-01 1.670270853446426074e+01
-7.822215860552454103e+00 -5.215309930485296785e-01 1.650723206335095128e+01
-5.485819305046729655e-01 -8.280232899738404484e-02 1.439283130512303543e+01
-5.625698544309443605e+00 2.173519188202812202e+00 1.825271900561290650e+01
-2.029037595877305478e+00 -1.122316527007182874e+00 1.448601453868517908e+01
-2.408239908536690344e+00 2.292019177039795963e+00 1.221043799166944055e+01
-1.119513855158889237e+00 -2.136810010430901130e+00 1.510989995525192242e+01
-6.998883724233092574e-01 -1.330887849562184311e+00 1.485916143917928522e+01
-7.448690082624212394e+00 7.618659271789156584e-01 1.835365887900033144e+01
-4.617557120686115013e+00 4.816881982327783973e+00 1.693854694708364050e+01
-6.663812706180943124e+00 1.783747846008751914e+00 1.839206101939784688e+01
-4.383472074821079811e-01 -1.369385246080444318e+00 1.547782677405479390e+01
-5.818318500666951110e+00 2.768757540343831813e+00 1.798397265446179816e+01
-9.974993089233072929e-01 -2.423960761397734309e-01 1.739840342424684749e+01
-8.454912551820819022e-01 -3.043376920610996184e+00 1.680624053442595667e+01
-1.303827816486639923e+00 -3.216994726478259015e+00 1.741277213213399122e+01
-3.662369395646855263e+00 -5.588994785960088585e-02 1.839498452667657702e+01
-5.285657787463868829e+00 3.288272095092743985e+00 1.777032940168162511e+01
-5.668928350806510252e+00 3.650271744922845230e+00 1.753220212572623993e+01
-6.076542738217682427e+00 1.399463346530625651e+00 1.183646366709765729e+01
-1.517320794480547574e+00 -3.187204915628286006e+00 1.758503855112425995e+01
-2.299363274919295819e+00 -3.279349740791010159e+00 1.762679204481234407e+01
-4.645320452990022275e+00 2.043110762799745128e+00 1.120273562915956589e+01
-5.421990850938774642e+00 3.382967457225233510e+00 1.359183180790853029e+01
-4.703969690441052620e+00 -1.910341496294423180e+00 1.872243809096246636e+01
-2.497183746822081218e+00 -3.208445053915603307e+00 1.759560169497978066e+01
-5.857037633669051502e+00 7.521582403237733194e-01 1.296055920592649002e+01
-7.042345566423918513e+00 -2.242997031537579566e+00 1.845389115093658816e+01
-4.011669400062515933e+00 -2.696586264746408279e+00 1.831637501408122759e+01
-5.199402006135458443e-01 1.656540169371929494e+00 1.388832445060950604e+01
-6.580151894922098066e+00 3.348176981585210932e+00 1.719963334939672350e+01
-7.016578453376061120e+00 3.096342957577921773e+00 1.525758392580693723e+01
-5.288062414784285181e+00 -2.794790882068888482e+00 1.782610768777912469e+01
-3.718505911652256302e+00 1.075102086408179503e+00 1.144102703455990522e+01
-4.850830377818942551e+00 1.073785880046933539e-01 1.861514567314068458e+01
-5.631532562001575926e+00 3.711612352540363702e+00 1.430340702742389070e+01
-5.582863122920745269e+00 -2.506324265110109195e+00 1.777469968556225766e+01
-2.714404211227098518e+00 -2.796203512914515965e+00 1.793952621515240153e+01
-1.497602894802662288e+00 -2.034659543157559813e+00 1.498888683928124621e+01
-3.249306094349603935e+00 -1.844891137057691477e+00 1.793378226735626058e+01
-3.280112901349588217e+00 -1.021441315805188044e+00 1.565696168581427727e+01
-3.475870733359823994e+00 -1.848862875359857050e+00 1.803518444649143149e+01
-5.448762878046187197e+00 2.766086679440392881e+00 1.799060250864707555e+01
-3.044134169625496433e+00 2.703783365310965969e+00 1.265457898631569478e+01
-3.697124112920546768e+00 -4.612143293683228507e-01 1.844937356924781469e+01
-4.802546205574254046e+00 4.468631633720636209e+00 1.715973845078912419e+01
-3.728825196286301491e+00 -2.828671512638221142e+00 1.817490540525423981e+01
-4.129694330247128065e+00 -2.052594652270796072e+00 1.841348515276143516e+01
-7.025760482244360006e+00 1.177225821660040195e+00 1.380143313373742942e+01
-7.296929341899355492e+00 -6.636991365631121909e-01 1.614111711717811559e+01
-1.858819030961458951e+00 -1.726488153848642071e+00 1.491356184878404534e+01
-4.271187591089232072e+00 -2.063080695274871257e+00 1.850764748294775686e+01
-3.270455499484449025e+00 -2.498974984601137539e+00 1.676213179153182509e+01
-1.840501862125135668e+00 1.346596712257041695e+00 1.218201483404746099e+01
-4.014182283332209167e+00 4.041148234996887467e+00 1.452511002176862931e+01
-4.671424242459856657e+00 3.310242727165169097e+00 1.328691671437771404e+01
-5.260281762800362415e+00 1.608690731933616336e+00 1.076443612524368021e+01
-6.469547513877875744e+00 -1.312147442243801088e+00 1.918045621891623753e+01
-6.375659024162153798e+00 8.414287478759907568e-01 1.363518104430353972e+01
-6.442943592069719116e+00 -1.214040625931764872e+00 1.919314012258665159e+01
-6.667326930585652178e+00 -1.258309242001782291e+00 1.913907850060909155e+01
-4.710314977894075605e-01 -2.014431127719183756e+00 1.642533879135651276e+01
-5.787087508386264290e+00 4.056777910372662888e+00 1.508657895410597760e+01
-3.741288632436150952e+00 -2.031569585340053941e+00 1.817608604909089465e+01
-1.071521768756529491e+00 3.015239073359986754e+00 1.428615251331311597e+01
-3.254243867774997856e+00 4.776746851637810209e+00 1.597175976731575631e+01
-4.610669937704594545e+00 1.627479254742599357e+00 1.827377631986425754e+01
-7.415115235924634618e+00 -1.214615624711379294e+00 1.863661675225823089e+01
-1.507624443221903476e+00 -3.116621468133992767e+00 1.607518398099566426e+01
-6.738847684705559615e+00 3.589384672566077850e+00 1.658499207846293544e+01
-7.622204252681518355e+00 -1.165227527713844857e+00 1.766207006290495585e+01
-7.809559531714494796e+00 -6.550703697279349758e-01 1.669967741687894502e+01
-8.798498658647955217e-01 2.616090599822661567e+00 1.655851912158361117e+01
-1.931489965089591698e-01 4.043020381646528216e-01 1.640517845872441782e+01
-5.286618456101027874e+00 -3.957505559733978107e-01 1.589852995602619146e+01
-5.677203992125727794e+00 -4.444455871291348448e-01 1.890764389152963432e+01
-4.482683327913369098e+00 -2.715643083542605307e+00 1.850587252785915027e+01
-3.864517688132766970e+00 9.072418980479748374e-01 1.170785941175372002e+01
-4.065144593283321228e+00 -1.098145294907266756e+00 1.616488942119528716e+01
-4.087995180442440812e+00 -1.189542424508905238e+00 1.625712150067286998e+01
-7.204003549128978889e-01 -1.912384638699512251e+00 1.529175941840725628e+01
-8.520462277534773810e-01 -4.407805647285225614e-01 1.735734139676818799e+01
-7.726146821535403220e+00 -6.366101207485845848e-01 1.813766924717446116e+01
-2.075704293516729582e+00 2.675969422383070118e+00 1.303679151873064868e+01
-4.109321594828450941e+00 -3.176947386278753616e+00 1.797413103450688610e+01
-6.051589373000878069e+00 3.752785754211851454e-01 1.453086298728582548e+01
-3.665261546286346039e+00 3.459634045676601710e-01 1.834378092549721018e+01
-6.304459107571735998e+00 1.187562947126125090e+00 1.275318513377856888e+01
-2.664506092329808951e+00 2.139837297032317842e+00 1.181132956022112879e+01
-7.625202391423384185e+00 6.916618563212528770e-01 1.537425033188240420e+01
-3.667944624546688459e+00 3.485571460571966540e+00 1.757523754017586626e+01
-1.814727753971622226e+00 -3.126846099810215218e+00 1.624592448621754315e+01
-6.635871242819679772e-01 -2.620589372060428079e+00 1.645567240870731140e+01
-3.325700455376434106e-01 5.488082949723094295e-01 1.667906485178419373e+01
-7.719001969453850975e+00 2.127613827435389737e+00 1.599428557723575395e+01
-5.892320127767816107e-01 -1.890845287359706806e+00 1.559407190356803952e+01
-5.075693898736993503e+00 1.735591430484139774e+00 1.832280358404122111e+01
-9.626241951157434862e-01 -2.958910449869835535e+00 1.603368248409013219e+01
-8.441659452831665744e-01 -1.236547463894543952e+00 1.461982204326656998e+01
-1.886330329678669981e+00 -2.045372134133617958e+00 1.788370638620423492e+01
-9.516256785028165410e-01 -3.168904540218989485e+00 1.681982580944779571e+01
-5.934757002524690961e-01 1.602134556691291678e+00 1.664713758478494654e+01
-6.727443241307140553e+00 2.883648155083325726e+00 1.751167506509899496e+01
-5.872365687046738003e+00 -2.673960821048785519e+00 1.864559878859256870e+01
-5.241871302526302401e+00 3.400673621756069132e+00 1.772377450733743487e+01
-1.479874560311081222e+00 -3.283701398782067127e+00 1.745362322623904205e+01
-7.126354093011058044e-01 -2.385122224946063074e+00 1.583529895125404963e+01
-1.866339510507548649e+00 -3.285763850335265079e+00 1.761242892268482407e+01
-4.478956304774563968e-01 1.468536460028033286e+00 1.416811792430792494e+01
-7.624410389289160150e-01 -1.523874122078065607e+00 1.491312391764359191e+01
-4.426588526586231254e+00 4.067385590588431299e+00 1.450237140698107297e+01
-3.279625392484440294e+00 -3.545148703115772459e-01 1.453640444252787844e+01
-2.385438868375007182e+00 4.140675700495763500e+00 1.519247082954156625e+01
-2.680723839693103461e+00 -5.305549656356796095e-01 1.431426652389098209e+01
-2.707604567615763180e+00 -3.076872359881189123e+00 1.760865203766032394e+01
-6.648920306789730006e+00 3.706025920170362031e+00 1.564678602391735396e+01
-5.883509849165267980e+00 2.348237080710053881e-01 1.473929859638354500e+01
-3.832161828366076772e+00 3.767813642889610293e+00 1.748657894066407081e+01
-2.204810210061198372e+00 -1.885343215402200290e+00 1.552880875928979165e+01
-1.303411934978894626e+00 -2.356234359824398883e+00 1.527037071659149703e+01
-2.764411733523932657e+00 -2.918969108949573954e+00 1.787012048177581747e+01
-6.295096995983266552e+00 -1.361062043493538098e+00 1.745728177700150141e+01
-7.813842286219568223e+00 -7.698636597491548272e-01 1.754249523806586453e+01
-3.027810807023644912e+00 -6.912766246045591867e-01 1.494258568872714577e+01
-7.016472083151342076e+00 1.955573803964474777e+00 1.320487260820683062e+01
-2.656935048067442295e+00 4.721388025034440439e+00 1.646050199613219078e+01
-1.623494961439046147e+00 -1.233636344634566839e+00 1.433308514001207712e+01
-3.288322623724305949e+00 3.150471310749024534e-01 1.821463855561185952e+01
-7.219546452483072585e+00 -1.238255201180864074e+00 1.884819210693799718e+01
-6.943532393389253432e-01 3.162399409301356101e+00 1.604842293898606798e+01
-1.671231443616505885e+00 -2.560891788742154507e+00 1.562842247345529856e+01
-2.592460584756246966e+00 4.698598166876879922e+00 1.627242062770391229e+01
-5.855525150944913548e+00 -1.124511596242407929e-01 1.890025940635261392e+01
-7.524763479810694378e+00 -1.430030161033114311e+00 1.827168002376897604e+01
-7.656150017747481940e+00 5.687501667049015275e-01 1.813365445095314854e+01
-7.553993790093592509e+00 4.264666591303423182e-02 1.566778864809458227e+01
-7.644316836881012378e+00 -1.184620442897113879e+00 1.785805780024882594e+01
-3.808570460033196881e+00 3.175982975074635561e+00 1.320974526278186190e+01
-2.887722358434583469e+00 -2.991166630044939989e+00 1.721380790524169058e+01
-3.259818933903854354e+00 -6.541007818858672884e-01 1.829889439459919132e+01
-7.329692603762527625e+00 -6.229981912552677858e-01 1.876582684906621168e+01
-6.089169032662528736e+00 -2.089706289102468695e+00 1.904034816868105295e+01
-5.951269834275455528e-01 1.486782686063301773e+00 1.379311848346506864e+01
-4.666064245833668522e+00 8.765249676989580463e-01 1.177175427661446960e+01
-1.946128127708113276e+00 -6.970097337796286041e-01 1.780993030974009983e+01
-7.339632733672239340e+00 1.117845323749792064e+00 1.428916650540226030e+01
-2.467338367707763713e-01 1.361996688423182889e+00 1.617345245855150537e+01
-7.541099534599865706e+00 -1.205059288749670277e+00 1.748776352796185662e+01
-7.662745204356427919e+00 -7.270359856691750444e-01 1.649595641867687945e+01
-3.417804920000533819e+00 4.315671973701958208e+00 1.507428339391823258e+01
-4.036950927228671659e+00 1.754692564070527983e+00 1.065494246569558712e+01
-6.668505572344107790e+00 -1.460189084115117719e-01 1.549400218219056669e+01
-5.929248398701201239e+00 -4.169007115698144528e-01 1.608720790081484964e+01
-2.013732177473417817e+00 2.989847320611837223e+00 1.358077188519520817e+01
-6.476690252726900354e+00 2.649753682629341078e-02 1.531353109958800118e+01
-5.050537394460747009e+00 1.767034504077343415e+00 1.061288847273478453e+01
-7.980583995329679325e+00 1.065855978681485183e+00 1.656762886953217517e+01
-6.434622899583047229e+00 -9.288668456503912374e-02 1.553703956028181565e+01
-5.606670783763361143e+00 -1.119188487022196643e+00 1.696475810286847619e+01
-3.348836447739157229e+00 4.908339917689096055e+00 1.629556326368414076e+01
-4.618714226058695971e+00 1.960216202120620865e+00 1.106097512423152196e+01
-3.204773802730156440e+00 4.831856532863974429e+00 1.653426277347930906e+01
-5.220233147967917375e+00 -4.548676874286274874e-01 1.597972831441765251e+01
-1.004337225062349459e+00 4.979152324900746329e-01 1.351250295796807777e+01
-5.271546045694421423e+00 -5.272854589136828363e-01 1.609863426706386846e+01
-1.160765475433497063e+00 3.326749231231136417e-01 1.340042472149442077e+01
-7.352904137340043889e+00 1.828002970058952847e-01 1.863159371649240725e+01
-2.479358940004348977e+00 -3.265422703299910356e+00 1.717321999915455066e+01
-2.459312329785210416e+00 1.513794034060775839e+00 1.153335035667879183e+01
-3.913971922604206899e+00 -2.941114773066662469e+00 1.706191439923722086e+01
-1.079661587510634346e+00 -1.550084367214154657e+00 1.466461790809799837e+01
-6.254698494476214066e+00 3.762954892310953259e+00 1.501231691315077299e+01
-4.664712790449977220e+00 2.373116078680714836e-02 1.455586123085880601e+01
-4.062536334084027700e+00 -1.344056645511368941e+00 1.636918521267539361e+01
-7.790315225895977136e+00 1.475913474598092190e+00 1.539373535097145052e+01
-4.304303542139759742e+00 -2.999268035897583839e+00 1.741283330997434220e+01
-6.987482120971185040e+00 2.564503139707683843e+00 1.757241220282112337e+01
-3.884895739475730636e+00 -1.367888963256465473e+00 1.631642432188900571e+01
-4.258998528716503529e+00 1.553756328680722110e-01 1.848255369071803855e+01
-1.034661410603302301e+00 5.495808257858967316e-01 1.730312645078037903e+01
-7.739023902693226376e+00 6.473709534001931276e-01 1.575783953643315627e+01
-4.428036357408565493e+00 4.797725299284420153e+00 1.695720681676365516e+01
-7.858626405880212440e-01 -2.344342549548144916e+00 1.563254072773722569e+01
-9.409189282943399846e-01 -3.167860975088165443e+00 1.660380762260797027e+01
-1.093385808526087022e+00 -3.286917345438447935e+00 1.683804733206119764e+01
-4.856559847449990031e+00 -2.763168218943439225e+00 1.750757817615769696e+01
-1.852587398283758402e+00 -6.761457672248183393e-02 1.331505481565373472e+01
-6.983979144808484918e+00 -2.318923187174803058e+00 1.839778602502277138e+01
-5.314464049993190997e+00 -1.267473022956415729e+00 1.701729460015001294e+01
-2.665096605191790591e+00 2.280582899248557283e+00 1.208994700168211622e+01
-3.681215526038147168e+00 -3.049697680795868227e+00 1.800695451447551321e+01
-1.733420621992120880e+00 -3.386541134696451127e+00 1.739193401546229367e+01
-2.314621814175915393e+00 -3.316892688089759123e+00 1.743766452266865841e+01
-3.341375145396308532e+00 -2.940155609864533393e+00 1.740897864738874645e+01
-6.265373981442412088e+00 2.688009161466181851e+00 1.795509125243117765e+01
-6.616426199685263576e-01 -9.534105737874716269e-01 1.466167902648844645e+01
-5.042484990544219059e+00 2.638193287017410071e+00 1.219008065584915457e+01
-3.116706449664735423e+00 -2.836869725751146820e+00 1.782841791221509808e+01
-7.087792466198587604e+00 -2.217175258600503351e+00 1.831627526067194012e+01
-3.290933575357474883e+00 -2.874253956288854273e+00 1.781266841043250437e+01
-6.837665172775738043e+00 -6.069178057714774699e-01 1.612376584408139379e+01
-2.121613325055573984e+00 -1.666599119638624948e+00 1.792130587027689970e+01
-5.477012359475212477e+00 -2.808392934701547272e+00 1.843937378237771796e+01
-3.412080755952047628e+00 4.384335559741394661e+00 1.706922239261604446e+01
-3.893783077136110826e+00 -2.683080541890346726e+00 1.826473586721848008e+01
-2.891904061117255509e+00 1.365758359702010427e+00 1.788785003569209309e+01
-7.363224976392110932e+00 1.729067216014120945e+00 1.426724524881067069e+01
-4.033277513241683820e+00 2.505556221167452247e+00 1.209313483039638371e+01
-6.279417449916767424e+00 -2.188253524862911803e+00 1.899715845786358770e+01
-6.115047484794134292e+00 -2.646484456739532920e+00 1.863254200631836355e+01
-2.491651152145345716e+00 -1.519070559905720152e+00 1.549477500369878058e+01
-3.041715782871937002e+00 1.633800815010986174e+00 1.095884223361474952e+01
-6.496879564103567262e+00 -9.626196418605861282e-01 1.691319524923602913e+01
-4.685015898925700029e+00 -2.666142267694068479e+00 1.856397169316791818e+01
-2.287789601778243309e+00 7.229173302186940875e-01 1.237714877775105649e+01
-6.417464368459304680e+00 3.099579871370116813e+00 1.406018122443161289e+01
-4.915577062093266392e+00 -2.677807784841435446e+00 1.858775112979867217e+01
-2.737649792540964300e-01 1.954801148652190790e+00 1.586156739258807491e+01
-6.645906553724012511e-01 9.674313873350836035e-01 1.695949512101946866e+01
-1.829203235660315618e+00 2.178751088044182715e+00 1.239404266540912758e+01
-5.910971242249594582e+00 -2.224997973581755328e+00 1.897760140865038281e+01
-1.485560601291974869e+00 -6.611737763460907580e-01 1.765116003148504475e+01
-3.694917324292468663e+00 8.268983432603005390e-02 1.375234611157031495e+01
-3.648976794442388982e+00 8.666193968593705055e-01 1.181882175401323920e+01
-4.489038990142281804e+00 -2.025357802035333776e+00 1.700448545440248083e+01
-6.878764498809095684e+00 -1.656557369498060428e+00 1.903288430671927856e+01
-4.490018725515456666e+00 -3.101217671706324897e+00 1.820186561026467231e+01
-7.309499168611120368e+00 -1.649548087938264906e+00 1.866034846186539298e+01
-7.035937312762067464e+00 -2.010986735806611136e+00 1.879997565325554731e+01
-6.058969849633784932e+00 -1.434846857192578096e+00 1.913996061256865389e+01
-1.118089190615423556e+00 -3.166581258810462263e+00 1.621724245455237323e+01
-7.547361083958035621e+00 -1.418597702840233232e+00 1.808710367932961915e+01
-7.459570134423509913e+00 -1.600850237776898499e+00 1.805922291041565941e+01
-5.808461367185017821e+00 3.987855243897914015e+00 1.726377599595921097e+01
-2.458978678366812165e+00 -2.171795148499537920e+00 1.605104093322514913e+01
-4.255582980667199422e+00 -5.306342215062005430e-01 1.552987141428768680e+01
-7.523155240927488663e+00 -1.400734589479732950e+00 1.786293622177391072e+01
-7.486814507072930169e+00 -1.157057667070278129e+00 1.727304198375163580e+01
-4.627068957618526213e+00 2.978433157838706435e+00 1.786972578467912953e+01
-7.479218071246855004e+00 -1.011996526719992850e+00 1.686958261390397595e+01
-2.184104665320707461e+00 -2.842954452722174619e+00 1.633806230292029582e+01
-4.088296339841972937e+00 -1.417829794174286562e+00 1.642513257766055901e+01
-5.553781589367599025e+00 2.185489662075069894e+00 1.151392137970013962e+01
-3.926167624754968610e+00 -1.725025171420587533e+00 1.653473857764344146e+01
-7.013453723618457758e+00 2.899462776071007220e+00 1.484799250520513780e+01
-1.417448277353084318e+00 3.677992813567212416e+00 1.506016539658213205e+01
-2.418942303812400940e+00 4.426967107579841354e+00 1.667870620561328465e+01
-2.459690867643171241e+00 -1.764740191043071782e+00 1.569313475804682056e+01
-5.257197635589761830e+00 1.076225877351291604e+00 1.159411729934030788e+01
-1.331105142148090170e+00 -3.389933016362074891e+00 1.701066280866796276e+01
-5.111658295086179971e-01 -1.377503596586282519e+00 1.527844677159102460e+01
-4.831363069127426968e+00 1.839753190082227263e-02 1.456270189625926648e+01
-7.385140115745077338e+00 2.434204147100894389e+00 1.704477672945349909e+01
-9.285796367904284310e-01 -2.773888956891252366e+00 1.587783596207077963e+01
-4.448939173707470829e+00 3.145736109032523320e+00 1.306246915712477730e+01
-3.161111563071226094e+00 4.566181665022750025e+00 1.558625742170594819e+01
-8.553812976894317188e-01 -2.817906117899207086e+00 1.602696562069857933e+01
-6.254002815550249395e+00 8.107095237936867704e-01 1.354444973929907903e+01
-7.867809641745672211e-01 -2.949712325076775610e+00 1.677229840132893557e+01
-9.884676869918953557e-01 -3.148400388375126813e+00 1.632602102622925244e+01
-2.026950164305551194e+00 3.372497237086575783e+00 1.702139087260111339e+01
-7.865290076879485781e+00 1.492305509922246864e+00 1.580197314039504519e+01
-2.904768103924889378e+00 -2.966620580569939047e+00 1.759966125403951409e+01
-3.734214078948292048e+00 -6.365783304089485117e-01 1.541596616796236319e+01
-4.911808511685821443e+00 -1.893877302360273518e+00 1.878986506572546844e+01
-4.265853207497276145e+00 -2.953593967736084291e+00 1.727992176398946711e+01
-4.843382582203446418e+00 9.747835912593321162e-01 1.846370584609642052e+01
-3.336502188346677222e+00 -2.818757725865776553e+00 1.796072950193594053e+01
-3.291925143289927913e+00 -2.675048704012616074e+00 1.799354719839579886e+01
-5.495154645644920066e+00 1.622555828388589916e-01 1.433907502582861682e+01
-3.510167125109936226e+00 -2.685560324084782735e+00 1.809034041476735766e+01
-1.203172789075430238e+00 3.381704959480668293e+00 1.647473269796396877e+01
-4.858226259276966275e+00 1.669168550520006900e+00 1.830667480360669330e+01
-8.227072987595344111e-01 -3.307949275471411266e-01 1.409431276226326801e+01
-7.300447218971626739e+00 -1.144251957825685562e+00 1.709659658553726658e+01
-4.125173592297745273e+00 -2.836849393893375204e+00 1.835638245403557178e+01
-5.026838215138608845e+00 4.368182595567434490e+00 1.504245711988604128e+01
-4.294379057720590254e+00 -2.863937098658100755e+00 1.839750380551138065e+01
-3.759210594435643538e-01 -1.986306328300153634e-01 1.485326553957910178e+01
-2.326242005811658409e+00 -1.987757685388481299e+00 1.576869212384680807e+01
-6.281930760884836928e+00 -2.968213963578605341e-01 1.594551017064172171e+01
-4.882582646387483294e+00 -8.769512283415878962e-01 1.874309199367891310e+01
-6.309776411988076816e+00 -2.013535565295528684e+00 1.786358301116428393e+01
-7.981019148045238154e+00 -3.259187799799658780e-01 1.689410451509327871e+01
-4.509982413969126469e+00 -2.868644878439734480e+00 1.844825629611409212e+01
-3.691424610502274550e+00 -7.295335859920146770e-01 1.553050368356324284e+01
-4.881225296839387440e+00 -2.854436702250849667e+00 1.847575328196021971e+01
-5.675113894194783626e+00 -2.680010345786816739e+00 1.865440703417327128e+01
-2.680657105467582291e+00 1.147347221572429410e+00 1.783805432057304685e+01
-5.292909582112242717e+00 -2.694106415012663902e+00 1.860609432853489764e+01
-3.241920453872362273e+00 1.131478442506980819e+00 1.149336356562048067e+01
-3.257023414001352979e+00 -1.338170245837790873e+00 1.596458110371017725e+01
-2.291269974156489031e+00 -3.422281749014355334e-02 1.786703189272830272e+01
-3.490069459016341025e+00 4.796041340478285342e-02 1.370450751545434898e+01
-6.500839605754068273e+00 -2.158698701195088887e+00 1.897428973349684966e+01
-2.085404412316679501e+00 -3.374378203567995005e+00 1.683737202653290765e+01
-7.189364329377113449e+00 2.658793272303063837e+00 1.485569514999743390e+01
-6.723304767150358074e+00 -2.108151267345476310e+00 1.893845190788171706e+01
-3.291464502777677659e+00 -8.321873007297910796e-01 1.541060626991471949e+01
-7.075193348636036106e+00 -1.851665900535619524e+00 1.884633413286044501e+01
-4.933486882993208811e-01 3.163133158684400925e+00 1.564546514209984807e+01
-3.955282520126504497e+00 1.861775501243981168e+00 1.810968293650691763e+01
-5.639030462927923537e+00 2.449999294199933786e+00 1.202061500800923355e+01
-7.196512977638517938e+00 1.556260062349666518e+00 1.383979135931704363e+01
-7.416906342186710077e+00 -1.569443882353038333e+00 1.788057223295752252e+01
-1.662092426529711453e+00 7.557084196427643619e-01 1.273876841828321815e+01
-4.660139582547252246e+00 -9.534702579410923029e-01 1.631700349030985464e+01
-3.456203310228867842e+00 -8.672957194836401484e-01 1.837173326066234935e+01
-7.303172232571000677e+00 -1.363173548672484081e+00 1.749898546032915547e+01
-5.278504743735361160e+00 3.382855298348972362e-01 1.867734307928549597e+01
-7.303402379381715548e+00 -1.038579941945600993e+00 1.684597025923523361e+01
-1.031440206349718780e+00 2.527089049958480604e+00 1.359435868488244736e+01
-7.623036275380133731e+00 -6.792870307476670533e-01 1.634391271291515224e+01
-1.287176326449871455e+00 -3.275339953987138397e+00 1.632024048011786377e+01
-1.659036689754283866e+00 3.325238162916605678e+00 1.682567745340231724e+01
-1.307677423961309815e+00 -3.330708452745822168e+00 1.646045818227552004e+01
-1.889296394197084838e+00 7.633582568424923664e-01 1.255860954066321611e+01
-2.448022954649808014e+00 5.390987289598798693e-01 1.251382290392932006e+01
-5.514268232330886477e+00 -2.644772635354693868e+00 1.781319632780066442e+01
-1.825731976376762766e+00 3.950107273522872386e+00 1.661226691820207080e+01
-2.886357960494860375e+00 -2.980465825201826124e+00 1.739227916291698151e+01
-2.551997393221112631e+00 -1.543482304158943830e+00 1.797556524790310206e+01
-3.101013747302751700e+00 -2.915248373332070653e+00 1.743275465640905608e+01
-3.439242172061710345e+00 4.888713446201128576e+00 1.615343461327467978e+01
-3.648000657237552513e+00 3.623284114329289096e+00 1.393807533731304105e+01
-3.007074213032573162e+00 -2.934369434148188294e+00 1.720246622228821209e+01
-6.513346973713650456e+00 -2.225626938596390048e+00 1.801234485174934363e+01
-3.058507174869327105e+00 3.192328021331958254e+00 1.751606248200460314e+01
-3.852644849904622859e+00 4.777735645622751548e+00 1.576460592737891275e+01
-3.772252615794650765e+00 -2.958711638001517041e+00 1.816599161579325639e+01
-7.530902926524499108e+00 -4.209985288287489968e-01 1.852020219369358145e+01
-3.913195262746659520e+00 -3.049573870117847196e+00 1.816903634526849132e+01
-4.118299787817154112e+00 -3.094672272721062267e+00 1.818771854586836767e+01
-7.523621103408835609e+00 2.507829522447290849e+00 1.625169671535924820e+01
-5.113808886630344830e+00 3.434421598016238475e-01 1.314439494917579410e+01
-4.482859913792720974e+00 -3.009880213935007820e+00 1.834307395131702734e+01
-7.404905112714159188e+00 2.639725725072216811e+00 1.544903329571581097e+01
-3.388596988172782321e-01 -7.699389070662085999e-01 1.527129862781746183e+01
-3.665555607405124317e+00 -5.082466171814048472e-02 1.413512467593016098e+01
-5.765271828788657515e+00 4.366447989889382653e-01 1.378750847369962784e+01
-7.010332304006887227e+00 3.258557324284472756e+00 1.647501899182481466e+01
-4.696639552232401371e+00 -2.986960599754409085e+00 1.837266036285379656e+01
-1.783496902294452013e+00 4.022263106699763391e+00 1.654668408653676792e+01
-7.255502572646156167e+00 2.465041345692151609e+00 1.728910069441008446e+01
-1.218854107098538586e+00 4.059010411252009121e+00 1.589127454398802897e+01
-2.283497715427245112e+00 2.568963182857633143e-01 1.289127519492152274e+01
-9.079229142908504802e-01 6.872943939162773352e-01 1.357357112520341857e+01
-2.615310611101432148e+00 3.738507348025227106e+00 1.444779445646417670e+01
-5.295431180210954381e+00 -2.825560516896894026e+00 1.843249098192488944e+01
-3.239425196529821083e+00 4.479410971946338194e-01 1.261143152193762873e+01
-5.503471933137854322e+00 -2.669606564080114097e+00 1.865832681629968093e+01
-2.781109842005585087e+00 2.150188297349099553e+00 1.769950294834285742e+01
-1.158810233495262132e+00 3.168602642405746295e+00 1.654080420890970160e+01
-6.275984061545644366e+00 -2.593665931793855961e+00 1.866129105603873128e+01
-6.501515241037195025e+00 -2.278065323832475730e+00 1.890896368193351762e+01
-6.273769534405088777e+00 -4.074420105416780569e-01 1.905950219264698475e+01
-7.770814195270643765e+00 1.774505289667083874e+00 1.659097404108499418e+01
-1.310627483127634774e+00 1.768280557350837556e+00 1.244887668017523552e+01
-6.686391468182007358e+00 -2.262650650403034813e+00 1.885561253522184799e+01
-6.817973923463538810e+00 -2.199983392346009925e+00 1.882706549297040866e+01
-7.457521482936048329e+00 -8.801948473826759489e-01 1.659216645758180775e+01
-7.065005908155501668e-01 2.144232086898896217e+00 1.656373514033908734e+01
-7.339416729792458405e-01 -1.880673959201665912e+00 1.738135980522359247e+01
-7.069306551323272458e+00 1.115106829971344471e+00 1.853725448303576329e+01
-3.508675444556091705e+00 -1.536771397936774974e+00 1.629545966950662361e+01
-6.924365604210390046e+00 -2.254770139116416772e+00 1.867441945466189779e+01
-7.190448419617897713e+00 -2.000596221094840921e+00 1.857599634776810049e+01
-5.710058285661377298e+00 -2.580020741422196728e+00 1.875633301290622157e+01
-2.063927199350361175e+00 -7.935338043242912143e-02 1.332007876420881942e+01
-7.246701211489051886e+00 -1.986185391831317038e+00 1.843127523927200784e+01
-7.327196967918821358e+00 -1.826936774289505294e+00 1.807445556456195490e+01
-2.658270462130489342e+00 2.974865823256825248e+00 1.743694337697734298e+01
-6.845453774591419460e+00 1.732340668925275384e+00 1.836543574816899493e+01
-7.268207697154425162e+00 -1.800560279553560239e+00 1.793790585578088681e+01
-7.087489902352519522e+00 -1.788966692887557830e+00 1.782919255363524158e+01
-7.643905373950245163e+00 -2.086305452556751483e-01 1.832763256192165713e+01
-3.289294276463277544e+00 -2.393096001315947241e+00 1.671161556169308327e+01
-7.137857248196455728e+00 3.173529325003219270e+00 1.594679441947112153e+01
-6.265910376163757789e+00 -2.297984905517175491e+00 1.893530343102395008e+01
-2.619193551106810514e+00 -1.083071807863487113e+00 1.512818400198494473e+01
-4.102313944657664635e+00 -3.085734232538311250e+00 1.737526174662089673e+01
-1.297738971968247723e+00 -3.218297767009924204e+00 1.621255967193075165e+01
-7.080477300544007591e+00 2.091560795369329373e+00 1.791504920424051406e+01
-1.470857063380835328e+00 -3.303895135923319959e+00 1.636098654135818364e+01
-2.082826961658106768e+00 1.736455016326285072e+00 1.750315808069159473e+01
-1.361381894919073021e+00 3.880544995622295268e+00 1.632632175184519596e+01
-6.034438581473340335e+00 1.534396689256605661e+00 1.855018369737593886e+01
-5.298952806190586173e+00 -2.898069962441266245e+00 1.821112465626982768e+01
-6.411614245621560570e+00 2.565331085865219407e+00 1.798536719002590800e+01
-4.440529529688209465e+00 3.834955520281802865e+00 1.413823612213007053e+01
-2.019100771569705799e+00 3.285839830299058129e+00 1.404696299263438775e+01
-1.717399220695361217e+00 -3.396120729955231621e+00 1.662664010405737613e+01
-1.450809687806127846e+00 2.548024711973740253e+00 1.698007598000225116e+01
-2.264891120979538375e+00 -3.355392911551859481e+00 1.697295710180560846e+01
-6.693271609387169363e+00 2.465830177607550411e+00 1.792281219285736071e+01
-5.450724890418465307e+00 -1.426868774038349219e+00 1.896962175901628100e+01
-2.383742456052288627e+00 -3.320526673011917840e+00 1.700771674183090099e+01
-1.808480109452503592e+00 6.400095691360468964e-01 1.271478723901139674e+01
-5.859034783299984284e+00 5.521240597736336575e-01 1.356500256144384409e+01
-5.437232299032737970e+00 4.131425795266448375e+00 1.487860328030869894e+01
-6.217264468954029510e+00 -2.508362694057538089e+00 1.815584606508749843e+01
-2.473585852584018419e+00 -3.247089388649806896e+00 1.698956527439987596e+01
-3.240583964132856654e+00 -2.918586153779769266e+00 1.741085261763440073e+01
-4.507924456484571962e+00 -3.118543136386607184e+00 1.801440113097021722e+01
-3.053617957640578084e-01 1.592762303098457011e+00 1.618013101805796694e+01
-6.295336934875516377e+00 1.344960142683502502e+00 1.239806793157618969e+01
-4.280266422413088634e+00 -3.086415983323633316e+00 1.822793208653527230e+01
-4.213830543423032537e+00 2.352158849152690578e+00 1.802113145675392403e+01
-4.061868889351933021e+00 2.054871536817814981e+00 1.124925682769947954e+01
-4.652466668798867389e+00 -3.073694880789057837e+00 1.824130317296524240e+01
-5.119082244577083385e-01 1.994276313693837288e+00 1.637362941763766244e+01
-6.286347659000329102e+00 -1.681892728668248793e+00 1.912272165760093756e+01
-1.863367392777637854e-01 1.647621826634870557e+00 1.500031046662733658e+01
-6.462552826879489620e-01 2.790458852863636707e+00 1.619352908599833185e+01
-7.779134341843839451e+00 1.021962725222001822e+00 1.762006587631770671e+01
-7.468163702812583793e+00 1.307928423535760221e+00 1.458151756488469530e+01
-4.873036837568299973e+00 -3.029342827750387546e+00 1.825169415174950771e+01
