-6.873844505471985222e+00 -4.753352782140307653e+00 1.497308459719377893e+01
-1.444751580165218430e+00 1.756959060872084200e+00 1.334295321167410364e+01
-3.928700415186328954e+00 3.043237945719132753e+00 1.204216372549645442e+01
-6.959366457364592584e+00 -4.655376040391688619e+00 1.494911300179083113e+01
-1.164682384904444534e+00 -1.371030311605006435e+00 1.631347991867711400e+01
-7.090906017165767850e+00 -4.506587730227680666e+00 1.457858633772629631e+01
-1.025345641507307892e+00 6.921787285286047364e-01 1.186022974418648701e+01
-7.239616478357678631e+00 -3.859692749636848941e+00 1.503169524334850493e+01
-7.380470591447627626e+00 -2.607347170232098943e+00 1.393493402238316392e+01
-7.014925326432296160e+00 -2.723102142987548380e+00 1.335108550397876925e+01
-6.865393375792387509e+00 -3.189763036502452298e+00 1.347112783748494635e+01
-6.814235575407416867e+00 -3.374928052351192864e+00 1.351942629004554064e+01
-6.815285218091500230e-01 -5.213434524469544584e+00 1.382160514932499851e+01
-7.433629322555545649e+00 4.779177851861134974e-01 1.608874188106048209e+01
-6.468347152361951125e+00 -3.600293058216985198e+00 1.357795575506688479e+01
-7.473923290634803429e+00 -6.118832019103865871e-01 1.445396688595307566e+01
-7.839038488932110749e-01 3.420763328500253664e-02 1.210873044830213630e+01
-6.487761451157839865e+00 1.856017476554630230e+00 1.427901793629893845e+01
-4.994782125193433231e+00 -2.675437906091977514e+00 1.371286539504021462e+01
-3.924150898267712684e+00 -2.573920074932233959e+00 1.637171090794626949e+01
-4.639505313969456424e+00 -3.260784311241898603e+00 1.371712149940671210e+01
8.584876412797148859e-02 -5.043319450460886699e+00 1.417907575873673309e+01
-3.469013517839791838e+00 -3.953738239417627032e+00 1.353722052720405244e+01
-4.509634668560905446e+00 2.846393996913102242e+00 1.186735208992457657e+01
-3.662046523495825490e+00 -4.102276984594885434e+00 1.355622697941094046e+01
-3.268732919718052798e+00 -4.138762981984669409e+00 1.349509798340774935e+01
-1.677191881194307177e+00 -5.243839957872197033e+00 1.391790818877325009e+01
-1.086249977414163848e+00 -5.212492733540621259e+00 1.383524972399458264e+01
-3.218584072651675676e-01 -5.212700425150694983e+00 1.384975176862399948e+01
-3.741131145372671440e-01 -4.720658882901652476e+00 1.480342401434244337e+01
-4.042424911515603014e-01 -4.951096683601345916e+00 1.459723438796746464e+01
-7.982580631219953204e-01 -4.928862141176182377e+00 1.469782635329623233e+01
-3.131073082501703908e+00 2.932889447761692026e+00 1.371181706809133871e+01
-6.360169221033608267e+00 2.356177487749586241e+00 1.616564966445619334e+01
-6.416705925719757175e+00 2.237715061150148621e+00 1.580239217696768250e+01
-2.812215403857400986e+00 -5.200337475538482579e+00 1.493201660849682710e+01
-4.438694203582026709e+00 -5.422350777672713562e+00 1.494522470021654570e+01
-7.230825584978735066e+00 -2.519792827438775529e+00 1.572793200690155757e+01
-4.871663510463531743e+00 -5.508292179087231233e+00 1.474010661127483601e+01
-5.435139720265127039e+00 -5.483069139483038867e+00 1.479883620684889323e+01
-6.811541785074188837e+00 -4.859356884398943421e+00 1.490885162905142991e+01
-5.251196451970074008e+00 -5.396480707679961242e+00 1.430783075696917805e+01
-7.093041003973648451e+00 -4.441793610879892995e+00 1.438219963388318590e+01
-4.418300131871756520e+00 3.304467658365657368e+00 1.557387621570321201e+01
-7.244687330028834360e+00 -4.060793846290632558e+00 1.440988300500967156e+01
-7.289743051849232103e+00 -3.879847631215695092e+00 1.444528136498820103e+01
-2.335880548568791681e-02 -7.953031999657840245e-01 1.621161155209119542e+01
-7.284552648912867134e+00 -3.861751420096299459e+00 1.467307251333875584e+01
-7.279588256930059842e+00 -3.657535853649143132e+00 1.501922694760760990e+01
-8.384548817306400892e-01 -2.983099198881145941e+00 1.581537332268620233e+01
-6.676946063500405870e+00 -3.874884932206096533e+00 1.372499463127305930e+01
-6.345702390392919057e+00 -3.771768203412647846e+00 1.366463356189989398e+01
-3.038353200120547992e+00 3.140440094263785120e+00 1.577916729090999226e+01
-2.076047329224276261e+00 2.539016815535786620e+00 1.527558986963702026e+01
-5.239067613029286363e+00 -3.056144843483960205e+00 1.370787442210135865e+01
-2.073125575420560640e+00 -5.420902718380000707e+00 1.433289016004146177e+01
-2.608302638995701805e+00 -5.069422053879790724e+00 1.497536273568266907e+01
-5.021174808727192129e+00 -3.287254466387298901e+00 1.373641086756172669e+01
-4.647829425176878360e+00 -3.508948714164104477e+00 1.371843252530272750e+01
-4.470274281648691783e+00 -3.678828622373315316e+00 1.368766554707952210e+01
-6.992977288447407958e+00 1.554963267818911588e+00 1.577165611449212079e+01
-4.066378970545514449e+00 -3.538841865150919919e+00 1.364277419609627273e+01
-6.357091200146324894e+00 -4.557124792586419559e+00 1.547789919300759820e+01
-4.081273666259805921e+00 -3.719410204772990891e+00 1.362861555052286278e+01
-4.087476553475484664e+00 -3.900625497040864698e+00 1.361814301910121472e+01
-3.705412506883641655e+00 -3.951430011037608825e+00 1.356804657730450359e+01
-3.869705319233369245e+00 -4.129966437132804202e+00 1.358202408740578093e+01
-4.078957197210672625e+00 3.323099714700943785e+00 1.527723029508291219e+01
-3.291875995976646596e+00 -4.365054485588268918e+00 1.351415304960399411e+01
-6.714412756798844306e-01 1.332624217878967787e+00 1.533643731606783334e+01
-6.756170786234265258e+00 1.925424822032224315e+00 1.610454655003320923e+01
-3.102712896776559592e+00 -4.362287939346234822e+00 1.348471353085352931e+01
-3.122217593194692054e+00 -4.534106675468745351e+00 1.353964120645484215e+01
-3.715453447090259154e+00 -4.714971526853144468e+00 1.369129449273846788e+01
-4.614476673718842292e+00 4.876666167832326426e-01 1.719728500118840131e+01
-3.064406532936697403e+00 -4.793882275365881185e+00 1.364323974188002708e+01
-3.083453557446233617e+00 -4.916361922033081200e+00 1.372029849122334255e+01
-6.813428340519093851e+00 -2.908759042669023298e+00 1.334670030373464655e+01
-2.483499381455506416e+00 -5.034632387789921282e+00 1.376150363385358943e+01
-1.889550067301148717e+00 -5.258630937450865517e+00 1.394773461462954955e+01
5.767613211778903626e-01 -3.398244355647082049e-01 1.408411369742655594e+01
-1.506391822695700489e+00 -5.401369153587367578e+00 1.417525385968182050e+01
-4.826013286375554046e+00 4.253342651972210620e-01 1.256428975250424074e+01
-1.082025964113528804e+00 -5.345293362253963565e+00 1.407759244513530561e+01
-5.188057915594750824e+00 7.347183772484492392e-01 1.716675323107937245e+01
-8.947082600880760239e-01 -5.327345959954751464e+00 1.406536590791881380e+01
-5.920632438446016721e+00 2.713460048945251391e+00 1.573813477272167560e+01
5.290897330082242611e-01 -4.542519013669846117e+00 1.421508638978975014e+01
-1.424375486738489904e+00 -5.094063834933642454e+00 1.468249214341055975e+01
-6.221761810479353727e-02 -5.107575980790782566e+00 1.420443760703387071e+01
-2.512502414532731265e+00 -1.171097455704821488e+00 1.653537915275948578e+01
-1.810143821920416896e+00 -5.127372668758818364e+00 1.473430773110873204e+01
-4.619154028032054882e+00 -3.076983920825982377e+00 1.372001027197302037e+01
-7.339039703697327610e+00 -1.164169162816855341e+00 1.361214899175277182e+01
-2.971476687559970298e+00 3.243096672547187254e+00 1.659906501491940745e+01
-2.214872916527435009e+00 -5.327161455366665521e+00 1.461284739100599595e+01
-4.979839804863802399e+00 2.425834892870873727e+00 1.072674357494401320e+01
-4.407330645526703172e+00 -5.484823001680412702e+00 1.482871497397746552e+01
-4.446329868389851114e+00 -5.510790765259585555e+00 1.471397356961506730e+01
-4.463750565963686689e+00 -5.503288251124629937e+00 1.452197368992065307e+01
-2.372838234601324814e+00 1.016157954686431664e+00 1.164306420622951421e+01
-8.278110865198518020e-01 -2.584829708795969960e+00 1.595897191670379911e+01
-5.044130669902472164e+00 -5.527991538794951865e+00 1.458034661060576909e+01
-1.602478335716343683e+00 -2.365865409881974468e+00 1.605907807957622069e+01
-6.193775224643660593e+00 -2.016080180204581573e+00 1.658117075572070220e+01
-6.846785074264295723e+00 -4.638333182694804435e+00 1.416953541864010546e+01
-8.895555392390517291e-01 -2.577165757497915877e+00 1.279169774552396532e+01
-7.285906402072442667e+00 -3.414672392489656705e+00 1.404842883333483528e+01
-7.064843203001230698e+00 -3.389239519754033925e+00 1.366312445623922045e+01
-6.866732268050443899e+00 -3.747061815320905875e+00 1.370400753381222714e+01
-6.852504903758806165e+00 -4.002963392490965333e+00 1.380884897778994613e+01
-5.521584002203123731e-01 1.222265822675566049e+00 1.508109626620140986e+01
-1.546499058508867597e+00 -1.181494050194835221e+00 1.639926413403146555e+01
-1.298711355098013165e+00 1.694798675197681570e+00 1.375216203495180523e+01
-4.913039327261424560e+00 2.689522337215366043e+00 1.743231216666453420e+01
-6.657632012098370744e+00 -4.045485828816135054e+00 1.379688728622004490e+01
-4.884707103635268943e+00 3.270143355494939286e+00 1.607975210408167399e+01
-5.877532525423254661e+00 -4.251089995611787131e+00 1.382911749147610792e+01
-5.438492230052956344e+00 -3.280460265960857047e+00 1.368975748090555200e+01
-2.154312528707445829e+00 -1.401185527791897201e+00 1.640528232630674310e+01
-5.638976931227695388e+00 1.388780004634647458e+00 1.717108233776464843e+01
-6.233427584501114893e+00 1.745263906206423243e+00 1.232208381191948021e+01
-5.204152783602536303e+00 -3.276011537567142806e+00 1.372885199228349151e+01
-4.868798293683973100e+00 -3.723042955781902474e+00 1.374146765746749921e+01
-2.591639224279660869e+00 -9.598826067826315978e-01 1.319894156886646996e+01
-4.646162972982425643e+00 -4.301629999430538476e+00 1.369871761736744631e+01
-4.650083112377815908e+00 -3.705347260718454105e+00 1.371401198102911323e+01
-5.793152036979327235e+00 -3.047748590683383885e+00 1.351418865450928664e+01
-3.518461877207244459e+00 -1.518061106622404122e+00 1.665689427170009296e+01
-4.274328223216638634e+00 -3.883479052448012947e+00 1.364443000571266751e+01
-4.299301379152186797e+00 -4.111589414457617053e+00 1.364540644947206616e+01
-7.438987563312990936e+00 -1.009397472128048090e+00 1.412360209033451852e+01
-4.264770787602407687e+00 -4.297614892721476565e+00 1.364308989287730256e+01
-4.110665265035384763e+00 -4.546005837370557856e+00 1.367692128723098577e+01
-5.808942772317648107e+00 2.831440798949210524e+00 1.576773932139349554e+01
6.322763334903358512e-01 -1.329872887352173905e+00 1.402331421390724486e+01
-3.465992792620586904e+00 -4.525043926481929546e+00 1.358601565992947613e+01
-7.593239508271629745e-01 1.251750752750293572e+00 1.648619045366140412e+01
-4.299787348879626769e+00 -4.718471185509063304e+00 1.375288582807549531e+01
-3.505100496809221866e+00 -4.995236200715222452e+00 1.382199619772868360e+01
-3.270544905938685964e-01 5.351574297459986695e-01 1.638018464094158233e+01
-3.289214520949547360e+00 -5.022081286157098035e+00 1.382594950755895624e+01
-6.583860031426829629e+00 -1.806836902941433287e-02 1.672796796378379369e+01
-1.081354665034650830e+00 -3.787461267613287053e+00 1.543041906892895909e+01
-2.695788075476714507e+00 -5.123210652761253314e+00 1.387007481640850770e+01
-2.271537843995022676e+00 -5.256098562758731774e+00 1.397762709466270437e+01
-2.065560536432073047e+00 -5.382234075804220197e+00 1.413974050221781553e+01
-4.826332921088298811e-01 9.941249591824135035e-01 1.603668468512389822e+01
-4.679959371347321984e-01 -5.277295466362613041e+00 1.402098441490187852e+01
-4.427058659853155831e-03 -4.953512563470438224e+00 1.447007408433435316e+01
-2.188324682166410629e+00 8.039090890389939403e-01 1.178713913266023994e+01
-8.728875278282377526e-01 -1.992076002701549609e+00 1.263040484894860427e+01
-2.468823170120724164e-01 -5.158474038109233106e+00 1.426449355391244822e+01
-7.165852235328294739e+00 1.353145237197605821e+00 1.618075133192772697e+01
-6.362059670533824374e+00 -1.607218306843592348e+00 1.665877107167518645e+01
-5.190118364431274500e+00 1.116736131566191226e+00 1.722385279789921597e+01
-6.177543829275444764e-01 -5.146230710030764044e+00 1.444042161553381831e+01
-2.067024128367394464e+00 2.052419210492972823e+00 1.166961368388509257e+01
-1.450578704218386195e+00 -5.261283748352001410e+00 1.450684810759073784e+01
-2.449476119638062777e+00 -5.415670932760884071e+00 1.451621421166646897e+01
-2.671117774453960259e+00 -5.433312627126991146e+00 1.456699680980358025e+01
-4.041080033893959644e+00 -5.504010530470321072e+00 1.469265590178018144e+01
-4.245079754643825254e+00 -5.501726069328638502e+00 1.468680562282545665e+01
-4.666078488483497821e+00 -5.512408331355539204e+00 1.451563059800261257e+01
-5.644630163390617739e+00 -5.496960553575936714e+00 1.461001353371749545e+01
-2.277624708616931226e+00 -5.431566402311041486e+00 1.435470280782407215e+01
-7.046614919828816603e+00 -3.782948260883051805e+00 1.382172486947467505e+01
-6.548597504395255342e+00 -3.397783603640759598e+00 1.348382151652074512e+01
-7.004057972197525572e+00 -3.990151467438070032e+00 1.387992591248297813e+01
-5.605508982630624359e+00 -4.953755210379785723e+00 1.530249745039071385e+01
-6.451251667983586735e+00 -4.426287832552333157e+00 1.391750624571660566e+01
-3.751986690895515508e+00 -4.464749185680162213e+00 1.555107674756952107e+01
-5.638226627316372586e+00 -4.486649977941956635e+00 1.384192982350943524e+01
-5.251414400304434515e+00 -3.476708689114368145e+00 1.373986317411818092e+01
-4.219279519881393270e+00 5.292500992742116273e-01 1.259982906045988571e+01
-8.954766347795566350e-01 -3.172535322366878408e+00 1.296961053253967222e+01
-6.359923459777343524e+00 -2.003851648771032501e+00 1.656588483018517977e+01
-3.615983640651529107e+00 8.948087464694229887e-01 1.720598169543423595e+01
-5.816481009277538305e+00 -2.819521151326361608e+00 1.634953491260197112e+01
-5.218884751046093839e+00 -3.923407265850736625e+00 1.377487502241892159e+01
-4.982102786401439332e+00 -3.997256816953559611e+00 1.375133440224466952e+01
-4.643497002561032261e+00 -3.893609093747884220e+00 1.370409208091023956e+01
-4.469220922539879126e+00 -4.291613920877338728e+00 1.367276889323262523e+01
-1.833497800506733277e+00 2.063629429753858879e+00 1.320130966791569094e+01
-4.685806885678180933e+00 -4.669067490065057058e+00 1.377334219109913604e+01
-2.583889664883237458e+00 8.543516171088046951e-01 1.699301327098076442e+01
5.564029022906247235e-01 -3.165428139706204735e+00 1.489325897164343715e+01
-4.298071065181552797e+00 -4.542751669840342288e+00 1.369402669289151575e+01
-5.657616686538356809e+00 -3.646014087705700124e+00 1.607235741322456946e+01
-4.381543030142209361e+00 -5.007686749135761062e+00 1.529555984377765654e+01
-5.095788185642247115e+00 -5.082718404766890075e+00 1.400056501099867390e+01
-3.662616159207852107e+00 3.100024837595486638e+00 1.302310106766186593e+01
-4.677369844666577237e+00 -5.125265148038398166e+00 1.399713254617017455e+01
-4.487789706103963994e+00 -5.112954235938442338e+00 1.397573768800495841e+01
-1.641802580631403385e+00 2.143931307769138428e+00 1.501672348145947566e+01
-2.299066438823690550e+00 -5.399676325112965358e+00 1.418464805777189852e+01
-4.692911251299611841e-01 -5.246666963997050459e+00 1.422793298345607482e+01
-6.799377300489189757e+00 -4.557885337251873281e+00 1.524970732891822323e+01
1.747590209738745237e-01 -4.981632594361540711e+00 1.421579624730472702e+01
-3.270675988414180502e+00 -5.493613771999664053e+00 1.461917080610530562e+01
-3.626725783349582954e+00 -5.498997486380718058e+00 1.470368748827075578e+01
-3.873793992007257270e+00 -5.508199354881163856e+00 1.467145416808731184e+01
-5.478620664725752043e+00 -5.515715161573558234e+00 1.459929512361151538e+01
-6.472129086728569014e+00 -4.994881646917937346e+00 1.419028705521344946e+01
-7.452230854033074614e+00 8.301370235253440200e-01 1.564739935237912150e+01
-6.481074479703289981e+00 -4.861828703759998760e+00 1.409576084417237851e+01
-6.860715680259498406e+00 -4.411740789833052290e+00 1.400246665004931046e+01
-7.078839928989456354e+00 -4.045276153323991153e+00 1.398476470161688567e+01
-7.190782042351514747e+00 -3.809717279819744729e+00 1.402944090248473330e+01
-6.488526501741477936e+00 -4.622528762777879052e+00 1.398220648448264924e+01
-6.300238129949871535e+00 -4.662746244019626118e+00 1.397432923738042732e+01
-5.679403443779914795e+00 -2.801015430656130789e-01 1.260429486921686859e+01
-2.579708635056980892e+00 2.676303194817423847e+00 1.389017451328796326e+01
-5.104590647985808083e+00 -4.648144937636036644e+00 1.380555324487887603e+01
-4.925142317902761135e+00 3.103712216349791664e+00 1.510290081112001914e+01
-5.512444373200757752e+00 -4.823881626022389568e+00 1.391572485233890077e+01
-5.681321457229471683e+00 -4.903435278723597079e+00 1.396460053404422652e+01
-4.693016774267421809e+00 -5.302085524112404968e+00 1.416969959768601584e+01
-4.275639841779412365e+00 -5.292813074523726513e+00 1.413916385046796975e+01
-3.886486051243187134e+00 -5.217206993950858518e+00 1.405688218636237607e+01
-3.428904726030582495e+00 -5.503958782195910615e+00 1.459881647313767772e+01
-1.792045607485480474e+00 -9.046637054497161934e-01 1.287121320826437554e+01
-3.644016061595368505e+00 -5.471536199526727984e+00 1.444573127571499427e+01
-5.554200037145092139e+00 -4.758148396462942742e+00 1.546560285869170670e+01
-3.879654971774857408e+00 -5.463681027971905024e+00 1.441753553537330035e+01
-1.364946888724803964e+00 1.888912320717126114e+00 1.478915620756118798e+01
-5.471097571944559590e+00 2.823638848955510205e+00 1.480335809654334511e+01
-4.280252986568401141e+00 -5.403994046372165627e+00 1.428833183834301579e+01
-3.669192377622620960e-01 9.513734399264973662e-01 1.561738242126113718e+01
-5.084008626078061255e+00 -5.299601886391222649e+00 1.418508338659905732e+01
5.027421881162226214e-01 -1.027762416681228252e-01 1.369593975602655789e+01
-5.232641260068369604e+00 -5.283638943752436035e+00 1.417640499460962289e+01
-5.474745330096152607e+00 -5.285619198352653925e+00 1.419598017487614428e+01
-6.317096487579780373e+00 -5.013708440902885144e+00 1.414495935116697822e+01
-3.204369263121741529e+00 2.903183892083056605e+00 1.316907016556654852e+01
-1.129590217702683974e+00 1.785485623505892017e+00 1.558865546064862073e+01
-1.692866132888471764e+00 2.157968445582656436e+00 1.480695043605888017e+01
-2.599954137572090040e+00 -4.823455327503657131e+00 1.514305905026244048e+01
-6.315768049819226349e+00 -4.833834361023393811e+00 1.404200354303378973e+01
-5.887573479647425501e+00 -4.672802088195515680e+00 1.392284473782666865e+01
-3.311882989662848775e+00 2.848667370200886229e+00 1.738700149719752019e+01
-5.910632783119304179e+00 -4.887897263632488887e+00 1.399214195689404150e+01
-5.883670569344978674e+00 2.451132639617841225e+00 1.443095435358491230e+01
-5.667330696461321260e+00 -5.103071113662405622e+00 1.406430966195778964e+01
-6.040103015017534105e+00 -5.044291006142197276e+00 1.408410520033103452e+01
-4.079331235781131326e+00 -5.214929140328766977e+00 1.405494610404179312e+01
-4.071823405974765997e+00 -5.389498615353124578e+00 1.427347415739452785e+01
-4.764336223210334786e-01 -3.419353211475038012e+00 1.562787256203729314e+01
-4.007687124842354010e+00 2.336902778014606774e-01 1.716915028514425856e+01
-3.077507041048408443e+00 -5.363475946603003308e+00 1.423183227793782990e+01
-6.536033795296066984e+00 2.113052812097197197e+00 1.577551727979637164e+01
-3.681650504503345633e+00 -5.376631600057743654e+00 1.426950111791025577e+01
-7.345615184021172972e+00 -2.166134523331691764e+00 1.374377481947479751e+01
-1.580623502712267925e+00 -3.334463452441041031e+00 1.333205900705805291e+01
-7.231024625065193945e+00 1.203432193536932981e+00 1.579955031783927311e+01
-4.527404765366767947e+00 -4.714948756391189377e+00 1.547003300185498986e+01
6.533254612378205373e-01 -1.383759749154767515e+00 1.501674449656813337e+01
-4.097780421501968640e-01 7.900942965510839855e-01 1.624888940607013055e+01
4.454778930313612051e-01 4.025792615103362948e-02 1.370361236627097767e+01
-6.775500180298308361e-01 1.164838910690902951e+00 1.346756131633531695e+01
1.616808745834146244e-01 3.698226807221535184e-01 1.313125573160722936e+01
-7.000506596942882354e+00 1.601289659788383446e+00 1.619512396734184634e+01
-1.087092138994231405e+00 1.707188461847416239e+00 1.656434629459143437e+01
3.849957177256162488e-01 1.614147500085203468e-01 1.371057249616557172e+01
-5.449545121329046893e-02 6.325758281605676769e-01 1.317945063485459301e+01
-4.851753194775540123e+00 3.198434921522600671e+00 1.554178072284260637e+01
-5.632626732203403819e+00 -2.224889566255017659e+00 1.343990659402518517e+01
-3.351545237993372783e+00 2.781249316065356414e+00 1.025662750776460186e+01
-5.657585966879195460e+00 -4.608279442936487058e-01 1.693253251806357795e+01
-5.226885299838517795e+00 -5.381503334921381665e+00 1.495840502358300128e+01
-4.515774121756464865e+00 3.560742390581213890e+00 1.733070996260142138e+01
-4.666502076428496792e+00 2.418333665830234569e-01 1.280544841144130785e+01
-4.635339586200268869e+00 3.602264823633355650e+00 1.743044977541364560e+01
-4.479556411849341835e+00 2.611968884057649820e+00 1.031770767048058346e+01
-4.880919673359731092e+00 -4.103407943133227320e+00 1.373410464928505448e+01
-1.116583486752158461e+00 -1.212421573757061832e+00 1.634946787317975847e+01
-4.702038215536225252e+00 3.572261662667246984e+00 1.736608345864203429e+01
-4.821424542595821094e+00 3.475272316026279729e+00 1.747451983137676379e+01
-3.749309692021405294e+00 2.799029076236866143e+00 1.020799034468607758e+01
-4.219767780512120758e+00 3.066971054252294770e+00 1.286722056284869709e+01
-3.519363196876201361e+00 2.757737945012555869e+00 1.025745685520007200e+01
-2.993341211343989894e+00 2.468919742327021716e+00 1.065081104546891666e+01
-2.820859698967127294e+00 2.040016405348454409e+00 1.085454430510020174e+01
-3.090087008236383603e+00 2.586294849119608052e+00 1.071632134012582682e+01
1.089250668306851466e-01 -2.450884763623677909e+00 1.588591260023789076e+01
-3.940851346423307699e+00 3.006772144941818325e+00 1.162766799978507848e+01
-3.055531954458666544e+00 2.234347510058906749e+00 1.068641353618460599e+01
-4.463100349620908069e+00 2.995634315281617166e+00 1.286851978480042291e+01
-4.293937908988587182e+00 3.285201689210179854e+00 1.751790307663681645e+01
2.005948007096165497e-01 -1.864128591944077762e+00 1.595608753177939931e+01
-5.989735347376706542e+00 2.201986083539694494e+00 1.374629868849308068e+01
-4.610204072591061575e+00 2.418003489650572213e+00 1.047050731175525229e+01
-9.382341634785702489e-01 1.433700018177121338e+00 1.394523590382276623e+01
-4.467780411591673051e+00 -4.958737166739203062e+00 1.387502576434384949e+01
-4.582371365237490224e+00 2.211301020334009770e+00 1.066170875508801075e+01
-4.031740162192726018e+00 2.173556686026760332e+00 1.064841526702158703e+01
-6.965698528620720698e-01 -5.063255324197907470e+00 1.363149064505925523e+01
-4.046515165244362500e+00 2.055004127668417446e+00 1.075129735982973145e+01
-3.484634840167333270e+00 2.311886893974091528e+00 1.058189875868893282e+01
-3.261452974307637476e+00 2.226339984039826358e+00 1.066771231626027472e+01
-3.245723446911391363e+00 2.091383681229091351e+00 1.077030040230284769e+01
-5.866520478421999307e+00 -1.394658562811499802e+00 1.292022557158028562e+01
-4.949262180838210234e+00 3.013004970602713328e+00 1.454687709332873524e+01
-3.097686734981537349e+00 1.902862394813053415e+00 1.093112596454909280e+01
-8.958662401867230063e-01 1.138956621442176687e+00 1.226768367870853282e+01
-4.320738023011784890e+00 2.936958862105599088e+00 1.187591581523841811e+01
3.955825535531620751e-01 5.712476472081129408e-02 1.432865720287601974e+01
-2.628224013904242540e+00 1.625137239704922854e+00 1.118611057025931288e+01
-2.248171749211058668e+00 1.577045117604894520e+00 1.121725224534991483e+01
-1.781492022553166743e+00 1.243475562135586188e+00 1.146122264731812734e+01
-2.746506227866703398e+00 3.135159673996271934e+00 1.730073032678619782e+01
-3.516351893340027068e+00 3.232474773499518061e+00 1.745774546606879696e+01
-3.161742220112479629e+00 2.658644594021120966e+00 1.734659479395701354e+01
-4.896454795178184938e+00 3.071652950277909078e+00 1.745580107992361363e+01
-6.261315850489670432e+00 2.475792135735238375e+00 1.687598812661031289e+01
-3.513754220187371935e+00 2.038763248726494393e+00 1.078400003473715785e+01
-1.510288940130857682e+00 -9.786455289320170614e-01 1.645261370942068524e+01
-2.687669186368649488e+00 1.466763200836654013e+00 1.130404233808296866e+01
5.858743065248384063e-01 -2.574663434409550256e+00 1.453835102274645052e+01
-6.313668092255788622e+00 2.296558718502640595e+00 1.558169845907353235e+01
-5.322381696249157024e+00 -4.594706645637671727e+00 1.557536697084909960e+01
-2.340809253413245195e+00 1.236244288384349410e+00 1.147355312781350634e+01
-2.088402343898480229e+00 -3.512205475446311009e+00 1.569569995225299053e+01
-3.124376417808751860e-01 -5.229055281904406272e+00 1.415904653234725075e+01
-3.509540211378827657e+00 -4.718177437115828710e+00 1.366663453622412661e+01
-1.599339836418434579e+00 1.302307322617888286e+00 1.144883898830316937e+01
-1.422303805956816269e+00 1.137217344087484650e+00 1.155566071256022909e+01
-8.719007814882051566e-01 6.544933849597236453e-01 1.191844120291195352e+01
-3.496783723649060427e+00 3.033189572501331810e+00 1.743192663768254036e+01
-7.531338166415503466e+00 -1.874923133829416333e+00 1.497097744178508449e+01
4.863737414899542699e-01 -2.637222245898791062e+00 1.565268608753801161e+01
-4.329744898870372616e+00 2.874149377429454866e+00 1.751205949925562422e+01
-4.717191709778986386e+00 2.837075566347248667e+00 1.747009899401633604e+01
-3.951184735552268457e+00 4.582401257350388057e-02 1.297773732619048914e+01
-4.357112474334503105e+00 -1.501110736672868651e+00 1.673733385450640654e+01
-6.218189157589810279e+00 2.189012007120518355e+00 1.703720421449822808e+01
-5.794982102957966674e+00 1.865716976065594501e+00 1.132307657941786161e+01
-2.970937976146359460e+00 2.784392311750570670e+00 1.314342644147606975e+01
-5.481193848783330935e+00 1.815252375895592074e+00 1.121191917907868074e+01
-5.227701210675256505e+00 2.047927319791152279e+00 1.096967125056762526e+01
-3.017216291041621368e+00 2.787169554941086425e+00 1.297716421636051720e+01
-2.539157778834855161e+00 1.217889867024815942e+00 1.149939393776604035e+01
-3.329468291501570310e+00 2.794398246403455577e+00 1.176101400881610815e+01
-2.380611243514696440e+00 7.488395834617256330e-01 1.186936336129397418e+01
-2.345696860711321996e+00 2.299537289217015168e+00 1.169687882560345216e+01
-2.003430480891507326e+00 6.790539299594570144e-01 1.185385356887944752e+01
-4.596517580898744626e+00 3.302699230260999208e+00 1.574277743235230176e+01
-2.355794641292021652e-01 7.986539410392412552e-01 1.324500225003145815e+01
-1.608325248812338515e+00 6.549005934322391642e-01 1.183832108011906925e+01
-6.811244147485044920e-01 4.394510411292347207e-01 1.207083764095948553e+01
-4.023729192482919714e+00 3.131273135571730926e+00 1.305205859191320528e+01
5.903858304739326712e-01 -1.469908877792711177e+00 1.320790952724732747e+01
-6.926404257729892322e-01 2.243524699490080376e-01 1.209227858415218648e+01
-2.186160405900746451e+00 2.735966800169808977e+00 1.712363176047142233e+01
-2.408742537138671036e+00 2.923828701960550003e+00 1.715783704055955283e+01
-1.859273235777953559e+00 -2.605254111145220985e+00 1.600953490093047193e+01
-5.284800816479069852e+00 2.322231348211822421e+00 1.735439597126311284e+01
-7.248438267829143022e+00 -5.394903013471523678e-01 1.339795808116577192e+01
-5.809039341517647337e+00 1.948046389594425776e+00 1.716984557147228330e+01
-6.116506559452088432e+00 1.960516745622649548e+00 1.706337900852335210e+01
-7.083545943920131371e+00 1.478086316337143824e+00 1.619801443295572696e+01
5.797277908445228611e-01 -7.087390540972919872e-01 1.363376064686803701e+01
-3.900484444923334237e+00 2.811413330540715627e+00 1.062609427078362145e+01
-6.266419993602932337e+00 1.547084975425258024e+00 1.190446389989851284e+01
-6.097187063662259376e+00 1.511129130836358136e+00 1.162404919983607599e+01
-5.109855189771488782e+00 1.813473805021101004e+00 1.116879004387487484e+01
-4.828729658989201923e+00 1.598180062051701489e+00 1.136032026455449895e+01
-3.945188145365734478e+00 -5.272141569151695961e-01 1.333029703815801881e+01
-6.223981430273404669e+00 2.188191858455629912e+00 1.466973542726937652e+01
-4.235117608156674152e+00 1.264364058814335001e+00 1.154798545666882958e+01
-6.527331705079391533e+00 4.161381668102701603e-01 1.676892277452506974e+01
-6.874048592742603603e+00 1.042427292130743810e+00 1.278613638578744016e+01
-1.100186721984740323e+00 -8.054092261211320825e-01 1.643631964501512854e+01
-4.058434522231787689e+00 1.156692529505978229e+00 1.162655165038826155e+01
-2.481284059169388545e+00 -7.963439502187781294e-01 1.664403938530498905e+01
-3.632559103481275642e+00 1.220384973406374751e+00 1.150887026994185547e+01
-1.150307640578165813e+00 1.600225402430158983e+00 1.393120827516368010e+01
-3.035322543084837843e+00 1.041379369003161193e+00 1.166019415470853104e+01
-2.858683637854725568e+00 1.242488970112006763e+00 1.148900509447746643e+01
-3.085759152122447890e+00 -5.096094851047668683e+00 1.388727121654308050e+01
-2.373064485018424818e+00 2.911248821723531499e+00 1.633821775292928535e+01
-1.841091484900475805e+00 2.532008146472921606e-01 1.210330906230558057e+01
-1.014937128185505966e+00 1.158918661599581679e-01 1.206630148258235735e+01
-3.124008693287110283e+00 2.443067967410481600e+00 1.732210312152212950e+01
-3.319147016406489126e+00 2.430951643278033814e+00 1.735033051350934485e+01
-5.496780559289003776e+00 -2.043889377303953481e+00 1.350001866974406184e+01
-6.223591964977925883e+00 1.347499131955500307e+00 1.697311613453578971e+01
-5.286666432545413130e+00 2.569837167689528634e+00 1.291282780857927648e+01
-1.272446363860246565e+00 3.761404691291803104e-01 1.669023115620165143e+01
-7.395507255595749285e+00 9.734897868917420372e-01 1.577406676947133590e+01
-7.505896921096758767e+00 1.531486565215258722e-01 1.520102438434456005e+01
-5.184961519738907398e+00 1.623413915693191933e+00 1.136194832692044443e+01
4.830127460740674117e-01 -4.159926206617564404e+00 1.381171245178593310e+01
1.597608717058300876e-01 2.716118604838668738e-02 1.597982169595255542e+01
-5.019901566147828120e+00 1.543391799849241242e+00 1.143433287938127663e+01
-4.592394914569327469e+00 1.311757832004822877e+00 1.163505121971808975e+01
-2.353649739215986525e+00 -1.548617160748233523e+00 1.639677145396148106e+01
-3.745009615040521211e+00 8.439952161089787630e-01 1.192240917913933274e+01
-3.045047987352878405e+00 8.295276368279932422e-01 1.186412792812561534e+01
-3.649179328861966720e+00 3.433277953122420456e+00 1.611421004934985390e+01
-2.240597438292199151e+00 2.441622732193524659e-01 1.226061033478253748e+01
-3.583720641093953496e+00 7.956294634551763778e-01 1.718117850287562831e+01
-5.913636341079863357e+00 2.545339015924549031e+00 1.495061290288766642e+01
-4.463311333894059985e-02 1.773096772392059872e-01 1.260952750834601588e+01
-2.114125470091279269e-01 4.138415087099618361e-01 1.625715056772190437e+01
-4.041253305812180230e+00 3.369929937636386708e+00 1.567952348128318008e+01
-6.157602595517155386e-01 5.841600914966877944e-01 1.657282094377002934e+01
-6.743017767068895552e+00 1.978707848901259503e+00 1.656056492805292990e+01
-3.269784751890989938e+00 -5.468008839199384852e+00 1.444297042192505742e+01
-1.298274685736618528e+00 1.205751470792786773e+00 1.683886340679532978e+01
-1.395424303699573265e+00 1.361512109428848039e+00 1.688441629128422150e+01
-3.579527388794769394e+00 -1.130671440752282653e+00 1.345664946974848775e+01
-1.455616244182589281e+00 1.119744325443790434e+00 1.685275108165267355e+01
-2.738200631034385601e+00 2.608620119777986801e+00 1.728327822700683569e+01
-1.631660583112053864e+00 -1.597883903060004940e+00 1.307764532510215005e+01
-2.379731375255988546e+00 2.506120317302778844e+00 1.348963746437342692e+01
-1.500477669040763740e+00 1.691172777557186979e+00 1.253057731077619152e+01
-2.732285242799906477e+00 2.245642421165949365e+00 1.726906879619267343e+01
-2.533761454980874461e+00 2.413611693103928868e+00 1.724670673461732306e+01
-1.793261015403146974e+00 -2.388223454249815081e+00 1.332936137367989105e+01
-3.183607921600522417e+00 1.976486055817475496e+00 1.729929157159431341e+01
-3.551304819858466910e+00 2.233049321752646588e+00 1.737378721406782844e+01
5.988185532569811897e-02 4.519434335629902710e-01 1.497574266969592216e+01
-4.923892160156890796e+00 1.932870618236840476e+00 1.738678104162598359e+01
-5.153115204265153793e+00 1.723393980340926168e+00 1.731828082911389188e+01
-5.560554740926145101e+00 1.317392704856845231e+00 1.718351682590495599e+01
-5.801342783723216101e+00 1.142503241808306313e+00 1.709658130274931054e+01
-6.523444468864831869e+00 1.261933456607754023e+00 1.683240885279218801e+01
-2.393784717004608265e+00 2.569553233396308478e+00 1.388514702939013645e+01
-6.764482392691533619e+00 1.475613366460395204e+00 1.670196337927489694e+01
-7.369505972576261499e+00 9.047534607020528696e-01 1.618103590061239672e+01
-6.173561708167409456e+00 1.147391800380306304e+00 1.177322776157797435e+01
-6.010040151340236392e+00 1.141669679428148676e+00 1.173692766694925282e+01
-2.762661121227909966e+00 3.167723356490952824e+00 1.699770675973886469e+01
-4.610114613519282756e-01 -5.124037130622967950e+00 1.441829978328481232e+01
-5.863552653814039672e+00 1.123482251054148895e+00 1.172868681852466821e+01
-4.046787438026179906e+00 3.108107576352391987e+00 1.285268476636560209e+01
-2.006089665618511653e+00 2.054322941970619709e+00 1.204552105638747506e+01
-5.476139914415052878e+00 1.177415560152134999e+00 1.171220211224654761e+01
-7.522552425207708282e+00 3.075894674341742574e-01 1.573628206752666259e+01
-5.964161743904419666e+00 4.495399290862202024e-01 1.212390809146092252e+01
-3.471859766860743157e+00 1.868681950803388059e+00 1.092402859039242102e+01
-5.169673150433110820e+00 1.402565224891317186e+00 1.156518159746179819e+01
-1.036971117344772431e+00 -1.349580698050199867e+00 1.253969007827630477e+01
-4.916056805589292367e+00 -8.577159926518946875e-01 1.690105478198055877e+01
-2.302425939612956718e+00 1.940131697297422964e+00 1.104085257595280822e+01
-5.268739910774851154e+00 1.123805894676300543e+00 1.178517329046529127e+01
-5.045620390782751485e+00 1.132643020756071817e+00 1.183194760371673127e+01
-1.982735937849904317e-01 5.847276349684709107e-01 1.258499695197372503e+01
-5.036903028349349221e+00 1.437065080308904674e+00 1.154875622800663493e+01
-4.809883715193217668e+00 1.339094331163782181e+00 1.165881281985281603e+01
-4.775591257704663306e+00 2.889300070758592298e+00 1.309830593428509715e+01
-3.578849251833932321e+00 7.495890294600645598e-01 1.198853803470672474e+01
-3.457859230726141320e+00 7.174127729756258898e-01 1.200923973882114737e+01
-2.412282094907225893e+00 -3.368139950135295990e-02 1.258375182492401834e+01
-2.016930322461698566e+00 -1.544959955036078192e-01 1.248417636284817078e+01
-1.029424485082703455e+00 -7.448885517746934859e-01 1.237149967784528215e+01
6.042319798098625405e-01 -1.635910732827330794e+00 1.337513300140848216e+01
-7.306096107039306453e+00 -1.168902225057497191e+00 1.345502239855017379e+01
-6.083855638725006454e-01 -2.904333920084278819e-01 1.223420223076859159e+01
-7.127597440503308235e-02 -1.928187332822175470e-01 1.258307376236227881e+01
-1.253619917612203150e+00 8.037852335795623304e-01 1.675824128875283137e+01
-1.310133466453651252e+00 1.894773777514521473e+00 1.517536524597840142e+01
-1.971189604871021128e+00 2.345790468055711564e+00 1.446485975210472574e+01
-1.634509466510768672e+00 9.998233997004603024e-01 1.686001818624363935e+01
-5.170160098065889720e+00 -1.091630277380791103e+00 1.343548453312923030e+01
-2.032735756021792017e+00 1.789083882075158449e+00 1.714300559372656707e+01
-3.550666110820746013e+00 1.843109527132021697e+00 1.733682440246859713e+01
-4.366614485997454942e+00 2.050711769162536946e+00 1.746276261941152441e+01
-5.430364401780959582e+00 1.292936392746578456e+00 1.720714516919594317e+01
-6.021770198693989329e+00 5.875262479802924043e-01 1.698624015769165041e+01
-5.451417814334226009e+00 5.502298022042592107e-01 1.709871942846610082e+01
4.442766058256517603e-01 -4.791502604554203515e+00 1.406183840898900783e+01
-6.428644547879380333e+00 7.647146858244383560e-01 1.684788010321880947e+01
-6.779658228609906523e+00 1.261614459093884255e+00 1.669307131638794672e+01
-6.907693304744320528e+00 1.030417798734110324e+00 1.662170642025124678e+01
-7.521912998260254390e+00 3.228965118171767124e-01 1.556135067609144684e+01
-4.142729211058114203e+00 -4.424933126283820073e+00 1.560094154087054008e+01
-5.475639992393993793e+00 9.500299672506713478e-01 1.187480093214181309e+01
-5.399254373822261144e+00 8.254695364575141969e-01 1.198996903046296225e+01
-4.885045639354317792e+00 1.139924558136162558e+00 1.186335273287492598e+01
-1.970494679672982308e+00 -1.987098846858438073e+00 1.621120520539772869e+01
-4.612218280509287283e+00 9.589582523583514151e-01 1.209596342442091910e+01
-1.246637874600185381e+00 -4.311480487973524678e-01 1.231160824339241699e+01
-5.866283553829898523e-02 -3.734567005627997816e-01 1.261287427239124170e+01
2.947214903664430175e-01 -2.142771294228151824e-01 1.280887382320018375e+01
-3.453763977479872960e+00 1.432476777606945140e+00 1.128542227891161431e+01
1.600538076105753049e-01 9.626597354187449440e-02 1.280293790576209645e+01
-4.586953426352729402e+00 -1.468343510451214584e+00 1.369048844226069050e+01
-5.474732495958143375e-01 1.564455042942496377e-01 1.650640188513802187e+01
-1.030948802827893918e+00 5.590426004281106032e-01 1.667631655950545522e+01
-1.645226231078062540e+00 8.127886202776403168e-01 1.682432199141325313e+01
-7.261819039908282925e+00 -1.141159521972063828e+00 1.604621805626837627e+01
-3.300467915514283312e+00 2.804786015665083454e+00 1.196569530147182903e+01
-2.004794444746575088e+00 1.017426885750711829e+00 1.692522668347487880e+01
-6.461084842819884599e+00 2.035390755071762481e+00 1.502439779517084517e+01
-2.170077111028747119e+00 1.167315015778991105e+00 1.698850300320482987e+01
-2.160753613460663747e+00 1.577210759598734580e+00 1.711127478150027414e+01
-1.749181807770602726e+00 1.881491232642585665e+00 1.240497034008327049e+01
-3.746502009329412353e+00 1.665614699211572569e+00 1.735075755628244210e+01
-3.781473135296080645e+00 1.433248876238405023e+00 1.732506437888807582e+01
-3.922380482782258149e+00 3.083303209132491673e+00 1.244919820644245689e+01
-3.962350501718987950e+00 -5.288634809870629283e+00 1.414271560329793331e+01
-4.787846735224539074e+00 1.508772874212265691e+00 1.734452457677604187e+01
-6.018121695948472905e+00 3.609681085633564823e-01 1.696908702655196421e+01
-4.314269091440035453e+00 2.982145184352887224e+00 1.227830171955797667e+01
-7.245143522363834521e+00 6.874166763411199144e-01 1.634872122502614999e+01
-7.168515071022451224e+00 5.732900816200514615e-01 1.640637075474908002e+01
-6.245785715750170830e+00 2.004971885120897745e+00 1.391237177371880662e+01
-5.642533282199977407e+00 6.770412594619347191e-01 1.203141399776565734e+01
-4.641493302720178349e+00 8.661316557275936523e-01 1.220782631451974609e+01
-3.333400885159242044e+00 -1.743978079055461539e+00 1.654461753806979729e+01
-3.473752587896320243e+00 -4.884149356305421463e+00 1.374784377249141798e+01
-4.120239671011488802e+00 6.688936363752193692e-01 1.236034101200036517e+01
-3.148425407539400922e+00 5.700761936109199901e-02 1.273489481807858326e+01
-2.660132662342457266e+00 -2.176778121959692669e-01 1.281930217789221516e+01
-5.219460196909750493e+00 -2.867140678198485393e+00 1.630585990444795996e+01
-2.884977778505862567e+00 -2.068683627287186688e-01 1.286840870035238638e+01
-2.365501425371672628e+00 -3.850577062333431222e-01 1.282649813878516554e+01
-1.881135308049362909e+00 -3.980114798061320514e-01 1.260511565263763956e+01
-4.371328153415548812e+00 -2.042687190668019070e+00 1.655647464433514315e+01
-1.345791422410271387e+00 -7.364453268327157964e-01 1.247645269940274559e+01
-1.105658528498219884e+00 -1.007701632466717623e+00 1.247520107728950833e+01
-1.085005776531511090e+00 -1.151489611923616430e+00 1.250968689996353689e+01
-6.523188796289838276e-01 -1.189092518008711075e+00 1.242032795656117017e+01
3.408956292071176897e-01 -1.886166246462572804e-01 1.567320032966134491e+01
6.508187139750356565e-01 -1.570270403320057184e+00 1.492561873912836390e+01
-6.090356850172522485e+00 2.021233723483934597e+00 1.331959339198783354e+01
6.860296217788297568e-02 -4.253382843476747333e-01 1.270280182163570615e+01
1.943484657976242147e-01 -1.251875544517453420e-01 1.606197471310182934e+01
-7.086747867131353296e-01 -8.661806339247446473e-02 1.651117758272146219e+01
-7.382782016250732937e-02 -3.850919570452342011e+00 1.303428614940208163e+01
-8.766686117410351642e-01 -1.000161656154330281e-02 1.655358673305914508e+01
-2.424885406251243936e+00 1.199053304544963394e+00 1.703849531923411220e+01
-2.355730087519356530e+00 1.521159535477622393e+00 1.712316844526557347e+01
-2.887047700824886043e+00 1.417360339364160504e+00 1.716441181953409156e+01
-1.845441748039875485e+00 -4.713572342612815547e+00 1.346074993456649693e+01
-5.952922665305225181e+00 2.016906912581680533e+00 1.270489316245707911e+01
-3.269731453098688068e+00 1.300299154875372842e+00 1.720600557079358239e+01
-3.687404076980247858e+00 3.508410569044385863e+00 1.730524213458946647e+01
-3.743970784270719498e+00 1.262870838790556949e+00 1.729519011292228114e+01
-4.607358544506979570e+00 1.281802366128818704e+00 1.732987352085318733e+01
-6.281205928168986929e+00 1.812475397069386318e-01 1.687532852745656342e+01
-1.308146603124540786e+00 -3.511262797953549342e+00 1.558984502348956269e+01
-6.869693916787041665e+00 5.958670058712860484e-01 1.659727834117865441e+01
-3.811833022471665444e+00 -2.559605613230384158e+00 1.636309303389151282e+01
-7.566357725909113263e+00 -3.002232252389813727e-01 1.532041177521377406e+01
-7.528467268343186802e+00 -7.103260243371867233e-02 1.517362506400448652e+01
-6.754253297231088915e+00 9.460067524466209132e-01 1.217713684523961248e+01
-5.817163954191231667e+00 5.048231687349946650e-01 1.210534007193357198e+01
-3.694985663312200685e+00 3.325011726869814055e+00 1.504295000885148070e+01
-6.050669992621955373e+00 2.644042374748068358e+00 1.598134823157814211e+01
6.180534628467801994e-01 -2.185607755437621869e+00 1.504785374394939268e+01
-5.346360952025499103e+00 4.804347760260192501e-01 1.710525925750659937e+01
-5.821283178819901316e+00 2.714602304091091600e-01 1.224430866790383376e+01
-5.448252782452234655e+00 4.371678003761286790e-01 1.226121769222737257e+01
-5.043823739782865800e+00 5.153191410475608247e-01 1.237971428527118789e+01
-4.388101572123621175e+00 6.178464026213992266e-01 1.251470556369347165e+01
-4.618616968097972730e+00 6.902593480542489335e-01 1.239653088911749634e+01
-4.023427291291653773e+00 4.719287837852776946e-01 1.260455668038208543e+01
-3.158821621952998981e+00 -1.372762088882388820e-01 1.288218397548009264e+01
-2.815540399112786307e+00 -4.556922094822113412e-01 1.301008954395058836e+01
-1.014628588780645213e+00 -2.203945010141870497e+00 1.608232112886929954e+01
-2.574759465845410045e+00 -7.695463028363676017e-01 1.311116205936542300e+01
-1.004305283148576144e+00 1.653007810144349277e+00 1.591958808363711952e+01
-2.385780432906906334e+00 -9.120768648818420310e-01 1.312498648058783246e+01
-1.935474472265636514e+00 -1.132529271287989747e+00 1.306070864411276133e+01
-1.088394653250183808e+00 -1.627137346146675601e+00 1.263948066666337766e+01
-2.797192019537020347e+00 -1.908490052264212533e+00 1.350459819942883044e+01
-5.191333184109423016e+00 1.221211914585134783e+00 1.171790235131147639e+01
1.160285693447380417e-01 2.546583290247541598e-01 1.536060483594815551e+01
-6.585973848789521412e-01 -1.800776319390855473e+00 1.252580822684343431e+01
-6.118307781715957017e-01 -1.949217487662622261e+00 1.254528634508819707e+01
-5.820474736133327553e-01 -1.096949758072852443e+00 1.240050502045854941e+01
-9.255342028211648309e-01 1.488988067090401657e+00 1.647416768257300745e+01
-5.125029516681021136e-01 -1.020934698400585372e+00 1.239178084180985806e+01
-2.397449502319894954e-01 -1.036408971395011314e+00 1.248078238419099861e+01
-1.497951290657774326e+00 -5.082023072870061497e+00 1.371237277041611335e+01
-1.094213958812617626e-01 -8.328540489056046603e-01 1.256582816530179159e+01
-9.335335786434275640e-01 -6.206614385453550486e-01 1.644864857922499013e+01
-5.413311964028444390e-01 -6.412067573345192617e-01 1.637764115569235557e+01
-2.733454629617253495e+00 1.455173768526445865e+00 1.715043636236115887e+01
-1.188143521177919881e+00 -2.000245203683485684e+00 1.614898859091706029e+01
-4.212319780028140670e+00 1.065243660561332906e+00 1.732125863031530955e+01
-4.131201840727042551e+00 -2.257292699452325024e+00 1.649000692916178323e+01
-4.375690113428293948e+00 8.785811350603673908e-01 1.728144905524523622e+01
-7.036617694772663079e+00 -4.152919590313944198e+00 1.528628375758986735e+01
-4.450928793701633523e+00 6.838320489325008245e-01 1.724313022194026601e+01
-6.734897822966007475e+00 1.486252869843969870e+00 1.373574810076165065e+01
-5.475540306492824527e+00 -6.690591730195594167e-01 1.690975905970542570e+01
-7.488886713493918101e+00 -2.624114385387650294e-01 1.582936821279556838e+01
-3.981871775750081000e+00 3.419601466216033003e+00 1.607554394438970391e+01
-6.745416094959018061e+00 2.779249475872637154e-01 1.232140344377053154e+01
-5.666756552896308641e+00 6.672461262584317154e-02 1.241038547547429616e+01
-5.351296062978020629e+00 2.517767892610154323e-01 1.245680076006962267e+01
-5.171526452693793630e+00 2.419461838712167800e+00 1.167899754968194870e+01
-5.045690947618928668e+00 2.942285614650717029e-01 1.257723678780400078e+01
-4.408068375540578288e+00 3.684152423721811509e-01 1.274926390707501511e+01
-5.036842244469212915e-01 1.083408108755823829e+00 1.382504954948146647e+01
-8.516381506003083413e-01 8.701217456922807347e-01 1.187719914368750906e+01
-4.149871310864167384e+00 2.052062312712492620e-01 1.288647903654208804e+01
-5.450190582050392862e+00 -3.211917129022596296e+00 1.621446335628898439e+01
-3.790227645327457040e+00 1.446290379768053747e-01 1.284453950505456632e+01
-6.082207214566512476e+00 2.484992007934811120e+00 1.537709253589769887e+01
-3.594400518478626516e+00 1.890657209027852836e-01 1.270419261712740777e+01
-3.011547369040503686e+00 -6.870903824730474341e-01 1.316686585265420817e+01
-2.981376518649801355e+00 -9.290417981753797960e-01 1.327224715146214251e+01
-6.875977432679999168e+00 -3.809889061561802404e+00 1.372595035742101643e+01
-2.612840446401565320e+00 -1.436897862423921701e+00 1.337540382153324359e+01
-2.033801573672374019e+00 -1.220444539204796897e+00 1.314049183726912773e+01
-6.099621325767191848e+00 2.291464535648287448e+00 1.459507221863391990e+01
-3.220199873461837559e+00 1.123563281567573791e+00 1.157212737017396975e+01
-1.488039943987754299e+00 -9.807113053541351988e-01 1.269481396671672613e+01
-6.599412518239811121e+00 -2.578637014634790336e+00 1.632732485582799242e+01
-1.423950517143041772e+00 -1.341388747411687454e+00 1.280812416929827080e+01
2.493710114123635080e-01 3.465997479834095341e-01 1.421209818445809603e+01
-1.301005387995675555e+00 -1.797326395121742415e+00 1.285198227601905430e+01
-5.432808473774420222e+00 -2.253820533302280715e+00 1.357144341138018362e+01
-8.626053475385953018e-01 -1.872655437478189633e+00 1.259959435347180445e+01
-6.507701899204763052e-01 -2.369247313871841065e+00 1.265328336501245232e+01
-4.918689632773226350e+00 -4.837495407327466523e+00 1.385886800051172330e+01
-2.569050187445289790e+00 -4.664243757662177359e+00 1.522869896315408411e+01
-5.171331129720317943e-01 -2.051123141408713657e+00 1.254519153495524009e+01
1.204013293084260638e-02 -1.436126721440739384e+00 1.256660285754420059e+01
5.307885122828990276e-01 -4.179225895693042148e+00 1.443208931108355486e+01
-3.309029769503051277e-01 -3.294321560339325661e+00 1.284912986989872863e+01
-2.796717242133875736e+00 -5.390489778984179026e+00 1.469821474726886734e+01
