-2.144241132476696343e+00 -3.270175497577488599e+00 1.485867355100996967e+01
-5.814653728009486322e+00 -1.085147805152758771e+00 1.213907253040878054e+01
-6.714042665786827513e+00 3.259613607152478387e+00 1.475422698807106947e+01
-5.390852370832291740e+00 -1.291186437886821636e+00 9.698022580694205530e+00
-7.805156493720293298e+00 2.924801374420939126e+00 1.407383256617942813e+01
-6.760114397005956732e+00 -1.031235256846048554e+00 9.598144631087022205e+00
-9.760078972200034286e+00 -7.299405072862638066e-01 1.676996130244501160e+01
-1.073930089265750709e+01 1.555985692814090271e+00 1.483706432261628727e+01
-5.069922502929702368e+00 1.556018300962903389e+00 1.335593872514943747e+01
-4.349559949157094429e+00 -1.549766529232502688e+00 1.122566235436720739e+01
-4.518160383786240075e+00 9.331181431358624712e-02 1.680449614099791944e+01
-2.463273651686239241e+00 -1.761824511374381785e+00 1.686112071279308111e+01
-6.697725631389896961e+00 -6.834333350280769048e-01 1.320520102843410548e+01
-7.547408361898336082e+00 3.396654525844636563e+00 1.468270441204163212e+01
-8.422993790920118684e+00 1.213996551595515339e+00 1.632299163703155642e+01
-5.380477780643965424e+00 -2.494564133263549088e+00 1.491448482918408480e+01
-6.672219039687355746e+00 -6.072916039162197244e-01 1.002068543159829339e+01
-6.747394212779912692e+00 1.461993720212592329e+00 1.252673974698113035e+01
-6.920221512728579327e+00 -1.062313615463449601e+00 9.609013956709768323e+00
-4.303815413931100231e+00 3.050740916217824505e+00 1.568375457088868252e+01
-4.108659088640091106e+00 -2.002897746117215494e+00 1.382914556272111462e+01
-8.726984448474324196e+00 -1.377353878303496426e+00 1.210774022604561218e+01
-5.004660238288421326e+00 -1.398164856634246167e+00 9.784838360329066731e+00
-5.030217042193080523e+00 1.366409712149507794e+00 1.315546121237373534e+01
-4.226727815378524156e+00 2.719341612836975841e+00 1.532579923830001967e+01
-8.895150472191588165e+00 1.928192887041016323e+00 1.345154605520384372e+01
-9.563075218233439756e+00 -8.650652867271588775e-01 1.686425797169970053e+01
-7.316675835114397231e+00 -2.330625870303300040e+00 1.734267286097271210e+01
-3.229981461101207429e+00 -4.110226191916200200e+00 1.651108456961659954e+01
-3.417366843964181555e+00 -3.148961980553629747e+00 1.388505252751500230e+01
-1.099701804802055705e+01 1.135610722833343827e-01 1.514508449780209709e+01
-4.850044589991401089e+00 -2.776991632118099407e+00 1.732478392858626393e+01
-3.783715527082544661e+00 -2.385743205108018739e+00 1.363442069208387686e+01
-1.770091335400497901e+00 -1.860481787995231784e+00 1.454066824927565271e+01
-3.288473575626231771e+00 1.820438681496514555e+00 1.573281788833632255e+01
-9.909395006655454807e+00 1.063641465748815129e+00 1.342123763070374132e+01
-6.580892289652105376e+00 -1.150361735575914590e+00 9.589095248460145271e+00
-2.816585722468520459e+00 -3.966737234384041688e+00 1.611160275481596216e+01
-8.182194535744603314e+00 6.100491018733122939e-01 1.665381936857544787e+01
-6.229948264536199432e+00 3.470222693173973472e+00 1.554437116433750354e+01
-6.447471695031643080e+00 -1.392510578555696821e+00 1.752978821040560575e+01
-4.830796755375097007e+00 3.095430174912361387e+00 1.576254476277603622e+01
-1.782405965294029393e+00 -2.241096498545505522e+00 1.476012975650290748e+01
-3.144317434784913878e+00 -3.490518961863734226e+00 1.414997109573655543e+01
-5.629052813276081757e+00 2.607704003814191207e+00 1.594141838710312520e+01
-3.700640671693929740e+00 -3.175627674332736738e+00 1.446137666876715322e+01
-9.135944957611545902e+00 2.450197355033961744e-01 1.213728554790482228e+01
-2.582017743049783043e+00 4.307820487404525611e-01 1.653074099540931741e+01
-5.753399351140662255e+00 -1.241566940914132111e+00 9.500313414986569782e+00
-4.305479490699513079e+00 -1.513425268024972237e+00 1.078900211165266576e+01
-1.053812659062626089e+01 1.006223663327081297e-01 1.598819980577560251e+01
-3.736603447442061743e+00 2.426774357296225926e+00 1.569983984908773600e+01
-9.936173990179502979e+00 1.781558198076909516e+00 1.399346249769775419e+01
-9.534959334085378657e+00 -1.688704215401991338e+00 1.236178900515436574e+01
-8.076082555653570694e+00 -9.905145685429607161e-01 1.279328152078744374e+01
-1.107982660427126831e+01 -1.081515426544367386e+00 1.482361719136340206e+01
-8.383661971876593455e+00 -2.485252280684759341e-01 1.696366712826499423e+01
-4.885947068378389879e+00 -2.579188166830323592e+00 1.736550883159548420e+01
-1.070097885000304316e+01 -2.481426289420570086e+00 1.523051622296272178e+01
-4.855880260498230072e+00 3.243923482259780222e+00 1.558900948359345584e+01
-4.015055865358017506e+00 -2.350051181709099435e+00 1.409633712069058653e+01
-4.582285927694714545e+00 6.514957865715013119e-01 1.663075632512938995e+01
-1.065179751602271985e+01 -8.217387695905761236e-01 1.296507777829982722e+01
-7.027222213180362331e+00 -1.151021246437690326e+00 9.662044439993733747e+00
-7.767349080883562351e+00 -9.430031277882465757e-01 1.223479566578924072e+01
-7.639789026847028097e+00 -8.367992323685841116e-01 1.285658604615156442e+01
-1.072788485314333862e+01 -9.855888435611303011e-01 1.303508733401618436e+01
-1.006663794987398042e+01 -1.775359511473598495e+00 1.288303744249782845e+01
-7.037681441189572951e+00 -1.043445767394888701e+00 9.702079947279161232e+00
-5.305407963561481033e+00 -1.374825052979720574e+00 1.742851761271938926e+01
-1.043200907331810967e+01 -1.373214573165839614e+00 1.646660147201310309e+01
-4.171934413911793094e+00 -1.593640007221233112e+00 1.270537911320796987e+01
-4.620177219073568153e+00 -3.529626497463852708e+00 1.722237940453353389e+01
-9.269577890422892708e+00 2.029703974797994803e+00 1.587868249115642705e+01
-6.406067344600888447e+00 -4.967617541944793214e-01 1.722702338301474612e+01
-9.203405211220243132e+00 1.783370853984698745e-01 1.661466560281046867e+01
-3.728902066416536876e+00 -2.304601653965059338e+00 1.751194953755495476e+01
-4.450262656792533633e+00 3.076110296941575228e+00 1.563913050549995098e+01
-2.391014570655745075e+00 -3.198208210132812646e+00 1.621569937331846489e+01
-8.251726357231564890e+00 -3.048974906995257417e+00 1.515920947465393986e+01
-1.072869061670342106e+01 -2.351641149364861683e+00 1.480361119909247059e+01
-6.007988824504830738e+00 3.595694605499377694e+00 1.538384551698286806e+01
-3.985540807452376377e+00 3.789623429054634896e-01 1.306656014354605055e+01
-2.383515053873322742e+00 -3.042295916470242556e+00 1.385679057946990689e+01
-3.620311609189040603e+00 -3.126440223105137584e+00 1.736064470287961115e+01
-3.836846635723984988e+00 1.516444475286385263e+00 1.645807477662954454e+01
-6.917911586256693113e+00 -1.141031390290757397e+00 9.598597039590563540e+00
-6.422642839453585495e+00 -7.028670210038362454e-01 1.263179858034993508e+01
-8.234273377404642602e+00 -1.077400930908438248e+00 1.183660228064663578e+01
-1.979278706309112401e+00 -2.678705472808953214e+00 1.426310759701419606e+01
-7.800436565399676780e+00 1.254867653825035845e+00 1.638531129829893729e+01
-5.204602756686462328e+00 -5.996856211651884205e-01 1.716639610171309727e+01
-1.782482248589060791e+00 -2.264957551258911739e+00 1.454862922039662188e+01
-5.619485304438287088e+00 -1.434844804434402210e+00 1.005185112166954475e+01
-5.437770898371509176e+00 3.462976977112030230e+00 1.553388927956994969e+01
-8.380877910135444253e+00 -1.298166405379082011e+00 1.327211498384714794e+01
-2.434101857031525817e+00 -9.768405666409830657e-01 1.417810605785387601e+01
-3.205222390111051034e+00 -1.865368375136676971e+00 1.193959241825667483e+01
-7.406113421479709302e+00 4.743008769180134809e-01 1.674138730119157970e+01
-4.397933610668554039e+00 -1.551682535043483302e+00 1.139422679292915852e+01
-8.699344745879947993e+00 -1.704554679108404525e+00 1.370107213569426996e+01
-6.799895197207643349e+00 -1.141244181290601567e+00 9.564552104468527105e+00
-2.336482588814693173e+00 -1.472545711109545241e-01 1.520813246788386941e+01
-9.190570886604996659e+00 -3.250433166273073660e+00 1.675504423259825160e+01
-9.215319218946827817e+00 3.360377340309691707e+00 1.508070828782148531e+01
-7.821318756005673833e+00 -3.738724157963808636e-01 1.710791425950320388e+01
-9.730486404456650362e+00 -5.397974155018734344e-01 1.671526617147038252e+01
-6.911049010013027072e+00 -9.391864693455059809e-01 1.200180847712633359e+01
-1.064548761523860954e+01 -7.354170165844393647e-01 1.608999403792221727e+01
-3.554870452072543152e+00 -4.052557338718639990e+00 1.684986019308127680e+01
-9.660069910324217801e+00 -2.096665571663404393e+00 1.689977530374940784e+01
-2.810335209336945361e+00 8.263809089114706463e-01 1.649603369414088405e+01
-5.724444696272611210e+00 -9.545098283756469071e-01 1.348224223590170645e+01
-5.119944391465347522e+00 -2.335514698422138657e+00 1.746912468558299736e+01
-6.016268488212380028e+00 -1.272435111045843392e+00 9.623830781598096351e+00
-4.381558012451749917e+00 6.558649555851585600e-01 1.665331326713786808e+01
-4.782412304322647856e+00 7.126024979378136059e-01 1.659469595234237005e+01
-1.013648017000042678e+01 -6.889541522363931136e-01 1.660189558500013618e+01
-3.024826971428748124e+00 -4.048392591958230646e+00 1.633656496661567559e+01
-6.495476686239928910e+00 6.440745045062642449e-01 1.159798490683664518e+01
-1.036370441239891527e+01 2.382606351017306334e+00 1.492073462469505962e+01
-5.837020638453327415e+00 -1.297171766851437535e+00 9.620886512807446778e+00
-5.209623384229293386e+00 -1.505036362766352109e+00 1.188324400663659297e+01
-7.171161865545846226e+00 7.473671840824569479e-01 1.154709058302507962e+01
-9.915931867536338373e+00 -2.252108173087859821e+00 1.364230883803754502e+01
-9.842041347393395867e+00 -3.291831855527606709e+00 1.551032429361743503e+01
-8.195704317366777403e+00 -1.922852154282346238e+00 1.449764571655327394e+01
-5.207287920069190612e+00 -1.437380671371724539e+00 9.884027917823571485e+00
-7.679916456144557202e+00 1.239816688848864867e+00 1.218723913903100886e+01
-1.000908135181409619e+01 -1.413333015151442051e+00 1.233121230081160213e+01
-6.543370571643404077e+00 -1.151695917989204787e+00 1.399321301288988018e+01
-3.949704694309032149e+00 -9.923748260934184273e-02 1.694062506270012136e+01
-3.963640346840291429e+00 2.544539063972455217e+00 1.596405686708588156e+01
-5.842363861130651870e+00 3.587634126278760771e+00 1.548768704875857871e+01
-9.236567962000503229e+00 3.281696026816846690e+00 1.509897028600647850e+01
-4.424733752396990738e+00 -1.571285800084184281e+00 1.362493602105877066e+01
-2.949981192840082755e+00 -2.145778533316958225e-02 1.688759866497723294e+01
-9.169025343421955299e+00 1.143119352582380621e+00 1.294193560047467351e+01
-6.030326735006614314e+00 1.024022106241562202e+00 1.228129252957062612e+01
-5.261569277795453026e+00 -3.793037068852841420e-01 1.102273943646822651e+01
-5.527206599407299414e+00 1.980603348039990497e+00 1.365732638419953737e+01
-3.751434178568457511e+00 -1.939044952171571801e+00 1.286957873160283761e+01
-5.720777226305632013e+00 -1.027459313887862713e+00 1.248026545628704831e+01
-9.047513979207099766e+00 3.013682632384188764e+00 1.455832166625671498e+01
-3.555511224398539838e+00 1.966308424839881663e+00 1.537596429782579399e+01
-2.724894357347814378e+00 -1.191880528605116507e-01 1.457464460237847881e+01
-6.245107312651716924e+00 -1.068910662174025639e+00 1.161672343772988292e+01
-3.495498813010455841e+00 -3.898696682514964262e+00 1.691859525238458417e+01
-6.038708574464337175e+00 3.628768427175029565e+00 1.545378006655741565e+01
-6.694360505444610254e+00 -2.693973628431757916e+00 1.726176249565048693e+01
-1.046028964777939407e+01 2.158815138979880199e+00 1.500564176178771270e+01
-1.796063570889358196e+00 -1.694740203511810428e+00 1.534951613122125913e+01
-7.586971849800574930e+00 3.312676930316714063e+00 1.548939762843753520e+01
-7.170750147642808159e+00 -1.260897137883404628e+00 1.088889778791112484e+01
-2.398795084244628839e+00 -2.233556934009854000e+00 1.310068119756316385e+01
-4.084861889182231920e+00 -3.109352028278972391e+00 1.738205208262672130e+01
-9.794408997856679733e+00 -1.797921729024012372e-01 1.245929656082368631e+01
-3.025660417102312039e+00 -2.006743732592408680e+00 1.216241774756212557e+01
-7.004742597506096402e+00 -1.201036131572085441e+00 1.128711459057359257e+01
-7.627701783667118818e+00 3.879691794227518642e+00 1.524979486755582236e+01
-8.078089848707048048e+00 2.974915524668483080e+00 1.416214024657325332e+01
-4.250339866201747085e+00 2.111318358140718665e+00 1.618329006810027693e+01
-1.764851138534975217e+00 -1.671754141403654970e+00 1.477229448149726032e+01
-8.221113787768937087e+00 4.051485103264169663e-01 1.673721924659747629e+01
-3.116856947276619216e+00 -2.271197342339484226e+00 1.738017812015741725e+01
-5.879221012926089784e+00 4.745415483789414690e-01 1.166531440594116198e+01
-7.179439227912542520e+00 8.474925046547010510e-01 1.657508281129153715e+01
-9.393659437150738256e+00 3.225836008272616962e+00 1.505855797206058533e+01
-9.949825519593341383e+00 1.549249557318786774e+00 1.585421685228298294e+01
-1.074364647468332379e+01 -8.319636868795139417e-01 1.596132925705807004e+01
-8.620229451526695286e+00 -3.434521536338560832e+00 1.535922659082145181e+01
-9.225016674197593858e+00 -2.188012216795173437e+00 1.342213704883465120e+01
-1.825257394654340892e+00 -1.080149597096247138e+00 1.554329578561408631e+01
-4.625498220386843329e+00 2.517977701461561857e+00 1.598478418062961204e+01
-7.190276697564764063e+00 -1.075487301010942698e+00 9.758528702189805060e+00
-8.044042072785355657e+00 -9.745744470050977659e-01 1.301290624221506853e+01
-6.816216929940555502e+00 1.915556951062620250e+00 1.307215717330983118e+01
-8.224446476689951879e+00 2.233690420933661436e+00 1.590592329679935624e+01
-4.982155404271639831e+00 -1.419346257064475925e+00 9.899974900349890916e+00
-7.778214203185131126e+00 -1.361780120893956170e+00 1.404765018925995967e+01
-2.212579362779430348e+00 -2.859777707846146377e+00 1.383854324803812652e+01
-5.261911502035395038e+00 -2.663971326639770876e+00 1.736944608094543696e+01
-5.561021899418800096e+00 -2.645397436622781484e+00 1.737120492594861787e+01
-5.165924939924691373e+00 -1.190904006381349411e+00 1.735487512904091290e+01
-6.809698233052356997e+00 2.881759336588849418e+00 1.427987624920789678e+01
-6.628783938969599276e+00 -1.235850708182773428e+00 9.761106198171356496e+00
-1.061782679305772525e+01 -1.877085405720936961e+00 1.380730220386189622e+01
-7.132134065975058945e+00 -1.932162861690157385e+00 1.748784344498130139e+01
-1.066079222412162153e+01 1.393340044947214196e+00 1.439397562722331436e+01
-7.473487694672666493e+00 1.658241303750124462e+00 1.616019398411915375e+01
-2.737101758498652337e+00 -2.919212825423737723e+00 1.337270110990640681e+01
-6.660599424096366405e+00 1.902091632401880616e+00 1.311934344179365830e+01
-9.017898163480337459e+00 -3.237909192437150363e+00 1.682642470309240679e+01
-2.487543766221045338e+00 -2.633259336373510173e+00 1.672352825809457499e+01
-9.940302213831946787e+00 -7.580678802081961543e-01 1.220966553016404355e+01
-4.143424739386173172e+00 -4.135348863977139189e+00 1.702157615363471876e+01
-1.031661128997015808e+01 2.355115039569986912e+00 1.507731762588454494e+01
-4.811047852877190500e+00 -2.134348762805409638e+00 1.453456857862695806e+01
-9.981959827517384198e+00 9.169908974050679229e-02 1.638828713984042906e+01
-9.121840582852392743e+00 7.364195739633464521e-01 1.254812042692819141e+01
-3.482524803424184690e+00 1.473970360208616714e+00 1.644517309525829774e+01
-3.314250376262574349e+00 -2.934212216615019742e+00 1.350570818902970949e+01
-4.599779785295522672e+00 3.137184480263983666e+00 1.561827814021624938e+01
-8.830204835976134703e+00 8.037200714057989304e-01 1.642789486594771375e+01
-1.089660588308377775e+01 -6.410193201876055458e-01 1.347997580266467743e+01
-6.030046623008791684e+00 -1.233765683585884287e-01 1.084904153232069213e+01
-9.864955303463361247e+00 -1.258760763391055360e+00 1.202512868883877850e+01
-6.020843541715162672e+00 -1.365879960069201537e+00 1.423209006123291509e+01
-6.862310924048767191e+00 -4.019219708624185650e+00 1.624393881481596225e+01
-1.100949230778944887e+01 -2.562875085646736939e-01 1.389544498476099399e+01
-8.171211004271897949e+00 3.526295200095546090e+00 1.485515827110007514e+01
-9.004084780336398808e+00 6.198741133934557723e-01 1.647628210843319607e+01
-4.410635901587410146e+00 -3.729073134465620054e+00 1.719830414590896339e+01
-3.303822981807666537e+00 -3.692178493603724299e+00 1.690096985153568454e+01
-7.447057100714621569e+00 6.145931546390673988e-02 1.091600746177173242e+01
-4.835525560492730079e+00 -1.425393561431358425e+00 9.979403798844108664e+00
-6.713989135042496059e+00 -1.308850523893422046e+00 1.033969858387855290e+01
-7.977803358728223770e+00 -9.950248513111742410e-01 1.218953847640944055e+01
-9.442120828626707763e+00 2.941280669099020084e+00 1.472032685770051152e+01
-4.648886147587707462e+00 -1.458425879533066905e+00 1.020269457656080725e+01
-7.452604740949629658e+00 -2.868340088554337086e+00 1.520233730293552732e+01
-7.380287925569563257e+00 -1.806793515454808929e+00 1.462203942735229312e+01
-7.813541857810273328e+00 -2.712579986560524348e-01 1.080729311413622717e+01
-1.069468635041685900e+01 1.543087335878171817e+00 1.500150509521056286e+01
-2.867627444620740818e+00 -2.461141605465277049e+00 1.720008404842504035e+01
-1.033175777128879602e+01 -2.893401988968547833e+00 1.571947681724567225e+01
-1.066656478305051614e+01 1.748633773676259828e+00 1.480791805699462849e+01
-8.961050917445255948e+00 2.212010576216405511e+00 1.586900704244854232e+01
-5.270681232798918536e+00 3.410519319173798802e+00 1.555279046608482041e+01
-6.779436141699195062e+00 -1.223974495033703036e+00 1.111560541441424554e+01
-1.008265137179190418e+01 -2.104360080525423005e+00 1.670703158638908548e+01
-5.567324668507136920e+00 -6.066343749558587017e-01 1.720689653723768942e+01
-7.730897570910656214e+00 -1.017388620489395823e+00 1.181796116104410821e+01
-7.393624673156551808e+00 -1.170134292615051752e+00 1.125807995392841399e+01
-7.010821829277379180e+00 8.827732367013644277e-01 1.657179445770832160e+01
-5.565506996118042338e+00 -3.442644696016113337e-01 1.705532701897911352e+01
-7.683924524215566265e+00 2.189288612804069167e+00 1.322823852709435677e+01
-5.836736306776806771e+00 3.472459027790790742e+00 1.556027542528530638e+01
-8.416810951748889380e+00 6.165864644451810594e-01 1.660123978126301125e+01
-7.799804150928137503e+00 1.915580790318487381e-01 1.687805480893252508e+01
-6.474518256130844307e+00 -4.002063498138779707e+00 1.644723204810040329e+01
-1.868871255734251502e+00 -1.262867867725393722e+00 1.494537885749333306e+01
-5.217180377477985687e+00 -1.496026182951107675e+00 1.010799580505193696e+01
-8.785390416011651382e+00 -3.320770006025618226e+00 1.526184276480512203e+01
-7.607099799484160485e+00 3.727303797692667064e+00 1.531725218150793744e+01
-7.003644646479465052e+00 2.910133346932242571e+00 1.424495215121846492e+01
-2.918571666960666278e+00 -6.603750870258103811e-01 1.706101450838577449e+01
-2.373146088030633649e+00 -1.754203578596892132e+00 1.674195149060856380e+01
-8.404318662787837013e+00 -1.882504951398153992e+00 1.435509961909308707e+01
-9.776788204781878378e+00 2.942200613937520526e+00 1.501014543450674843e+01
-4.937580278181264326e+00 -4.693148284561799999e-01 1.111572473127141869e+01
-6.979195963149264159e+00 1.707218911599223121e-01 1.687748449073541934e+01
-9.912626214801079527e+00 2.824847333665336802e+00 1.495654906023711384e+01
-2.264044342058350701e+00 -8.973582744190423677e-01 1.454756835920435343e+01
-5.368090553449921032e+00 1.031175363478518792e+00 1.649006067198450154e+01
-3.577197681118752470e+00 1.864346790230740680e+00 1.524614745370410951e+01
-7.665818329688990573e+00 -1.035936292891479482e+00 1.005190748647837928e+01
-9.634517142852944360e+00 -1.591358622600581807e+00 1.229171113470501631e+01
-9.431026348879100851e+00 -2.250713017715173958e+00 1.342027283489071188e+01
-4.859818893667063655e+00 2.733683938766504617e+00 1.589646580207630855e+01
-9.789547751285386568e+00 -1.534729754911760224e+00 1.231751484865982071e+01
-1.078682297491128672e+01 -2.081259836016466025e+00 1.443810328852586444e+01
-8.815645549445143558e+00 -1.589073593176344001e+00 1.252361984337863809e+01
-6.771211806229260333e+00 -2.030612760297147545e+00 1.485849987279405049e+01
-7.421706842077988142e+00 -1.036857035324142640e+00 9.921701635896768678e+00
-3.663118040018538579e+00 -1.839400179032403937e+00 1.229615669951335200e+01
-1.106730111900652780e+01 -1.106585442190208823e+00 1.502321064345426471e+01
-5.017563431581129940e+00 -1.180840998639429262e+00 1.295516960147931051e+01
-5.854460861370066382e+00 -1.389408552890863735e+00 1.002151751755668663e+01
-7.913875508012623072e+00 1.290616918009317993e-01 1.123739737630686442e+01
-5.033287836328710796e+00 3.303630396887951903e+00 1.558725005477909953e+01
-2.958332719068663685e+00 -2.375124228494147061e-01 1.695723683841820417e+01
-1.052419741505826600e+01 -5.087666776692306714e-01 1.618702476143817393e+01
-9.700572926618374225e+00 -3.434688807772872110e+00 1.591953563764045576e+01
-5.629542345485447186e+00 7.483125397131507039e-01 1.656619098818753599e+01
-6.815145998496845436e+00 9.219981393228754429e-01 1.655867152637686246e+01
-8.413548195354536574e+00 -5.903250153278376544e-01 1.083818858970762200e+01
-7.283313971457770819e+00 -1.218075917537324582e+00 1.005925987419568379e+01
-4.816896636260816322e+00 1.299956142251045055e+00 1.642907826987348585e+01
-8.094975840276807943e+00 -1.557236991307830110e+00 1.412964778507874009e+01
-3.347663291913826278e+00 -2.506310399892350382e+00 1.308833945287957157e+01
-4.439223843643250511e+00 -5.239475814613920868e-01 1.146656002042518985e+01
-1.071735103510879661e+01 -2.108758767362961528e+00 1.584026416660284475e+01
-2.695199226924396285e+00 -2.568553759904505629e+00 1.699543429092086910e+01
-8.748953376457262010e+00 -1.451553080889436131e+00 1.228917906437013308e+01
-7.752958392141612975e+00 -2.252611617670291277e+00 1.731092191388149359e+01
-1.020597288484272269e+01 2.370723426052238736e+00 1.518326133092874919e+01
-1.019167970922592303e+01 8.962048987908751707e-01 1.600240762862267729e+01
-7.432154437180242823e+00 -3.923154160546337810e+00 1.618193547986676606e+01
-5.081982919025731071e+00 -4.461560890137045376e+00 1.642712209521937439e+01
-1.056541864379829754e+01 -6.805114279582175074e-01 1.618552300534465616e+01
-8.657143338748491956e+00 -1.050528702520855173e+00 1.109691004040696249e+01
-1.967465168735477832e+00 -2.109758569799906613e+00 1.575480203037618487e+01
-4.645213561362396604e+00 -4.411439052722509579e+00 1.621295482959622802e+01
-6.526067665984669475e+00 -3.754834027575654432e+00 1.676535985354180269e+01
-3.181631869232649734e+00 -4.221921608250117863e+00 1.591219081453557926e+01
-5.361747124093043659e+00 -1.791119241739517864e+00 1.752528642149334814e+01
-5.618974844719637929e+00 -1.440177619656794583e+00 1.167006362422413268e+01
-5.971235157746709987e+00 -7.799287527563539824e-01 1.289727850028551082e+01
-5.829418802709724901e+00 -4.673596583423451634e-01 1.716139853804161675e+01
-5.212306715718991512e+00 -1.536424288508157154e+00 1.032585991154315330e+01
-8.989220394316619789e+00 -3.503428035353949976e+00 1.665441512875777619e+01
-2.882173274621232295e+00 -3.618445271215847026e+00 1.658281567937392253e+01
-7.073244661777421172e+00 -1.144815847498349193e+00 1.151476852164913645e+01
-6.422804448999013260e+00 1.362621219457290422e+00 1.634383712517819731e+01
-2.642990825626288398e+00 8.573115756613878258e-01 1.582082572568035594e+01
-8.965733283706835977e+00 -8.370004671689686981e-01 1.698794320139538883e+01
-5.409857282659374711e+00 -9.802177875900602855e-01 1.313562222854313255e+01
-8.345144708235299191e+00 -3.669208914972076130e+00 1.675153602161907429e+01
-5.579378882419243624e+00 1.428001174669683238e+00 1.297474264243445496e+01
-5.048346293098350479e+00 -1.521273544857343119e+00 1.015854261381482893e+01
-1.062577303912001447e+01 1.254530761876909928e+00 1.534930081573380711e+01
-6.673253031666646962e+00 -6.429274144549572689e-01 1.299920787174867876e+01
-5.412124086134041612e+00 -3.369808808778993470e+00 1.716333548943817533e+01
-5.980150937736127048e+00 -3.877607891992537414e+00 1.683460390949006324e+01
-2.357691092035289593e+00 -4.009301079307686644e-01 1.656889625689367307e+01
-2.347916601034758521e+00 -3.646461560521279566e+00 1.500127139743244520e+01
-8.081339985941729864e+00 -3.808212793162873311e+00 1.589917349913026534e+01
-4.870434300117361559e+00 -1.417195623373705970e+00 9.840985874610327144e+00
-1.050939506775648802e+01 2.759864039252610257e-01 1.595705318546886708e+01
-1.806582898528221737e+00 -1.245754390947733992e+00 1.517935568572240079e+01
-4.447475290619082422e+00 1.309582792830902953e+00 1.646910274814953823e+01
-1.090514435638370117e+01 -1.910637716728482260e+00 1.462479484632616966e+01
-4.459941330015515071e+00 -1.468595732608311000e+00 1.041179875860963300e+01
-7.801300039957773436e+00 1.522187607725162817e+00 1.623864850089319845e+01
-8.631252393789237587e+00 2.005444896717076375e+00 1.598672037608563734e+01
-4.478260617169196323e+00 -1.485490864545997436e+00 1.024954778099148989e+01
-1.085029605976598255e+01 4.827832728385647587e-01 1.535861739476644594e+01
-4.334292392591446941e+00 -1.499165148818730753e+00 1.046659858957066724e+01
-4.420158403733671193e+00 1.387042106597967894e+00 1.360916766575682679e+01
-3.573262849320172130e+00 -2.930256683305111909e-01 1.705527295187456360e+01
-4.626806289541547379e+00 1.453752157468669370e+00 1.350466601623787533e+01
-2.328410086442056937e+00 -1.530249696684774285e+00 1.376742118949005267e+01
-9.106364432878242710e+00 -1.487805358602761086e+00 1.203399534588878872e+01
-2.437965069837018106e+00 -3.740802612625224732e+00 1.492929391203158040e+01
-5.799793895297074897e+00 -2.708201174791128985e+00 1.509214662892361680e+01
-8.023607841792351536e+00 -2.071049295773210730e+00 1.728930065924627257e+01
-3.197310174204278432e+00 1.612031229847476765e-01 1.688594936476454933e+01
-8.060787266471550083e+00 -2.551362464067229219e+00 1.718898400131038073e+01
-4.196173769230481021e+00 2.930454478583837563e+00 1.568791379600194880e+01
-7.602050292970696788e+00 2.516154484201398756e+00 1.581487129367982725e+01
-4.537733528294383589e+00 -7.742846143001236303e-01 1.710930786449934971e+01
-8.132718423444924127e+00 1.374293401649826496e+00 1.253223259332059847e+01
-5.910021207733255899e+00 -8.866621777275581762e-01 1.345352418708924880e+01
-6.599307089893795109e+00 4.676551445298506859e-01 1.132819452975930652e+01
-6.268220872042444825e+00 2.929081547201612512e+00 1.577427234522045474e+01
-5.189717023677675733e+00 3.340831432250032762e+00 1.558952314540611717e+01
-8.409970784628242768e+00 4.164666248976331975e-01 1.669430224975732813e+01
-4.003862753537951846e+00 -4.469568269350396861e+00 1.636103185283364070e+01
-6.798856765902161925e+00 3.461600886333374483e+00 1.549404572987744722e+01
-3.362680879962982594e+00 -8.692546684088313658e-01 1.725888774220982924e+01
-1.050367995039197133e+01 2.162279965238913526e+00 1.486086969025920190e+01
-7.457719969063230536e+00 2.171672586206038424e+00 1.595278052170378835e+01
-5.072433497721194229e+00 -1.550503656974336675e+00 1.032894578091876703e+01
-7.219482841246257721e+00 6.764171449586534046e-02 1.696744998690301998e+01
-9.041385992705594177e+00 3.344244032130191946e-01 1.659249645854679045e+01
-8.693666789081571977e+00 -1.596729247133867879e+00 1.299789068756292743e+01
-2.588327535270221524e+00 -1.149744196113128059e+00 1.374566274890701756e+01
-4.399451396971755912e+00 2.161252042798483153e+00 1.443845001732614186e+01
-9.621665789291199644e+00 -2.289581488089328154e+00 1.358919314720055560e+01
-3.609767200668569487e+00 -1.995239050606364195e+00 1.267854814743492575e+01
-4.272063955794543233e+00 -1.508141049887543605e+00 1.062190500147655037e+01
-9.077497789348543122e+00 -2.071412694151528289e+00 1.343736254188916668e+01
-4.636533003866847302e+00 -2.657127044239717129e-01 1.158740218682486223e+01
-3.385795682444381782e+00 -1.984735208270234974e+00 1.230747992313649597e+01
-4.844101217883934218e+00 -1.541322828815762325e+00 1.179292257485817608e+01
-7.896178837180515941e+00 2.144798917963268714e+00 1.321119821619109480e+01
-9.589994397846190566e+00 8.721202032830367434e-01 1.627071059310013368e+01
-3.377495423226685389e+00 -1.063634205360802110e+00 1.729791210035371307e+01
-5.838471806956846422e+00 -8.186895904004979352e-01 1.308061253796905454e+01
-4.043364546913646329e+00 2.884503077179257247e+00 1.573981649037572872e+01
-6.400155307562297224e+00 -1.858638496112154481e+00 1.758876763757435668e+01
-9.224501858026780354e+00 1.601442090611878033e+00 1.606260771396612341e+01
-6.075675764945476232e+00 -2.642256639280440744e+00 1.732495514447702334e+01
-8.494543848064283864e+00 -1.480899588154911406e+00 1.352711362360513370e+01
-4.948658897726301298e+00 1.151963174230238085e+00 1.295627284054885742e+01
-8.395394175550555005e+00 1.649001432620616381e+00 1.614186876190414921e+01
-7.764994971237713983e+00 -2.661841817557555778e+00 1.505233860470997165e+01
-3.343541409287055011e+00 -2.449502045222854196e+00 1.747490354164370530e+01
-8.056445679187197229e+00 -1.029298194457701765e+00 1.035830011729279754e+01
-9.446116802009292712e+00 2.102553341991030056e+00 1.398255982322748814e+01
-7.122596192516764901e+00 1.514742977189269091e+00 1.245483127738779494e+01
-4.344085318761480963e+00 -3.973337370985241090e+00 1.713380210179229124e+01
-8.130445806830577382e+00 -9.478373847239142114e-01 1.038533826643706171e+01
-3.637019486942012492e+00 4.223445694729280331e-01 1.365231296309506170e+01
-7.979253547235048316e+00 1.024087207597003335e+00 1.649148659387094540e+01
-5.612326243175381535e+00 2.511589852711782811e+00 1.424742614627420245e+01
-3.827989997113045995e+00 -3.123873095895789653e+00 1.739215155729913675e+01
-8.240315311762747896e+00 -1.094154883764579367e+00 1.280416999831809299e+01
-6.234105424523677996e+00 -4.154548223314486144e+00 1.628324094301439118e+01
-6.129394596055330879e+00 -1.366178201430535921e+00 1.058256953043467696e+01
-5.944495659403172816e+00 -1.408813694424578156e+00 1.061689277221899808e+01
-5.963307354597829679e+00 -1.779532342748376905e+00 1.458797042698115298e+01
-1.054724321815864130e+01 -2.314506743853101511e+00 1.607498089809301689e+01
-5.015198975440268825e+00 8.566749207770613106e-02 1.681461784468486087e+01
-3.088075392752995363e+00 -2.423237918132756352e+00 1.278446539831840134e+01
-5.853873473642587477e+00 -5.012472451747515545e-02 1.686738811010842198e+01
-7.393069232886517739e+00 -8.837395626823019157e-01 1.226569308276735093e+01
-4.286320543446938025e+00 -2.172931477590776872e+00 1.740067858835945458e+01
-5.768409305504188289e+00 -1.451830893150212631e+00 1.068294997257089385e+01
-9.145381474940016631e+00 -3.721126179928502253e+00 1.623967794418189214e+01
-8.613880803941249553e+00 3.686405595786804490e+00 1.511922362914424944e+01
-2.054214614845919940e+00 -3.443379953378617464e-01 1.580744350722341274e+01
-8.032881266074124227e+00 8.246204579475480134e-01 1.657859741982910151e+01
-6.747505871986266612e+00 -1.298771494399855175e+00 1.056180435815843133e+01
-5.525392157894413181e+00 -1.517151235227025552e+00 1.070406682218348671e+01
-7.457470690475862085e+00 -3.776166300884601146e+00 1.591254356116480473e+01
-4.230207959973222742e+00 2.328426947145584514e+00 1.607585967720691400e+01
-6.601004518451524916e+00 -1.310747573768614949e+00 1.422517981488285876e+01
-7.811494096398819309e+00 -9.246935902369523008e-01 1.243295634822126594e+01
-8.399279527024983594e+00 -9.467367103132066086e-01 1.072266541147684471e+01
-7.251393817757747939e+00 2.174603951240143385e+00 1.596782340524579702e+01
-7.733843536144897612e+00 3.361204905378785135e+00 1.461217042413862721e+01
-4.680811721641403800e+00 -1.269031874462744902e+00 1.316752176520446049e+01
-7.408896384112779288e+00 5.767257274539194789e-02 1.697623881825614234e+01
-5.834878612296398259e+00 -1.195171478411023891e+00 1.186291847874451300e+01
-5.628608138976797903e+00 -4.212982772249475039e-01 1.711043165086118023e+01
-5.027235331809698060e+00 -1.721684913327073296e+00 1.426455311770561174e+01
-2.376431771819983219e+00 -7.697045569550292621e-01 1.665736502042772571e+01
-1.090234480883351509e+01 3.015531743691621802e-01 1.532704941756756334e+01
-7.362660850556354220e+00 -3.351100194682089306e+00 1.699754519620485382e+01
-7.925898655669110227e+00 1.550887586128322226e+00 1.260173304179836684e+01
-8.199623255251827558e+00 -1.078764090263523379e+00 1.259596718938674620e+01
-8.012511951824851764e+00 -3.215075764071548825e+00 1.701189280635741596e+01
-3.706405077751345090e+00 -1.933967206431703278e+00 1.273612644461836929e+01
-9.863773804710588067e+00 2.279317879824309945e-01 1.639753482895743986e+01
-5.350092043899522309e+00 -1.561100775369732130e+00 1.088348922200602509e+01
-5.346644815207223900e+00 1.848692195137061622e-01 1.161349007125356003e+01
-4.892290741473359184e+00 -2.204182260642670865e+00 1.742901623803084732e+01
-3.625800322000800158e+00 1.929152785009805804e+00 1.624410585915732952e+01
-6.332485227893540625e+00 -8.930963924657538966e-01 1.359255607988662184e+01
-4.830713017376138119e+00 -1.205083738804045623e+00 1.323698951086378450e+01
-9.331571213820074817e+00 3.153669528481708006e+00 1.491326041896861021e+01
-4.005137824779290590e+00 2.344424220236346113e+00 1.606274884030687389e+01
-2.592550069494840237e+00 -3.403857460869303520e+00 1.637644344046274369e+01
-3.455086363301055563e+00 -1.879085582836848456e+00 1.214180940710785173e+01
-5.273485127006886763e+00 -1.566594929955490212e+00 1.069092059029876474e+01
-5.758800471482307337e+00 -3.647829208418597702e+00 1.701467015520321269e+01
-9.239120987802991181e+00 3.023772653313351100e+00 1.530905639330393520e+01
-9.008007231889765265e+00 -1.911546991229984727e+00 1.285238286230153726e+01
-6.424604972457483854e+00 -9.652550739492039567e-01 9.767428154367701509e+00
-4.716987663142747422e+00 -1.570024575186050431e+00 1.077059230836654002e+01
-5.159197035437381729e+00 -1.399067267816774263e-01 1.693672707766778984e+01
-5.111698393054606271e+00 -1.578023320079105396e+00 1.072172279919739601e+01
-4.463360650159312826e+00 2.374209588699877305e+00 1.462647500374149878e+01
-5.717678024634504474e+00 -1.455431781925846213e+00 1.091232398446821428e+01
-9.607304143540488894e+00 1.162160120529229346e+00 1.615945527687334504e+01
-1.100409733599944140e+01 5.517258399911039168e-01 1.451155291928978919e+01
-5.385471888404404162e+00 4.885561974782663408e-01 1.193612302932829117e+01
-1.098688274203486692e+01 -8.427282122811574627e-01 1.402771861383695118e+01
-3.375354212681089372e+00 1.947417180797461178e+00 1.612252880756020090e+01
-6.117336240841295236e+00 -7.947524551482727517e-01 1.259945251520179177e+01
-8.920639808868633835e+00 -7.460741348111353810e-01 1.124769286856679607e+01
-9.745044990942609786e+00 1.675485352006299777e+00 1.588531712030245124e+01
-6.986597900298416874e+00 -1.252543190198805334e+00 1.409324004086988502e+01
-6.645959313232395971e+00 -2.058566153712013680e+00 1.487252534588578179e+01
-7.993890989432454575e+00 4.949685702652408814e-01 1.162056748751906277e+01
-9.226581357210253742e+00 2.802180205950244307e+00 1.546938687159639336e+01
-9.624633000441098929e+00 7.435225842296023790e-01 1.630697830720442454e+01
-6.387564950394775565e+00 -1.849272511109311345e+00 1.472434494081834622e+01
-6.939714091834590093e+00 -7.787128359788433318e-01 1.235941530687080636e+01
-4.592973137686694685e+00 -7.348123382735057829e-01 1.106549060717503430e+01
-9.040118747095247542e+00 2.787982239353773650e+00 1.555631679011681889e+01
-6.807874879556941039e+00 1.383201173526207584e-01 1.687843748328241134e+01
-9.523542732203900130e+00 5.264807291113939858e-01 1.270141735094096269e+01
-2.989524387911371761e+00 -1.024936850764542218e+00 1.718825405842838450e+01
-4.529115773325775862e+00 8.336588791060595138e-01 1.292668248415838583e+01
-1.028075173724305813e+01 2.141493656560831571e+00 1.525239838725786790e+01
-1.037654379351905298e+01 2.167421892799381578e+00 1.512922762322214076e+01
-7.324644130323038738e+00 -1.263820822694790902e+00 1.066842473635222355e+01
-6.396260804893490359e+00 1.204764338598097728e-01 1.686298711888237278e+01
-5.140275625184965058e+00 -1.580856495171830911e+00 1.093254275580453871e+01
-6.748907466692582346e+00 1.548400509070880116e+00 1.263563941298471072e+01
-2.252885504279474205e+00 -2.813689936945463987e+00 1.368889892905053607e+01
-7.013688787733720176e+00 -3.632305978610393726e+00 1.567454630552999895e+01
-9.563448200992739956e+00 1.344290110894996282e+00 1.609953206080447785e+01
-7.870538187494464211e+00 3.193115487645698192e+00 1.440063926423629503e+01
-5.976032784196427805e+00 -2.043127692063682610e-01 1.699423547981233185e+01
-8.825534282498242789e+00 -1.121731376982249895e+00 1.128250768310033969e+01
-1.104222104491844370e+01 -1.179410155509202363e-01 1.407991694331938071e+01
-4.575739998973307188e+00 -1.544437439962647041e-01 1.688844128843633996e+01
-9.552669592314900981e+00 -3.534521215494128121e+00 1.590113487886382693e+01
-5.943774840723127006e+00 -1.392735491212113708e+00 1.081743794641334055e+01
-7.381954489790039986e+00 2.582247561444113160e+00 1.369397209072108090e+01
-1.092393391289166082e+01 -1.592864304742685366e+00 1.425098834057654607e+01
-4.820028584390001924e+00 -3.189435183591402545e+00 1.726087511602614910e+01
-9.148136411124763612e+00 -6.274764873415327182e-01 1.689402249978149229e+01
-8.962047499940657858e+00 8.299388881923892569e-01 1.251662874706182471e+01
-4.869421202983436281e+00 5.720236109447385253e-01 1.662595951394836646e+01
-6.086131535587512076e+00 -3.053873300250771194e+00 1.527087402910545144e+01
-3.246992664729591915e+00 -3.909813894031489934e+00 1.507815617028322031e+01
-7.273887960096702798e+00 -7.433732573934094257e-01 1.311729062043194283e+01
-3.935779041740988582e+00 -1.495270558066558841e+00 1.126050019353633225e+01
-4.677042517208544581e+00 -1.283917785037699932e+00 1.295528823392262119e+01
-5.663775927964646684e+00 -1.218713859695560675e+00 1.390350049565172164e+01
-8.215138496585598915e+00 6.119042049691330032e-01 1.185412077875828096e+01
-4.073053127347024294e+00 -1.662566617650159007e+00 1.285400135740334981e+01
-2.608584547294023892e+00 -7.236856083908037585e-01 1.415043717916478450e+01
-1.059137525001399283e+01 -2.431540429013705040e+00 1.465086234702598311e+01
-2.978886744258330666e+00 -1.712394803538239252e+00 1.244570439215077862e+01
-9.365276900199891230e+00 -1.277953217957042309e+00 1.695958780581615599e+01
-9.556554427101900728e+00 -3.037821745201985557e+00 1.668333656123076025e+01
-5.094819407815937673e+00 2.661881966626848506e+00 1.462793202735723064e+01
-2.282930862728734134e+00 -7.679358570336525247e-01 1.654072325663965159e+01
-6.641523229171593101e+00 -1.941751513695829878e+00 1.480524675724715955e+01
-3.754415738997692209e+00 -1.638845771765270243e+00 1.127029734956566465e+01
-2.153601820153993707e+00 -2.669286144858256105e+00 1.364634165707119884e+01
-5.715871681041967634e+00 3.560846492526526408e+00 1.550157642398341018e+01
-3.572976315423279203e+00 -1.685190497302933021e+00 1.149225437742989619e+01
-9.340415487590108867e+00 -2.598723697109176722e+00 1.452222293454999935e+01
-1.056114992505842487e+01 -1.855344917802113081e+00 1.367386922777700242e+01
-3.320314781229131817e+00 1.833874425463958513e+00 1.619584845592585509e+01
-3.492340916376487137e+00 -3.688949268570116957e-01 1.306688309815936755e+01
-9.807762581316874062e+00 1.379902200345493934e+00 1.600369212012709141e+01
-8.416799504112468355e+00 2.741926801943041614e+00 1.566971605606218354e+01
-8.872962381819185396e+00 -1.291841866859761101e+00 1.168542123723524462e+01
-6.204124455180773268e+00 -1.287494307908313651e+00 1.749138183351413289e+01
-3.911353739861433532e+00 1.182538997409739778e+00 1.403363100931279384e+01
-1.094503457724317208e+01 -1.039077805967420609e+00 1.385277709439042759e+01
-4.384581484450658984e+00 1.494196557570834027e+00 1.641439147139703181e+01
-8.397501019330301020e+00 2.613803961407727972e+00 1.572967572076994180e+01
-8.835206157928546133e+00 2.463586118942255876e+00 1.576461369960033743e+01
-6.386414367079124688e+00 -1.200953392977408996e+00 1.121301325042445107e+01
-9.002716103470518760e+00 2.627122508114511312e+00 1.564897131089462157e+01
-1.922932809003725652e+00 -6.934562760133121673e-01 1.559092248045476303e+01
-8.239864338866818017e+00 -3.714051550184700012e+00 1.568813675809322383e+01
-6.998792654933486901e+00 -6.796448044531907540e-01 1.274666443311349973e+01
-6.526413930638394589e+00 -3.834790110794993101e+00 1.668407587020892890e+01
-5.148170200851563294e+00 -1.852013522008991941e+00 1.442423938268792050e+01
-3.996322163412986406e+00 -1.103974814316038611e+00 1.150167402246609250e+01
-1.023449338940792508e+01 2.003693023578375421e+00 1.537493916194892130e+01
-7.986729177718922656e+00 -1.611001454466026495e+00 1.427664054137168215e+01
-1.087630253128186375e+01 -1.477224413286517546e+00 1.569901332104427105e+01
-4.129123943307092759e+00 8.361618376116424223e-01 1.333820342419132565e+01
-6.655295545807641489e+00 3.356438848005328879e+00 1.554976850716679415e+01
-8.507986985156719584e+00 -1.312606446887687461e+00 1.233513114249765685e+01
-1.035286350658500609e+01 1.957575109451428652e+00 1.528080215185083723e+01
-2.394633620195548929e+00 -2.793346371423834018e+00 1.346991578381463661e+01
-1.857217290161000012e+00 -2.415694747838528222e+00 1.429811750691150785e+01
-9.840142720483029848e+00 -2.930442552248041732e+00 1.656069471209655575e+01
-9.759501275892308314e+00 -1.306146123934692760e+00 1.686904376411559525e+01
-5.455108743832896678e+00 2.820167233846304633e+00 1.585404873956570349e+01
-2.666799942762018816e+00 -3.221290230408386357e+00 1.660461264867191034e+01
-2.390628098924871381e+00 -1.379366478943972130e+00 1.382434409368013029e+01
-8.118552705114744583e+00 -1.053810628054525189e+00 1.058727002126353689e+01
-7.961219251610788916e+00 -1.098893156371951285e+00 1.079918557782165500e+01
-7.697801094876407291e+00 -3.786264042342024627e+00 1.596762466451442641e+01
-5.592395439807835267e+00 -1.434394526842381445e+00 1.749335662113693957e+01
-1.787920919130276065e+00 -1.474754944160447945e+00 1.493675742303734033e+01
-2.877233645870471257e+00 -4.077860191482999497e+00 1.534837255358886843e+01
-8.003238326773265854e+00 -1.577921783072303796e+00 1.731212517842388365e+01
-8.680880584311127635e+00 -1.644896704077336125e+00 1.351741372516709028e+01
-8.746901408935089606e+00 -2.447409866082917773e+00 1.708026103882988167e+01
-2.631675213448128936e+00 5.885679997820185694e-01 1.649447911786599263e+01
-1.032996568634048273e+01 -1.306052259543873717e+00 1.655940755890068772e+01
-7.549057323996818170e+00 -1.209116703025363115e+00 1.085806914702184933e+01
-2.942779281462422070e+00 -8.261350015675988923e-01 1.711599053705543128e+01
-9.104069668904807955e+00 -2.096325582236932217e+00 1.365201074543359105e+01
-7.815405479874549144e+00 4.523516789641446323e-01 1.674963926021824534e+01
-2.891075538768355990e+00 2.816876201829460191e-01 1.470856769396323749e+01
-7.355394543144285535e+00 -1.256458054518434508e+00 1.084176409788347151e+01
-2.253999288109680421e+00 -1.799386686180233230e+00 1.652726965545720361e+01
-3.042659597187848952e+00 -3.170663103899590496e+00 1.366563698407335714e+01
-8.983757891597470291e+00 1.829727693125613008e+00 1.601816643979474009e+01
-9.392720365461888932e+00 1.739617706200477620e+00 1.596974609205621043e+01
-5.616505196408616563e+00 -1.969272785649585522e+00 1.462823584558707246e+01
-6.559269757042077487e+00 -1.254233386431341746e+00 1.094515163163984006e+01
-9.007064287106446798e+00 2.504580395558411610e+00 1.404308917813777491e+01
-4.573640761381832398e+00 -4.521586510497221933e-01 1.699363777850888368e+01
-6.179124766774531707e+00 1.605879381938965178e+00 1.627702518283810917e+01
-6.396351787747532214e+00 -1.256951784881155110e+00 1.100001079600740006e+01
-1.009450695896459926e+01 -2.204107354795313611e+00 1.367954422683851057e+01
-1.052500308924485672e+01 -1.107842981462748622e+00 1.631626202913032131e+01
-4.046605336606105219e+00 -1.805015936666809040e+00 1.740308791519139930e+01
-4.813604085443819791e+00 3.051480149688849508e+00 1.526505232672305645e+01
-6.183939129047638872e+00 -1.252834727442172724e+00 1.119490594502220837e+01
-2.902466845668270956e+00 1.069356831871442814e+00 1.642132570266478808e+01
-1.772123056943336383e+00 -2.049998562832154203e+00 1.439823489496093423e+01
-1.036633880533783802e+01 -2.388924830011674327e+00 1.423725472769365830e+01
-3.243847690276800755e+00 -2.051287814427613654e+00 1.233624075513957230e+01
-9.212378402033248648e+00 -2.097033270133913607e+00 1.301238949294821090e+01
-2.999042115359350724e+00 -2.084458721305786799e+00 1.730815736605281074e+01
-8.859077380740714602e+00 -3.520511978098219252e+00 1.670900711440386033e+01
-6.612487933924906969e+00 8.873574036745515148e-01 1.185573193029706296e+01
-9.979661142720161138e+00 -4.193927894241057386e-01 1.247643050224854910e+01
-5.755013835223424579e+00 -1.429518702955959064e+00 1.107142655604521586e+01
-5.556392165461143229e+00 -1.508646650410399470e+00 1.112687074627152661e+01
-7.651715447922875057e+00 -1.178880923449241003e+00 1.089516769053990153e+01
-5.554863220196732954e+00 -7.877549517746028629e-01 1.033405386287679129e+01
-2.391068382107166101e+00 -5.844802506174552326e-01 1.664435172468323287e+01
-6.549567205080965238e+00 -3.637521466059280062e+00 1.685819082374512590e+01
-5.401097935891967516e+00 -1.553653613317587112e+00 1.132323061545102583e+01
-6.921860163782282527e+00 -2.512614658265097667e+00 1.730760370224145817e+01
-9.913738125798138512e+00 -2.299034048177250877e+00 1.374812130201487825e+01
-5.684565063622428305e+00 9.859237976431730610e-01 1.238892597988387045e+01
-4.088279996776219782e+00 2.602412412404819797e-01 1.278300874420820143e+01
-5.190492897381666637e+00 -1.576002372683507069e+00 1.111210583186153222e+01
-1.027758831056255318e+01 2.015235764776832195e+00 1.445885143150137786e+01
-7.564881397034286081e+00 -3.745099837166442125e+00 1.677590916594061099e+01
-8.893360800809398725e+00 -1.806579468636177133e+00 1.288435361750252106e+01
-3.771957706292175416e+00 -1.594426271089091962e+00 1.146885337258139792e+01
-3.328758710872970816e+00 -3.117680474495864829e+00 1.374355902063747514e+01
-2.448404206210665457e+00 4.833853630259737355e-01 1.638322925546498965e+01
-9.842582628132216627e+00 -3.084712225779492556e+00 1.509047611604242611e+01
-8.427349630117710433e+00 2.233282325456559914e+00 1.590174986731506657e+01
-2.432428847314845655e+00 -3.193107604675840427e+00 1.399189193836455125e+01
-6.691172369430166356e+00 -1.011502128705195069e+00 1.172358155672066182e+01
-4.468175200259659974e+00 1.615859801675543217e+00 1.380426701399800216e+01
-7.140963665991680642e+00 3.359366091014838407e+00 1.475670711610079699e+01
-3.554397041614216768e+00 1.613629367871323161e+00 1.639157563445179733e+01
-5.068429821012898628e+00 2.466532414636756876e+00 1.441664255570731079e+01
-7.818046316909642357e+00 1.679403997254945047e+00 1.614741962191897073e+01
-9.015495083347447647e+00 1.993564076566263221e+00 1.358482501173764767e+01
-5.573795816348382282e+00 -1.651711714019871380e+00 1.754197119457548837e+01
-8.172464902791649166e+00 -2.465310981260241618e+00 1.486737648649657650e+01
-7.984142611302145198e+00 -3.802961647100601805e+00 1.667704321844761495e+01
-1.818568419345198528e+00 -1.662282350611989035e+00 1.461228541598434028e+01
-9.996541183451151724e+00 1.217879492421402254e+00 1.599135724278500881e+01
-8.592460809535747757e+00 2.413037553747638508e+00 1.581114335834854678e+01
-4.187078495396162836e+00 2.752819617521630402e+00 1.587233370096151397e+01
-4.731814967031654717e+00 1.096923962927324636e+00 1.304446836202638416e+01
-6.442436807959396106e+00 9.739698972992574255e-01 1.651842622388068094e+01
-5.980896173983647479e+00 -1.134095156915352121e+00 1.176456419313713120e+01
-9.448789523823423409e+00 -3.079175564711503110e+00 1.671804433560883041e+01
-6.452096581743653303e+00 1.762039644016953233e+00 1.618995612289978681e+01
-8.811760054366459372e+00 2.349874265972093035e+00 1.582553953853668283e+01
