-4.580078118352558292e+00 3.337699023763665895e+00 1.490374965669014529e+01
-4.191144564598362265e+00 3.168499149247523405e+00 1.424409797077921525e+01
-4.001093580360038260e+00 3.017389459468561519e+00 1.361410202889994991e+01
-3.645027523000591074e+00 2.525702789903280898e+00 1.117928014581806906e+01
-4.619677826811566135e+00 3.263350987322011232e+00 1.464114554505419363e+01
-4.747296057344684073e+00 3.198194985980631788e+00 1.443593871250978111e+01
-4.029632310039028553e+00 2.856092191472301423e+00 1.281964649578900861e+01
-5.382340146285185867e+00 3.200020357189872211e+00 1.483490421020464112e+01
-5.814864795510040096e+00 2.657964790460409787e+00 1.343324793936855599e+01
-4.422933914323506244e+00 2.971099025207133870e+00 1.337410044118357177e+01
-3.863427313793348805e+00 2.525982174404460601e+00 1.100636673154363265e+01
-5.414310657736221444e+00 3.185043058653175052e+00 1.469018743098079227e+01
-3.266494818033017999e+00 -2.897590955612573627e+00 1.295680417325242217e+01
-4.228073965842725102e+00 2.814019705209414912e+00 1.256331314496072338e+01
-6.654853932662437188e+00 -3.010422503023060248e+00 1.224196052756333586e+01
-4.608021595821528038e+00 2.990105271902411044e+00 1.347631256633610519e+01
-4.029853863836990513e+00 2.669017174640273105e+00 1.178254332582671537e+01
-5.654380065322520466e+00 -4.652146756248571435e+00 1.476060943456119645e+01
-5.012474287186531541e+00 3.096712134061191612e+00 1.403695427315275879e+01
-4.039645835690546249e+00 2.569666371841847319e+00 1.119527385690872023e+01
-4.244235416428304930e+00 2.717916507426721751e+00 1.200325192840105970e+01
-6.548842231333694031e+00 1.479124544676210018e+00 1.241285460482839653e+01
2.202028070147000749e-01 6.765074022837422874e-01 1.362702851824439421e+01
-5.173139581408539911e+00 3.127778860215362222e+00 1.420896294395716808e+01
-4.991264233240938708e+00 3.023271754222628172e+00 1.364006037933653914e+01
-6.055313209084809856e+00 2.536243065968255550e+00 1.360539248415528846e+01
-6.922680887030246977e-01 1.187692548188564068e+00 1.304716256877985359e+01
-5.029495335594708294e+00 2.172773567769275438e+00 1.099941009657886681e+01
-3.762538524490131930e+00 3.325241600270863795e+00 1.640503072749572766e+01
-5.062020816364345421e+00 2.230263114537152980e+00 1.117100225437666339e+01
-4.847287153929807246e+00 2.341523231020893991e+00 1.104722646027167343e+01
-4.800771543835478994e+00 2.946834269778291215e+00 1.322721634591303541e+01
-3.941741239601232127e+00 3.303523117481460769e+00 1.492883744762028186e+01
-4.087105423339451704e+00 -4.569559709958047833e+00 1.318583234166275986e+01
-4.444357662629034422e+00 2.358636071208487284e+00 1.058132339246488129e+01
-5.617354349224774168e+00 3.051450518545990587e+00 1.422932539173284283e+01
-6.610964543453652809e+00 1.514976779789648731e+00 1.261867406117757184e+01
-4.077891498319738517e+00 1.885595876975502350e+00 9.769509687887186544e+00
-3.921268318334744318e+00 2.164171593809216532e+00 9.641268474235275221e+00
-3.066305080709868403e+00 1.998634347207649320e+00 9.904652041148505504e+00
-4.600459682308537523e+00 1.971830860505868532e+00 9.999213812932552514e+00
2.947084944814795104e-01 2.245012352312545090e-01 1.224237718069070979e+01
-3.873170090377859420e+00 1.830092488755449054e+00 9.761353767587486630e+00
-4.477692315863228689e-01 -2.047660454115890705e+00 1.566916900305977123e+01
-3.673586196182224484e+00 1.837863495417526138e+00 9.712735180973361082e+00
-4.751482906580559273e+00 3.490590005920434891e+00 1.622805578263564996e+01
6.394851456095642650e-01 -2.262312948501105314e+00 1.228003803842883457e+01
-3.265044662872956138e+00 -1.193952212686222314e+00 1.630903446038523441e+01
-4.758342073942745998e+00 3.348758218744457782e+00 1.627934167095819618e+01
-6.307471358091836677e+00 1.606550207564288790e+00 1.215951321189621126e+01
-1.813774540561743809e+00 2.850794149023852420e+00 1.615881897367108877e+01
-1.950834421569570321e+00 2.922848907489537407e+00 1.614821837370204349e+01
-5.635381630779720652e+00 1.780084793900800655e+00 1.118578605011085969e+01
-3.125785686608677505e+00 3.398125180511442966e+00 1.622310640674255922e+01
-3.353026430211384135e+00 3.466896039072265179e+00 1.638248096197369108e+01
-4.153463447003254316e+00 3.348387060849729480e+00 1.637052035614387790e+01
-1.466393533130533555e+00 -3.741479131067541708e+00 1.499020951684083514e+01
-4.413823697532183843e+00 3.253567722243763338e+00 1.634740450740738993e+01
-4.977898713644243855e+00 2.969906505715422806e+00 1.629781515885474619e+01
-5.954696440970501214e+00 2.767840441121314221e+00 1.602345111262903998e+01
-4.077969835247591490e+00 1.448531360700600956e+00 1.015951806180342842e+01
-1.340654796700972540e+00 2.086460573174812261e+00 1.432007346842409845e+01
-6.988523081421513794e+00 8.936712658009801080e-01 1.220287579810617729e+01
-3.056188694248468174e+00 1.277385768080972372e+00 1.016630575902044242e+01
-1.009786659852005997e+00 2.274399906142959171e+00 1.630418277724626108e+01
5.165366608317176755e-01 5.447319169085080848e-01 1.423370786041589753e+01
-1.950242014384278466e+00 2.493268626570030122e+00 1.654626869420528124e+01
-2.978161279742312928e+00 2.814747645379107599e+00 1.358685168125634135e+01
-2.363019836097541404e+00 2.704837029273051918e+00 1.652796357770480995e+01
-2.360438033261860635e+00 2.952387620794537426e+00 1.646187475224223107e+01
-4.644873958670515890e+00 1.995616239008421999e+00 1.647545120626439541e+01
-3.176845219287939948e+00 3.147496985514046219e+00 1.646440598677395428e+01
-3.337062653124420297e+00 2.916996902682674975e+00 1.647614915708430061e+01
-3.953781982284176433e+00 2.919978395930067805e+00 1.643776635360625704e+01
-5.579465910075070312e+00 -1.450517939286171565e+00 1.614508889316726226e+01
-1.432137199758947155e+00 -4.438098119245003303e+00 1.447568157313794046e+01
-4.160984892205807029e+00 2.898605435011713194e+00 1.642328442330032345e+01
-4.351856226500327551e+00 2.752281029440441618e+00 1.641609027688814137e+01
-4.187287628127378980e+00 2.702949567292164179e+00 1.643937353536239954e+01
-4.740462321595039441e+00 2.743363154801090165e+00 1.637641845274722385e+01
-4.378299546794078623e+00 2.552946838061117774e+00 1.643878662424359050e+01
-5.358056817825623597e+00 2.775939350270935080e+00 1.623449733567596809e+01
-7.280069875600132079e+00 7.416352286836528362e-01 1.276660995477803340e+01
-5.764599609530941748e+00 2.764140156707292739e+00 1.610298820325719049e+01
-5.978599798556315292e+00 2.541480279461993952e+00 1.606084689528336185e+01
-4.866673724792817124e-01 -2.692367518945262717e+00 1.163669791643657803e+01
-2.054702473717051614e+00 2.081734240957491266e+00 1.234151774748027464e+01
-5.574369478538596212e+00 2.594011302486193937e+00 1.619523817860364545e+01
-6.958048396910495370e+00 1.998066911838038973e+00 1.462711578193055573e+01
-5.937456233858698695e+00 1.253925695773422611e+00 1.091206102351921103e+01
-4.886792885436264555e+00 2.178818211015193906e+00 1.078304140538026346e+01
-5.719190915816053433e+00 1.246577517237510424e+00 1.068326903113899817e+01
-2.856693994637534040e+00 1.064829960399720665e+00 1.033814766727897805e+01
-1.977359230064093421e+00 2.285377179903568035e+00 1.655196784547553790e+01
-2.192076659161457108e+00 2.529106965906342097e+00 1.655964095201069597e+01
-2.376446613816789899e+00 2.484742917721272093e+00 1.656097257492088914e+01
-2.136373462911449472e+00 1.906338044003041965e+00 1.654850543548733555e+01
-2.540067551414127323e+00 2.317404201392668561e+00 1.655664980339138026e+01
-5.551183117682409573e+00 1.925814662423215751e+00 1.632945755564634283e+01
-2.324930478234193743e+00 1.904662921194009595e+00 1.654640795059913927e+01
-1.295403774069825653e+00 -4.638418808011718575e+00 1.428941134577418381e+01
6.616311893796242849e-01 -3.098852424961454410e+00 1.380884916697932141e+01
-4.141208395774146567e+00 2.284909721226083157e+00 1.648324966121733581e+01
-4.368815760600721632e+00 1.942236556212943999e+00 1.649567292351845538e+01
-1.401082354210780201e+00 -5.164043513641987104e-01 1.623956289640157991e+01
-4.754664075229015907e+00 2.330320811030004435e+00 1.643272934987834333e+01
-4.966987142921146514e+00 2.328789369536113263e+00 1.640096532177519606e+01
-4.784626823364868997e+00 2.108168837703896070e+00 1.645300837891356593e+01
-5.350544098142048455e+00 2.369384060678729309e+00 1.631735697318941192e+01
-2.782454308011858668e+00 3.224846897764001241e+00 1.581362843685362662e+01
-5.947544049922699472e+00 2.139074249945009942e+00 1.614797544870405233e+01
6.695424208363678353e-01 -1.681950284986308830e+00 1.495771972757383850e+01
-5.642044339513048179e-01 1.451150248886538652e+00 1.427442597947400316e+01
-6.226067550751292146e+00 3.051863468778793997e+00 1.542146643304605647e+01
7.718514333653918591e-01 -5.900120450422425833e-01 1.416339100795370598e+01
-5.456498538340850857e+00 1.020700665990090794e+00 1.058703936063554707e+01
-5.101365887471843052e+00 7.726867795059109145e-01 1.065519052094649410e+01
-4.305608735711285107e+00 8.505633738603534111e-01 1.075294894188066053e+01
-2.268619429087841866e+00 7.651879908881688008e-01 1.043292730689857351e+01
-2.065350405375664167e+00 6.131321870105558292e-01 1.049466057708001188e+01
-3.220810174290466232e+00 3.436765761080744497e+00 1.624964668369089082e+01
-1.769231278229076665e+00 1.520680529831215377e+00 1.651382015030912953e+01
-1.796280970608662653e+00 1.025598676390508501e+00 1.648678177071288076e+01
7.479853328680914348e-01 -1.869262734283691774e-01 1.397654155829393829e+01
-1.862497246497727854e+00 -4.719863037232613578e+00 1.433306596462493587e+01
-2.398065349264786761e+00 1.689436681954054276e+00 1.653981276825483349e+01
-2.757029210737855784e+00 1.921318916530376342e+00 1.654770992687127062e+01
-2.960878929485574407e+00 1.912783718325059112e+00 1.654327398662557869e+01
-3.154773435573741125e+00 1.689458838500609072e+00 1.653852650669472268e+01
-3.375930109510625332e+00 1.920457820511042524e+00 1.653462230705865466e+01
-1.567924955241293716e+00 1.286881089750741225e+00 1.649221263903131529e+01
-3.973282857060934870e+00 1.943951447573741831e+00 1.651450754953877720e+01
-2.027622086609232266e+00 2.402593900899332890e+00 1.355562153419410976e+01
-3.967963494725238238e+00 1.735749954861820488e+00 1.652153142494782401e+01
-6.041119868344328125e+00 -1.046923054726510927e+00 1.155922562867457870e+01
-4.560300788845506048e+00 1.734281371672792726e+00 1.648940535164283716e+01
-5.835281391312827637e+00 1.731949779666435152e+00 1.624464035772290771e+01
-5.970321253843504650e+00 1.785546670289487992e+00 1.618718079747966954e+01
-6.291909488243939919e+00 2.737716603324755749e+00 1.479011260255143156e+01
-7.720392853903392805e-01 -4.276554432294260799e+00 1.450621159810280147e+01
-6.143742431902193601e+00 1.736989676940029703e+00 1.611762974396303605e+01
-6.534619654501897301e+00 1.836849796918094579e+00 1.306856681516025276e+01
-5.649506494669795487e+00 6.455619404075854106e-01 1.080788616967764426e+01
-1.594396621236214173e+00 -2.681674384394601152e-01 1.630442176858120717e+01
-4.450513668135313239e+00 5.256776696335411225e-01 1.103684384607846880e+01
-2.377138137869006851e+00 2.868282496426282968e+00 1.475892995088346282e+01
-4.103590513700213549e+00 6.229022501169467763e-01 1.112834369720402350e+01
-4.461859356695555334e+00 2.573304942793174455e+00 1.140642988701952731e+01
-8.985852664119220456e-01 1.696267103312889102e+00 1.639374429544271550e+01
-1.684354686655225475e+00 -4.982826321235296341e+00 1.336329655759518431e+01
-2.659602304229283565e+00 5.421501990321351272e-01 1.085112397168806808e+01
-1.676165123671757629e+00 1.930304182103463884e-01 1.066901876507256475e+01
-9.573246583142591692e-01 1.083063151039592054e+00 1.640770424253778970e+01
-1.582152824768491728e+00 5.252193947869661095e-01 1.642624559388666228e+01
-5.180474547510086625e-01 9.931428773062912496e-01 1.286476464218175408e+01
-2.156734239159422639e+00 3.462300203141436827e-01 1.644065327526188725e+01
-2.765201149182564766e+00 9.212880743023166286e-01 1.650330457564024300e+01
-2.575975773287602522e+00 5.298732661823136736e-01 1.647587216445906222e+01
-1.027217144198041554e+00 2.118232529487728666e+00 1.532842953898060756e+01
-2.949121487493111982e+00 6.988997665972406237e-01 1.649369999972417844e+01
8.136645884012433383e-01 -3.464842621242224530e-01 1.256739298538332150e+01
-2.964731539082533729e+00 4.827000893022592720e-01 1.648055769913456459e+01
2.927902547189645821e-01 8.285318468735156650e-01 1.526267642571934857e+01
-3.159815338164445819e+00 1.100817948894827314e+00 1.651248790639407105e+01
-3.375346463627885818e+00 7.285716117860668861e-01 1.649580889362455594e+01
-4.131536917966331046e+00 1.501926964962459810e+00 1.652004703049684764e+01
-3.997018323732617784e+00 1.125600444709681014e+00 1.651711697227599274e+01
-2.425643956768238851e+00 2.189150385070837146e+00 1.194196130799867106e+01
-5.024775899715995919e+00 1.351433609332407304e+00 1.645191924234617886e+01
-5.162904285966714468e+00 1.359389445283162523e+00 1.643406465111443282e+01
-3.179183155864643062e+00 8.542702921691085471e-01 1.077009484406059414e+01
-5.607556337966183690e+00 1.370705769046312472e+00 1.634271229514543222e+01
-5.191064571414333528e+00 3.053520053604879436e+00 1.384667667320698570e+01
-5.194797780715934010e+00 1.159973617108942090e+00 1.643144297114032781e+01
-5.122366077625603253e+00 1.550473156624660120e+00 1.643547920338111368e+01
-5.557468546575259793e+00 1.542265067356518582e+00 1.635140251458484073e+01
-5.905146210076306801e+00 1.056684186928104285e+00 1.626071772426502093e+01
-6.115703667946176481e+00 5.596150543935237698e-01 1.104542137475547392e+01
-4.627523054179201623e+00 2.171710818980886692e+00 1.040892042034316134e+01
-5.980057866346701445e+00 4.271026857365822771e-01 1.100049025335001573e+01
-1.023758872158316624e+00 -3.464500861697755063e+00 1.508683705298324185e+01
-6.653263835359812362e+00 -1.615525915537917800e+00 1.581290780686053665e+01
-3.073022052116864522e+00 3.706654715559022928e-01 1.148629352993333441e+01
3.404852222438097820e-01 6.729427485883526794e-01 1.556466053044300679e+01
-4.027488125367566951e+00 -8.571128164353669643e-01 1.637478462921405509e+01
-1.722021302052590741e+00 1.820737184933650887e+00 1.222205840649106534e+01
-5.793964824736105301e-01 1.126146538924273521e+00 1.629746590743246770e+01
-9.573838231008333644e-01 8.837115945293745334e-01 1.640501967834168795e+01
-1.162374828629229473e+00 7.068069959652960588e-01 1.642231779127382651e+01
-7.388124076076287849e-01 7.322611337531429454e-01 1.635096785675455067e+01
-1.190574325105191011e+00 1.108823791080000148e-01 1.634877694231281708e+01
-2.397580147250289340e+00 9.619894848468961424e-02 1.642166833228783673e+01
-2.583184559358278065e+00 -3.161071352311858873e-01 1.638185389790068314e+01
-3.582075703137380440e+00 -7.745331297984296703e-02 1.645145576432867074e+01
-7.557535337886978510e+00 -1.491891257194353226e+00 1.383618488332175644e+01
-3.791758978074551312e+00 9.130956897479357570e-01 1.651060986047791346e+01
-4.600949990392532385e+00 3.211569287278778217e-01 1.644676408234781917e+01
-5.194029630427230870e+00 5.343128769209567475e-01 1.640346332840772448e+01
-7.521649034529996669e+00 -3.105173010662732658e+00 1.339035845385840418e+01
-5.595958997546480518e+00 5.613674832782445945e-01 1.633936524610830077e+01
-4.585532317748704401e+00 2.505049340706304584e+00 1.126333791982881394e+01
-6.874618202983789672e+00 2.105964373870528039e+00 1.456897662448044173e+01
-3.220311785134512217e+00 2.843958355563817708e+00 1.340530582744318622e+01
-6.162799374177096112e+00 5.469319880858836136e-01 1.615874543257864104e+01
-6.035149137196372138e+00 -2.477911807519529719e-03 1.117150758538212685e+01
5.229894376461323713e-01 1.244871090116949908e-01 1.534578167261248893e+01
4.502609190264914574e-01 3.281080026028274088e-01 1.544968694908246221e+01
-9.761504985696380921e-01 2.850969767015024692e-01 1.636338936802314237e+01
-9.677029553557632280e-01 1.396266095081411251e-01 1.633834927963059158e+01
-9.861751128762974439e-01 -3.120640395340271711e-01 1.625078383286844286e+01
-1.405740956877719494e+00 -2.860991222507793252e-01 1.628841938934164091e+01
-2.925407566058457753e-01 6.372996485815236589e-01 1.223682733290929292e+01
-1.937465727832718088e+00 1.690706971368508338e+00 1.652840622548903582e+01
-1.956162808394001029e+00 -2.862295921970938739e-01 1.633692325433072057e+01
-2.984908982805772215e+00 -4.674236465911473237e-01 1.639221025695872669e+01
-3.022271824683338881e+00 -8.847550674994606457e-01 1.634476132927570546e+01
-4.700333930925243209e+00 1.831911939008592949e+00 1.647614000985563365e+01
-3.179891737683484987e+00 -1.078460791415777997e+00 1.632330651322967441e+01
-3.391836482812748965e+00 -8.769619107940361813e-01 1.636339085880542399e+01
-3.958054246294438361e+00 -4.652462353091139646e-01 1.640860391529055562e+01
-4.375545643508383264e+00 1.249580813516447120e-01 1.644590881633757817e+01
-4.020768222397386182e+00 2.532044496874388706e+00 1.100025755084532264e+01
5.099998933665812473e-01 -2.193317333968431537e+00 1.500189374771826323e+01
-4.614142720011626508e+00 1.329656858813132170e-01 1.642898635679877373e+01
-4.540949041529348529e-01 -4.513864262444889697e+00 1.261798799327988974e+01
-2.003169769319487425e+00 2.443161491903450777e+00 1.375314872035132652e+01
-4.358836746554811015e+00 -4.560098895365228278e-01 1.639348419062353912e+01
-2.259487726156121923e+00 -2.420041710833833459e+00 1.584537100829786027e+01
-7.514121974950884741e-01 -4.525524018596325249e+00 1.430199338089910555e+01
-4.042876275360232086e+00 1.093021656264311636e-01 1.645947679381831819e+01
-4.778084619509458619e+00 -6.233920035594672088e-02 1.640224785903474469e+01
-5.043425952919092126e+00 -3.750598409753979484e-02 1.638028073838248844e+01
-5.374156233948941264e+00 3.194392030354764045e-01 1.636587497875436981e+01
-5.594285524366039652e+00 3.312422213007656380e-01 1.632709861363987613e+01
-6.490707691965951653e+00 1.910869873106375849e-01 1.600121598777531062e+01
-6.476068381659997542e+00 3.742425880885960066e-01 1.600473824873525786e+01
-7.074621899470383113e+00 1.871199711652940412e+00 1.502121658283968486e+01
-5.967100802845390461e+00 2.624633862610583179e+00 1.364233447912707931e+01
-4.480331487108502486e+00 -1.989844834016784025e-01 1.187543656746095877e+01
-4.625942175240913556e+00 -2.794265643149408951e-01 1.182551740552296593e+01
-4.261390384531274833e+00 -5.491394898213509262e-02 1.187469843877957487e+01
-3.654104530160349196e+00 2.286082548525572467e+00 1.018714376631881180e+01
-2.699935721694209700e+00 -1.332049835643774327e-01 1.200663162514395310e+01
-1.773165042490362442e+00 -6.911448248084068879e-01 1.623841666503542314e+01
-1.602625276170152935e+00 -9.222944594878862423e-01 1.616911624419971361e+01
-2.491990850653898359e+00 -3.729584157596166794e+00 1.268224021426936332e+01
-3.204283699500926730e+00 -1.313219642861917613e+00 1.628405160836376098e+01
-3.413395514066585701e+00 -1.478262189339042632e+00 1.626773359728442614e+01
-5.641110647612170848e-01 -4.584470553639804713e+00 1.269357036008472051e+01
-6.919269385301953790e+00 6.079926665761807847e-01 1.565563147973332292e+01
-3.798202101342331272e+00 -1.246299587484445581e+00 1.632777110273914900e+01
-3.607605119493273449e+00 -1.487958638436887249e+00 1.627916202532312440e+01
-4.175830091987045023e+00 -1.082829574546135376e+00 1.633615978450915662e+01
-1.620348487107111213e+00 -2.279632854344467052e+00 1.577140706493172218e+01
-4.964814199525694249e+00 -8.373599892127345790e-01 1.630617259896858684e+01
-1.081335684593067947e+00 9.339634131192625643e-01 1.128308408157586129e+01
-4.997546485872845778e+00 -6.463345737777608235e-01 1.632680454984974006e+01
-6.930925478194261302e+00 1.600750346919953826e-01 1.566541166650488748e+01
-5.865086463227553892e+00 -7.978958067167227775e-01 1.146995098587392192e+01
-4.719149198543311385e+00 -6.120703506477110922e-01 1.210920794441159387e+01
-7.300965220735607275e+00 1.147362204950973297e+00 1.390756883705546443e+01
6.501984594556540209e-01 -2.459920465531956479e-01 1.521913345733186418e+01
5.483641051096552754e-01 -4.531245989829712495e-01 1.537815227320619016e+01
-6.914504947725470529e+00 2.139800432108543760e+00 1.489341140750747883e+01
-1.187377185402824553e+00 -1.321939947238895297e+00 1.601950242186183715e+01
-1.230758724437224227e+00 1.649777890292404514e+00 1.310264281275436105e+01
-1.007581003527859842e+00 -1.286728888295718853e+00 1.600764937601507398e+01
-1.814884766727938636e+00 -1.401069592925248131e+00 1.608173860882288153e+01
-1.387761149866404642e+00 -1.481652678802173551e+00 1.600227937581194482e+01
-5.595120343076137592e-01 1.795486793389458047e+00 1.549414665734533969e+01
-2.614173326692661004e+00 -1.472862810059170080e+00 1.619858366689472007e+01
-7.231346304650094758e-01 1.978559083521006734e+00 1.571626177229618548e+01
-2.196558306556002371e+00 -1.677743870194523090e+00 1.607685934891618018e+01
-3.907033996793473074e-01 -3.128980856336551319e+00 1.515640619781255083e+01
-2.587838144243938210e+00 -1.664318073712012236e+00 1.615106545392844595e+01
-6.585772611624037154e+00 -1.851895826701421832e+00 1.579641172552029360e+01
-1.794893530797073034e+00 1.452806688709916916e+00 1.085283430725682763e+01
-3.208042065499224549e+00 -1.877467260761568113e+00 1.616982563429984054e+01
-3.772940292911485027e+00 -1.666393352056989574e+00 1.624877728972898439e+01
-1.305772616570060607e-01 1.392509479123294369e+00 1.547732891269396305e+01
-4.177794062976914802e+00 -1.497690187820792662e+00 1.626595512680665223e+01
-5.862725925008863470e+00 -4.269770572330013891e+00 1.311329928080601803e+01
-4.016064882152166504e+00 -3.208698043141248402e+00 1.573293174893375124e+01
-1.848355340468502916e+00 1.942075724650585311e+00 1.231827005389190077e+01
-3.806366694408351403e+00 -1.865845250858976012e+00 1.620311639696031847e+01
-1.613745702017050254e+00 -3.908429877439177247e+00 1.491145508118471952e+01
-4.396699369167780702e+00 -1.884850645597256236e+00 1.616307159281663530e+01
-4.997821228730927601e+00 -1.679410012140234887e+00 1.615775935785021034e+01
-5.771023327677710313e+00 -6.515021453657650063e-01 1.622344583372574789e+01
-5.594320095755856315e+00 -1.252432625607480698e+00 1.617135754878279386e+01
-7.249348386792544119e+00 -1.444446377337081297e-02 1.529380922881349392e+01
-2.088780497699729288e+00 2.052435975024171633e+00 1.215430739242274427e+01
-8.681511938163546382e-01 1.045919208360219788e+00 1.210154875002532293e+01
-3.935783461207663425e+00 1.347930174070175458e+00 1.025629731926557753e+01
-7.131633798802905488e+00 -1.963006584989650527e-01 1.545760350043943987e+01
-6.112509021840642376e+00 -9.442678755594048345e-01 1.153438940113554523e+01
-6.466254403443398857e+00 -1.650809784986085216e+00 1.175988595536215442e+01
-5.195196276094793397e-01 1.654529034224566875e+00 1.507460879748359872e+01
-6.287001761693884916e+00 -1.014730463148994399e+00 1.159522269969426489e+01
-4.763107528382310107e+00 3.491996752129463921e+00 1.585239971836767126e+01
-3.078891159205810357e+00 -3.436614666034497612e-01 1.238468607787969944e+01
5.698767525513721566e-01 -2.729936509980766424e+00 1.221959130813215211e+01
-3.244218691845722979e+00 -3.159194908866899132e-01 1.240207097696900007e+01
-6.876479419573952034e-01 -1.459073763386597111e+00 1.132772346311069356e+01
-4.443597383941753520e+00 -3.505007697340606576e+00 1.556296344259230580e+01
6.606925925206215133e-01 -8.282274320799358769e-01 1.519357302675118149e+01
-4.225646734716519859e+00 -3.856166914232511900e+00 1.538354038491648623e+01
-1.440591293486649604e+00 -1.697705009280328081e+00 1.594462025328282806e+01
-2.421618627067833707e+00 -2.068523100333618636e+00 1.600249345614846419e+01
-2.993597114325553754e+00 -2.291376571001616735e+00 1.602941480962901011e+01
-3.218650863489714187e+00 -2.344328874406715890e+00 1.603818466990397695e+01
-5.420686002004835302e+00 3.267174728249116811e+00 1.522311323239253511e+01
-2.790755465031998117e+00 -2.274060520603625513e+00 1.600280802780551426e+01
-7.341027247770369968e+00 8.504404328329656648e-01 1.356827548904235670e+01
-3.223450875944394500e+00 -2.479760145403159921e+00 1.599424778848512574e+01
-4.225821003023982669e+00 -2.089692388203716611e+00 1.611558821961217092e+01
-5.027965689953761697e+00 -2.202609222439736669e+00 1.602777753460296140e+01
-5.041402955267134445e+00 -1.871884143737477579e+00 1.611557582689528090e+01
-5.206989932672271948e+00 -2.077891223030047030e+00 1.605152719521407789e+01
-6.004702854092442976e+00 -1.059150233369171357e+00 1.612314119084734187e+01
-6.677387444015000506e-01 1.544254569869752292e+00 1.431283679367233930e+01
1.243076597648329340e-01 7.563999114776593924e-01 1.366643180256019008e+01
-6.204934526885304891e+00 -1.022619525646528693e+00 1.607649413019912998e+01
5.866878820048945231e-01 4.121861017182048004e-01 1.419987837598225155e+01
-2.792638886342996951e+00 2.969782744490597537e+00 1.460091052889176666e+01
-6.953571427395099036e+00 -5.997972109396989548e-01 1.567101207713689348e+01
-2.028303222636860248e+00 -1.040271201840232251e+00 1.244646985367158010e+01
-6.673021585884785223e-01 -1.682007392563004800e+00 1.138339065244993975e+01
-6.964307034121202111e-01 -1.884501414719384815e+00 1.144323423983419374e+01
7.938353948376831726e-01 -6.464761192797942035e-01 1.476216041109521626e+01
-9.899306891809565023e-01 -2.043678458705003642e+00 1.575742513474739326e+01
-7.876936700603769381e-01 -2.057586168694198303e+00 1.572250611686911981e+01
-1.231602924930658594e+00 -2.079264478151680251e+00 1.577936030562528913e+01
-7.551197028923061438e+00 -1.769485157638774897e+00 1.414453425772795470e+01
-1.588094353433110895e+00 -2.443207086892691837e+00 1.569586311523047328e+01
-1.003686617992533225e+00 -2.242548723630099605e+00 1.567766813223555289e+01
7.761173771683866907e-01 -9.385529739919644676e-01 1.256833502568325400e+01
-2.813428156769670174e+00 -2.655964881167722336e+00 1.587366265378836516e+01
-2.404398677255419781e+00 -2.864627789516434930e+00 1.569962105934472163e+01
-3.429650709819310528e+00 -2.668333093633248332e+00 1.594987447726160923e+01
-3.823817073107065756e+00 -2.464010023169420194e+00 1.602835642791775683e+01
-4.027410207494783734e+00 -2.456408733632247987e+00 1.602683337237786532e+01
-4.190633106448334644e+00 -2.645792726860692223e+00 1.595097955068197138e+01
-4.003551896416549738e+00 -2.845454024663714776e+00 1.588758491441379306e+01
7.458064489880363856e-01 -1.616347507927330174e+00 1.452511913601725269e+01
-4.408346203275051778e+00 -2.814216722202736776e+00 1.586397190611787522e+01
-5.208565896955578367e+00 -2.845019436959661085e+00 1.579409847859010085e+01
-5.404490458722909452e+00 -2.269354049988242306e+00 1.598345915407795559e+01
-4.288053700705148907e-01 7.362542981036368506e-01 1.223363964138480497e+01
-5.421073198130532234e+00 -2.050111842454934941e+00 1.604478351457381535e+01
-6.029704114984957286e+00 -1.641742177836211791e+00 1.603056680290388414e+01
-6.177705561023092429e+00 -1.470981479125717417e+00 1.601368055780531563e+01
-2.723300078765548804e+00 2.102367710961678071e+00 1.655100822806215177e+01
-6.459236046616009475e+00 -1.651830013160166200e+00 1.588584257072779593e+01
-7.304999395380866289e+00 -5.734806490401229973e-02 1.252287065611064776e+01
-6.684501019696840629e+00 -1.612488595192155039e+00 1.179911542600794760e+01
-4.294304099075288761e+00 -1.500689954170856488e+00 1.286296763577483659e+01
-5.678434881560990632e+00 2.188907049160879303e+00 1.218775966081282291e+01
-4.472210709092056646e+00 -1.662066786616431369e+00 1.285061592108170458e+01
-4.034067083252718788e+00 -1.727216768500260180e+00 1.298945525625174469e+01
-3.234672976182139337e+00 -9.297015754857794745e-01 1.273963178617933067e+01
-2.855265061632688894e+00 -1.110795794938975511e+00 1.274940738505263482e+01
-7.017169186986942364e-01 -2.248005479312203292e+00 1.155019552147315309e+01
-6.909369339613320449e-01 -2.383451803281504855e+00 1.159027004394118165e+01
-4.052318018885970874e-01 -2.273418505677252455e+00 1.556358347378724005e+01
-6.241770362200258049e+00 5.972401530574884543e-01 1.109954722029635832e+01
-8.358263546505622088e-01 -2.482306046545958544e+00 1.554556979677222728e+01
-1.208375099939080766e+00 -2.647160495630501931e+00 1.553435877848076530e+01
-1.207038517242638775e+00 -2.856089197697141646e+00 1.543934438024821532e+01
-4.334619972641550190e-01 1.054399390680987647e+00 1.328730014941032067e+01
-1.809131979641751986e+00 -3.009739705411477395e+00 1.548083940110592494e+01
-3.985382574440697656e+00 3.238466693813411013e+00 1.462478577204544195e+01
-2.406384397794242958e+00 -3.039407835469528418e+00 1.561815531176407745e+01
-1.751681847962695215e+00 2.139154486025881763e+00 1.329330054206911171e+01
-3.641216299876920637e+00 -4.737168466950664403e+00 1.477088075817951562e+01
-2.211844125122212290e+00 -3.250499528249858994e+00 1.546301322697402014e+01
-2.769500823053826277e+00 -3.335052581440063779e+00 1.556978406507766977e+01
-3.223680950604989714e+00 -3.055864762054765205e+00 1.577834904440051389e+01
-3.403332192960637492e+00 -3.086962671198337560e+00 1.578013926327968619e+01
-3.016122216482613361e+00 2.962938784992102725e+00 1.421196486684412719e+01
-3.224635059432829909e+00 -3.384580327561472757e+00 1.562492528893950094e+01
-3.841755752050224348e+00 -2.840395470436342773e+00 1.589490899025064863e+01
-4.196648438103727230e+00 -3.007973213254028444e+00 1.580857144707528761e+01
-3.642229010003538381e+00 -3.234668871991221550e+00 1.572136141954464250e+01
-6.095096469223668656e-01 1.895447459133179358e+00 1.591790372912913654e+01
-4.204897263455515954e+00 -3.219903152159816262e+00 1.571221041807880425e+01
-6.342186667604433836e+00 2.202567273685002380e+00 1.341813590523317146e+01
-4.634308408259858680e+00 -3.025800093402998492e+00 1.576533384670753435e+01
-4.838138868460362119e+00 -3.433269731668281644e+00 1.556876071336019862e+01
-3.539643597908572747e-01 1.271336309650229257e+00 1.421900826104621984e+01
7.674807070820328647e-01 -1.741789652581014369e+00 1.348190258365846717e+01
-5.200094923812400793e+00 -3.280567126652765619e+00 1.561381129860668437e+01
-5.646222928147746956e+00 -3.026843451015029718e+00 1.569007216190499321e+01
-6.185471848624326086e+00 -1.861056238596396462e+00 1.594246786494242230e+01
-5.306299777767062409e+00 -4.831927457675314841e+00 1.382302841177350672e+01
-6.380666148030471163e+00 -2.066813787908351685e+00 1.584322000066003966e+01
-7.386950241603939205e+00 -1.204079507455993792e+00 1.507213142196106759e+01
-3.181140154743931525e+00 3.004494529342127240e+00 1.419505924203625824e+01
-7.506014009496675854e+00 -5.168094352590461016e-01 1.450187121187041583e+01
-7.332446359824999149e+00 9.602250757635057143e-02 1.266210549629186488e+01
-4.265161771596893914e+00 -1.926971531543042015e+00 1.298336756739677611e+01
-4.059241258302620281e+00 -1.939050767183839508e+00 1.302579831799231869e+01
-3.838436868563757987e+00 -1.914891796844750971e+00 1.304501151392332048e+01
-3.291035625113280183e+00 -1.359697381367034996e+00 1.289268452666679110e+01
-5.035930073556514230e+00 -4.589660752484113537e+00 1.338414219266739025e+01
-1.168679021712099919e+00 1.394294861229516957e+00 1.239849304041231193e+01
-3.194593103976127946e+00 -1.318737536904131868e+00 1.286873918902050207e+01
-6.268497993895444154e+00 2.521503300833575878e+00 1.402303498392078751e+01
-8.810385722764728644e-01 -2.824069443777425636e+00 1.176718763729457251e+01
-2.736185300082876193e-01 -2.264132285956109492e+00 1.148453220585345491e+01
-4.927533473556069410e+00 2.110374403388246556e+00 1.071704423099818371e+01
6.878117542749763169e-01 -1.275498489722239448e+00 1.213787902904803673e+01
-1.986443250000186067e-02 8.503718949664413884e-01 1.364144104911802202e+01
-2.407471409640082882e+00 -6.828015310457474785e-01 1.630741146591058310e+01
7.225700684727791590e-01 -1.443161754371300898e+00 1.490555159175016797e+01
-1.445226643354228679e+00 -4.003977349286854448e+00 1.480588521546374636e+01
-3.867245242540294559e+00 -4.670953299732952146e+00 1.328814421511631849e+01
3.773041147258747174e-01 -1.846262975371451009e+00 1.530557401913609539e+01
-9.282858972120968666e-01 2.034573250478957096e+00 1.529530595321429587e+01
-2.184232673823562454e+00 5.136973833149186541e-01 1.645801794386827765e+01
2.587637239511446641e-01 -1.868106583797857656e+00 1.539976424305991998e+01
-2.047903714433469968e-01 -2.267884914475673419e+00 1.550703552662287876e+01
-6.222433226487400493e-01 -3.432456662500147804e+00 1.503343283034254085e+01
6.983054682961729043e-01 -2.118014777256247427e+00 1.328429247155422388e+01
-2.583370800448398619e+00 2.054117042226503376e+00 1.108390118980384997e+01
-1.426419908808676418e+00 -3.496445763152963959e+00 1.513698899040652890e+01
-1.461407689673066335e+00 -3.615660386104459612e+00 1.506839405511304619e+01
-6.844438182026637563e-01 -4.712011604425529576e+00 1.411277342983250804e+01
-2.439538083525451206e+00 -3.428865470855923636e+00 1.542623252523599575e+01
-9.412265878403502928e-01 1.522424326398455818e+00 1.348891850224466538e+01
-2.619432796399418617e+00 -3.453010204292789709e+00 1.545948007547437442e+01
-2.622245542659336959e+00 -3.691325504903102850e+00 1.532214772601329855e+01
-3.021156593934813284e+00 -3.488251434694748632e+00 1.554618993856065146e+01
-3.431521712318924333e+00 -3.659869285827937802e+00 1.550945943661249515e+01
-1.030349332780031935e+00 -4.842005320665426105e+00 1.404785366980267725e+01
-3.801231409045905618e+00 -3.611525333024409257e+00 1.554978412403866628e+01
-4.215024393483147946e+00 -3.736456297622444467e+00 1.545115715739397899e+01
-2.869665673575544584e+00 2.781214372184197092e+00 1.362374612702397059e+01
-5.254807822261247097e+00 -3.622592041027451693e+00 1.545335019970531221e+01
-5.601270975708510846e+00 -3.397332382926567362e+00 1.553742938671465623e+01
-5.824270498280908370e+00 -3.547318509026937239e+00 1.543945754157540762e+01
-1.797778471176871395e+00 1.954061476057946667e+00 1.249630806440141129e+01
-5.625587972742364329e+00 -3.805021593719811523e+00 1.533713863983319925e+01
-6.013993166908564447e+00 -3.379934856191272097e+00 1.550704189083489126e+01
-6.011555904851190846e+00 -3.225793012591632092e+00 1.557581166780177284e+01
-5.847193518538269075e+00 -3.015535791316679592e+00 1.567792783146279589e+01
-7.369714751908231776e+00 -1.391292351310210229e+00 1.506495070424794847e+01
-3.567020477148817648e+00 -2.069766790432525205e+00 1.305466428755363495e+01
-3.263106548326787593e+00 -1.721070473603725226e+00 1.297331902640306822e+01
-7.071060916634207771e+00 -1.421828413869747454e+00 1.552062215680298607e+01
-2.294613333088610485e+00 -1.919160730530664605e+00 1.286501262961478886e+01
6.156809730775464340e-01 -1.935472231319448344e+00 1.201873067046492238e+01
-3.248438426128675616e+00 2.530645059175254730e+00 1.179329426709514195e+01
6.407515361414409805e-01 -1.893274502013933880e+00 1.210530008617120501e+01
-7.156415180432220691e-01 4.945939909333299522e-01 1.108187532252298979e+01
-4.136784759220000218e-01 -3.401669430436245811e+00 1.500904223988052877e+01
-5.878726446371576486e+00 2.753376837861589710e+00 1.376979041261488135e+01
-4.485078833061726389e-01 -3.640142438792747459e+00 1.487509792564951283e+01
-2.431280987793030590e+00 -4.044296006775186747e+00 1.501860313426496418e+01
-3.211943409110181946e+00 -3.878308250138577495e+00 1.534717391072393156e+01
-3.221351828311462384e+00 -4.235457314902621562e+00 1.509922170633825544e+01
-4.018542640593249615e+00 -4.059178306990344431e+00 1.526685777648971509e+01
-4.200872418250982676e+00 -7.631094046856520263e-01 1.256884940082466073e+01
-4.275617253053599853e+00 -4.248506310733080049e+00 1.513566328777149295e+01
-3.843320064257889523e+00 -4.420493187032636939e+00 1.503030372691588212e+01
-4.617127984165843912e+00 -4.139379198647413105e+00 1.519591633590248847e+01
-4.861782380807380122e+00 -4.007663764356141023e+00 1.526132897248478315e+01
-3.443698091981778120e+00 -3.727283271654348251e+00 1.279917121167625993e+01
-4.835930629325847718e+00 -4.500844734959496662e+00 1.495009973395316649e+01
-5.231948371127339570e+00 -4.200266581799020571e+00 1.513273056731366495e+01
-6.041312806650800837e+00 -4.165724814532294040e+00 1.506057236974005065e+01
-1.609574915162139241e+00 2.586173212935853449e+00 1.538845516464156304e+01
-1.587987831370997860e+00 -3.663079431044674594e-02 1.634762580894239647e+01
-7.397967587669469935e+00 -1.628328028917691128e+00 1.265230266818060301e+01
-7.285469763826405654e+00 -1.675095125060153123e+00 1.242318116565485298e+01
3.947485949847145958e-01 -2.401172063372075449e+00 1.178719786415232562e+01
4.425495688752184575e-01 -2.491006618681480322e+00 1.492252447966924223e+01
-1.400699144880695801e+00 1.381655019565088516e+00 1.167951474980184301e+01
-5.023125336828856424e-01 -4.159956600582449759e+00 1.455191065814782547e+01
-1.030067635293996586e+00 -4.063893501285991583e+00 1.470022916015717840e+01
-5.062631320785270006e+00 -4.671847371392636283e+00 1.350383625027202328e+01
-1.253710873544885418e+00 -3.985045008708048009e+00 1.478828487778036305e+01
-2.485585382057730275e+00 -4.616903125951641762e+00 1.458535276929263347e+01
-1.420427759086834163e+00 1.875840872585554209e+00 1.333742271946543667e+01
-2.252481483940415696e+00 -4.654406191469623089e+00 1.449027868498984617e+01
-2.837911580766933284e+00 -4.761037841234684542e+00 1.456757009044856943e+01
-2.669495171439803194e+00 3.225275907747932713e+00 1.615524235155319843e+01
-4.399431547748358540e+00 3.369644603147034179e+00 1.632967932686528201e+01
-3.654728734653629907e+00 -4.388326411300989882e+00 1.504239746107531772e+01
-3.226230001016303195e+00 -4.599891565463971155e+00 1.480987831694856993e+01
-2.678335068686252374e+00 -4.667813603272637835e+00 1.307095954487237321e+01
-4.234351528670355691e+00 -4.756303092033591362e+00 1.478708710114512570e+01
-5.040922400248437185e+00 -4.732071868863764408e+00 1.477306974935951445e+01
-5.287089212982856168e+00 -4.392523720638488172e+00 1.499937445066439778e+01
-5.643991125899614048e+00 -4.462843761845779689e+00 1.492213565551471532e+01
-6.829701761785255343e+00 -2.804650451152922663e+00 1.541896459082484228e+01
-1.763477221720818111e+00 -3.543861193911033602e+00 1.517561078152046150e+01
-6.912083428308228861e+00 -3.190077424291153374e+00 1.520748911443815388e+01
-7.106149244330099535e+00 -2.618037059011011358e+00 1.525573568192170626e+01
-7.392721924575431203e+00 3.346050551338582424e-01 1.296676327300238540e+01
-7.458943366027828148e+00 -1.667947882553620254e+00 1.287221382602396602e+01
-7.447860122206236611e+00 -1.865609697964540015e+00 1.284541108579840341e+01
-7.511345999264362305e+00 -1.706316950910113484e+00 1.304391741927816639e+01
-7.419224521276719386e+00 3.178733489012159907e-01 1.334667271834987190e+01
-7.332465158321989307e+00 -2.245499965840390910e+00 1.256657352924421645e+01
-6.506341032432757743e+00 -2.978742242143724628e+00 1.223349980949074478e+01
-3.647465905994707658e+00 -2.931655102491686371e+00 1.299047497773320003e+01
-3.062907426592520910e+00 -2.689076963498001849e+00 1.296436342409181464e+01
6.607810009978556387e-01 -2.406114988033191793e+00 1.434802271641411409e+01
6.682158277061842622e-01 -2.616373438248503991e+00 1.422225929374391740e+01
2.760972768638126906e-01 3.874715627420028397e-01 1.267442059016705969e+01
1.308874355712253135e-01 -3.602533655484326136e+00 1.465404344153982663e+01
3.694189609719210066e-01 -3.214370474609462125e+00 1.464395042732665786e+01
-1.132645609213393634e+00 -4.564307275389825946e+00 1.432679405325326627e+01
-1.256698515696264895e+00 -4.773348906551671433e+00 1.415590099329146767e+01
-1.274631018294854146e+00 -4.539648402305656916e+00 1.436817075745532435e+01
-3.072014270351563159e+00 -4.964432565013646936e+00 1.443607163084446654e+01
-7.225203083177547114e+00 -2.975573505148532139e+00 1.497359668619021988e+01
-7.410224393860952219e+00 -2.577911064926209139e+00 1.480199278400728247e+01
-7.422424575750943276e+00 -2.480932537979005037e+00 1.280480825891019236e+01
-4.073773489854152885e+00 -3.310119403433766205e+00 1.294921772534951288e+01
-2.199537906347862393e+00 -9.373144621011861854e-01 1.623981071747628135e+01
-3.664067776755011607e+00 -3.312564947917044034e+00 1.291178272110144576e+01
-3.087162696812897345e+00 -3.105337240399443033e+00 1.289296120558130809e+01
-3.232014274894707384e+00 -3.737163555360451195e+00 1.276252892542031958e+01
-2.858023595132030525e+00 -3.549322850632385506e+00 1.276442648989716844e+01
3.359386676227106294e-01 -3.604878927821216550e+00 1.441800593205848458e+01
-8.338683775313469049e-01 -4.839056979911910084e+00 1.401138066539498084e+01
-2.661803593726873363e+00 2.162944497354003293e+00 1.134710167388674051e+01
-1.258265615385622427e+00 -4.951922901645708031e+00 1.396807382965191380e+01
-7.370388516391082945e+00 -3.064367818256814147e+00 1.279716265000851649e+01
-2.841942481379674312e+00 -3.729585706204832096e+00 1.271910784359614865e+01
-1.086976878089014775e+00 -5.035185153685706183e+00 1.381412866104328430e+01
-1.723732770169481121e+00 -5.082156717474149765e+00 1.391526143190282738e+01
-1.076194389947853880e+00 -4.488966978582741518e+00 1.263922764509230490e+01
1.930369301966729234e-01 9.569899231443360632e-01 1.464985392183297108e+01
3.852282064955497298e-01 -3.752432534538505671e+00 1.221965325366040389e+01
-5.249687420332991294e+00 -4.896385309487857107e+00 1.391952687608259964e+01
-7.530036680943984706e+00 -3.312780379670585695e+00 1.373704193179024458e+01
-1.273132736547608168e+00 -4.898434369789684162e+00 1.318985890522073134e+01
-1.988367444485968694e+00 1.910794763694694254e+00 1.653973933186382084e+01
3.870987303038078697e-01 -3.984359712607866477e+00 1.260296773299818796e+01
3.566321675618465137e-01 -4.137483839939470442e+00 1.299064843077837139e+01
-4.447446224987292140e+00 -4.950156977003579151e+00 1.383266953156150691e+01
-4.445557304302296231e+00 -4.865175674407189454e+00 1.367266294798903203e+01
-5.052067875539522745e+00 -4.774607726509311867e+00 1.366213914966871101e+01
-5.673454375559543905e+00 -4.811250093421051588e+00 1.385480475972078551e+01
-5.643050307295112589e+00 -4.704340802464005655e+00 1.366823896711623831e+01
-6.276676104369997233e+00 -4.055697854124887591e+00 1.294782664379611248e+01
-4.248700057581595857e+00 2.686381470467730459e+00 1.181683550919067116e+01
-2.068715135492983581e+00 -4.526533606646324870e+00 1.280586814783733018e+01
-2.265828561850505629e+00 -4.796754523052001673e+00 1.317462437390463492e+01
-5.220314643800499255e+00 -2.435432313929179138e+00 1.594084891869080423e+01
-3.274657529832943670e+00 -4.871428707407898351e+00 1.347127677896229869e+01
-3.452956560378928952e+00 -4.800562925874593212e+00 1.340554755023324418e+01
-4.059536417664979524e+00 -4.778072578093744305e+00 1.347595142552301439e+01
-4.507895307465808798e+00 -4.821924454932159598e+00 1.361761416757140353e+01
-5.276454494676860563e+00 -4.583881660167584471e+00 1.342355274116409447e+01
-5.682876687812804306e+00 -4.454489934565226683e+00 1.331025892920622056e+01
6.490792820400559382e-01 -3.360772894331463423e+00 1.323490035323601433e+01
-1.411165275759460602e+00 8.634954161504574399e-01 1.063375388994642634e+01
6.738871545572928667e-01 -2.164320271715056698e+00 1.441073688467884750e+01
-7.573466476658715862e+00 -1.956464813731353836e+00 1.405414807101775665e+01
-7.517191797714350088e+00 -1.126454438530565039e+00 1.443975380196026492e+01
-7.557254009144010354e+00 -1.549425573563236735e+00 1.403033536735601672e+01
-7.531540421472605829e+00 -1.572089616466967321e+00 1.422995479052485024e+01
-2.838968266560053078e+00 -4.186188385424683744e+00 1.503140660168975273e+01
-7.489315758367792952e+00 -7.028274350207051047e-01 1.329267043284362870e+01
-6.069974557502941792e+00 2.143523736738397023e+00 1.279684319360511324e+01
-7.494020734214254631e+00 -7.316705931460211199e-01 1.347317989898514412e+01
-7.486549121228943449e+00 7.256886880185385580e-02 1.428168375147345159e+01
-7.494338352040246676e+00 -1.371344160211714902e-01 1.411365819618011841e+01
-1.526813277934395474e+00 1.632461178700860938e+00 1.215565486716990051e+01
-7.487557445391262334e+00 8.096967947013689049e-02 1.412800149683777562e+01
-7.407858496227678557e+00 3.057507738860569813e-01 1.317254553893791069e+01
-2.910548225241831322e-01 1.136397573230436109e+00 1.392781494345602766e+01
-7.307765712168841077e+00 7.409604522978361363e-01 1.314588433978684634e+01
-6.653050945384546111e+00 9.764195339616931202e-01 1.173696193426231105e+01
-6.090930713589951750e+00 1.251456937166508077e+00 1.115863415423251581e+01
-4.619723309118713317e+00 -4.613691775329581191e+00 1.487907228786582436e+01
6.050854155679576962e-01 -2.718451363974530022e+00 1.247127915112436369e+01
2.129550296631151363e-01 8.458586802922237746e-01 1.423285331606892612e+01
6.785571723366704555e-01 -2.587367998081195886e+00 1.387357726705398875e+01
6.683163745944076251e-01 -2.792205810235105723e+00 1.389046179004603232e+01
6.684700864546085919e-01 -2.971762092679520517e+00 1.360357608279507247e+01
6.676472725797937269e-01 -2.080330381782192539e+00 1.249237137668993824e+01
7.195978493973594903e-01 -1.843067838754754995e+00 1.453813149869706223e+01
-6.431817100555072386e+00 2.684779365108628468e+00 1.500190619609965381e+01
6.935864286443018667e-01 -2.026814769719065268e+00 1.450766839506900396e+01
7.678019185187708873e-01 -1.395067873732946051e+00 1.452590357817335587e+01
7.128161938369625972e-01 -1.306561289157651906e+00 1.232254066801277048e+01
6.950125104272932841e-01 -1.528471810892977789e+00 1.234269219312879073e+01
5.759821697299503107e-01 3.734710154432632212e-01 1.460665964124310534e+01
7.961545835593175635e-01 -9.391654126253246027e-01 1.435610756937327892e+01
7.799615113090171414e-01 -1.182597523588990285e+00 1.416171488253493038e+01
-8.386292041060333657e-02 2.744361871206537629e-01 1.163918339098243493e+01
7.975534205914276420e-01 -9.325704775004748370e-01 1.374716429952204066e+01
7.977047573394289159e-01 -9.946448736026483051e-01 1.314152151923112655e+01
7.768553450166120200e-01 -6.148497203857972160e-01 1.397212715886191603e+01
7.884290848084615222e-01 -6.017775279578851944e-01 1.375757499765215641e+01
-4.594788654571622999e+00 -5.604485687228573099e-01 1.218636531954366831e+01
7.987984861535952774e-01 -7.679464583101409669e-01 1.291167209900730484e+01
3.714175536121491761e-01 7.382608275291051569e-01 1.524828584738148862e+01
-5.391914009747744707e-02 1.263340200540296276e+00 1.566661967204230166e+01
-6.427869517362818641e+00 2.289165110321398355e+00 1.380510493705877906e+01
-6.766279688959238925e+00 1.854086839518330532e+00 1.364695027742282463e+01
-1.014585135675520222e+00 1.524136276810731161e+00 1.328733337043249207e+01
-3.454621476212393905e+00 -4.613045572704685071e+00 1.316274138252871495e+01
-6.291416547391982528e-01 1.872184586804944040e+00 1.610881084452688583e+01
-2.908490159056714042e+00 2.448040101496204990e+00 1.203711277946876379e+01
-3.749876264143742199e-02 1.280902781169250826e+00 1.514790795478820229e+01
-8.953091279700915450e-01 2.173167380190490938e+00 1.612623456845619074e+01
-2.022550506520226055e+00 1.961190350409489636e+00 1.195490630191615011e+01
-1.376513849560922376e+00 2.554359742372950492e+00 1.613334017247866115e+01
7.534163733953055386e-01 -9.023207553725792751e-02 1.218911903624727699e+01
-5.862817189044028376e-02 1.596388966074655524e-01 1.142326283831455669e+01
-2.756439160143248079e-01 3.166655697549722315e-01 1.144698163590310358e+01
2.400446872354344841e-01 9.522661252553851208e-01 1.485900802154889533e+01
-3.437484120127098031e+00 2.511346105661714567e+00 1.138150264382684895e+01
-2.609694750390990858e+00 -2.753320350302362218e+00 1.579772123609808432e+01
-5.066556414004681486e+00 2.034680613554660678e+00 1.077988807957142470e+01
-1.283789159406618641e-01 1.406030140370252646e+00 1.532184134509019913e+01
-4.642100651341912965e+00 2.048295490216068160e+00 1.019383082435609822e+01
-5.676575260411397039e+00 1.832202933675499690e+00 1.138617183971883051e+01
-7.576352796555607672e-03 1.182630368738382121e+00 1.484853140814002614e+01
-1.309960622327694280e+00 7.940860111216689887e-01 1.068680613264410795e+01
1.653183864451940599e-01 5.391752232685350643e-01 1.298873220600219724e+01
-6.437651406904831841e-01 9.078581875910212151e-01 1.225050110972208017e+01
