2.481423201851482019e-02 2.318613812377318339e+00 1.816146569134428290e+01
-3.565840997557455649e-01 2.739593455284113688e+00 1.857450795891107020e+01
9.095496600207420013e-01 -3.917816056116259826e+00 1.890893610457103335e+01
-9.467777041710027097e-01 1.875832349162681600e+00 1.517066055012548986e+01
-6.051909425532446818e-01 2.990398111947159432e+00 1.854670514538454285e+01
-1.359007235734723373e+00 3.392085695916695176e+00 1.779546531417983601e+01
-4.470022204215493566e+00 -1.573037628425618895e+00 1.514277157909432248e+01
-5.464527012663453753e+00 2.421413451364524683e+00 1.846097425657087143e+01
-7.861478819678714425e-01 3.062307575927742054e+00 1.860287288247497628e+01
1.383184018363692980e+00 -2.986889961148158523e+00 1.854150073566716372e+01
-7.194940140705083920e+00 -2.494687357888746515e+00 1.582944109823354495e+01
-3.026563833652404334e+00 1.538028722852359920e+00 1.924388977574893289e+01
2.883784805976825627e-01 -2.634476659040908331e+00 1.760586100142339205e+01
-4.643137937518359237e+00 3.497768808378431515e+00 1.652231282149809033e+01
-4.682757752334305579e+00 -9.446786331294796391e-01 1.397604786126263576e+01
-1.182995554754174616e+00 -4.601376351006289056e+00 1.862521484137835159e+01
-7.286786950035784471e+00 -3.645283990402967245e+00 1.690910699267123363e+01
-1.023160029332002452e+00 3.269929045922970623e+00 1.847471989209122256e+01
3.069625226925328798e-01 1.861789699510295382e+00 1.836705131952462722e+01
-5.792188076269268571e+00 -1.827469340912240892e+00 1.467769964367666091e+01
-1.188390977999800757e+00 3.293397458438126701e+00 1.860130173925799824e+01
9.799509681138334205e-01 2.792973944597076930e-01 1.684975851371243039e+01
2.551792667247383961e-01 3.775796051824575894e-01 1.939746506412176785e+01
-3.467557371653882559e+00 -1.022563262775606496e+00 1.474626673900223750e+01
-9.316855468104463522e-01 3.192980571150440205e+00 1.815771604796950811e+01
-1.615205390453507084e+00 3.667836005148306100e+00 1.826978241294100513e+01
-7.510917955635373566e+00 -6.383128058938700722e-01 1.782977621763662768e+01
-9.348013546439414290e-01 -7.681415288193642610e-01 1.987950476601698568e+01
1.153366099291097679e+00 -3.436824851820445392e+00 1.928321765926546050e+01
-2.002806365504697261e+00 3.773754191091555743e+00 1.828670555350076654e+01
-5.893789159565264058e+00 -5.187056165060155877e+00 1.879175350932336386e+01
5.597544127542976033e-01 -3.940176447415915550e+00 1.869634943960060269e+01
-7.288083881490373450e+00 1.801309129574194312e+00 1.648988648126853462e+01
-4.957083946713400024e+00 2.770670052835694008e+00 1.847411862608017685e+01
-5.479047889883818634e+00 -9.666745365591453698e-01 1.379420979944745795e+01
-3.642821998912390224e+00 1.763037512794942696e+00 1.909747119734413445e+01
-6.027075997762947779e+00 3.734631689275550226e+00 1.766017248911465742e+01
-3.395582160854059950e+00 3.684878169235042300e+00 1.841930410218043335e+01
-7.321229492433808161e+00 -2.101769592420645871e+00 1.839014401822432632e+01
-5.299810238469978785e+00 -1.520451822653010598e+00 1.461311131035915878e+01
-6.043296688341719403e+00 3.781642532188826511e+00 1.734161614977062982e+01
-7.300519944449099796e+00 -3.064685082947547823e+00 1.814336199191267696e+01
8.099662307992849808e-01 8.448828072636754838e-01 1.725121069516983141e+01
-1.268045662372057292e+00 -5.929525199055267759e-01 1.984021088103784791e+01
-3.687267071161426379e+00 -3.945032805207647986e+00 1.759590700509117056e+01
-4.734407154556420139e+00 -2.402641580388081177e+00 1.617654278687469116e+01
-4.894292494440966479e+00 -1.338671110182958923e+00 1.457461094284548864e+01
3.682296240961069334e-01 -1.728613779685601592e-01 1.550786985837105902e+01
-7.020021775973944500e+00 -1.201623140623120367e+00 1.868020091392441628e+01
-3.360585650621870979e+00 -9.081490113571071277e-01 1.964784496571515859e+01
-6.063953987040866522e+00 -7.106228607378912709e-01 1.362257697766749232e+01
-1.964625021874656374e+00 -9.949797881328894533e-01 1.582258470090497582e+01
-9.001920253853641363e-01 -3.605940376820288673e+00 1.983834042427026390e+01
-4.521620823148828627e+00 -1.028417524177319464e+00 1.947730849542364240e+01
-6.663176199074427597e-01 9.204345224084420352e-03 1.974264515328154346e+01
-6.603743676520196892e+00 -7.090540000232607998e-01 1.423660923350109186e+01
-3.296838708263677198e+00 -4.029054021554483445e-01 1.369184049069644260e+01
-4.445675929493902778e+00 -4.210814276313660898e+00 1.957473086320060673e+01
-3.045788547756500098e+00 -2.097438783447380661e+00 1.668554336584779918e+01
-6.490876069850960661e+00 -9.075112039806145781e-01 1.415063647975832595e+01
-5.397960177889465250e+00 3.839926899275675876e+00 1.791183732272941143e+01
-2.574685793279686274e-01 1.665868172398808689e+00 1.577153623682108474e+01
-4.419417751755768675e-01 -4.112322046470024972e+00 1.844500701481499760e+01
-4.074460238756833164e+00 -2.041317425213914127e+00 1.613846967476773386e+01
6.748529264799097982e-01 -6.269671575434547783e-01 1.944739302995138530e+01
-5.221706393450798345e+00 -6.810112907233922819e-02 1.282117047660096176e+01
-4.470574648564155318e+00 -1.295368011156162069e+00 1.465792965791873570e+01
-2.449475157463567143e+00 2.497367433549708693e+00 1.902801341766554089e+01
-8.384344773561874797e-01 5.234941871238349975e-01 1.396487267210780914e+01
-2.778882777984734265e+00 3.003144222533019381e+00 1.879428962956676230e+01
-7.044624521705833864e+00 -3.202329224213445347e+00 1.589859426257977759e+01
4.235666184815357616e-01 1.750973810401579289e+00 1.807578476422042257e+01
-6.106906453403659008e+00 -9.278059035970924739e-01 1.378748643993041156e+01
-2.517737915089146128e+00 -4.822112557176417624e+00 1.833056139700649823e+01
-7.074426091546071937e+00 -1.563216611731685024e+00 1.868785123611706922e+01
-2.899920813761327043e+00 -5.138996904325805470e-01 1.965233229682936411e+01
-4.102223895817555643e+00 -9.413848870356322784e-01 1.418554501864377926e+01
7.673741300767448204e-01 -1.001843741802117993e+00 1.949701613015056267e+01
-5.895553154628160542e+00 -7.094126532270210728e-01 1.356621938840623187e+01
7.048118913820480280e-01 8.676356558353013337e-01 1.829277232937937470e+01
-4.643816880238018641e+00 -5.208167950902408805e+00 1.936335515040113364e+01
-4.398178355856718902e-02 -2.865004899501777391e+00 1.776144026769411255e+01
-7.457527034007409128e+00 -2.184495634278146525e+00 1.613646257132857897e+01
-5.502121918323934047e+00 -6.564210645148853551e-01 1.342869772448392496e+01
6.084590209350172474e-01 1.270041086718533219e+00 1.809020628422847210e+01
-2.044034381073095208e+00 1.093509267241297822e+00 1.944224237710763248e+01
9.623539788823816110e-01 -1.649140576930122393e+00 1.699657105315652217e+01
-7.050602724479497319e+00 -5.068062817398153452e-01 1.496728237886642177e+01
-4.491479992354219242e+00 8.000833075119815341e-01 1.916961411608558308e+01
-5.254682864869166359e+00 -5.908232844363752179e-01 1.334517284894143074e+01
-4.881859695662377874e+00 -5.632225195382338789e-01 1.336340479812908200e+01
-4.032809185878027947e+00 -3.255886121386473153e+00 1.965851337952260280e+01
-1.102756160549202002e+00 -4.262508938915114953e+00 1.836518723830961619e+01
5.420782596958215738e-01 -4.520439198099799327e-01 1.587175819776316388e+01
-3.809545997728410960e+00 -3.429773297810998489e+00 1.967805733747096042e+01
-5.297392928458214634e+00 -2.396445208909371516e+00 1.570291642996456005e+01
-4.661521952772511135e+00 -6.977696866954654631e-01 1.359454882035464607e+01
-8.564352695803544302e-01 -9.305472541756989457e-01 1.603397277647110997e+01
-2.624882397153387448e+00 5.753218039998757583e-01 1.233206651223326844e+01
-1.230415287815467718e+00 2.672023765006360296e+00 1.638747973019231097e+01
-7.456744938260431610e+00 1.217602348204980922e+00 1.691319436718323743e+01
-5.023860248555178210e+00 -5.774492851678008076e-01 1.335660915714385055e+01
-3.240835058251696488e+00 -9.094409979290749568e-01 1.470364291848957805e+01
-2.988969815738003355e+00 -3.471147136042608938e+00 1.975502712095302371e+01
-1.421091267002148939e+00 -1.204328590883910977e+00 1.625019172770698361e+01
-5.571993123673832926e+00 3.442126114727179331e+00 1.684979400430851371e+01
-4.756297305415722043e+00 7.897163758632164132e-01 1.271218272008005812e+01
-1.458173030384360747e+00 -2.735553263117148859e+00 1.749983241249635313e+01
-4.885832597674705902e+00 -3.927800631236824103e-01 1.312398658181363942e+01
-7.785151707957315814e+00 -1.005542075461285823e+00 1.685333731470552010e+01
-7.104884876770821478e+00 1.965678993351467119e+00 1.755098363158229802e+01
-4.689472578919925638e+00 -2.933292656406147891e-01 1.298695365261961143e+01
-4.870855235796158311e+00 1.556654896792033504e-01 1.247768241555638724e+01
1.326874028997233612e+00 -1.746928737998299397e+00 1.774086901141077988e+01
-5.739045697796949952e+00 -3.374010934757342373e+00 1.631167957991273454e+01
1.277831712194616776e+00 -3.048177927315124602e+00 1.916436005128210951e+01
-6.117336537587152456e+00 -1.668467836046934494e+00 1.440263291466828122e+01
-3.082602240455030174e+00 3.077482025671205434e+00 1.588848366114003596e+01
-5.045210179041546894e+00 -2.923800428165361343e+00 1.645724957352310724e+01
-7.182245685177133687e+00 1.327421547993838935e-01 1.812309347824162842e+01
-6.473720757645789803e+00 3.236659033193716617e+00 1.693777925064523515e+01
-3.135307503427025022e+00 -8.074991048722703901e-01 1.458085246280045766e+01
-7.934104503730575741e-01 2.681124383181663795e+00 1.886323068646258605e+01
-2.008628827944577644e+00 -1.466839888603725939e-01 1.408083582242137055e+01
5.826087697162984913e-02 1.914912939757354771e+00 1.677925002118779219e+01
7.706524825580900462e-01 -3.971668652972170310e+00 1.887230204617233653e+01
-6.420121382595047166e+00 -2.732028535753625142e+00 1.915871284457384149e+01
-5.365387380367958592e+00 -2.171194266321669453e+00 1.944048261452748960e+01
-6.144206001146708118e-01 3.183637328879886930e-01 1.435469619502518412e+01
8.233438634676111256e-01 7.283202400439366953e-01 1.650164006462642874e+01
-6.274457722869560605e+00 2.740588431542236858e+00 1.798585300387200192e+01
-5.884688995542752821e+00 -3.183266490103564106e+00 1.936641208740849152e+01
-3.691536857485526735e-01 5.081805056000167076e-01 1.435452192708938668e+01
-5.153437262274171538e+00 -2.230917977800910723e+00 1.948463520926048886e+01
8.143770498660611867e-01 -4.435178956318992505e-01 1.919617871591012204e+01
-2.786370990687235150e+00 -7.254614053278460872e-01 1.466942121334955118e+01
-1.842176839680634615e+00 -7.476704404657392722e-01 1.547747199492587100e+01
-1.399703857915200800e+00 1.297251962147471405e+00 1.377167229158754225e+01
-6.423297577287330196e-01 -8.697909692332093101e-01 1.597428637545351648e+01
-2.825368820685913551e+00 -1.373434616089157956e+00 1.585251095387622655e+01
-4.615909648965712542e+00 1.227368370076075799e+00 1.308428059474923799e+01
-4.294031539544387877e-01 -4.138508623490730898e+00 1.981428662373321004e+01
-5.874533709823127836e+00 -5.282464440212688572e+00 1.856636465045386331e+01
-4.583672852095109995e+00 -3.205799721153926196e+00 1.960669642094537579e+01
-4.315495307906739297e-01 1.853612603309134688e+00 1.912958362100524567e+01
-3.054271317452071255e+00 -5.357922229933336666e+00 1.920854862414839204e+01
-2.858120020280239704e+00 7.024010564365424925e-01 1.199090214257408604e+01
1.018131708675678704e+00 8.526769377718790288e-02 1.680010219892770351e+01
-3.150192001545340514e-02 4.517934859605926556e-01 1.471661188483958682e+01
4.935277308335583868e-01 -2.147232471888296246e-01 1.947484188248414938e+01
1.384994016936142103e+00 -2.374868004830745338e+00 1.813877752235905660e+01
-3.847765660761551132e+00 -1.429144762723937312e+00 1.528729533263568641e+01
-2.540345779890734734e-03 8.000408719134306512e-01 1.491942222930380524e+01
-6.904361083546470823e+00 -4.047898836289457236e+00 1.686148808886085249e+01
-4.231785459000293237e+00 1.909513812824981116e-02 1.256965055851546254e+01
-3.465449815135520861e+00 -3.602062607380126291e+00 1.746249090000950588e+01
-7.678001406101950366e+00 -1.482235226481594115e-01 1.637685287646076659e+01
1.002927465624915970e-01 2.196383499519289018e+00 1.832032302987450834e+01
-1.607056360958001973e+00 -4.800324528552044612e-01 1.514425023692815131e+01
-2.898694680852425432e+00 -9.303997565156940652e-02 1.958866874727804230e+01
-2.230689953843775886e+00 3.074755141622825150e+00 1.622461347382600394e+01
-7.581152962377571747e+00 -5.875021539820961536e-01 1.761673331567990886e+01
-2.205803953209799051e+00 -1.022722773127901164e+00 1.569177396626427878e+01
-4.699069644278611513e+00 -1.974478147217031854e+00 1.559919336446484550e+01
1.989054667514231767e-01 2.069458749691177157e+00 1.837363457519852972e+01
7.838142335028125407e-01 -7.857948339351117362e-01 1.631221234005293041e+01
-3.357542431277212192e+00 2.295054340475686683e+00 1.449099303789144244e+01
-6.088393773646585849e+00 -2.399894667474450127e+00 1.507670095218427520e+01
-4.475995826146720979e+00 -7.943073367443416188e-01 1.945462842793393321e+01
2.617845635394650539e-01 2.024070883041675817e+00 1.797430668390414610e+01
-7.760572375733523209e+00 -1.203588238023952872e+00 1.719688452841235460e+01
-8.140963751819729755e-02 2.397346713425017484e+00 1.855673201130527872e+01
-7.233418417828515246e+00 1.931036340414846286e+00 1.735396519180303443e+01
-1.013533884367275428e+00 -1.449379729681417928e+00 1.657799679627291312e+01
-2.558125285830845641e-01 2.384560430432965283e+00 1.878772427904799969e+01
-5.466219907780927478e+00 -1.103436580015522139e+00 1.398059678739126355e+01
-1.398770969460991997e+00 3.517315550328418361e+00 1.828526975313844360e+01
-4.271141629080656976e+00 -9.640837027653921254e-01 1.413652514678077665e+01
9.574588101821046582e-01 8.406589511372697388e-02 1.786773747611719898e+01
-7.645509266982901231e+00 3.187758229800996546e-02 1.628064425539790960e+01
-5.667016461331202404e-01 -3.191557973782640278e+00 1.991765794638658349e+01
-4.908858278799518970e+00 -5.545055646529466031e+00 1.856488684282658852e+01
1.136276325031986500e+00 -5.718773377298014271e-01 1.690041228964891928e+01
-6.605995539139956740e+00 1.067767107749041600e+00 1.488241086683131442e+01
-1.277606495136929032e+00 -4.869207204007469869e+00 1.943419503160384210e+01
-2.426018053349516812e+00 3.466926401735467511e+00 1.862370863398963650e+01
-3.808032839475212317e+00 3.795775260307567844e+00 1.719806115612728092e+01
-4.406260700892608018e-01 2.661684412461220006e+00 1.876828350356228015e+01
-2.363494991712574045e+00 -2.708212988427148193e+00 1.981866571593639037e+01
-3.811769680686854400e+00 1.478270538818603708e+00 1.914570504101344284e+01
-5.233454335752385500e-02 1.837384875230398285e+00 1.893452441305573331e+01
-4.819554732760351623e-01 2.816810519555858150e+00 1.867277712104375809e+01
-2.085752698157782581e-01 -3.329060808202598754e+00 1.806444780164815711e+01
-7.630639277811670507e-01 2.883126397717960199e+00 1.874969080522613041e+01
-7.525208873803060250e+00 -2.042209644725543782e+00 1.793078783779885299e+01
-4.016725199029025362e+00 -1.432492709516723473e+00 1.959304920228314018e+01
-7.308163621700274781e+00 3.269511877652738763e-01 1.786366137685336497e+01
-3.896090316788321406e+00 3.224142952428803888e+00 1.599834478228247292e+01
1.203817266507618777e+00 -2.384412117394951736e+00 1.771177538452577238e+01
-7.250586583073211244e+00 5.385207771597094739e-01 1.787083557551859769e+01
-1.021625234948170036e+00 2.878996716755214180e+00 1.882092384576487376e+01
-4.276278035087926810e+00 -1.617379946481405817e+00 1.533044700215707223e+01
-7.380017605845758943e+00 -1.078667841111892400e+00 1.822515450487018285e+01
-3.434618585745574215e+00 -3.632184216937145660e+00 1.970956156190461428e+01
-8.297902907067729039e-01 4.996132820984211520e-03 1.467268352370577134e+01
-1.885282009671031878e+00 -4.703071070924959685e+00 1.847180378524566891e+01
-3.072749513341252459e-02 -5.685403674905271654e-01 1.568107915393766660e+01
-5.908305374804931454e+00 -1.691755416423894598e-01 1.898879644657446875e+01
-1.183674216786400279e+00 3.055595591524181920e+00 1.876650960363834031e+01
-7.581714967775938341e+00 -2.745970439101255156e+00 1.676742970873868188e+01
-7.575255455146612249e+00 -2.397454282832181871e+00 1.637713207382574154e+01
-2.520302919682405829e+00 -1.906173776437134038e+00 1.668947601212310872e+01
-4.123025373607706601e-01 -1.964628371422288744e+00 1.709784474568400015e+01
-7.538784416629969343e+00 3.933311440311147988e-01 1.608891824963105677e+01
-6.681343973517693158e+00 1.537276951231429933e-01 1.456955930431558244e+01
-6.944073022063973255e+00 4.537723248194043268e-01 1.508884702704065006e+01
-1.787882559385389758e+00 3.334320590795450734e+00 1.869149646754195260e+01
7.472600936749840272e-01 -2.898137617220130746e+00 1.795309740937681653e+01
-1.785068471024272130e+00 3.723953994491250974e+00 1.847950957980952325e+01
4.321691874430870772e-01 1.639273668880111501e+00 1.773543588145098227e+01
-7.500557586042891245e+00 -3.006925685894012101e+00 1.670125649148923230e+01
-6.351691697878377063e+00 1.257389691492413641e+00 1.469129819807078974e+01
2.523590292550849101e-01 7.985238548502098244e-01 1.529311057839242238e+01
-6.511740738221951652e+00 -1.166684993087711675e+00 1.435108222174129367e+01
5.983136550426733091e-01 -1.531949800098297843e+00 1.675250306458244154e+01
-1.715484267272102459e+00 -2.949784827136592291e-02 1.410846728415732798e+01
-7.006149269642703459e+00 -2.699941142423212703e+00 1.874111569409874534e+01
-2.000005850331588952e+00 3.689890728845297563e+00 1.851334195001198424e+01
-6.725203453098177242e+00 -3.590429723438557819e+00 1.611842805118116928e+01
-3.061014318618398899e+00 -2.588840534813551475e+00 1.702912076994512347e+01
-6.652279904536457344e+00 -1.960082271267794329e+00 1.492693241553281780e+01
-5.746530171352665306e+00 -1.159510015309875630e+00 1.923068855553466960e+01
-7.562114056905220316e+00 -1.127600944014131468e+00 1.602931928714092891e+01
-7.401619975599714074e+00 9.826690744249986231e-01 1.735567373778440015e+01
-7.158510305783634564e+00 -1.493956101987492957e+00 1.544637379400487021e+01
-5.248842003856269756e+00 3.481205056624856908e+00 1.811365448856152227e+01
1.409002673439971876e+00 -2.416299288869553585e+00 1.832335492792391562e+01
-6.087675597226347435e+00 3.291501811842433067e+00 1.784238390321863932e+01
-6.827481300097761441e+00 1.939624080113464100e+00 1.579323603547718591e+01
-6.516365392372268417e+00 -4.766754895890379373e+00 1.781010242033148216e+01
-2.777201356056781645e+00 3.693527273825664814e+00 1.724243146449616404e+01
-6.351228476351934660e+00 3.503940071407423140e+00 1.756595258433709716e+01
-6.574959179986906044e+00 3.305734532806285930e+00 1.735513667007820260e+01
1.275636797601225725e+00 -1.549251266102563029e+00 1.756159654723959562e+01
-6.646659927748927110e+00 3.176604711155667005e+00 1.697188247385311399e+01
-6.260887381681068398e+00 -1.151407158173421763e+00 1.403195966651268378e+01
-7.583139301784140862e+00 -1.463779700755268198e+00 1.779957226621275623e+01
-4.525620345588741600e+00 -1.557663932975470455e+00 1.952592959859153154e+01
-6.306307188827322996e+00 3.353291223922103548e+00 1.766641146144301189e+01
-4.318348272231430585e+00 -2.451984752075750951e+00 1.646338357624168935e+01
-6.832819554828764019e+00 -3.212292228697557039e+00 1.572091684472062667e+01
-6.070965675994297150e+00 -1.119636446281652820e+00 1.395823216748486573e+01
-5.108501929306275002e+00 -3.264561451409174087e+00 1.670275492734850786e+01
-1.903401735578937215e+00 2.679846956743361375e+00 1.563288678586037150e+01
-5.026252439942298089e-01 1.647525735904023181e+00 1.535304743947069284e+01
-1.097202225802290654e-02 -2.990128821059418573e+00 1.786288059503476688e+01
-4.720668897635317052e+00 -5.486754964983233673e-01 1.336268445075567968e+01
-5.877394388378522905e+00 -9.045824765506114140e-01 1.373016266456471612e+01
1.009790147238652791e-01 -4.316986557092787891e+00 1.889231326544624068e+01
1.272053388920256212e-01 5.475334060426906291e-02 1.513317659876506127e+01
-5.681202345024459532e+00 -9.551889463162472893e-01 1.376081973465026209e+01
-1.701039336739604835e-01 -3.801149017650747641e+00 1.987920763298591709e+01
-5.482162361678932783e+00 -7.385955493103455449e-01 1.351513743575259952e+01
-6.483621753299228629e+00 1.909672883930971565e+00 1.816712640200340445e+01
9.100258167414758681e-01 1.527132258447745361e-01 1.619886538202603532e+01
-7.461997323711368146e+00 -1.212762981951023278e-01 1.777115145439370281e+01
-5.247419333097872673e+00 -7.477296219656843768e-01 1.354398442956855320e+01
-4.240469013092091011e+00 2.619167770830811648e+00 1.870629306642550205e+01
-5.045152413712989059e+00 -7.040286152985242296e-01 1.353967972384179319e+01
-5.275683805047372665e+00 1.136371663581987601e-01 1.281826474996607601e+01
-6.677325181447552715e+00 1.115623524958076151e+00 1.827544858278559303e+01
-4.471067800888640420e+00 -7.618214803116880596e-01 1.372038263352024501e+01
-7.753983719612738135e+00 -7.658211577217963750e-01 1.681430902945508876e+01
9.809999350463867174e-01 -2.343795780411647822e+00 1.754956855865444965e+01
-1.995538624245603465e+00 3.098962199767160364e+00 1.881128213590198328e+01
-4.810775978887710913e+00 -2.048239967994735622e+00 1.562333654318385356e+01
-1.623881081683554051e+00 -7.731200606731158942e-02 1.430484846302638857e+01
-2.514540378680968580e+00 -1.286531633495731963e+00 1.975993164187643458e+01
-8.070496711248361654e-01 2.458563717862858766e+00 1.652410989735659541e+01
-7.677622981369061073e+00 -1.203413503292244169e+00 1.749868879203844330e+01
-1.367070194655942483e+00 3.370596990703389473e-02 1.432662506434365213e+01
-7.246747577054028777e-02 -3.874856383593166864e+00 1.839451262492888617e+01
1.927037383880723653e-01 1.449570030378447782e+00 1.897854815380990345e+01
-4.281452130635882369e+00 4.724817417426500077e-01 1.212858428126673260e+01
1.251515228131428126e+00 -3.250778675288534370e+00 1.845800453664420360e+01
-7.184459849324737135e+00 -3.868451180308600801e+00 1.783328689932953637e+01
-3.375834193688917573e+00 -6.226420606820630699e-01 1.961526110995995964e+01
-1.781527345029178255e-01 2.637321837067488906e-01 1.469462742168109770e+01
-6.917592485845865724e+00 1.533058571374872781e+00 1.792134707219924650e+01
-2.888337386047447719e+00 -2.935608238524515468e+00 1.727343424935787652e+01
-6.706087770639318713e+00 -8.926772647467973165e-02 1.861231525685650467e+01
8.847691964536386067e-05 2.306167272228705212e-01 1.487144765270931401e+01
-1.639335030423345829e+00 3.053013777119644612e+00 1.664156187442338819e+01
-1.443034153351422100e-01 -1.959979057545449876e+00 1.998899468170778704e+01
-2.663653656120366087e+00 -3.801580823368166495e+00 1.773464241657995899e+01
-5.721834023614215781e+00 -2.404501607707314914e+00 1.531305654019400464e+01
-2.903618133224120434e+00 8.206487828990647326e-01 1.199651245211743600e+01
-5.230272560752012190e+00 1.734301616987632411e-01 1.912106190473527079e+01
-1.376803252793661114e+00 -2.547784729534058545e+00 1.988727276929993337e+01
1.031823537161152271e-01 3.364925327842247516e-01 1.486918524410671694e+01
-3.559589747182543729e+00 3.556473808628199951e+00 1.845618520331212409e+01
-5.789811274740367386e-01 2.117707259385874785e-01 1.451668709789258571e+01
-5.666905911519026340e+00 -2.189496219309089220e+00 1.513335071852925040e+01
1.737501165446161400e-01 5.724696203249899362e-01 1.493196965891420547e+01
-4.064936676852362929e+00 1.764109798206288549e+00 1.902121015924958414e+01
-6.773223041280081347e+00 -7.032245064505389109e-01 1.447796912272576009e+01
5.775876353027713517e-01 1.045650720861816207e+00 1.870851541297152920e+01
-5.170340584822835872e+00 -2.417388909776678751e+00 1.949353084818393000e+01
-5.828432672294946437e-01 -3.601206698170960063e+00 1.987351877605006223e+01
-6.267396653068704637e+00 -2.143860927090538659e+00 1.474349907211924204e+01
6.735695939653002506e-01 8.669300069262708686e-01 1.847522628400886902e+01
5.559134324700064633e-01 -2.695645100685319928e+00 1.772897393986625758e+01
3.493697144681400246e-01 1.677374528413232424e+00 1.732813278595930484e+01
5.497866233314115947e-01 1.235961733121528905e+00 1.854421737201338516e+01
6.783180001324778940e-01 1.100899235502645901e+00 1.754669562970781982e+01
-3.452877918788136657e+00 6.972913322149536519e-01 1.184520691290457961e+01
-6.545672796623426493e+00 4.992730839712993252e-01 1.854089323377924359e+01
-6.807628180632010029e+00 3.089950692488654393e+00 1.707276557323911703e+01
-6.731322646923171504e+00 2.964505685217775355e-01 1.848507053814383028e+01
8.139017492828204414e-01 5.936795190294392732e-01 1.804718816839822892e+01
3.631991334696329510e-01 1.652472312768267892e+00 1.853136909086880735e+01
-5.508000997679218358e+00 3.118886441473393001e-01 1.315602048348825548e+01
1.015874818559508785e+00 -6.614594937487838777e-01 1.900030012712100813e+01
-3.862769145197007870e+00 3.864369774879957697e-01 1.938882007266404628e+01
-5.318873355466688047e+00 -1.976878650096128176e+00 1.514067957462132341e+01
-1.436736784979133930e+00 -3.266223621297237312e+00 1.778414610438990451e+01
-2.090420988858171292e+00 2.725064780242017370e+00 1.561785505146023922e+01
-5.306096971181029076e+00 -4.319276136016508616e+00 1.739429025541456753e+01
-2.280317943536417591e+00 2.801366285696311742e+00 1.567812552803913206e+01
-2.398156465895327771e-01 -3.247318358074559708e+00 1.800698335604384681e+01
5.292802091400493625e-01 1.491829953424814281e+00 1.815518145025201591e+01
-4.008108409027953734e+00 3.754902401755953800e+00 1.708413887010228649e+01
-3.207426727521450083e+00 -1.301470550291067063e+00 1.554110825352720582e+01
-1.857147862818225859e-02 2.280620477371614996e+00 1.860195575015021774e+01
-1.790888682191458248e+00 -1.231883952499552404e+00 1.620281290116866302e+01
-8.615242361233357848e-02 1.967351048053219920e+00 1.888500476646855475e+01
-7.345621249029336219e+00 -1.886805593467671294e+00 1.834379361460778313e+01
-2.847576484498682614e+00 -2.760076420678801323e+00 1.718920647708642235e+01
-3.958546998072721035e+00 -6.765082346706003946e-01 1.953397000744183742e+01
-7.409776555478380544e+00 -2.102546660181137117e-01 1.791301799314752685e+01
-9.819448346072179312e-01 2.714088409124177925e+00 1.889786103043005028e+01
-9.697499263316514684e-01 -2.366192292048534096e+00 1.994382779381047754e+01
-3.064962974124316730e+00 -2.441748202871902862e-01 1.354119216056410124e+01
1.112032124719732673e+00 -1.004441403274341837e+00 1.899794148930826765e+01
-1.828570864619432967e+00 3.126098228325231432e+00 1.879524656064575794e+01
5.910934205770899119e-01 -2.655688581130001502e+00 1.988610480560567595e+01
6.099605684879030321e-01 1.090038496148527658e+00 1.648772166189784372e+01
-3.695418761992792955e+00 -4.997774450607117558e+00 1.812072754424123389e+01
-1.092690603501663027e+00 -5.740748253939695900e-01 1.984761632870892356e+01
-2.440613927346881873e+00 -1.519388931097596540e+00 1.627030313022452646e+01
-1.422384141022037030e+00 1.701477449859069235e+00 1.931592989731476706e+01
-2.182119197295127933e+00 3.475612393480789653e+00 1.863152373967199082e+01
-6.500866165519766149e+00 6.960886648127095899e-01 1.851153239097732239e+01
-5.260464295549810210e+00 3.259125049622604742e+00 1.820091595138865870e+01
-5.920737538136340739e+00 -2.548424462331261520e+00 1.532263656916531147e+01
8.642234437259097568e-01 7.030916432748668399e-01 1.668538517022822276e+01
-6.848820277303606652e-01 -2.857026751068336701e-01 1.517364456107165438e+01
9.843741660010099093e-01 -1.830901770877213508e+00 1.950726091624287051e+01
-1.815770354180678448e+00 -2.414391195172162607e+00 1.723823339251097764e+01
-6.333088019844653083e+00 2.936718172606978428e+00 1.785441699220451284e+01
-7.474521341768444849e+00 -2.979672187219439383e+00 1.652548356004561469e+01
-1.023419998790799035e+00 -2.248933243837624385e+00 1.726435461038014552e+01
-1.734778471299289748e-01 1.563530475208891435e+00 1.575038378826839391e+01
-6.473701499433984985e+00 3.163582725118545991e+00 1.760719146303994620e+01
-4.688761170565284964e+00 7.068607605900547597e-01 1.260187215151734108e+01
-5.083255742008426559e+00 -1.801755997364768103e+00 1.510046682528106743e+01
-6.691435761065697818e+00 2.756096656144772616e+00 1.761589484315970822e+01
-3.228960605688339758e+00 -3.670028515565030514e+00 1.972262199255297332e+01
-2.255825066712684013e+00 -4.916624216461622510e+00 1.954637455615966957e+01
-6.637752771900076176e+00 2.948096807268529407e+00 1.756800916149478553e+01
-5.470217936829236294e+00 2.550829617983472186e+00 1.840798554872620230e+01
-7.159962340121847291e+00 2.488585662642843310e+00 1.670939999087016048e+01
-7.493232841850293591e-01 -2.155834694932674989e+00 1.996849349948169561e+01
-4.237716600021055768e+00 3.765660143496930790e+00 1.707692958987035325e+01
-5.737261811494545505e+00 -9.628473308567482292e-01 1.920081057287406168e+01
-2.168926021737529020e+00 -1.412750791008606566e+00 1.627289918543926461e+01
-6.916045346022955620e+00 2.996859743200315229e+00 1.714554751569954050e+01
-2.674605431852709270e+00 -2.053229473326695143e+00 1.677027791966008152e+01
-5.522966352119048850e+00 -3.691875664920420963e-01 1.915118849462709960e+01
-4.876947959383641340e+00 -4.598502210906001864e+00 1.950367710114124975e+01
-4.418151352661381814e+00 -1.132472727440196447e+00 1.438376410394717908e+01
-1.589973361611420222e+00 3.489067746206549803e+00 1.766958358457166867e+01
-5.049000516571423347e+00 -1.651025834147807458e+00 1.493855026882952330e+01
-7.234622347122258823e+00 2.382198447550448961e+00 1.674629246329632082e+01
-5.917805380477022759e+00 -1.950899883709213967e+00 1.473182237488794044e+01
-1.470556645709760524e+00 6.615648755787157942e-01 1.958257069732794520e+01
-5.852494965746726230e+00 -4.922333613974242184e+00 1.911572682408093016e+01
-7.291983830538820932e+00 2.195254815422847283e+00 1.677400222556912013e+01
-1.453128754936263700e+00 -3.674253998526606058e+00 1.797908648005758181e+01
-7.363059065640390699e+00 1.814701721082750074e+00 1.688775334206763290e+01
1.534899649568323698e-01 1.775330988698794688e+00 1.673346255528992543e+01
-3.158354177315378042e+00 -1.910300012070277109e+00 1.975078929850294429e+01
5.714859773992698733e-01 8.971692054956814655e-01 1.593205090207614916e+01
-2.015380661669022189e+00 -5.310060367175666318e-01 1.490431330543782451e+01
3.829957402529295951e-01 -8.091129419909535159e-01 1.605407119654767456e+01
-1.912559018967113778e+00 -1.927322672189102359e+00 1.688817394181327813e+01
-7.397396592209549482e+00 1.614538782841205888e+00 1.688705402289018309e+01
-7.386587392822967502e+00 -2.665619137610256484e+00 1.815603434570429187e+01
-4.040795646434608202e+00 3.379953712976639935e+00 1.625874079100178449e+01
-2.654325977097443667e-03 -4.435567356464710898e+00 1.904458695632402510e+01
-4.961362057836745443e+00 -8.011796729443276810e-01 1.937192386746846751e+01
-5.309792956371945927e+00 -1.206110653307746361e+00 1.934683156906299928e+01
-4.142584066471830972e+00 -2.261631244353861980e+00 1.636088836956373882e+01
-2.079669515562746263e+00 -5.113536439866335215e+00 1.911256600683624640e+01
-6.127553760181159159e-01 -3.583047935732592837e-01 1.529181715135686659e+01
8.780079951463692911e-01 -3.708117452973245687e+00 1.955625945413046196e+01
-2.059211369130698799e+00 -3.224931863513322394e+00 1.761914514257126285e+01
-4.318046434720610449e+00 -5.579929154489509102e+00 1.893234681975363287e+01
-2.313902246758731795e+00 -1.102872148505077199e+00 1.975967548107656313e+01
-6.515544950466033214e+00 2.218468565542715432e+00 1.573531796439031183e+01
1.348803863781615098e+00 -1.833931921541247512e+00 1.856666856469682614e+01
-2.372376562203479811e+00 -1.180878448785504187e+00 1.581834849994427827e+01
-7.399895933660247671e+00 1.456798799051971516e+00 1.648492051966378114e+01
-2.185906274647853031e+00 1.695516135411116121e+00 1.365076479149934130e+01
8.033519785221894249e-01 6.854123755692602682e-01 1.632761635720513738e+01
-6.269253201351552285e+00 -1.334725390935705303e+00 1.418462655621838309e+01
-5.495834922204851480e+00 8.493992964733386719e-01 1.888541988103646219e+01
-7.621250352864403332e+00 2.292655176699049946e-01 1.628955509307690619e+01
-1.317236062846686706e-01 -1.401221754198356706e+00 1.993923826370213703e+01
-1.503293057401299482e+00 -4.091665575157446000e+00 1.817530655626631386e+01
-7.282146426931871197e+00 -2.495591710493491266e+00 1.840309263067447887e+01
-6.070557182013294195e+00 -1.362377694582256549e+00 1.416860336903297934e+01
9.015618221305621294e-01 5.099922560616049205e-01 1.650762475921242611e+01
-4.751430887184905139e+00 -5.952730242958979012e-01 1.938069343468264805e+01
-5.893894314933723955e+00 -1.155522438701548804e+00 1.397007652802805211e+01
-7.803007502837974840e+00 -1.395213293382504105e+00 1.663589818548076948e+01
-5.675050793615313616e+00 -1.148737355741911603e+00 1.397339586544835299e+01
-3.267403633047218037e+00 -3.351882311531111380e-01 1.358202950162828415e+01
-5.775279881498629475e-01 -3.760837262107397994e+00 1.822408568912548787e+01
-4.959692098488709178e+00 -8.843278410466330897e-01 1.383198101243357314e+01
1.336590567642472527e+00 -1.430677023019248928e+00 1.787763474552173903e+01
-2.826663615631861859e+00 -1.052704000918611271e+00 1.528581212926474819e+01
-6.606698833910060742e+00 -3.155608083440297751e-01 1.423284266646349749e+01
-6.368350828171195355e-01 1.253161262646303786e+00 1.941787933436477687e+01
-4.486247595330159044e+00 -9.200088024675734388e-01 1.398387245832510217e+01
-2.375555362767222123e-01 -3.539210408403398400e+00 1.816996632775652643e+01
-3.628231453393593320e+00 -4.447601091171554444e+00 1.961709568760020517e+01
-7.636991600328096652e+00 2.280890105841011373e-01 1.684829826013357490e+01
-7.363098676501634188e+00 2.601961181251624122e-01 1.564797240552894664e+01
-2.979587524949471877e-01 1.811416686074405424e+00 1.595143914550843789e+01
-4.461414413697617931e+00 -1.015278278292237157e+00 1.414955640025591066e+01
-2.798863818978571949e+00 -1.793644697266741694e+00 1.646711784436296711e+01
-6.980133015912528549e+00 -4.298675714777093759e+00 1.769452157020909056e+01
-7.618653350784636125e+00 -2.597761979022912282e+00 1.657549985457024633e+01
-6.975229926023470917e+00 -1.130297061924802726e+00 1.504355623693837885e+01
-5.844291945600110338e+00 -2.483197764073055591e+00 1.530902223562911502e+01
-3.441600747288994455e+00 -8.881792526760943218e-01 1.451494111353623850e+01
-7.207830640123712662e+00 1.674651962409382522e+00 1.622734116332931364e+01
-3.345529762060178047e+00 -1.382880154113890647e+00 1.561867535796965001e+01
3.857381359272488153e-01 -9.160270283270235403e-01 1.614977023593673522e+01
3.702280587959929647e-01 4.368336219763387929e-01 1.929712083544900025e+01
1.137401433186621791e+00 -2.980082142322995953e+00 1.814636329527310465e+01
-3.656539288759643291e+00 1.065891388814932172e+00 1.260434289417386111e+01
-4.097610104222581207e+00 -1.156381704259975773e+00 1.457488994258021364e+01
1.111259032239074962e+00 -7.686528026796755064e-01 1.880572240745845392e+01
-3.066948254154873599e+00 -8.539307659884665114e-01 1.472427350458350048e+01
-3.333297311086106385e-01 1.936615710535648072e+00 1.904916088061420254e+01
1.285236740798490596e+00 -1.143442630336052090e+00 1.779208177063330254e+01
-6.559698503633057953e+00 -8.488464726162825436e-02 1.870303624846047086e+01
-2.286999899560842930e+00 -6.554118732884954834e-01 1.490298645347923667e+01
-3.057738591699076469e+00 3.397497276988147963e+00 1.652545516268688175e+01
-7.673790983266131072e+00 -9.755169587498917494e-01 1.622926335240443763e+01
-5.120477511939444670e-02 6.080988403667980657e-01 1.472880728955107088e+01
-1.616604859217815271e+00 -2.615820685142569157e-01 1.471197212185754211e+01
-3.622672185262123534e+00 -3.881881772669119268e+00 1.966749117209690922e+01
-1.656321481528053807e+00 -4.049012567386162331e+00 1.811254822850209223e+01
-6.195966605843811870e+00 -2.761121574286315994e+00 1.924738151442754486e+01
-1.237687673165015712e+00 -1.359294180684504916e-01 1.470074162625156333e+01
-2.966127359494597382e+00 -7.009741036338139608e-01 1.967165160590143813e+01
-1.570797348373026647e+00 -2.739289875497772808e+00 1.985290987708781074e+01
-3.826480554649673405e+00 3.684916201638181121e+00 1.691516157526805841e+01
-1.228948392408128809e+00 -1.690177168375051053e-03 1.447863162085837274e+01
-3.985251136745675105e+00 1.951435131578181714e+00 1.898536749214390085e+01
6.903550374947603485e-02 2.209933408871177285e+00 1.796050674092948896e+01
-5.763817408061508551e+00 -3.251463197888208700e+00 1.940514692904727667e+01
-4.440004971225137709e+00 -1.507510956261266077e+00 1.504420358137733160e+01
-1.003784975355499931e+00 -1.756772815207585658e-02 1.462117376047058315e+01
-1.430147410948865883e+00 -1.033113302164812008e+00 1.603880106831257990e+01
-2.330459293692972444e-01 -3.986408030356276999e+00 1.842033552035093891e+01
9.441365076887503482e-03 3.945770585623353810e-02 1.506829607183182418e+01
-4.211924072036597799e+00 4.004487228956671530e+00 1.772561276601220470e+01
1.147500312930914035e+00 -7.815284780169848844e-01 1.861961007120144984e+01
-4.512507570694616277e+00 -4.344353946225355756e+00 1.760242314515453899e+01
-2.664441176407825296e+00 -4.650387374104260729e+00 1.816250572389046170e+01
-6.506186013470340868e+00 -4.883515278001299365e+00 1.820764509907790796e+01
2.803245329447410783e-01 1.440267389160376776e-01 1.521537227114911417e+01
-4.561949615133068292e+00 2.270730315248345121e+00 1.463354347763050356e+01
-5.707980470919572724e+00 -3.651889783628360586e+00 1.667458673721341000e+01
-3.511759843692651373e+00 -2.926924965050993865e+00 1.710607540717735020e+01
1.905932422837025020e-01 4.305598245114458100e-01 1.493066795171539241e+01
-3.284088651288910032e+00 1.045278816640582420e-02 1.294929032466195196e+01
-3.882304772917295477e+00 -5.493041524871690839e+00 1.914084273802691172e+01
-6.395100689661316729e+00 -2.355258921098626779e+00 1.915234089671245243e+01
-1.680430793511074050e+00 -4.910306475731617937e+00 1.888498521151698384e+01
7.939312326517005136e-01 -3.621784494867692938e+00 1.967634644548358125e+01
-1.990390850767127962e+00 -3.334310818754796291e+00 1.768734375438133100e+01
-5.195125826444051853e+00 -5.257363728409330861e+00 1.806426283286559453e+01
-6.315479782377738438e+00 9.282517876097325926e-01 1.854784385424972726e+01
-2.430246898868527516e+00 -1.105763751757507407e+00 1.565417802507543144e+01
-6.384057517230828260e+00 2.296938967249261054e+00 1.809507179388317866e+01
4.638542833508987329e-01 -2.218347370047328848e+00 1.990577027078360572e+01
-6.810078552225404813e+00 1.266966151692394238e+00 1.528725172318969072e+01
-4.671681263474901868e+00 -1.619242973883193493e+00 1.512027654321421721e+01
1.114548978907224264e+00 -6.158783872012039140e-01 1.844974920335226187e+01
-7.596220976899131117e+00 -1.639777159878001100e+00 1.777615097137153555e+01
4.047720100636688079e-01 5.930452542575495034e-01 1.532137846247059088e+01
-4.336884279513193996e-01 -3.563005542710711904e+00 1.989302252242404734e+01
-6.496762694277576244e+00 -1.939984221727848013e+00 1.473138687716878081e+01
-4.703048217528139396e+00 -4.896499610975752148e+00 1.784080291664766094e+01
-6.703308024694563105e-01 -4.208305897215913305e+00 1.978301640815651297e+01
-6.921379122907604042e+00 6.182851199195940062e-01 1.512490874175603750e+01
5.955182511886859542e-01 7.354100208021518981e-01 1.569050527638250259e+01
-6.597536496707215647e+00 -4.489856323833949503e+00 1.859420674186576861e+01
-4.509491975374004369e+00 -5.582375896159666340e+00 1.873584393954488547e+01
-2.001782425578598978e+00 -3.523533477713370221e+00 1.977586198346393331e+01
-5.258469401979738223e+00 -3.076581375468251611e+00 1.643750751611087679e+01
-2.305300889913751483e+00 -3.808170699032595419e+00 1.782716243140899337e+01
-7.650536882918973269e+00 -2.390293805323805199e+00 1.717482860466547834e+01
2.031053137996917113e-01 -1.662361602447899322e+00 1.677944023994589884e+01
6.549543805843347499e-01 -2.032858044969297229e+00 1.982024552365806613e+01
-4.893556090845366136e+00 1.411890820494165144e+00 1.892142193856607690e+01
-7.537359213990224127e+00 8.113364045909312594e-01 1.651454027019030946e+01
5.015823815341339253e-01 1.010711753118729961e+00 1.888268536919149909e+01
-7.531895727570335985e+00 -1.851484729610187507e+00 1.792317887313743086e+01
-4.838573578933644370e+00 -2.345725722195914020e+00 1.604029521173999484e+01
-4.492283600694669587e+00 -1.451256966374818713e-01 1.276962961256890594e+01
-2.017144655219859750e+00 1.266552056938394344e+00 1.940361989922307373e+01
-2.758854091700135847e+00 -2.066290611083714257e+00 1.675654316568991220e+01
-5.677448000660188399e+00 -1.783292416475888320e+00 1.469856861263206582e+01
-7.127491055153329036e+00 9.468797442104344153e-01 1.788958105107573715e+01
-3.786594685611143873e+00 2.376371978838138332e+00 1.887942911116023481e+01
5.402336562090936933e-01 -2.959545611212012428e+00 1.793991188206567244e+01
1.000339428294924726e+00 -3.836141917050644334e+00 1.888859633410061178e+01
5.973803983402630191e-01 6.083201995392847339e-01 1.891095231476869287e+01
-4.721938225911403997e+00 -2.841754277341727697e+00 1.958084995242700188e+01
-4.050376621888901241e+00 -1.834466807242392861e+00 1.585907164838543082e+01
-2.644428041721680778e+00 8.727717584901453218e-01 1.220965027939521264e+01
-1.202540369770802808e+00 3.310317944272729296e+00 1.785550233456548597e+01
3.765885584543523512e-01 1.264036621110916414e+00 1.893398792568901001e+01
-7.096800540680400893e+00 2.774418736658907036e+00 1.698665526520002800e+01
-6.079909789490306693e+00 2.549514608568070440e+00 1.576520844581192904e+01
-3.958336840740721563e+00 1.325671920687790939e+00 1.916094498121809409e+01
-3.104761752056578672e+00 -4.847625071736191060e+00 1.816317485962571965e+01
5.977260705478875114e-01 1.311014974418154511e+00 1.793934359944774570e+01
-1.286267763491543592e+00 5.109712404134750807e-01 1.962600986074827603e+01
-3.204786036827260265e+00 3.895176757973513038e+00 1.752547413938287946e+01
-2.755382403422987458e+00 2.115185337465891102e+00 1.424066657358893195e+01
3.385752873722704948e-01 1.577333758703451494e+00 1.873118907498805896e+01
-7.541772051362617191e+00 5.991094686184086360e-01 1.706075759684191695e+01
6.107033562801998938e-01 -1.752677838848562875e+00 1.693696600050270007e+01
9.140327445380280746e-01 -3.814341578385253673e+00 1.942528927542626604e+01
1.415383105399745656e-01 1.617883913704487586e+00 1.891822303288230245e+01
-5.061768540669281613e+00 4.988419624450615153e-01 1.280873259057476332e+01
-4.459369247166077521e+00 -1.215313165106526316e+00 1.451727558278349051e+01
1.181278065867852334e-01 2.002157029170590796e+00 1.871913675022388190e+01
-5.629085209633559295e+00 -2.193114335536086479e+00 1.937859789866087112e+01
-6.605566150680956206e+00 -2.524870467971474852e+00 1.518395908873917932e+01
-1.619498484389690018e+00 3.490864130582851388e-01 1.352139934857882508e+01
-9.056845474878644220e-03 1.688135919522834927e+00 1.899287564122420946e+01
2.411076991687657878e-01 9.941976287181537586e-01 1.549892085744166081e+01
-6.349659756456865090e+00 -4.978981770694256070e+00 1.840790412469462467e+01
-5.433594338150118386e-01 -2.587069984823712865e+00 1.997478855936477515e+01
-7.374418372009762024e+00 -3.409208504645860227e+00 1.749663468155539192e+01
-4.824187425670970697e+00 -1.654236580874867801e+00 1.509441346374487836e+01
-6.629351152704720640e+00 2.340722285410470782e+00 1.600695758615024289e+01
-4.310231540045618703e-01 2.741699272003752519e+00 1.780658881266022320e+01
-2.972447945499943511e+00 -1.671713197255722871e+00 1.976058322726839123e+01
-7.190474440750371343e+00 2.548433792924176267e+00 1.712007200089914249e+01
-2.492436531582347570e+00 9.200427887750336486e-01 1.943811764392233954e+01
-6.582226145239500781e+00 -3.323540509176208690e+00 1.902832471401619330e+01
-7.308762870644232912e+00 -3.413546300664215938e+00 1.650785512777116537e+01
-2.968645417826662136e+00 -1.391489179745543314e+00 1.580879595231574086e+01
-7.433000739488514697e+00 -3.208539046890340973e+00 1.672129049958128633e+01
-8.550784873896820626e-01 2.300335446191488664e+00 1.905923903394592855e+01
-1.006337029299096075e+00 1.110343980227490590e+00 1.396115286162061153e+01
-5.888201338605675295e-02 2.131531653938639970e+00 1.700132632209652428e+01
-3.677491170725654346e+00 -5.406165092222821045e+00 1.925921331162001593e+01
7.266487581453233702e-01 9.195688377411472825e-01 1.649504425193411095e+01
-5.212030086250389438e+00 3.919987807650299416e+00 1.775671643802616018e+01
5.508500760689161169e-01 -2.072756023963169270e+00 1.718847952691780989e+01
-2.406080647396338090e+00 -3.318288575389424455e+00 1.978861614578985950e+01
-5.914928580646949818e+00 -1.154221583694147846e+00 1.918144573431533217e+01
8.675441817607334460e-01 -1.997032001345531160e-01 1.887391166670431630e+01
-1.010926296598233076e+00 2.483579058411573559e+00 1.900959293188461174e+01
-4.023224072832141118e+00 3.055912860364395023e+00 1.858511613101146054e+01
-2.066823855160572876e+00 -4.794196349656695944e+00 1.959260666076501423e+01
-2.439872029916339446e+00 3.824348824649468348e+00 1.768060995389833323e+01
-5.091122609913435682e+00 -1.547099362068369288e+00 1.477564970243739850e+01
-2.162711579489467795e+00 3.116048994919073500e+00 1.880341144307803347e+01
-5.841722336986985731e+00 2.061408941378461535e+00 1.844046505380084255e+01
1.331845831417920678e+00 -3.206646366471100240e+00 1.889084730644358245e+01
-2.182209269378349248e+00 3.307768220655324054e+00 1.872149048822406314e+01
-3.247078630073192862e+00 2.956106328681061601e+00 1.876039271401108977e+01
6.377471095765295805e-01 7.491467870241836913e-01 1.586660024620465492e+01
-6.612146049834017880e+00 1.962371347257613197e+00 1.805070865013192360e+01
-3.244606082102253541e+00 -2.940760654438326238e+00 1.718785351767260039e+01
-2.848877020333885124e+00 -4.502575503922241040e+00 1.966224855648922443e+01
-4.030135311892461658e+00 2.759555835878249486e+00 1.870058150184049595e+01
-4.498446838415449456e+00 -2.874258071272433934e+00 1.670259894027388015e+01
-1.750188304481015811e+00 1.032737032062843507e+00 1.312828022217545509e+01
-1.241911773991186907e+00 4.521684419325372462e-01 1.964169104289489098e+01
-7.275155109542239096e+00 1.795367218235341955e+00 1.732301534715320912e+01
-4.978067605706696597e+00 2.396018226961341924e+00 1.861061678766611749e+01
-6.555558098247965759e+00 2.493838906792885446e+00 1.787519310704453801e+01
-6.450529801627721049e+00 2.892507187047017148e+00 1.777797285048618647e+01
-4.216450779862642939e+00 3.987102387529129821e+00 1.795110149951899103e+01
-1.206866860753729620e+00 3.355374736650721168e+00 1.847162932651908562e+01
-3.774751902027051464e+00 1.397944439025183394e+00 1.307006144914271317e+01
-4.082111022634061226e-01 -1.656326277183536089e+00 1.680959295618558968e+01
-6.776725934250246830e+00 -1.730019218742254949e+00 1.894308400859760155e+01
-7.651209648919737205e+00 -2.426426354872667002e+00 1.674350693098479326e+01
-6.820574300165618276e+00 2.927627530395132904e+00 1.738834022889584219e+01
-4.864851776271322592e+00 -2.254723750611244526e+00 1.589815413111875841e+01
-4.598877029944731021e+00 -2.784234889935218948e+00 1.658423737319900226e+01
-6.005375297969034243e+00 1.803685027124250606e+00 1.845172985722268777e+01
1.259152149684589661e+00 -2.215009950474561506e+00 1.913766900856025899e+01
-1.798735047208511073e+00 2.900684466722059263e+00 1.889641809881103995e+01
1.399732870508122451e-01 -3.472490395246878858e+00 1.819938694696897130e+01
-6.109562267464498930e-01 2.787561621125378419e+00 1.759112182128434654e+01
-4.940260640885840715e+00 -6.371176054274299005e-01 1.935121541581332139e+01
-3.486937370388234037e+00 2.869507322149210671e-01 1.238113412131855284e+01
-7.055905695623915008e+00 2.823350133457021016e+00 1.712998217221699093e+01
-7.267770130698397502e+00 2.378800021370423234e+00 1.698637677047821626e+01
-4.266836914918510359e+00 -4.628019826723921426e+00 1.954166654056921004e+01
-2.882511431201796981e+00 -4.658962958656443831e+00 1.810837831186999125e+01
-7.195034571519967947e+00 9.342992884904988138e-02 1.523964072711119400e+01
-7.244681487363764383e+00 1.529604138757942655e+00 1.618546414474857187e+01
-5.680433541538701725e+00 -4.237237980145632577e+00 1.728609776981027579e+01
