-2.259888582289738324e+00 4.492723480657716095e+00 1.640845385726637318e+01
-2.319864974850347927e+00 2.594217915430685473e-01 1.695141740272482167e+01
-1.190355792884084885e+00 -4.010453075319312610e+00 1.463091754908466413e+01
1.819714830929406668e+00 -7.734224133496434561e-01 1.393651758970497667e+01
-3.506380450432440732e+00 2.287108347722872637e+00 1.681916730185999143e+01
-1.123553047606381528e+00 -4.244302638744331446e+00 1.547872162579940181e+01
2.367974056710373532e-01 -4.264456324097798401e+00 1.509767814779561235e+01
-3.432113036073200618e+00 3.866977401400673475e+00 1.342353105387707757e+01
1.548534762363165784e+00 -2.034779859561229198e+00 1.613243705743646217e+01
6.632606869962218710e-01 8.456415363726529355e-01 1.645861097988392885e+01
-2.129259853420287563e+00 -2.423421988792530790e+00 1.402535246068783437e+01
-3.277101429464424953e+00 4.677891036248857937e+00 1.662827432327772215e+01
-1.664546466948827907e+00 -3.623887452927331054e+00 1.609778502979790460e+01
-5.909332968114505036e+00 2.171753489749173927e+00 1.652043949241795673e+01
-5.797348400407570601e+00 -2.863964785918168054e+00 1.353258735880145025e+01
-1.418349723216583591e+00 3.102104883684360992e+00 1.429872579284123901e+01
-2.953444496376152806e+00 -7.320769634485211341e-01 1.692630190236695142e+01
-3.026267447622079665e-01 1.972768488196494641e+00 1.706034938817612812e+01
1.858295923222321511e+00 -7.615462474158185557e-01 1.414485109942796015e+01
-1.677602838420007458e+00 3.875252119896349878e+00 1.654483711004442625e+01
1.839377538095050335e+00 -9.057564962477031578e-01 1.518681196065916339e+01
-2.352896705448018544e+00 -4.594792573764692634e+00 1.504402341763252338e+01
1.744163682840043306e+00 -5.623843312521885629e-01 1.537622879715608093e+01
4.288374559064669356e-01 -3.719925095162516016e+00 1.452287655941260169e+01
-5.322372887524504215e+00 2.746494382930123379e+00 1.662021967052482552e+01
1.694262808333175441e+00 -1.955135387644162392e-01 1.541587668040029513e+01
6.429222630068252009e-01 -4.055394828108624949e+00 1.534940839970150250e+01
-2.598971510006859109e+00 3.675184294577315214e+00 1.336928011300916808e+01
-7.444486533460719091e-01 -2.687634605132815047e+00 1.401302413615442788e+01
-6.350242325959605694e+00 1.187213690643022623e+00 1.169979422157236115e+01
-5.862875221954422678e+00 3.763561055058212368e+00 1.637360197642854587e+01
-3.661798283193179460e-01 2.560188084142529519e+00 1.636595269404824649e+01
1.814053048769882048e+00 -9.182832832719234339e-01 1.378088281203223175e+01
-1.141227778480687904e+00 -2.245820758481468893e+00 1.404631354084326489e+01
2.005791583330930550e+00 -1.543346891638346818e+00 1.394394461483315695e+01
-4.969605118005823385e+00 -3.331629058156130974e+00 1.384573724495969316e+01
1.629241673119729006e+00 -7.803469092263877194e-01 1.593055992654421260e+01
-4.587666916581402132e-01 -3.340078406619673146e+00 1.598418131465329139e+01
-6.326385597614325285e+00 3.001146742321446403e+00 1.460067539718970409e+01
-3.274290796214484267e+00 2.474828680129435021e+00 1.682030369320747099e+01
-2.088154418697058201e+00 1.636810182824097959e+00 1.699069188289919197e+01
-6.231891687982431094e+00 -4.435008098225246442e+00 1.460530729121526150e+01
-6.392710251697429236e+00 -4.452694109027661717e-01 1.236261485400908811e+01
-1.823404371295006987e+00 -3.520662306062140701e+00 1.617269020253090872e+01
-6.803299605222461466e+00 -2.773574344418893389e+00 1.586098392171133753e+01
-4.173369613031558067e+00 -4.784511118411958641e+00 1.539050993524742239e+01
-5.507785761885455322e+00 -2.314881826908488094e+00 1.336304300691299574e+01
1.687061590048095860e+00 -7.498454995372250131e-02 1.537238398019029972e+01
8.889904072392185164e-02 5.387964828179792054e-01 1.264412864242068935e+01
-1.561117728729525034e+00 -9.535735394204376547e-01 1.685939731796170804e+01
-5.887481921353455938e+00 3.380547274312299955e-01 1.671440567420378187e+01
9.695121110541509157e-01 5.810915295319105667e-01 1.317175388048463702e+01
-7.361761550261039844e+00 -1.712581871458445537e+00 1.514713674438635138e+01
-3.575753194923315448e+00 7.285074196834289140e-01 1.232434221889138115e+01
-1.054712727766520253e-01 -8.032547858627565596e-01 1.328264788042704225e+01
-2.293978450016287418e+00 1.795037954448885253e+00 1.110796985127299052e+01
-6.444611594992887049e+00 1.670631484890002127e+00 1.267475726757533749e+01
-1.547174241932397720e+00 -5.654006280807934992e-01 1.690053423092691531e+01
-5.226211759856237649e+00 -2.662126449050985499e-01 1.683303844378259129e+01
-3.199520928995664981e-01 8.292537967863353732e-01 1.709939172306787469e+01
8.622057010944725874e-01 -2.082715651299324566e+00 1.377247349970086532e+01
-2.606404959511883668e+00 -2.490817212514937040e+00 1.663831775441600058e+01
-2.697575834687779839e+00 -6.653686712890642951e-01 1.372329818167440862e+01
-2.153911372801946555e+00 -3.061021356355927203e+00 1.400511898337264682e+01
-7.292542020246443712e+00 -1.687435633517639921e+00 1.361757901514257441e+01
-2.196865030722138457e+00 1.102795973077591585e+00 1.207046314523838504e+01
-5.467612197464101875e+00 -4.016852326726528588e+00 1.575056916612686564e+01
4.805951801422543301e-01 -6.223232891696786062e-01 1.694581295800697518e+01
-4.308923451094361923e+00 -2.932804658132551978e+00 1.647000504352890715e+01
-1.094128422834672598e-01 8.002228383249361254e-01 1.710144687017615439e+01
-3.319159625121217871e+00 -1.015371038791992309e+00 1.381868805490343988e+01
-3.465697286868969940e+00 2.658142341425523192e+00 1.677621885730459894e+01
-2.560944689898528637e+00 -4.637850925775024002e+00 1.554968676654080184e+01
-2.211096659906711892e+00 -2.932891287091791810e+00 1.646951759708525742e+01
-2.107221305531172817e+00 3.056487897601700254e+00 1.252075309136870374e+01
-3.159253912409518250e+00 -1.482302171094789234e-01 1.342791002611414086e+01
-4.079461478970871191e+00 3.333500627733454902e+00 1.662626482115688731e+01
-5.504336555073282566e-01 1.718614103706417318e-01 1.290307453576783558e+01
-5.736894471281154928e+00 1.919337813068722198e+00 1.170114280304111531e+01
-4.217799607472882961e-02 1.935811359767392270e+00 1.394991301553108087e+01
-5.882901115221619293e+00 -4.108610584580352665e+00 1.552073723158283514e+01
-3.306143218263610351e+00 -2.013830519834114430e+00 1.399877575202359026e+01
-6.387760458531158037e+00 -3.792248268079183582e+00 1.395584840477157940e+01
-4.181462871492562350e+00 -1.512777432749961903e+00 1.680479359511128479e+01
1.788900373512530839e+00 -2.393510949163233370e+00 1.569998863811908052e+01
-1.341654299388902460e+00 -8.325943495896659385e-03 1.335439732292191195e+01
-2.926113638740022616e+00 -5.841660607907699365e-01 1.368100867100319817e+01
-1.882020192882628340e+00 3.317764906514497625e+00 1.373517127035485430e+01
-3.818664471633716140e+00 -2.315472672559184097e+00 1.666583986696110031e+01
-3.311953333326927762e+00 6.195225171378451190e-01 1.248064649586165586e+01
-7.501744375182253233e-01 -3.431029441377558165e+00 1.422587995540559547e+01
-7.145249587775581723e-01 -1.051038167577862836e+00 1.373331333833394297e+01
-2.960510709002966756e+00 -1.579560106731277003e-01 1.343283148939931237e+01
-5.722136441605610635e+00 -4.641580869743219928e+00 1.474584622646555943e+01
-4.203871855114932110e+00 3.135603430532807323e-02 1.288936179338849541e+01
-6.956368214554793816e+00 -2.423877822330596565e+00 1.579704514199561771e+01
-6.007786016160587828e+00 -4.395593349896048885e+00 1.436099420853163622e+01
-3.690325920520547420e+00 -1.687980133812346129e+00 1.390258135129197825e+01
-6.317050140399234515e+00 2.968405321959425081e+00 1.619950548616174757e+01
-2.506050091023944049e+00 -4.545232586342268455e+00 1.565217544905362956e+01
1.308529250349514284e+00 -3.684739623659477381e+00 1.471906573661762252e+01
-1.323708458915601849e+00 -4.241044029756320555e+00 1.552425923620168646e+01
-7.792926659698524716e-01 1.095829864437836809e+00 1.221123540436708055e+01
-7.287761066128956244e+00 -2.118063722465649334e+00 1.515152924056229011e+01
-5.675325691590552779e+00 1.142663818441372658e+00 1.674356076482087019e+01
-4.715918497610361193e+00 -5.662936142731185285e-01 1.311993732670711665e+01
-2.634011371366026921e+00 4.471369064415380734e+00 1.667590634822957441e+01
-5.196920840352875715e+00 -1.074791698427609798e+00 1.677396524550465529e+01
-2.215468531560826904e+00 4.416405133119349458e+00 1.671580521232760219e+01
-7.431360743584242812e+00 -1.686703342171204323e+00 1.436928538476699657e+01
-3.104304423980352112e+00 2.663314745260348282e+00 1.681352269395144816e+01
-6.187153669254227495e+00 -4.275797055599110053e+00 1.426613751231732863e+01
-2.589280531441340294e+00 -2.137523518296367442e+00 1.674002636341086259e+01
1.711799655334325099e-01 -2.388347364973571807e+00 1.636291919199731382e+01
-2.765887000797198070e+00 -1.083882360927404864e+00 1.387139071549088243e+01
-7.133831383741141785e+00 -1.455339460059174250e+00 1.320766341077504080e+01
-7.102506618151365636e+00 -3.288433501131866166e+00 1.431114279289574398e+01
-5.545724527219541677e+00 2.346690665573504475e+00 1.662551315228739668e+01
-9.374671874642160896e-01 -4.298118026310032924e+00 1.493286744547653910e+01
-6.520893591105167530e+00 3.197623100595273549e+00 1.595280976697014097e+01
9.902708869555689741e-01 -2.615458707050792420e+00 1.618494386005587415e+01
-5.098485937812393232e+00 1.295761545471164844e+00 1.684668378305290304e+01
-6.816321759911452283e+00 -2.064670298239183577e+00 1.310065753758394891e+01
-5.646409293009472918e+00 -3.055769829752488675e+00 1.627698626597703679e+01
1.268526243620603067e+00 -1.030186348610071523e-01 1.339363624508999351e+01
-1.918227810944610923e+00 -1.008152932607002672e+00 1.390921243974759847e+01
2.158323107110974526e+00 -3.006551417226137168e+00 1.460627067990060368e+01
-4.882860416431168638e+00 2.671773842857323000e+00 1.188542564682862235e+01
-1.395034893595786585e+00 -8.381768612691105069e-01 1.381057867683421136e+01
-6.217182071330671356e+00 -5.166540386794427064e-02 1.219805969575766369e+01
4.386304577604471788e-02 7.739645538455297569e-01 1.252148457363824718e+01
-7.142469828865993797e+00 -2.436883293519006344e+00 1.357120875046032182e+01
-4.765702542978902834e+00 -2.322775732116173941e+00 1.376611966694029832e+01
-6.301184364634416113e+00 3.388747236515648353e+00 1.616557718518134124e+01
-2.542348838376258691e+00 -3.398062641405933171e+00 1.409986921472555821e+01
2.225850137587018551e+00 -2.778251755847539251e+00 1.462659891912509380e+01
-4.724068413220982698e+00 -7.347606332275846697e-01 1.322872427924903604e+01
-5.138842816409797898e+00 8.772895221896320761e-01 1.191162489224079479e+01
-5.022161229341149280e+00 9.886455374236773341e-01 1.180839526750005319e+01
-3.616524127188155191e+00 2.614466724299841172e+00 1.058006752937752282e+01
2.220683773633852276e+00 -2.741530023646818748e+00 1.445331492515640548e+01
-2.617505152795998935e+00 1.728540690161237903e+00 1.107978020762327276e+01
1.650221234119213287e+00 -1.609047561569182605e+00 1.600299834088003337e+01
-6.991424155444962985e+00 -3.519207746015142746e+00 1.429538960161450944e+01
-5.909369759118558996e+00 3.159509534285999788e+00 1.638914509102760775e+01
-6.551038101896008214e+00 1.396109991831413266e+00 1.628643492633043621e+01
-1.586388142451738981e-01 -2.708710729765601677e+00 1.399276703048224135e+01
-7.022481525027641780e+00 -3.349504212747214105e+00 1.407530868400186108e+01
-5.094208283590933917e+00 1.729208155112213596e+00 1.680011025018103510e+01
2.071346846735308667e+00 -2.807415581517304304e+00 1.438100352102346591e+01
-4.942676611501156003e+00 -3.709479297200282133e+00 1.606871764084057475e+01
-7.720714352645867695e-01 -1.986038027931285033e+00 1.658916262018878740e+01
1.851783503855180646e+00 -3.349199322354905028e+00 1.519526976033717602e+01
-4.228191212694581758e+00 3.886278340162592215e+00 1.385044419153087603e+01
1.897968184588054497e+00 -2.148952744645173940e+00 1.402606141947509144e+01
-7.449021450346432260e+00 -1.100279464720208988e+00 1.458758520815668192e+01
-4.088344573482404876e+00 -4.088652387435711688e+00 1.598625132334473165e+01
-4.511225464725766798e+00 -2.699328979244675075e-02 1.277555752962069135e+01
9.130463258447198971e-01 -4.965286817436669331e-01 1.326738992663292294e+01
-4.723742827261939503e+00 7.022866330847186145e-01 1.689956940351277836e+01
-4.720984683025625905e+00 3.233516766163468947e-01 1.690365053473316692e+01
-3.268204100493902864e+00 4.833953682509330996e+00 1.626333486920697169e+01
1.493864205243066179e+00 -1.953628433180061741e+00 1.621430522549013631e+01
-3.464631433590035670e+00 -3.126426641882888546e+00 1.400806998175408324e+01
1.057023884835338157e+00 -4.359106682810267586e-01 1.661150124379859960e+01
-4.306540851948934545e+00 7.118437176924841125e-01 1.689142758224929963e+01
-1.296417822451529922e-01 -1.072239104009267585e+00 1.344830145803203436e+01
-4.922331744503311235e+00 -1.122770925150079702e+00 1.679413782287332424e+01
1.209821014582085796e+00 -1.040801048247050886e+00 1.660758770719128563e+01
-2.191590734621239989e+00 1.891400076742276726e+00 1.103667365507688203e+01
1.780660251958734674e+00 -6.141815400147723203e-01 1.519532951594912618e+01
-2.611426616958865576e+00 4.567257720368515628e+00 1.620686650901438952e+01
-5.175785718497995624e+00 -7.190164626583319674e-01 1.287982169708099889e+01
-3.781290713262905001e+00 2.533091862029514640e+00 1.005109077348345892e+01
1.358352474760551543e+00 3.499322545018259678e-01 1.580496480017623639e+01
-1.180074968819735393e-01 -1.287590589661605112e+00 1.357714805905622057e+01
-4.711797645846099059e+00 -1.033940770250045382e+00 1.339408677465466013e+01
-6.966679780552122558e+00 -6.334576739701800463e-01 1.279801972344971972e+01
-1.110950958849106440e+00 -1.231346239508937401e+00 1.390054828440679557e+01
-1.144556136488410703e+00 4.670822295315040229e-01 1.281242444956492932e+01
1.467731984996628158e+00 -3.581093536500562280e+00 1.537408814581274896e+01
-9.878548157163552501e-01 1.499935931593648908e+00 1.184401423148005961e+01
2.684714781626331703e-01 -2.087658736922346936e+00 1.381023654586817884e+01
-2.671499383143141060e-01 -3.362134112776491435e+00 1.593703548582491436e+01
3.109114995131916359e-01 1.666206655380064738e+00 1.372853332963371287e+01
4.799670509287603526e-01 -3.333378519883260616e+00 1.427033028377824309e+01
1.179234130331548114e+00 -2.192606690382010726e+00 1.633013583410279068e+01
-6.839661975084803558e+00 -4.158633250032992557e-01 1.627475456077278437e+01
3.310984366666192003e-02 -1.897439742576533028e+00 1.381113889723462052e+01
-2.198772776641262361e+00 -4.610914609495420535e+00 1.535553330602899536e+01
-3.300060302394527412e+00 3.107136993662208191e+00 1.673083499736470259e+01
-6.553382038917921371e+00 -4.150745247943989469e+00 1.462509108795030244e+01
1.332975202303908757e+00 1.022454801172223871e+00 1.465464733457130109e+01
-1.575223462146609466e+00 2.571465669462838832e+00 1.228032372432716102e+01
1.574850350964270396e+00 4.063630364007413398e-01 1.521438869170307839e+01
-4.892142328056535483e+00 -3.783013416754021918e-01 1.286929238164029954e+01
-4.733285667983326839e+00 4.620443671365712213e+00 1.592790818974275879e+01
-2.346881842835950138e+00 -1.864556301102275881e-01 1.694073548235063242e+01
-1.965502122678640218e+00 -1.169806471267612391e+00 1.685795028137027884e+01
-2.275974077483131186e+00 -3.967587796064513839e+00 1.450908072549140826e+01
-5.090602145610806595e+00 -5.688223946077699544e-01 1.286564344970275187e+01
-5.155956925083080122e+00 3.409655651114904540e-01 1.232349862160614862e+01
-5.217350216427606213e+00 7.696502104180762416e-01 1.198743883629239804e+01
-4.976220822553639067e+00 7.951302626881360247e-01 1.202241099342757735e+01
-4.515725469546946869e+00 -5.954904661866531335e-01 1.323464629797671677e+01
-7.369315482321921351e+00 -1.457299367403708246e-01 1.547532819929845971e+01
-3.577450252338675085e+00 3.163607939336621655e+00 1.152835554986819488e+01
-2.137407906755002251e+00 -4.432462639680156968e+00 1.569725759794776110e+01
-3.332763752259904955e+00 1.065259654620456464e+00 1.693258112151268335e+01
-5.302024719795630503e+00 3.544649071203368695e+00 1.649979300215757405e+01
-2.684036717584965537e-01 -2.936235282301495886e+00 1.614857401961486971e+01
-5.007992542817789605e+00 3.435815579764793348e+00 1.349492531221489600e+01
-8.941361773958701464e-01 2.996049331532784965e+00 1.665617746654857001e+01
-7.246984590364380807e+00 -2.532304965490531856e+00 1.495862176489843165e+01
-6.181589471344073328e-01 2.643273903947612080e+00 1.504939546874359024e+01
-3.193951288760334073e+00 8.432231052004396377e-01 1.223163746408199870e+01
-5.875793496064646959e+00 8.418857728678385000e-01 1.167157430040879262e+01
-3.729281889575389641e+00 1.639076417654385276e+00 1.102552607656867423e+01
-2.489538682453025675e+00 6.332491814210221559e-01 1.696449741577333725e+01
8.691244202605175051e-01 -1.623159528401742602e+00 1.662117676309620862e+01
-4.167526419282771677e+00 6.557320022280843652e-01 1.229347810353414161e+01
-6.355971085342066118e+00 -3.681222928314873855e+00 1.568267877502159280e+01
-5.198503175084405292e+00 5.721765843512611749e-01 1.215316543448160047e+01
-1.914620638194785451e+00 -4.166432737722123747e+00 1.469264262108731600e+01
2.257835372051517631e-01 -6.311407006596336799e-02 1.291439618206425166e+01
-7.252668131370466398e+00 -1.578748747734914470e+00 1.557174633479176862e+01
-1.608304345463451579e+00 -3.927180663893556023e+00 1.453373551032729694e+01
7.885556868308289946e-01 -3.683903763395430353e+00 1.558729672317146253e+01
-7.183316516912147343e+00 -1.148005563795820194e+00 1.579265638802015559e+01
3.348500333703290366e-01 1.369113883664428988e+00 1.674674400086873050e+01
-5.193368889333170868e-01 -1.042134389608267320e+00 1.365620400067491857e+01
-4.596375162844789308e+00 3.801634240394352382e+00 1.390193156022444754e+01
-4.025689963841576180e+00 4.522174872031206050e+00 1.654391912040529178e+01
-4.541023150612538473e+00 -1.458805057001122396e-01 1.287114763551737440e+01
-7.323476966039055291e+00 -1.561693523869926103e+00 1.538420845392658975e+01
-1.360209732169032071e+00 9.606781695840004298e-01 1.234913044516011382e+01
1.803186945448157497e+00 -1.329277258141232654e+00 1.378826970526925066e+01
-4.049666399940710093e+00 -3.330491821110362238e+00 1.633026083166597431e+01
-6.096199028781202678e+00 1.167382900173989935e+00 1.658706448210002549e+01
1.428196533051236061e+00 -3.916873313235686105e+00 1.501537654394037702e+01
-2.726595291606855653e+00 -4.701174316107942452e+00 1.521157808527822652e+01
1.280365793782584083e+00 -3.989458463960432688e+00 1.503129551934590324e+01
-4.595096725034476748e+00 -3.782469830990923931e+00 1.408594124337918174e+01
-1.789978585358637408e+00 3.233468365497071950e+00 1.369993124273693041e+01
-1.758772751630572007e+00 1.595175492439496079e+00 1.156526822045469771e+01
-6.997057153234396587e+00 -1.294390853410332554e+00 1.297387336208095832e+01
-3.951683695037816690e+00 -4.654175727352661163e+00 1.484896545529748124e+01
-2.369436292425958435e+00 -2.157946811833248990e+00 1.672717680944920460e+01
-2.408872908229362952e+00 -1.754303796104048185e+00 1.681171645528570480e+01
1.419978450636852907e+00 -2.274112746233523552e+00 1.396087998639865191e+01
-2.791527982040986622e+00 -2.991355913783068310e+00 1.402716627174637409e+01
-6.578737222229328552e+00 -3.771054081051063989e+00 1.398078333048265876e+01
-5.090887202262313949e+00 6.237680775052776294e-01 1.687474253428705850e+01
-6.289910568414281755e+00 1.573669832195698337e+00 1.643047643502352173e+01
-3.584800483872196963e+00 3.090399269901186408e+00 1.136131253371408434e+01
-9.590442805203395205e-01 -7.781154794540809938e-01 1.687288436435997596e+01
-5.635417690974422911e+00 -3.239379783152373626e+00 1.371558172251863539e+01
-6.804051205424423543e+00 -1.068769280360727603e+00 1.276479759853403095e+01
1.136415824421290521e+00 -4.032926540284875294e+00 1.502736235425263089e+01
-5.471466466400434214e+00 3.791002071153371400e+00 1.644714668658972556e+01
-1.770227677149595058e+00 3.556365854871518017e+00 1.472187764537315502e+01
1.837226078826076803e+00 -3.535646847910961732e+00 1.503086818381173373e+01
-1.023145054379096308e+00 -2.348675985098219954e+00 1.649468924375699430e+01
-3.707337233385636033e+00 -4.042587356831487178e+00 1.602666603011216750e+01
-7.227839776059682642e+00 -8.934924883674453255e-01 1.324089787113957328e+01
-4.562466368801359806e+00 -4.387968545404040022e+00 1.452389097618583946e+01
-6.084910104402421638e+00 -3.621797197899889298e+00 1.587297461771628093e+01
-1.471161700246016446e-01 -4.072758165461985769e+00 1.476639915886448762e+01
-5.336073218683560881e+00 2.958368284649997459e+00 1.658625808180773475e+01
-1.275666536130871442e+00 2.032462012101795334e+00 1.708366195080569838e+01
-3.324229757215386272e+00 -4.079469425945299044e-01 1.357363937719102864e+01
-3.840616003049853511e+00 2.372391231940596423e+00 1.017775915484661908e+01
-6.598003463350262443e+00 1.356491947696372824e+00 1.245194209732366630e+01
2.051202042562620065e+00 -1.364090697009872066e+00 1.430504095882055537e+01
-2.387672549623275131e+00 -1.982011411663417988e+00 1.676830414185490525e+01
1.210592929123133432e+00 -2.449185217796737923e+00 1.619926060232899090e+01
-3.478632522273248817e+00 2.539974410942949845e+00 1.014247331759356996e+01
-1.553083318811460334e+00 -8.481130496637989680e-01 1.384210666194226036e+01
-1.744528645651719501e+00 -4.036279894911907640e+00 1.460718022300646624e+01
-6.419476180241207253e+00 1.197837286855691907e-01 1.214815131151506478e+01
-6.593311793730965320e+00 1.263804765236440364e-01 1.224652224181152604e+01
-3.923395380530344312e+00 -3.123523620050061567e-01 1.332371791466196242e+01
1.340265129941188738e+00 -2.577753915901380921e+00 1.607448683960499380e+01
-4.233089896456016632e+00 1.422830328207950190e+00 1.122043166604536424e+01
-5.005357698994664872e+00 -1.863861481853663626e+00 1.669098827841261823e+01
-3.779525568280689640e+00 1.881533735243613670e+00 1.072759641388051222e+01
8.410389052593196801e-01 9.912303293786066671e-01 1.609152399103741971e+01
-6.582294143307281686e+00 5.603045379803452963e-01 1.207738050287660769e+01
-7.427689618344463618e+00 -1.140008030984476228e-01 1.466766624901885052e+01
-2.213995099560726043e-01 -1.992775600899006960e+00 1.654722327601457721e+01
-5.311331279653906279e+00 -4.220039333316263352e+00 1.561159849581085979e+01
-2.606579875844120764e+00 1.154008236750245109e+00 1.191856601813645966e+01
-3.551287191259057785e+00 -4.796310920388213717e+00 1.526179995904178810e+01
1.321750618128242349e+00 -3.788152741724416295e+00 1.479955521665899454e+01
-4.691837060550306582e+00 1.688902491480734014e+00 1.683140139084815701e+01
-8.890162357437169094e-01 2.089736678321529872e-02 1.696232440999816760e+01
-1.740029519990278217e+00 -4.136611225350427468e+00 1.469027532367466904e+01
1.673976136248451541e+00 -3.346084720958919512e+00 1.539818856723055518e+01
-5.398017318259460851e+00 2.807695778936373454e+00 1.277991447448463447e+01
-2.695443413247754272e+00 4.495616761003750739e+00 1.581213673316192114e+01
-1.378065916869932739e+00 -3.445003315220880324e+00 1.419874451929073444e+01
1.800683665548520329e+00 -9.790938698476776558e-01 1.538141609245435149e+01
3.158455061441189926e-02 -4.181439705052994782e+00 1.534777759133598352e+01
-2.402688305966433902e+00 1.462367904757114534e+00 1.146653431785226473e+01
-5.763247491293588709e+00 -4.167417645069593668e+00 1.417718227340085235e+01
-2.521404367940618396e+00 -4.357954087827917711e-01 1.362612212586765992e+01
-7.292719195034440993e+00 1.297840538945527200e-01 1.329771618177213099e+01
-7.385048456003132422e+00 3.034976168447689471e-01 1.429308004415744904e+01
-4.574464886953472309e+00 2.292000772516650020e+00 1.060267102365833836e+01
-6.044813371746480257e+00 3.762210945363768211e+00 1.631497292029973778e+01
-5.903103052025156394e+00 3.578394044010125175e+00 1.636929514935017949e+01
-2.980834293511238187e+00 -3.210274808468590813e+00 1.403915734110896807e+01
-2.833527497040601251e+00 -3.668440689466670790e+00 1.620266755494097310e+01
-1.955022333572787652e+00 -3.645535303679151795e+00 1.613327498080963096e+01
-6.976798022697915158e+00 -2.697728279147613151e+00 1.347660427471281253e+01
-3.336324904719164763e+00 3.689141775138558010e-01 1.283709697030632668e+01
-6.951157325704921064e+00 -3.078630697705357910e+00 1.368703093943420868e+01
-1.271464909590770409e+00 2.432078604361190166e+00 1.264530258496057513e+01
-6.992173939943731931e+00 -2.068288824743587107e+00 1.321188490450312969e+01
-7.412760738166130459e+00 4.620954798804493002e-01 1.505364602891071257e+01
2.753162073935124798e-01 -2.592847293862594604e-01 1.299489614144050620e+01
-6.989125810579959186e+00 -1.874721869769370830e+00 1.313903628699213755e+01
-1.257858530567206978e+00 -3.148073315083582457e+00 1.623233918361184180e+01
-5.206732664178828962e+00 1.299257449408570686e-01 1.685342921940127781e+01
-2.124488894824926977e+00 1.051392859814058944e+00 1.697663756215472830e+01
-5.796649859499817481e+00 7.457931803257440428e-01 1.179776405380094673e+01
1.757078221665126394e+00 -3.810224019234715875e-01 1.476490634229273269e+01
-4.572049312376925023e+00 1.094860153760602195e+00 1.171586557923633620e+01
-2.055248640513718250e-01 -2.477280374912047556e+00 1.398302143707415723e+01
-1.304857638639234096e+00 2.731290343608009596e+00 1.346909437336456250e+01
-7.166839919290980632e+00 -3.104475800907484206e+00 1.451503197608301576e+01
-6.818232746800898525e-01 2.004517470755267983e+00 1.709081737163604231e+01
-7.199692457093611608e+00 -2.929543959338447578e+00 1.469366674615086765e+01
-6.551706179188369283e+00 -1.610614066791903110e+00 1.647025688847604386e+01
-6.398160484688414584e+00 -1.423946221107222687e+00 1.655688707024400230e+01
-5.358169694149196083e+00 4.069248248185658667e+00 1.513103347191185577e+01
-7.170191886472871978e+00 -1.687075173529179128e+00 1.333589053821700787e+01
-2.343464584393652572e+00 -1.662821657737989511e-02 1.336950065224073825e+01
-2.330299182986175222e+00 8.380740738610612528e-01 1.696493112760804678e+01
1.088256363595999199e+00 -3.966986709054627802e+00 1.525574788840238938e+01
-2.345824434073829678e+00 -2.219030111968689489e-01 1.352935299530352609e+01
-3.137959313616822676e+00 -1.977035335373237945e+00 1.401930376427871039e+01
-6.411609715692425659e+00 -1.837334970621350649e+00 1.650046701283482520e+01
-5.283337463293553249e+00 2.130826165048964160e+00 1.671736520934437209e+01
-5.990950142146253654e+00 2.879608736371127797e+00 1.374852149427724868e+01
-2.368692790385563463e+00 -7.906624215031561320e-01 1.379762496824638163e+01
2.997394545352469741e-01 -1.410233734167363195e+00 1.347311463730888192e+01
1.664174985717927768e-01 -3.614807384531316004e+00 1.438512192860953576e+01
-3.365411410919985968e+00 -9.107549278350473010e-01 1.688822489617158595e+01
-3.981356617331185177e+00 -1.034912153268834345e-01 1.313293425194371622e+01
-1.991185085438794466e+00 -7.624603188216343419e-01 1.689423542906646958e+01
-4.360925454764591258e+00 5.299394216500261656e-01 1.236248131611972667e+01
-2.746408853935487837e+00 -9.929183991016308219e-01 1.384426028403628095e+01
-7.374689045651849462e+00 8.862584546162466381e-01 1.490042044795196574e+01
-3.315505777321063441e+00 4.645129888952586938e+00 1.567355573230672405e+01
-7.101226407838248988e+00 -3.312943766057656170e+00 1.448852900332013860e+01
-3.586554904061867610e+00 1.569392323806442224e+00 1.112037756874275374e+01
4.491462849521097311e-01 -2.223818027217498106e+00 1.382448403706504081e+01
-1.522846512149997888e+00 2.155099698003963837e-01 1.320859604791957054e+01
-7.393788812182391368e-01 -2.455118554031458622e+00 1.402033358660489881e+01
-6.651833619145982368e+00 -3.574801396232115458e+00 1.547193068580524766e+01
-5.539140276144056685e+00 -7.440196478251817069e-01 1.264824841321131998e+01
-9.603999840504724439e-01 -2.256342991354403971e+00 1.403670768061645191e+01
-6.639679127824773097e+00 -1.598813205843924834e+00 1.641686053032785964e+01
-4.564743146956670827e+00 7.535846551658909043e-02 1.266469598209683767e+01
1.005450319666680636e+00 -1.829346261171213239e+00 1.652747153367484856e+01
-5.875995584641310110e+00 3.106719524393678711e+00 1.392645889641302404e+01
-6.158193407424437105e+00 1.343859836152816456e+00 1.148893242519521607e+01
-1.093377444285615674e+00 -4.191892355411685145e+00 1.560890688744955668e+01
-1.729200193748438918e+00 2.342352793590016802e+00 1.124686520319759353e+01
-1.367200812723533332e+00 -2.250705233530362115e+00 1.405051347660994310e+01
-4.998589177715450305e+00 1.856465348793209014e+00 1.069667796304943863e+01
-1.439578217272420302e-01 -6.279045519627985961e-01 1.689162654717586065e+01
-5.805646181166472353e+00 9.346539446546572316e-01 1.160303853526703932e+01
-4.824657464905154569e+00 1.857222248363984196e+00 1.067291054163100483e+01
-5.116758515980229127e+00 -4.581095139106055036e+00 1.531435818361646284e+01
-4.068342655722249290e+00 2.313201810425072225e+00 1.677690628052980060e+01
-1.260012269287424269e+00 3.326699242211684115e+00 1.545679739823081178e+01
-5.365383787485312972e+00 9.345238022708459713e-01 1.176730362456417112e+01
-2.374282773890447729e+00 -2.346022063528348411e+00 1.667393679054514877e+01
2.522667970955443373e-01 -4.622622713851294307e-01 1.306724584706628178e+01
-1.551190906910205891e+00 -3.572306410146225630e+00 1.427327750644734294e+01
-5.293395133972774502e+00 1.314588810104309058e+00 1.681685035862216893e+01
-2.090909017113939949e+00 -4.166177244375806943e+00 1.588154857493129413e+01
3.083565532320979852e-01 -3.942757155319328355e+00 1.548968352233973889e+01
1.502661444518314182e+00 -1.483979722782598376e+00 1.627249471916530865e+01
-3.752839873139065752e+00 -3.468493471150119412e+00 1.402934004260692546e+01
-2.823635202495646368e+00 -3.869877050763021131e+00 1.438260505756900187e+01
-2.276527744898539041e+00 3.701739481022863210e+00 1.402034069629127799e+01
-6.397108501918218337e+00 -3.642255558615947741e-02 1.220504375258423835e+01
-2.747835482305173826e+00 -3.402265001484536810e-01 1.695273125428452943e+01
-7.271747533705347877e+00 -2.677700116700089339e+00 1.435896536799028667e+01
-6.010296254917815162e+00 -3.543066075482083299e+00 1.594807956824856632e+01
-1.135655083231540630e+00 2.027862941338638425e-01 1.698092003778783976e+01
-3.853101675925199032e+00 3.226886823892241907e+00 1.186610237752726249e+01
-5.465786452430356768e+00 3.148664029688992283e+00 1.653394858133371059e+01
1.288302888230829391e+00 -3.587852719348041397e+00 1.547505545445891784e+01
-6.172236266216420297e+00 -2.236775526505647704e-01 1.226304656295735640e+01
-1.484979493522501137e+00 -4.002374003976436612e-01 1.362644222233571156e+01
-5.219014715760241785e+00 1.558828410596226899e-01 1.240662178406555682e+01
-4.640040512619291846e+00 3.913603629580078458e+00 1.419892802411295918e+01
-8.313264045683297354e-01 1.272300109273187596e+00 1.205552759798202089e+01
-5.797359988955268939e+00 -1.034979823593420001e+00 1.671153482740348295e+01
-1.285294218601924499e+00 2.132292002574806222e+00 1.181765869911480138e+01
-2.531081058757171487e+00 -1.594475797678607254e+00 1.400633769955906871e+01
-3.487003712115381848e-01 -3.751275552215932230e+00 1.446599243631712284e+01
-6.599558305707481587e+00 -3.857653455047016955e+00 1.406591528286533332e+01
-6.804351899747695498e+00 1.530893741183254608e-01 1.241694961621510629e+01
-2.378940545535801476e-02 1.622678607430677378e+00 1.704111909628117871e+01
-4.832630012754654203e+00 1.220590010663548330e+00 1.137085796603207655e+01
-5.481921407311225458e+00 -1.861732522774592447e+00 1.315878057085807740e+01
-5.215067582231454502e+00 1.236875879958720947e+00 1.126741403590470014e+01
-5.088642710352491605e+00 -6.100839740492514096e-01 1.682674477668933832e+01
-4.616897966194582814e+00 -2.492415033813604630e+00 1.659101916900583973e+01
-6.956510898729183268e+00 8.083558751150234922e-01 1.605883996216991960e+01
-4.197788801617379661e+00 1.517572928952438005e+00 1.111457375468242503e+01
-3.357630417093619535e+00 -3.229205597952693019e+00 1.402179411485817440e+01
2.055070960419331350e+00 -2.019370574932421558e+00 1.506277696390755949e+01
-4.601527951787758752e+00 1.286573907424024998e+00 1.131875705895690487e+01
1.557992374832621207e+00 -2.638316544861723401e+00 1.590335564896020060e+01
1.258726971794675853e+00 -1.306558684937782377e+00 1.359696767029092968e+01
-4.611103208582121304e+00 1.224777266885785920e+00 1.141871734266527483e+01
-2.618129988157396948e+00 1.534874925138155710e+00 1.130354430875204486e+01
-1.109501284073612259e+00 1.841267784429813759e+00 1.176826689983109731e+01
1.785555597923268012e+00 -3.012835525816984550e+00 1.549471657147831394e+01
-2.738842423681426830e+00 -3.458201955138341610e+00 1.411480635123702143e+01
-7.025135509753787311e+00 -1.675990112120659958e+00 1.311422464835147395e+01
-3.169736751845227296e+00 -4.025833471854592283e+00 1.446032503532829594e+01
-5.407178710519199072e+00 3.024886182211626195e+00 1.314503209809482343e+01
-7.301007491581027686e+00 1.317371890372845744e+00 1.507318208402090676e+01
-4.653769362167972545e+00 4.755249119509795008e+00 1.647908284907378373e+01
1.565386353982757717e+00 -3.030974592300019310e+00 1.567505744133259782e+01
2.174038298374935785e+00 -2.120042025176537059e+00 1.473301235319878799e+01
-7.016051718849085184e+00 3.731151621374639848e-01 1.263279497683375041e+01
1.060834780321288973e+00 -4.623766216758706804e-02 1.321854958198682084e+01
-4.768116496600783627e+00 -4.063786936535632499e+00 1.424940917958286946e+01
9.728817836025125398e-01 2.027004846097550939e-01 1.311268648935105574e+01
-4.961912492562603916e+00 -4.769822114643205602e+00 1.490005632709180361e+01
-1.870462139837915316e+00 2.218869235352789904e+00 1.700558946304791164e+01
-2.281744151625349382e+00 2.108360395551570399e+00 1.696495246070888641e+01
-5.371566307322211742e+00 -1.365015634453514703e-01 1.248759671349135658e+01
-2.036908485807964908e+00 2.651200078139429817e+00 1.694157858200196642e+01
-6.189003251401213213e+00 -2.335096868966643591e+00 1.321208784660793611e+01
-2.031662713464466474e+00 2.442968653415617197e+00 1.696749232333410617e+01
-7.347368154110044181e+00 -5.380805793944087867e-02 1.349647846611171786e+01
-2.538917280281784983e+00 -4.678849865333583047e+00 1.540431237231105399e+01
1.724895073338190032e+00 -3.196951896047782071e+00 1.544088406504936728e+01
-7.367431250863303305e+00 -2.110363160568637486e+00 1.456403095556125749e+01
-2.799138664341517924e+00 1.142807825265849120e+00 1.189565269051709606e+01
-5.274054189606371956e+00 3.287905905189402844e+00 1.347801101285430292e+01
-4.717127284705219026e+00 4.325803980950997385e+00 1.514451195206267187e+01
-5.779237451714969609e+00 -1.242545176532539042e+00 1.669835120948373941e+01
1.667601092347596792e+00 -1.934846488648891860e+00 1.389391566565706881e+01
-1.759333130907410059e+00 -3.473644340765198457e+00 1.419085203168518916e+01
1.356932999775422255e+00 1.039801461128600835e+00 1.443669389924544078e+01
-7.093607058683177868e+00 -3.084514679395307546e+00 1.395439172438519648e+01
-4.304427743055050826e+00 -7.643376724504316044e-01 1.342109679375557363e+01
-2.912933494681638980e+00 2.465946788719674654e+00 1.686083715903728120e+01
2.256283316729206234e-01 -4.259056426952856356e+00 1.519749504701411524e+01
-5.268789504746195007e+00 3.757070812715758379e+00 1.647456107948814719e+01
-7.092196493848640593e+00 -2.635893017034665498e+00 1.359087744796481445e+01
-3.708591706589315251e+00 3.418325037898782170e+00 1.224592632442041662e+01
2.648487774415202445e-01 -3.108756554156159702e+00 1.412356857942383215e+01
-4.533746551310310124e+00 -1.565803054107875791e+00 1.365256803258693452e+01
-3.314901960606555953e+00 -5.945698091045401590e-01 1.366122285394121860e+01
-2.165920561446364800e+00 -1.142415918389483309e+00 1.687569441187930153e+01
-2.115347295195077137e+00 -6.138427603643381580e-01 1.376155653895835229e+01
-1.524035294455889700e+00 8.352178536678469545e-01 1.702477596175487662e+01
-6.736097384177574199e+00 3.702278853320888352e-01 1.227602035923928980e+01
1.507531343938593116e+00 -2.813571060404004065e+00 1.584922364469248635e+01
-7.962080492326322201e-01 -1.228941580892114249e+00 1.678572677893152587e+01
-3.566749859553760338e+00 -7.539964042526912102e-01 1.368617957462208068e+01
-2.275325549049018736e-01 1.255396953165893503e+00 1.220476867423462153e+01
1.840521975455071457e+00 -1.200040091454176228e+00 1.534599718374443000e+01
-1.955303771518258404e+00 -4.069250019048430644e+00 1.461335677044078096e+01
-2.455400404624989541e+00 1.477550309229646697e+00 1.696694645173800353e+01
-6.497960417860724647e+00 -3.580037568845931162e+00 1.565207241703798502e+01
6.802744402940119617e-01 -2.304901790834330555e-01 1.681772792810701844e+01
-3.612909386071540219e+00 1.283967799435059343e+00 1.151457851473045224e+01
-2.568789192781659292e+00 2.085857996819085347e+00 1.067437615375194326e+01
1.530646831833818444e+00 3.736933120804271091e-01 1.537392525944207478e+01
1.888701496711120420e-02 -2.862634487495158808e+00 1.401776437760064198e+01
-5.000036951810410635e+00 -2.792967757872606427e-01 1.272441786240575823e+01
-6.465307497408265824e+00 -3.015043044505183012e+00 1.606228693982600220e+01
2.268386065398979579e-01 -4.171910132370379998e-01 1.699258545316061486e+01
-5.379301477184865732e+00 1.139335307830196431e+00 1.139373431426017902e+01
-4.761129070760109272e+00 -1.143327823075570571e-01 1.272906715465882144e+01
-1.550548296692995986e+00 -2.641726151079263119e+00 1.401459381953404915e+01
-2.130231251153586136e+00 3.643224989230126720e+00 1.413987570548077599e+01
-9.824397331335255057e-01 1.406472988714769778e+00 1.192644405681313202e+01
-6.358103032856099901e+00 -4.235326500110611292e+00 1.501287891507787009e+01
-4.362556312487692267e+00 1.157685190219894800e-01 1.271500331100707371e+01
1.891667714425269820e+00 -2.345250281949254223e+00 1.409917007026006530e+01
-7.038882984764242678e+00 9.912505786921456119e-01 1.596166859745408573e+01
-8.347373370124024916e-01 2.618814085826524973e+00 1.700233382700000107e+01
-7.197649348044365070e+00 -1.870858873339829032e-01 1.584192516982076882e+01
-5.595991861641774534e+00 -1.822963016291077487e+00 1.664433436735633620e+01
-4.954530947738776447e+00 -1.009187421279931218e-01 1.687190566716876816e+01
-3.404198599257516555e+00 2.026874715618815159e+00 1.685602737002484730e+01
1.446030855032009788e+00 -1.002393314157580040e+00 1.632516843804789630e+01
-5.750792467659125329e+00 -4.616569620078695202e+00 1.497780316542192480e+01
2.740607061178892412e-01 -1.903788773817935986e+00 1.373096702804284064e+01
-1.750830713681648554e+00 1.082038586857360984e+00 1.221233961540556123e+01
-1.321282839238421492e+00 -1.863536514995026927e+00 1.404462456550600535e+01
-7.287457781893257547e+00 -2.445613416901379900e+00 1.399574926456015334e+01
-5.585234215854918638e+00 1.126164866270832565e+00 1.138810695554238350e+01
-3.029312213808764032e+00 3.970382704240474236e+00 1.381318305213935105e+01
-2.238810345608170049e+00 3.422326795955875411e+00 1.332929217410683265e+01
-5.000992926301634611e+00 1.199390201327598771e+00 1.137387683991529741e+01
-3.610774235312339542e-01 1.183933217970433827e+00 1.220420331150246795e+01
8.814558786794255418e-01 -7.088009229289582436e-01 1.331595839250297075e+01
-6.305431435792162809e+00 3.477902069872578217e-01 1.656476237423353837e+01
8.765944355009491762e-01 -2.911007079965171052e-01 1.319709042527525611e+01
-6.089186289736538527e+00 -1.688674536198372156e+00 1.661104633595110869e+01
-1.561922425145308768e+00 -3.235261613891649901e+00 1.405702028968423178e+01
-3.957283293910325739e+00 2.072287365934929237e+00 1.047606075167632156e+01
1.230444212044789376e+00 4.524921860684572028e-01 1.364675888124983771e+01
-3.422143978329694747e+00 1.749200806982713408e+00 1.091928445673359960e+01
1.915659184560779993e+00 -2.401559167551453378e+00 1.545167347172381511e+01
-7.411587412162211841e+00 -1.550990715126214781e+00 1.479825742206165273e+01
1.586621349482197241e+00 6.340235231808577510e-02 1.462301535171663858e+01
-2.438148726084357953e+00 4.377437596065810510e+00 1.575226038121474659e+01
-5.206741914992355724e+00 1.330305683518957283e+00 1.116671843610858161e+01
-4.328243102884512084e+00 1.347090729418807253e-01 1.689804836061238547e+01
-5.962825213514133971e+00 3.431590287959958463e+00 1.456139449148911780e+01
1.772077058253154869e+00 -2.598861799836688746e+00 1.568194653735037036e+01
-5.425534519481234774e+00 1.326720235566229977e+00 1.116417906571343366e+01
1.339030569955719896e+00 -9.525820097036072909e-01 1.648906690060781699e+01
1.881902930585513056e+00 -2.794921976873179226e+00 1.544772511065865217e+01
-5.329706572020149746e-01 3.756888578886594665e-01 1.273523032224031937e+01
-5.811043484193027631e+00 -1.464301737074743759e+00 1.667226244988115269e+01
7.770678552850656118e-01 1.506001611476337931e+00 1.429891865822266794e+01
-3.849456700169400225e-01 -1.043839282275345504e+00 1.680811562946000493e+01
-5.529196230520655675e+00 -4.375629473342494968e+00 1.538511331410933280e+01
-4.142604022777916839e+00 -1.574156175604526364e+00 1.376687667177939289e+01
-1.999096050063312147e+00 2.108337363048613078e+00 1.086287288887806568e+01
-6.662451534662120700e+00 -3.345506927381705076e+00 1.566112529631097772e+01
2.147355308488734238e+00 -1.738658020763296896e+00 1.428661796686387930e+01
-6.911434994992907477e+00 -2.963467265433379794e+00 1.551752162501336585e+01
-5.419488679771241380e+00 1.440134138438728062e+00 1.105597702152463313e+01
-3.417502078451055691e-01 -1.094700332617721372e+00 1.359584376456120225e+01
-7.229217984258298202e+00 1.271053885657847271e+00 1.451037694332747918e+01
-5.213426850291199344e+00 1.426822141722427384e+00 1.106560919264275356e+01
-4.725145869748134331e+00 -4.393135265094902486e+00 1.565326351407571792e+01
-6.791999183276909768e+00 -3.161622485189446330e+00 1.559852410740897710e+01
-7.110805509534789515e+00 5.719254594172180628e-01 1.267640172176552937e+01
-6.997788514059696929e+00 9.607875807770502874e-01 1.266721883585945818e+01
-6.925371802166912616e+00 -2.571284958081591299e+00 1.576781865440218411e+01
-1.599340501397485514e+00 3.530107770712846982e+00 1.680930386665396270e+01
-6.898046809363497012e+00 7.807358438934886014e-01 1.230812318188867494e+01
-1.743934367792831841e+00 -2.439203957246963483e+00 1.402939278063614381e+01
-7.206841429235232077e+00 -2.275543436155404997e+00 1.530266591734701365e+01
-1.862765575317640199e+00 -5.575872991085728536e-02 1.347869705147549269e+01
2.665981374579748930e-01 -5.528021495428014909e-01 1.695754462762209869e+01
-6.412825314541914956e+00 -2.911385222742904233e+00 1.349875675764906191e+01
-6.018784552486391881e+00 3.674054170105423900e+00 1.513408188441215430e+01
1.090057286279486393e+00 -5.062620162874456042e-01 1.333029084448062918e+01
1.585712762619888805e+00 -6.064145927823800797e-01 1.614220830717345478e+01
-5.199286812415748749e+00 -3.744152086433137683e+00 1.397883173578334493e+01
-1.878878916606842697e+00 -4.161390066873988935e+00 1.584729168295714885e+01
-6.175489975480255467e+00 3.050830607307821296e+00 1.435258820774336641e+01
-1.876488681196749830e+00 4.091514771135642548e+00 1.633585758203187055e+01
1.125577300975018291e+00 -3.642002699050083336e+00 1.552542996247539264e+01
-4.968757662062145641e+00 3.953460374436809310e+00 1.455358338408098717e+01
-1.716640222979186614e+00 -4.123521026610117879e+00 1.583809457134187682e+01
-6.202865349130834538e+00 -2.238440236875644196e+00 1.647417077618365511e+01
-4.997471684516610502e+00 -3.967016150398706920e+00 1.414322439907022755e+01
1.960524563859810998e+00 -3.248194592382623647e+00 1.510710568345535876e+01
-3.644196561221385799e+00 4.289201468256234051e+00 1.455924885122204415e+01
1.713577734090028448e+00 -7.458004864028158210e-01 1.561982272194740062e+01
-2.913106047445315205e-01 1.404008721480952682e+00 1.711450541944214621e+01
-3.967245254848078773e+00 5.324395325361475084e-01 1.247308068810301052e+01
-5.025835386598840326e-01 -4.126107945994106352e+00 1.553043438003397370e+01
-5.285207739974416841e-01 2.589413555121989674e+00 1.679831650745735772e+01
-2.338451680045032344e+00 1.835441698844762382e+00 1.696941878249587177e+01
-2.350673816012453621e+00 -7.488159500491899934e-01 1.692014819024189620e+01
1.315192463935788814e+00 6.887827637519903234e-01 1.401715393032392853e+01
-3.464462350134069446e+00 4.823164898141136803e+00 1.615501398868993022e+01
9.737991723960399693e-01 -2.035370297061976697e+00 1.645850461359180628e+01
-4.351232818647034151e+00 -5.448491456208541805e-01 1.327490112309615711e+01
-5.445932327386188376e+00 2.028320358443869598e+00 1.140492066423177420e+01
-6.625381882829449509e+00 -1.838214261697330709e+00 1.639639899721521488e+01
1.650185604997729039e+00 -3.148029512248828432e+00 1.444204724258424477e+01
5.514114960072435956e-02 -3.715576715217751236e+00 1.446510916931770652e+01
-3.681556796320439418e+00 4.300349938904383329e+00 1.657904596829933297e+01
-2.583558483463273880e+00 6.881647533104831016e-01 1.243429763730379278e+01
-5.185941066923604126e+00 3.850624655492312254e+00 1.451988431564155491e+01
-3.753009467212533146e+00 -3.187792653177004887e+00 1.398938587194881933e+01
-1.046822599157490874e-01 -4.176237495851912840e+00 1.485720579851029299e+01
1.897774380466255684e+00 -3.361122232971375468e+00 1.462806236966634543e+01
-1.976435480426593561e+00 -2.359348545615297610e+00 1.662560623524494474e+01
-9.814211877141153506e-01 2.761947337471892361e+00 1.443604837746148206e+01
-4.118804714706746140e+00 -1.053212502573042109e-01 1.688919152037575344e+01
8.177882278532881966e-01 1.128394912455920718e+00 1.294087014466647645e+01
-4.682515639763749071e+00 1.176244175240911183e+00 1.687278800517832877e+01
1.844782516378658643e+00 -6.381803605627687226e-01 1.477471909597529276e+01
-3.236310367645366171e+00 1.729141187734317464e+00 1.095823853254073299e+01
-4.198462151555223620e+00 -9.076990362933621270e-01 1.353092535076464031e+01
-1.950800683223923748e+00 -4.481621807746202002e+00 1.553078108762341003e+01
1.236286699584193682e+00 -2.327817124904987267e-01 1.640598926507670541e+01
1.434267476865594526e+00 -1.717503087546900620e+00 1.376410324681472019e+01
1.849868639173670948e+00 -1.727135473243559094e+00 1.390217772209568636e+01
-6.970361750116076394e+00 1.367331539868925416e+00 1.343196831671514246e+01
-4.349659922997997974e+00 4.271652621357928226e+00 1.486789583646997670e+01
-7.061995390791357075e+00 -3.369340628493652012e+00 1.428097162056448610e+01
1.039122985092790996e+00 -3.263256519110731446e+00 1.436344018386922983e+01
-2.865259518005344397e+00 -3.527413842817387568e+00 1.626093175431912385e+01
3.198762679325799496e-01 -3.371202739450825270e+00 1.584226788459002933e+01
-7.369225235083639802e+00 -7.245534006338427702e-02 1.365023639440784109e+01
-1.009566430785167945e+00 2.590837684541300590e+00 1.383716998509861895e+01
-6.048127605379274740e+00 3.524529818567403439e+00 1.491595295085658535e+01
-3.098996342474063859e+00 1.254308188905173926e+00 1.694586291202295314e+01
-2.949594733181137851e+00 2.663326816563189592e+00 1.683011517692882109e+01
-2.679814494577290596e-01 -3.752031059019774517e+00 1.572654000421191256e+01
-3.068718776649689062e+00 1.771678997385266685e+00 1.093004006344013845e+01
-6.764518035134126528e+00 -1.775463458512312798e+00 1.629291121340136073e+01
-5.171488127185107864e+00 -3.585426085918710370e-01 1.267930341732896693e+01
-6.693953508162097110e-01 2.874766830920008509e+00 1.624654444061124536e+01
-4.270266827440517332e+00 4.717819933042518343e+00 1.651275364671430168e+01
-1.760734764505918593e+00 7.749419121231639895e-01 1.259138369990741779e+01
-5.993616593228806799e+00 3.884740659677334840e+00 1.574673111349233068e+01
-4.320335447633298465e+00 2.695387606624051191e+00 1.128070085788031207e+01
-9.130057463484585467e-01 1.175482673024643265e+00 1.213757391192994817e+01
-6.404382456980298954e+00 2.620636858638465849e+00 1.620347890960037063e+01
-3.396559675498740383e+00 1.174670677348196079e+00 1.175093832183616627e+01
-7.215364328138481831e+00 -2.913140518188406247e+00 1.435080144616127740e+01
-6.371195044453424217e+00 1.778246419693559233e+00 1.634876539098533499e+01
-1.573298113849301849e+00 1.084914206696874217e+00 1.223446452778360083e+01
