-1.012000213138926519e+00 2.091411943158955289e+00 1.845980619589330018e+01
-3.836794479708379946e+00 5.021794242969088717e-01 1.901739142491334889e+01
-6.715677871940630261e+00 -3.287137054665469016e+00 1.641506224192757202e+01
-8.012385929773927273e+00 1.287976174105575522e+00 1.507673125488707910e+01
-6.736266484689862111e+00 3.061504898990824675e+00 1.522548856762149683e+01
-6.446037066961171291e+00 -3.210189734078756629e+00 1.679493641693376560e+01
-6.082451742689520824e-01 6.334123887873299719e-02 1.971033048248748543e+01
-6.633306424348369923e+00 -3.479736244627055886e+00 1.696117803376640154e+01
-6.528322781889909443e+00 -3.579056526739064381e+00 1.721977365641092206e+01
-1.057811694825802729e+00 -1.199132503292000829e-01 1.484565603031746406e+01
-6.516842101705018209e+00 -3.736846852540166353e+00 1.740982157378572737e+01
-6.291986777343214321e+00 -4.183118639955188733e+00 1.814369808209760748e+01
-4.875653317832286504e+00 -3.649916970629303314e+00 1.818861175888412873e+01
-4.884453296603560091e+00 -3.447403345269358876e+00 1.802827866314904526e+01
-4.300065091281994434e+00 -3.685124908792460907e+00 1.837630156581542451e+01
-3.819023237300312346e+00 3.560966133604115402e+00 1.792550217986375571e+01
-6.297051246698570637e-01 5.693352870175156788e-01 1.547008096411650513e+01
-2.422795853196391125e+00 8.678190742560292215e-01 1.943992244732010732e+01
-3.681305336004459861e+00 -3.483577613069159806e+00 1.839511556352983490e+01
-7.530716362962872168e+00 9.253802244681912370e-01 1.781655364374997674e+01
-4.952886209699436826e+00 4.050464433223300631e+00 1.732314452214838951e+01
-3.312663540823292507e+00 -3.318027929128770648e+00 1.837604991669289234e+01
-3.083311077142804724e+00 -3.078850898371438660e+00 1.826173951456586053e+01
-2.679793931458872347e+00 -3.124821138045944746e+00 1.842101302591623124e+01
-6.543498719830287413e+00 5.587804044948703197e-01 1.329881406047874748e+01
-2.103219066622645794e+00 -2.864435298837215260e+00 1.831148761443493811e+01
-2.055017435123822178e+00 -2.667918249708951972e+00 1.812921283527087013e+01
-3.084141993852363317e+00 -3.971264918665796451e+00 1.960935876065061478e+01
-4.323981611088272281e+00 -3.872251336405233779e+00 2.012023954717710694e+01
-5.542267768510241943e+00 2.502892279407241460e+00 1.399086823007992564e+01
-2.638158815154578729e+00 -1.866505033336572694e+00 1.728411826421923791e+01
-1.678184563926754524e+00 -2.646414847014402216e+00 1.809734504050154413e+01
-4.555001144871300589e+00 -2.452978068933123978e+00 1.973806387453009847e+01
-1.452766953568420227e+00 -2.523297801502392801e+00 1.789968449597012778e+01
-6.316865771027908583e-01 1.133030381338758108e+00 1.629111683738679517e+01
-5.154006447779462263e-01 -1.193213745803998416e+00 2.016388685788329838e+01
-1.245356556178474516e+00 -2.462174372279233303e+00 1.774215007222706220e+01
-3.425156413539284905e+00 1.261751071002531255e+00 1.888890512212130801e+01
-5.051258186674328243e+00 5.261319978682267307e-01 1.870038125703050014e+01
-8.915818077547930098e-01 -2.539989540213191344e+00 1.768167236622692684e+01
-6.180008939085395170e-01 -2.475194563901102818e+00 1.754175020657625339e+01
-6.103270625306815411e+00 -2.362870676949626603e+00 1.590442073040627236e+01
-5.033069467145172560e+00 -1.060291943768917777e+00 1.469349042631529301e+01
-4.288327497614041750e-01 -2.434621407821623951e+00 1.751580531657108963e+01
-4.458703951921805242e-01 -2.269765604254724956e+00 1.729553536263860281e+01
-2.622971158785101231e-01 -2.083967689605992657e+00 1.715278466237449351e+01
-2.399358499399435463e-01 -1.872301140080044668e+00 1.697529658889693138e+01
-2.248507908083630102e-02 -1.877102552030255556e+00 1.735404762655500122e+01
-5.845952932289429249e+00 -1.440530667072303261e+00 1.914927105286497522e+01
4.199408043552643743e-02 -1.689870087522087339e+00 1.756285718633743897e+01
-1.713619641359122703e+00 -3.236710123803143269e+00 1.872165648155946371e+01
-3.490808740119033082e+00 -1.918928886846239745e+00 1.976673810585399593e+01
-1.885554191017321912e+00 1.493380602541721114e+00 1.421638785387725790e+01
-1.164936887751114591e-01 -2.055276655212041170e+00 1.723335020730451106e+01
6.017859037326322991e-02 -1.909166517157784959e+00 1.762633877234220137e+01
-3.983255760267803147e+00 -3.439472464764741666e+00 2.012858035205025686e+01
2.148477204644227978e-02 -2.499601787987687285e+00 1.826629451982049801e+01
-8.345773585314912424e+00 -1.403610387820199090e+00 1.810997766787109242e+01
-9.850484103970162941e-01 1.367514126510552597e+00 1.914177526022463383e+01
-1.351082593671406595e-01 -2.698995136121870253e+00 1.800086968428204415e+01
-6.822260457718777538e+00 2.465287520011589351e+00 1.745068053313399759e+01
-3.148016350425744125e-01 -2.602327041579512112e+00 1.778375758579581145e+01
-8.797630617354053051e-01 1.705548242662532576e+00 1.677295883227088780e+01
-6.529077510999712342e-01 -2.693793412379921204e+00 1.789468970361269129e+01
-9.341267900440823890e-01 -3.007579131334835676e+00 1.839297598372188247e+01
-3.016872335414343631e+00 -2.092300590339061017e+00 1.746172822240409772e+01
-1.058934676139178910e+00 -3.249197068891844786e+00 1.877895691952317492e+01
-5.356113137739845875e+00 -1.839212160416716646e+00 1.934760768454699331e+01
-1.104489705714659431e+00 -3.334264822883588053e+00 1.891377942184998773e+01
-9.003369276228472273e-01 -3.390416951028836667e+00 1.908559677010898525e+01
-4.128840275457601017e+00 3.394356590448503130e+00 1.492970030642498358e+01
-5.082113760718584672e+00 -3.823665493865834542e+00 1.825339747846214067e+01
-1.302560091929060526e+00 -3.534631443431893949e+00 1.927905738454845874e+01
-7.867632350942063368e+00 4.035969868935427307e-01 1.785768061298201559e+01
-7.824080473236701749e+00 2.356565611698082208e+00 1.549721964182757716e+01
-3.423594822586031317e-01 1.200457299110283316e+00 1.724064617776367214e+01
-1.713300134490154836e+00 -3.600833031079093693e+00 1.924812116868767475e+01
-2.525786714813053280e+00 -3.684051418893628416e+00 1.903375054158568247e+01
-2.314820988734533014e+00 -2.928021782225008085e+00 2.024883173819500826e+01
-3.306582018526035505e+00 -3.907417515095141347e+00 1.902336261023844344e+01
-2.060495686903891510e+00 1.243147239898664491e+00 1.943238930140284992e+01
-6.582561970484573699e+00 1.561423153205403702e+00 1.390591644533509452e+01
-6.868427695699816482e+00 -1.234430594907621748e+00 1.889738693202092179e+01
-3.323354757493783840e-01 -1.691496553816054238e-01 1.955515263863542685e+01
-4.111705004703810395e+00 -4.041527303117913306e+00 1.885287045908618353e+01
-5.685886280497036260e+00 3.747283040614424743e-01 1.256982727197981120e+01
-5.310926326989489077e+00 2.673657539737061217e+00 1.408041456674173020e+01
-5.714118919325529511e+00 1.722150852006873567e+00 1.338291422518389595e+01
-6.495693914687177717e+00 -4.143590405966350865e+00 1.797659456187975024e+01
-6.868153748769412204e+00 -4.080576762358274046e+00 1.775168479562489665e+01
-7.052396427730164952e+00 -4.051671853093514741e+00 1.775156118981976050e+01
-2.127303612734121607e-01 -7.041764709121505206e-01 1.965353981487044166e+01
-2.736591512639567014e+00 2.689151857083320163e+00 1.504823277276813087e+01
-7.487975831232390078e+00 -3.616348939081537317e+00 1.650866865160681840e+01
-6.823676361836595206e+00 -3.424607295454884515e+00 1.655990590692248787e+01
-4.522946307467210048e+00 -4.155799271516408488e+00 1.939534494182174029e+01
-2.797239096551055848e+00 2.149843800322090548e+00 1.892080940612993345e+01
-6.872507488934208375e+00 -3.533812223668930663e+00 1.672842819296592864e+01
-1.463369639386459031e+00 2.246041940911607249e-01 1.413718481812406935e+01
-7.399970447612579605e+00 -3.681966760919611836e+00 1.662351826891591600e+01
-4.478003103689385256e+00 -3.907665024632173356e+00 1.853295901854379935e+01
-6.770318242509349105e+00 -4.114893610264328316e+00 1.794537222916223840e+01
-3.958381272044697141e+00 -3.838690915279270754e+00 1.864549456277734407e+01
-3.505759773640216181e+00 -3.824350229723519234e+00 1.882185154066597477e+01
-3.260282305665494818e+00 -3.554507935676768149e+00 1.860236545885253889e+01
-2.491860989692140649e+00 -3.327629050234165664e+00 1.865485812298248902e+01
-4.018160769830037005e+00 1.742182711008726459e+00 1.860401239887773528e+01
-9.578627740237466437e-02 6.754098270033915830e-01 1.690610407528220094e+01
-1.468292379239342083e+00 -2.831182278468827196e+00 1.827048241254881589e+01
-1.253010382273134660e+00 -2.720444063335225149e+00 1.806155534888951308e+01
-2.212013821459317686e-01 -2.445777651706078970e+00 1.758625901318848861e+01
6.247268079715495581e-02 -2.072207924638030718e+00 1.794413316428058636e+01
-3.876387766830354131e+00 -1.503850055453416878e+00 1.957447264840718049e+01
-2.854327846163506877e+00 2.546740799242558584e+00 1.457416622562634245e+01
-6.739763740864284536e+00 2.513280841820960898e+00 1.478877863088957412e+01
-5.257309839565755816e+00 -2.882121068675576048e+00 1.738166373556904176e+01
-1.434217866898909399e+00 -7.369734728529617751e-01 1.547175343008223791e+01
-9.462764219834141066e-02 -2.437258333566591162e+00 1.772181483342644981e+01
-1.562287270086903934e+00 -6.714642056692297079e-01 1.535637649888358425e+01
5.963901991955222748e-02 -2.296316382071046380e+00 1.837569197887626871e+01
-1.075989971672765444e+00 -2.844626221356217677e+00 1.817678542052277635e+01
-4.944170952796259400e+00 3.143371263140652516e+00 1.776684951620981678e+01
-7.707653168783384245e+00 1.895810021374577659e+00 1.494094961692744050e+01
-5.434137175177691681e+00 -1.910150140827485465e+00 1.935767221262810978e+01
-1.091163020912130799e+00 -3.072305815706830145e+00 1.851033221636052417e+01
-1.309410013701020503e+00 -3.236128981766700718e+00 1.875355771276726813e+01
-6.153922385840183473e+00 2.529742704577694568e+00 1.436052733102010137e+01
-1.315081824101558716e+00 -3.393311887870136712e+00 1.898856679171063178e+01
-2.799311494224472341e+00 1.667734504788242367e+00 1.308659846370563429e+01
-1.891543602921364364e+00 -3.602458716194191446e+00 1.917609939743653769e+01
-7.008202451590847204e+00 7.710094431507790169e-01 1.813973446154299296e+01
-3.036357016995798741e+00 -3.791362041877705202e+00 1.895481484837849706e+01
-3.278963869812280940e+00 -3.763178447289527107e+00 1.882378614099476266e+01
-2.514818250543436218e+00 2.879637373376153775e-03 1.389971960479176261e+01
-2.947576895945444697e+00 -3.655301952715729996e+00 1.882790135702519763e+01
-1.411419051808136871e+00 -1.362938539692546192e+00 1.642238480058614414e+01
-3.060918238519206191e+00 -3.494819365157079361e+00 1.861757555115502782e+01
-4.349498333808458739e+00 8.634146296891724859e-01 1.146951477842500822e+01
-6.473998723240929287e+00 -2.670388399509596500e+00 1.560506881714957927e+01
-4.142887633704559036e+00 4.561705377496027225e+00 1.726908957693606084e+01
-2.275756613423530972e+00 -3.471378524362005447e+00 1.885694747194668963e+01
-2.116988906854580410e+00 -3.288232283515875931e+00 1.870445006025232715e+01
-1.484031657698654971e+00 -3.317470912614804757e+00 1.885228953030691912e+01
-1.891806807193199713e+00 -3.432214797846212750e+00 1.891431695563992577e+01
-2.016414408716181050e+00 -1.499360676995954655e+00 1.687506854573219783e+01
-1.680449424327497443e+00 -3.335054256651946325e+00 1.884585462823793733e+01
-1.144307607171442420e+00 2.361955654340059940e+00 1.833817494724580399e+01
-1.434784782971931794e-01 6.369936358072952887e-01 1.678939292844665232e+01
-3.613794531668095278e-01 5.842894717485469513e-01 1.602453373551249882e+01
-1.167287904093932571e+00 2.537299098223660287e+00 1.769318608195458609e+01
-6.167383232775805801e+00 -7.192375111366591245e-01 1.363809664465325255e+01
-8.097335303090204661e+00 -2.359324374494046417e+00 1.596923275044006374e+01
-4.729772798333248929e+00 8.339855082601019820e-01 1.190990290425060039e+01
-1.808778973516020905e+00 1.057383037742849030e+00 1.365691714418807834e+01
-1.813450541225716695e+00 1.213452227729315158e+00 1.386849295159129269e+01
-1.939765816589839265e+00 1.107906967651309582e+00 1.343028002385415931e+01
-6.675122795499589756e+00 3.625228846590374587e+00 1.567584524389081935e+01
-5.121972701500187242e+00 4.405441468714458075e+00 1.609616787518254455e+01
-3.156820294832529683e-02 -5.311862567279379554e-02 1.678658684233687381e+01
-4.918511202451260722e+00 4.332348518388528191e+00 1.599530522875083705e+01
-4.455520922203259460e+00 3.114520784552373689e-01 1.896243999550056714e+01
-4.355912171977912806e+00 4.189657600219993228e+00 1.588516869426462819e+01
-2.842407774076814775e+00 -2.289761650248104186e+00 1.767825163426236657e+01
-2.672923905818923362e+00 -2.265458242091917818e+00 1.768600520334555881e+01
-3.049390586669056713e+00 -2.882847785618112280e-01 1.943426878253301027e+01
-5.696464707284051521e+00 4.716874894758558590e+00 1.640600399895184580e+01
-6.336971891917414723e+00 4.318775302668745653e+00 1.618757716984894302e+01
-4.237626737835144652e+00 -2.965015327725684546e+00 1.996422732280763057e+01
-6.492914432494278465e+00 4.183662968343995203e+00 1.648482105373074091e+01
-5.530369910877724671e+00 4.039197951107087903e+00 1.568309788251646353e+01
-4.745330115542963689e+00 4.770063750822642668e+00 1.691130476183985110e+01
-5.374885720692144986e+00 2.194730088850482819e+00 1.801401866046811051e+01
-1.027805159840904814e+00 -2.782139000932233763e+00 1.807640681913249381e+01
-5.257401955432538188e+00 1.681835685864819352e+00 1.305197756254385411e+01
-5.540844484269920933e+00 4.786484577285145647e+00 1.648745922290231647e+01
-5.690437132786482444e+00 4.765005942641400871e+00 1.659639746817610728e+01
-6.501637844812815814e+00 -1.180014784481015599e+00 1.895272142998755527e+01
-6.536740258275188786e+00 4.012432037129576301e+00 1.659579176709976167e+01
-5.757056942161844937e+00 -1.614540183030096276e+00 1.503931738325800893e+01
-6.986233128453235075e+00 3.692194731515392903e+00 1.641820329663619304e+01
-3.731310027140892771e+00 -3.139199216033913054e+00 2.006984878687175922e+01
-7.181841741992393224e+00 3.504332534993206405e+00 1.618591750505848381e+01
-6.963952350707158345e+00 -1.444546899606145685e+00 1.442295327146522510e+01
-1.238081551879810505e+00 2.514680041472751260e+00 1.748650403439108914e+01
-6.532758029445359327e+00 3.799257615367386709e+00 1.676897901063846064e+01
-1.503333096347747588e+00 2.247894059252788068e+00 1.645135253334041181e+01
-5.651660699623995754e+00 -7.640760878204893025e-01 1.896700689408928042e+01
-6.553862306566036189e+00 3.899333333336374441e+00 1.667560246803459734e+01
-7.671565713552043420e+00 2.814609985709881190e+00 1.579770165641773616e+01
-7.982212376998862879e+00 2.135106864043657460e+00 1.550474094351647381e+01
-6.178356384198801621e+00 2.986543737921053765e+00 1.745334366975703944e+01
-5.531207240682439519e+00 -4.815439268479525525e-01 1.332586490489888575e+01
-7.147272967158848189e+00 2.889415066927079501e+00 1.539747268354887666e+01
-2.384812481540467655e+00 3.774187547038172941e+00 1.750493111863983131e+01
-1.321259343518265794e+00 -3.651380386978749115e+00 1.971737459199206910e+01
-2.843389397350724490e+00 4.124479083994597062e+00 1.734423515282752248e+01
-3.202289186566652290e+00 4.324917126864319172e+00 1.747148449574676476e+01
-8.297942547103447808e+00 -1.619503831143909167e+00 1.825055213502357532e+01
-3.174765538656508568e+00 4.230741783953553714e+00 1.757704364044820977e+01
-5.934032474837628079e+00 3.553727794718202215e+00 1.722316789327725672e+01
-5.015280062076149292e+00 -2.441546794691005662e+00 1.706624558727411767e+01
-6.819046568446133882e+00 3.631773343106061258e+00 1.667434215251351048e+01
-7.157878340125902739e+00 -8.123129512869438074e-01 1.415379635212330101e+01
-4.122031562034486285e+00 1.399418761172774417e+00 1.215532926461984431e+01
-7.049972183983821417e+00 3.339533570985998789e+00 1.666519915873729474e+01
-6.923261622329190068e+00 3.377527657431234065e+00 1.677811467189560091e+01
-2.778346521997238305e+00 3.921029000245211282e+00 1.786454504182233904e+01
-1.533304797113650864e+00 -2.743438670703966853e+00 2.045076197801967055e+01
-2.180685013074878942e-02 -1.053465069582559810e+00 1.696902763396561653e+01
-3.148878085534900784e+00 3.927803098915703561e+00 1.785608968754963399e+01
-5.505596130443486835e+00 1.433495396384545817e+00 1.825691486192489066e+01
-4.472295100601907158e+00 -3.702229048686861645e+00 1.834594822426604566e+01
-3.348548650567760632e+00 3.901408729610607473e+00 1.784639985882957802e+01
-7.588109982274087173e+00 2.507064365112310789e+00 1.536966467402980641e+01
-5.572942636957376017e+00 3.497259461040800321e+00 1.737492026471744566e+01
-6.171770273741584489e+00 3.163594161663561888e+00 1.736006881139867630e+01
-2.833792868054552994e+00 6.758666337325373030e-01 1.926846274230563694e+01
-6.370158586822674884e+00 3.016980231026935133e+00 1.737163991242370997e+01
-7.399305768516860837e+00 1.822940697139792121e+00 1.740072362723634569e+01
-6.586440418041036082e+00 3.032708984046609046e+00 1.725710950185463588e+01
-7.082241569384705393e+00 2.977481954293542010e+00 1.692477412225111522e+01
-2.264446363561243292e+00 -2.875773365015366068e+00 1.829905556301925174e+01
-7.369165373952315079e+00 2.968341026510074254e+00 1.651616724249876711e+01
-4.706625726831246581e+00 -3.112862782128794636e-01 1.319022490865863517e+01
-5.493087626991868255e-01 1.552332624106844916e+00 1.743939917883709967e+01
-7.630836937968785705e+00 2.762344847452500751e+00 1.619251157496025684e+01
-8.089558759398794763e+00 2.026715939763302554e+00 1.595632355254744539e+01
-8.259422675045307471e+00 1.732388512253924873e+00 1.574397278186221172e+01
-2.524790202185200449e+00 3.501997627093651477e-01 1.947471419270169690e+01
-4.103611692023044100e+00 1.758556036377655118e+00 1.258500238681916272e+01
-1.643654119861972962e+00 3.084002918287451767e+00 1.804786314090340227e+01
-2.720344417442717155e-01 1.052658280559954473e+00 1.709559223814052586e+01
-2.620146663998282222e+00 3.648111967080231555e+00 1.804195422948328797e+01
-2.978811954180778265e+00 3.781774336471239728e+00 1.795334495540088682e+01
-3.167820337193694158e+00 3.652281611398494832e+00 1.800924213664231388e+01
-4.718395447859920822e+00 3.287748755311846072e+00 1.778640167444320497e+01
-2.724387216829349700e+00 1.938699635132221655e+00 1.363376879956727095e+01
-4.412627576866863244e+00 3.344246073964464383e+00 1.785850153302108367e+01
-3.793176711594569817e+00 3.588769686178291618e+00 1.533554538176382209e+01
-7.595882716023112380e+00 -6.257680659983899663e-02 1.448583717120822456e+01
-4.779317124853670329e+00 3.163796328265283897e+00 1.781738495236398734e+01
-8.533766041640010513e+00 -1.523629839432691924e+00 1.748144510790739048e+01
-3.589601120857898842e+00 2.351844233411017449e+00 1.851102758468882570e+01
-4.637411590214688850e+00 2.927968710986218692e+00 1.796968181187814650e+01
-5.752684253366902922e+00 3.189574544185551641e+00 1.746910336059592339e+01
-6.370330356992438325e+00 2.739453850191969408e+00 1.751431977093348280e+01
-6.649779438281663069e+00 2.644134154457514096e+00 1.743869645534632440e+01
-1.522936804531216826e+00 -3.572454247931763582e+00 1.927244654486644748e+01
-4.842078012192423841e+00 -3.082046832568864136e+00 1.775897648339031321e+01
-3.481882310004262848e+00 -1.129024888792066861e+00 1.952331413260375825e+01
-3.275685607162936996e+00 1.983368620831510443e+00 1.318030919941563894e+01
-7.356447882223509538e+00 2.764526633903301889e+00 1.673943068767149356e+01
-5.272563057437400502e+00 2.481378688963035817e+00 1.385034056081101284e+01
-4.342994576221650860e+00 3.313963599374308289e-01 1.209575145049795708e+01
-7.330902213750311702e+00 2.600803795196215962e+00 1.692243283011072208e+01
-2.922274692756431147e+00 1.938019452716544411e+00 1.344120034783556861e+01
-7.536109435532047485e+00 2.448525396857008207e+00 1.675164552811514795e+01
-7.626615428811637898e+00 2.470445420659659774e+00 1.656689154676455900e+01
-8.287946924752574773e+00 1.602108871958795033e+00 1.588745446208753265e+01
-1.598262483019745606e+00 -2.584160798421901717e+00 1.800500927091653836e+01
-8.637542791298082889e-01 2.089832091148551285e+00 1.769189550842367709e+01
-7.067334063908809583e+00 -3.777838893899299499e+00 1.948187702839994984e+01
-5.666515558468564251e+00 -2.959436177190653883e+00 1.721587537727521777e+01
-1.078156901139663892e+00 2.467055496536844750e+00 1.790735733342985725e+01
-3.214025637946845926e+00 -3.451325962215093801e-01 1.432805476159153812e+01
-5.977861872775765306e+00 -2.039008210856337655e+00 1.932213582251426232e+01
-1.428300608506378300e+00 2.859957152249107182e+00 1.805018995859023789e+01
-5.258489010366022676e+00 2.336462361136820709e-01 1.241838766107538561e+01
-8.301304960067779959e+00 -1.717610959347035671e+00 1.615340141556221454e+01
-5.725601004640626712e+00 3.635097050841301414e+00 1.526962758080413352e+01
-2.371260446628348451e+00 3.423761440772222997e+00 1.816457694525787758e+01
-8.068260623999821135e+00 1.421172415184908999e+00 1.680083555608522516e+01
-6.520904093881546792e+00 -3.664487573074206139e+00 1.965801274534236143e+01
-2.989253109243090289e+00 3.543989275854433796e+00 1.809914142971393858e+01
-2.766646890008412463e+00 3.367259812290604781e+00 1.823730193894450480e+01
-3.264551993171171951e+00 -7.223439537587650339e-01 1.947182001101209892e+01
-3.378332367105649325e+00 3.536912978669400687e+00 1.803958578545980629e+01
-5.022300213067681263e+00 -1.791688340144188540e+00 1.627208374258075452e+01
-3.770069738099407708e+00 3.472889114343087336e+00 1.798343115084490051e+01
-7.203140038453122784e+00 -6.637717382272978472e-01 1.865307323803236272e+01
-5.688877479354561117e+00 -3.458350573951689988e+00 1.767582790171814366e+01
-4.367790429499096128e+00 2.974801632382164218e+00 1.803452926801160316e+01
-5.568157550042416304e+00 2.823342476306945237e+00 1.768715666941375275e+01
-6.369346630338361237e+00 2.312908581963655674e+00 1.434514542906212853e+01
-5.425383664157918062e+00 2.584004483431284083e+00 1.783933291031230084e+01
-6.574501041938821011e+00 3.128873078896663440e+00 1.515178693524428155e+01
-5.603041511635282745e+00 2.692247459020565170e+00 1.773693648276440626e+01
-3.056818721905068870e+00 2.562970307044978302e-01 1.272927346527084325e+01
-6.025014663510940949e+00 2.604414809157493682e+00 1.767204827922574140e+01
-6.793781297999339053e+00 2.157507422433843303e+00 1.762274841955540694e+01
-4.043295566033681787e+00 -2.985019440115086020e+00 1.790135091530886058e+01
-6.996149478112918096e+00 2.152985216342221619e+00 1.750877160182955095e+01
-1.294191715236003848e+00 2.483786480364022164e+00 1.839965352814443378e+01
-7.063788638303885925e+00 2.234943330191204947e+00 1.742223173750890908e+01
-4.704316846341515479e+00 -2.697213654927512305e+00 1.977718723755680230e+01
-2.133938627674783373e+00 3.012800020475713936e+00 1.648273262003147011e+01
-1.249009967687858325e+00 -7.112158015992884330e-01 1.546247148168003349e+01
-7.600151821581972555e+00 3.104404967394999160e-01 1.446627123273934501e+01
-3.493721625433368949e+00 -3.927393767199435004e+00 1.898304437661110455e+01
-7.187125465136006142e+00 2.433173699793774070e+00 1.720466225512934955e+01
-7.505619299727797511e+00 2.351121503161193615e+00 1.689445245436888854e+01
-7.476962439584996289e+00 2.248414397014204091e+00 1.703129471126255368e+01
-2.904489793258331787e+00 6.214481799387190364e-01 1.208250504973619854e+01
-7.635996844326458088e+00 2.044558208122571052e+00 1.697807112762055937e+01
-7.698696345947920960e+00 2.166947663434702243e+00 1.675370340729256924e+01
-4.245319577636271546e+00 -6.837360173600941504e-01 1.926803604178029161e+01
-1.347509912237762730e+00 1.446078997015496359e+00 1.542211477533158615e+01
-3.883776282084115294e+00 -1.303473321109063887e+00 1.951031611938978472e+01
-2.884736324269914665e+00 -3.243306818365463418e+00 1.845630010980377023e+01
-7.870670704442922272e+00 2.149112139888256223e+00 1.643462178041119159e+01
-7.500961756997044372e-01 1.935137121294297380e+00 1.789055812727004025e+01
-2.265691039998646517e+00 -2.041672970756200023e+00 1.751096818891041806e+01
-1.250578311049670432e+00 2.668601449040693740e+00 1.806803090504507736e+01
-1.366920448985536662e+00 2.734939522320538163e+00 1.815028465756218168e+01
-2.581043819314502219e+00 2.953657367611333573e+00 1.851444689471274074e+01
-8.216813751720749792e+00 -2.787907140375770254e+00 1.835558923198737347e+01
-3.657482406482190918e+00 3.175245097945150974e+00 1.815355800999718383e+01
-3.407203036695690024e+00 3.096823684778917229e+00 1.826598250414946278e+01
-3.721139071101096540e+00 3.046599249729001979e+00 1.819524065381553868e+01
-8.002133530285593821e+00 1.639996817267328044e+00 1.672307538119246573e+01
-3.821639590064430436e+00 2.525202286087998793e+00 1.837267029918627514e+01
-4.614209052451597515e+00 1.947789152134928869e+00 1.838237640481442270e+01
-4.876271786980549194e+00 1.975378666511536485e+00 1.828487399136682967e+01
-1.243978409330067869e+00 -1.114396433918845908e+00 1.600466180513252112e+01
-4.183886102461523038e+00 -1.585271262937959502e+00 1.650112792894505986e+01
-6.612792127300635592e+00 1.983628654738891273e+00 1.778097812085631091e+01
-6.766544886904640954e+00 1.942799147384621339e+00 1.773838905831204471e+01
-6.925649306175395203e+00 1.904263384566251993e+00 1.767997450721670560e+01
-7.440341824957972250e+00 2.060814450879418835e+00 1.720718346898633655e+01
-7.693501109751336386e+00 1.855454174079007368e+00 1.706444048870325503e+01
-4.650450811995354705e-01 1.505761090742666397e+00 1.783370880610702613e+01
-8.117403266807154960e-01 1.939949613600306266e+00 1.826131328262150078e+01
-1.474030252978672184e+00 2.643402905930686941e+00 1.841289566719547111e+01
-7.032481073764361490e+00 1.066561161549181458e+00 1.800405878096624690e+01
-5.134740526156837070e+00 -7.110840242434057767e-01 1.374630159784688743e+01
-6.226664806934006258e+00 -3.494069965040775827e+00 1.969754177124765704e+01
-2.852574458002628432e+00 -2.512005754245774547e+00 1.787488410374411529e+01
-2.196484833705484974e+00 3.055875758167355460e+00 1.841432466277049684e+01
-2.185164227493123779e+00 2.923829533286776083e+00 1.852095387802502557e+01
-3.051215745287294112e+00 2.918623081210186321e+00 1.846183727303581179e+01
-7.312352608826309108e+00 1.502057701391106725e+00 1.436994502195201306e+01
-3.237906912942885462e+00 3.008997515799500366e+00 1.836162949474524453e+01
-3.323651853602210160e+00 2.920315065558587886e+00 1.838462073254586215e+01
-2.941554234135654866e+00 1.484024071143322576e+00 1.264687986469049719e+01
-3.999441218033264356e+00 2.112929514275051712e+00 1.847515353931316184e+01
-2.723878124598126949e-01 1.232932100233098183e+00 1.762377158962208057e+01
-3.494177283042256832e+00 3.253634910501134403e+00 1.506792397390385219e+01
-6.055452520682825579e+00 -8.807960006372439477e-01 1.894577575106371370e+01
-4.395826140808041238e+00 1.803378182004934160e+00 1.849800755411871478e+01
-4.586292319457164979e+00 1.763609117666890658e+00 1.846445501929881061e+01
-5.114527623434572234e+00 1.831464038756092094e+00 1.824959249856139110e+01
-6.243955185947816844e+00 1.767828131671685732e+00 1.797126943391477027e+01
-5.314905536081019122e+00 1.349881687506382821e+00 1.278305597188953868e+01
-6.429816585993087585e+00 1.582413248757535085e+00 1.800227184130095992e+01
-6.224547527157063165e+00 1.589373042200730168e+00 1.804910050750513761e+01
-6.874149535602766647e+00 -3.092580473661901586e+00 1.583554846473585087e+01
-6.874857178634273147e+00 1.660833112350181606e+00 1.781436126567554368e+01
-1.263329558240879891e-01 1.207639979936608321e-01 1.638966445056318832e+01
-8.073658096253689465e+00 1.118325455547637404e+00 1.708246020811728272e+01
-4.122954113737302251e+00 4.094419290812545853e+00 1.584617778471891825e+01
-8.484056682460217047e+00 4.972107739597887988e-01 1.602146166477380262e+01
-3.252364115567464964e+00 -2.093266435978275553e+00 1.984921757802197817e+01
-4.048390704066911816e+00 8.152921998687296945e-01 1.145547929424306233e+01
-3.628585216392655965e+00 8.706556648670460419e-01 1.140209491549516230e+01
-3.675106267492501466e+00 1.399873553698229411e+00 1.214209904173586807e+01
-3.306582841245458759e+00 8.295827982058370242e-01 1.156908973775787786e+01
-4.939839654842144157e-01 1.489585826146967884e+00 1.806797414984186645e+01
-4.105575140466215522e+00 2.475297743208785484e+00 1.365565691540385984e+01
-5.389409171299288648e-01 1.537794716286793539e+00 1.815763878558222899e+01
-9.474830661317570346e-01 1.944134576893677524e+00 1.855633584922539825e+01
-3.146980116462845700e+00 3.803465098171862291e+00 1.647628027802009854e+01
-3.026104022260835080e+00 2.112473363126020853e+00 1.884132071465562319e+01
-1.811147839758732392e+00 2.743984551714418352e+00 1.856325987581306691e+01
-1.819710080305774191e+00 2.653492169342386298e+00 1.864236801079761108e+01
-2.282000653661223399e+00 2.589833108769036940e+00 1.877450838398219446e+01
-4.674242899935909801e-01 -2.786624855420164693e+00 2.038108072869996334e+01
-6.177949645718394223e+00 1.963299131577157963e+00 1.391837705292028460e+01
-3.578856653326646153e+00 4.378732533277741368e+00 1.749718172729434684e+01
-2.416344773058038520e+00 2.496631607015393328e+00 1.882403170326455211e+01
-3.208643124258040658e+00 2.718967196263591291e+00 1.851774212904962269e+01
-3.620875643359740437e+00 1.933779841484892348e+00 1.864141554713980042e+01
-6.875730405786643296e+00 -8.452880419405739421e-02 1.852269539607380722e+01
-3.533144545368040568e+00 1.695862572654421196e+00 1.873128761670076869e+01
-5.244392802761747241e+00 1.513476362417951471e+00 1.831710215496460137e+01
-5.440284449384011900e+00 1.566203408414235110e+00 1.822621824090009568e+01
-7.036689771434450513e+00 1.342416314015522527e+00 1.787572857602503262e+01
-7.455174671419859678e+00 1.446986830154900039e+00 1.758217674587055512e+01
-6.291852043056659127e+00 3.048254805531851908e+00 1.487583312071049590e+01
-7.541527739998706181e+00 1.526339474056888523e+00 1.747003004959319838e+01
-1.829394611311561558e+00 1.777730065943547988e+00 1.488724143452458293e+01
-7.934175848548141730e+00 9.631449432430585489e-01 1.745161495163999632e+01
-8.065462203311049905e+00 8.647622095731088976e-01 1.732734092214842292e+01
-8.234156492967848351e+00 8.822678661870875239e-01 1.693291878805874973e+01
-3.240345483583890740e+00 -2.010933754011665187e+00 1.732625779270821909e+01
-4.049894696863084675e+00 -2.011882939070622545e+00 1.707055595293768846e+01
-5.525401229618276844e+00 9.121916323988483732e-01 1.257185536684375649e+01
-8.496763830293462050e+00 2.998617725783063737e-01 1.610948985930510702e+01
-4.934600625409631292e+00 5.928816269429368901e-01 1.191617015677557134e+01
-4.303062672977859826e+00 6.832438995762796230e-01 1.162977028194072915e+01
-1.960336106058950367e+00 -8.815294363747070427e-01 2.004621658324941080e+01
-4.192784374105590572e+00 6.811171863184775077e-01 1.161774141454018405e+01
-7.466625384869088222e+00 -1.876419828110361010e+00 1.894179917984278205e+01
-8.310336015015408861e+00 -1.011100343190905804e+00 1.806842200379833230e+01
-2.426440257024029101e+00 -1.122832074952128112e+00 1.987911954583763219e+01
-3.558284857424211189e+00 5.987173919984623005e-01 1.181208562404519569e+01
-6.783521736764055454e-01 -3.416439799993338688e+00 1.927740050654244186e+01
-3.322064011035527287e+00 6.247799619770690871e-01 1.185210147222166199e+01
-3.150103046655226890e+00 5.987514330782509608e-01 1.197762685242759773e+01
-7.622160449207326494e+00 1.131004212922584351e+00 1.446310333849078233e+01
-1.426409779990018833e-01 9.570391378920657388e-01 1.722460307338376140e+01
-3.893775634855145107e+00 -2.930206091725532591e+00 2.000025720117942285e+01
-2.831399326687395579e+00 3.142909599219772421e+00 1.576367616462543708e+01
-6.974750771991098386e-01 1.458869672704313558e+00 1.866417444106852486e+01
-1.015621941680514118e+00 1.918634244116975696e+00 1.868195158428021330e+01
-1.246351334495495511e+00 2.014230465962933980e+00 1.882963366648895942e+01
-5.618962825785064119e+00 3.189554700988657565e+00 1.475346552918215082e+01
-1.462635449622599726e+00 2.437851397725967928e+00 1.863234918252442895e+01
-6.002312328634476835e+00 1.115956422545600235e+00 1.827484422216772941e+01
-4.506882672856940886e+00 1.954741191636336861e+00 1.295538685368203602e+01
-1.832636815409875553e+00 2.476784132077266776e+00 1.879357829781059053e+01
-5.867834589652042077e+00 -1.292017754177151589e+00 1.910349359143391723e+01
-2.634198751458846743e+00 1.911860947321031512e+00 1.905743136928589365e+01
-4.352490768851184910e+00 4.027244265975598481e+00 1.568352651190721758e+01
-2.461062750391349585e+00 3.279638382376925065e+00 1.640515718353140073e+01
-3.406275410244665736e+00 2.305845477102336005e+00 1.860212396978478466e+01
-3.273552148562532516e+00 2.126281555208024088e+00 1.872462993214820415e+01
-6.048483786064779544e+00 -6.476926147131731870e-01 1.887220311624266600e+01
-3.605123256049120428e+00 1.319054234353522537e+00 1.881531418673769451e+01
-3.346405692713029012e+00 -8.577871611130267748e-01 1.567348854502985489e+01
-2.382073689408756412e+00 -7.885878521532099228e-01 1.573035940032848146e+01
-7.187925252733085912e+00 -2.859713124488064917e+00 1.547858661661516777e+01
-3.642445634134309884e+00 1.108751672331946825e+00 1.886751417001519826e+01
-7.774865206674304474e+00 9.137944081957545261e-01 1.470653974410470965e+01
-1.653250556909374058e+00 -1.446057661289610552e+00 2.027167243290944043e+01
-4.260393326972514494e+00 1.300111323081504011e+00 1.870615471210173553e+01
-4.866904573848641391e+00 9.390122395548162748e-01 1.864940692561389568e+01
-5.205145277985416818e+00 9.382964400767472846e-01 1.852295811875094955e+01
-5.124002379650629990e+00 -9.868617211059116379e-01 1.434188426271632011e+01
-7.205845578058784895e+00 2.968340272693079207e+00 1.552359579421803915e+01
-5.549721881293134373e+00 1.320706573279974538e+00 1.828648261609037462e+01
-3.586645425083235139e+00 -1.517796723590350894e+00 1.962927438174119033e+01
-5.806070838104962384e+00 1.373438536615690264e+00 1.821323627367092968e+01
-6.390615221988274364e+00 9.232429059725133502e-01 1.826768132721842619e+01
-7.219795810096082178e+00 9.920062357148364818e-01 1.794863566392159981e+01
-8.388866529856326082e+00 -1.137516524498133563e+00 1.623457784925405889e+01
-5.521326281407197278e+00 -1.627205848550693723e+00 1.560835448661938329e+01
-7.447274633219317153e+00 1.051304976663187229e+00 1.779937211629364668e+01
-6.785172038962161700e+00 2.382659153173412925e+00 1.471829959340342242e+01
-7.571651050383431780e+00 1.202365943130527359e+00 1.763482018543245289e+01
-7.713893613041186370e+00 1.032800948312832867e+00 1.762955272073185853e+01
-1.741192342852838859e+00 8.764585092014465229e-01 1.361465576917427711e+01
-8.103097758964876718e+00 7.217509959769019545e-01 1.737019862962709027e+01
-8.174831436612020497e+00 6.147477793879116970e-01 1.730868011194866796e+01
-6.715570455381263848e+00 -3.683375424521472041e+00 1.960829299120672431e+01
-8.298575863685581311e+00 4.809706668335629320e-01 1.711731250415505912e+01
-8.309522220251299274e+00 6.854412470460278239e-01 1.689209222110414998e+01
-4.945813903524820532e+00 4.497335726868961103e+00 1.624742806828861319e+01
-6.095861093966504995e+00 2.676975199636425273e+00 1.444122088087125633e+01
-8.323512775236395100e+00 8.182275942396635138e-01 1.672144312139657529e+01
-6.666363223367998359e+00 -4.127740829594846339e+00 1.900485578083834781e+01
-1.120157321479575696e-02 -1.965826160265989220e+00 1.959091986942884489e+01
-4.169498594798907831e+00 -5.579512431050033250e-01 1.411888380548050748e+01
-4.714727539617596719e+00 6.395989028145436794e-01 1.176163875334327003e+01
-4.871824369762426166e+00 6.387502298137007761e-01 1.183360445437695319e+01
-3.726620991686243833e+00 4.237377637417711895e-01 1.205130488969908953e+01
-3.542049844728598629e+00 3.847244958033313456e-01 1.217925432068885527e+01
-2.728908939899162611e+00 5.295441925269307459e-01 1.239909166124000706e+01
-5.045609937388284116e+00 3.320467257259122063e-01 1.875486848003994567e+01
-2.815936686120177335e-01 1.007391360621804788e+00 1.820035250510854041e+01
-9.120519817489218806e-01 -2.361650338457764065e+00 1.745070374920337031e+01
-2.972971735283033823e+00 4.087265204442090294e+00 1.771479246302065746e+01
-5.077159928295511548e-01 9.892075255721317628e-01 1.884536120110772828e+01
-1.364484286966467064e+00 1.944842918518490782e+00 1.895026953114555113e+01
-1.440447295357344171e+00 2.198935466665374872e+00 1.881838573799855396e+01
-1.565914979936276819e+00 2.366750569714158647e+00 1.876403822490503615e+01
-4.521704236099803431e+00 4.487035578397327029e+00 1.625593952551016486e+01
-2.412723467995458559e+00 1.798238423723079960e+00 1.915699177119570606e+01
-3.464406095471028735e+00 1.087364981971889577e+00 1.891278673166320345e+01
-3.456922096777801379e+00 7.261160477293512328e-01 1.901440721874064366e+01
-3.860889974842950600e+00 6.961433454985441749e-01 1.895813307550538696e+01
-4.051950987141573535e+00 8.464426547880656848e-01 1.888354292833103187e+01
-5.410924195303524975e+00 7.593878097763092638e-01 1.851485805510470328e+01
-4.158723186512744086e+00 -1.150183170532281585e+00 1.587926231528937393e+01
-5.836118010708952752e+00 9.745590088097482173e-01 1.835535868791919967e+01
-3.212367244458813609e-01 6.057853861516215854e-01 1.886620038329375859e+01
-7.759394722672091405e+00 5.996956281573809777e-01 1.783890368622819267e+01
-4.945936363774405820e+00 -3.856642430358842688e+00 1.833390451965640011e+01
-8.093913988077121147e+00 4.622601275132331988e-01 1.757396833170243156e+01
-5.037490383916823689e+00 -6.613353854573018609e-01 1.905241239802423081e+01
-4.001583854321090428e+00 4.702691583727514058e+00 1.700177321334532365e+01
-8.329013081669947027e+00 2.385306486212933064e-01 1.725275502516431914e+01
-7.115878618791655619e+00 -4.067401441188469136e+00 1.829429767720252187e+01
-4.492544624204751536e+00 -3.587887377089555407e+00 1.825086314490507533e+01
-7.092131460882583838e+00 -4.082459153823226217e+00 1.874854555507611309e+01
-8.421049399792646994e+00 2.495026197194455952e-01 1.687558231681311582e+01
-1.833113469753084868e-01 4.938366578637465309e-02 1.906520080853101717e+01
-5.942317460640949456e+00 1.847686431696344833e-01 1.283443157892936171e+01
-5.091991339283808315e+00 4.058726572631033425e-01 1.218556702848909623e+01
-2.283787303777041977e+00 2.848380954237375473e+00 1.859143676472917406e+01
-4.742504142447210747e+00 4.460391732814721344e-01 1.197968581020202805e+01
-4.495767622417876197e+00 4.122297418502854915e-01 1.197966703526480359e+01
-2.952643522032221579e+00 3.190070388259425016e+00 1.568381448418729462e+01
-4.277265052480362151e+00 2.548880651229326055e-01 1.221526377655398932e+01
-2.156778296548241158e+00 -1.443426364188974409e-01 1.440485086956167748e+01
-2.477075382084278132e+00 1.162215587293954577e+00 1.261146425028111651e+01
-4.445820432068880557e+00 2.553874693367389481e-01 1.220423498467397394e+01
-3.923243025608738499e+00 2.200059121545964724e-01 1.234839116831012262e+01
-3.335393759157868843e+00 -3.101672765083904437e+00 2.009168331873128466e+01
-3.926424285752077914e+00 -3.371885047083130083e+00 2.011223714743133684e+01
-8.290402144540012230e+00 5.233065554808402631e-01 1.553752535594179562e+01
-3.519653397537743977e+00 1.869903997370802595e-01 1.258148267196393277e+01
-6.579323682526235118e+00 3.955717149671804655e+00 1.594810349279000405e+01
-9.976617169853918554e-02 6.677011673608121978e-01 1.808449561236116665e+01
-6.993077648048536155e+00 2.175838925782857203e+00 1.469992887104798029e+01
-3.827183086349621455e-01 7.283455909148622842e-01 1.886858195307149799e+01
-7.414147345273769396e-01 9.891305436613397895e-01 1.919774108614593899e+01
-8.656631033979687029e-01 1.189809807373676254e+00 1.917464786578214131e+01
-2.896823130524726064e+00 -2.543486971236409211e+00 2.002064813171691071e+01
-9.631753089080514751e-01 1.570535662496688412e+00 1.896303582256361864e+01
-1.239188590200928530e+00 1.817615115134546988e+00 1.897879483900990749e+01
-2.314745138263345492e+00 -1.558685538033246942e+00 2.001080159607361253e+01
-3.729910067378161109e+00 3.639306256673426443e+00 1.545796621793857639e+01
-1.662854840347373742e+00 1.899794672046221100e+00 1.909307779242280390e+01
-1.823247563136218385e+00 1.871486061442426685e+00 1.914094754346264438e+01
-1.834932742740418288e+00 1.681697985593295197e+00 1.923833304883427786e+01
-8.350829902530296778e+00 -7.403247031434778691e-01 1.603624133650227179e+01
-2.223276844132207941e+00 1.543993862975584497e+00 1.928845019745618572e+01
-2.067367419390076844e+00 1.510898407277085465e+00 1.931988552353397637e+01
-2.417429981903339353e+00 1.502802146381998938e+00 1.926003501691356945e+01
-4.480575014931131861e+00 -1.538404620395570799e+00 1.626352416829429615e+01
-3.723799873752472678e+00 3.413580154812140055e+00 1.511278014155731597e+01
-2.835557324464838214e+00 1.528117467061245405e+00 1.909802981623541029e+01
-3.053364998605309300e+00 4.811857253451954919e-01 1.921871191477340801e+01
-2.959884728486552152e+00 2.996079443965253386e+00 1.530228018070188512e+01
-5.246337856779550890e+00 6.054671858283738883e-01 1.860596046725936503e+01
-5.104688692545268580e+00 -3.666683237468832068e+00 1.812385486573678151e+01
-5.547124598505146942e+00 7.471417229984574915e-01 1.848227267740224278e+01
-5.887139871009316572e+00 7.824427338376906960e-01 1.841194334555097356e+01
-5.641061637654167349e+00 5.595119488154089993e-01 1.852688806567032742e+01
-7.032334360730890133e+00 -2.175465319284701771e-01 1.854075980734503304e+01
-2.083538662549131892e+00 -3.472710070015250672e+00 1.890936763672316800e+01
-6.451815145282358444e+00 -2.516168246084608651e+00 1.543477557980182979e+01
-1.324108718261797435e+00 -3.310055310978963661e+00 1.886465848055442507e+01
-7.228199166106906048e+00 3.471707901725256673e-01 1.824687736373551417e+01
-5.704609098900878195e+00 -3.176461257488320644e+00 1.741744506013822757e+01
-8.086317898902629864e+00 2.381478250513640038e-01 1.771801544889560631e+01
-8.502588558278436182e+00 2.596859656245775749e-02 1.637739412796975103e+01
-8.382693799233319254e+00 -5.256335218820353816e-01 1.605059959517563328e+01
-2.877612547875818994e+00 -1.096924678919849905e+00 1.969617163753366640e+01
-6.199171036386021960e+00 1.263952981878861959e-01 1.303739707179136786e+01
-5.930159875430721428e+00 3.989513007532963229e-02 1.292827871725805977e+01
-5.722318598293662184e+00 -4.554774325259958179e-02 1.291130380264836930e+01
-5.252234069750848278e+00 -5.332704870800952790e-03 1.880051232547401696e+01
-5.655511455461962989e+00 4.322142369754594649e-02 1.280575326762164678e+01
-4.529003926806270286e+00 1.591673626592816637e-01 1.235359116505546950e+01
-4.360681699420527302e+00 9.082361463664706536e-02 1.248060615629007231e+01
-3.800912281471825693e+00 -9.110333476489154148e-01 1.551447281047651217e+01
-4.101069031617964988e+00 1.036568113201995489e-01 1.250993062185302307e+01
-3.939844034777513215e+00 1.114396459624861224e-01 1.255056338335964483e+01
-3.595280641964360591e+00 -1.022021357808146513e+00 1.591999422358124860e+01
-7.510766456860817897e+00 -5.911797982503415039e-01 1.855177028793190885e+01
-3.936986794935604550e+00 -6.378939821154760992e-02 1.293381323515063741e+01
-2.006851701619952522e+00 1.993180461774366474e+00 1.491174401396128957e+01
-8.081932271026822434e+00 -3.405071440774668279e+00 1.672393744651452607e+01
-3.317282937251947672e+00 8.360581890590912391e-02 1.295621505186086608e+01
-1.664079996240217518e+00 1.519136842585338654e+00 1.481050359306702546e+01
-3.272110024002552464e+00 2.472232666267265566e-02 1.316226857912757708e+01
-5.433386425071287995e+00 3.199665779646973629e+00 1.471830713759251097e+01
-2.907850405837620222e+00 1.350380696988131013e-01 1.315823676440886203e+01
-8.083587812786515059e+00 7.604317239858455757e-01 1.515774107515851199e+01
-4.739238856770541908e+00 2.831717544676592535e+00 1.410522590883287819e+01
-3.206998788138148093e+00 1.058200478945625633e-02 1.325639582529491634e+01
-2.173529304209922852e+00 6.030398232926743596e-01 1.288517162672030736e+01
-1.996389757940937759e+00 8.790901110676727637e-01 1.305273439645271338e+01
-1.969726960628758849e+00 7.305609993142527792e-01 1.304170884664432606e+01
-2.014259377019345099e+00 5.865486247763606054e-01 1.309282909018399721e+01
-1.407087373509579020e+00 1.725664526315321856e+00 1.911799126918045033e+01
-1.217461982324175018e+00 1.555489207059711942e+00 1.914701503536041827e+01
-1.423030196354059029e+00 1.625758376914144820e+00 1.917873452500298015e+01
7.568376987069047601e-02 1.482673724599523624e-01 1.744242524498731939e+01
-2.693960061005107320e+00 -1.743737894527271681e+00 1.990877861596046472e+01
-2.274904515321650056e+00 6.200266711865281000e-01 1.956964215811002106e+01
-6.530121758695310419e+00 2.492853117098464466e+00 1.461179910858753317e+01
-8.526614186867613299e+00 -1.214066994965834034e+00 1.740493531781102376e+01
-2.078297265316218390e+00 8.693669576086289208e-01 1.957384215885990386e+01
-2.240721899131086214e+00 4.454446774825421285e-01 1.962852396944690270e+01
-2.635079833403149330e+00 5.381344071804262663e-01 1.938800509495241187e+01
-2.841967646769338440e+00 2.866905207268672373e-01 1.935091902930864194e+01
-6.364300016264532456e-01 1.335783975940996182e+00 1.666402880217059845e+01
-2.803996049162861937e+00 4.414447234082615745e-01 1.932683723125467878e+01
-3.037222646547304894e+00 1.175515147479976319e-01 1.932115603474264276e+01
-5.931178866047527976e+00 1.208707774941112367e+00 1.311803187511149105e+01
-3.222431868391269383e+00 9.532605654752412949e-02 1.926056631624965831e+01
-3.455346800307027344e+00 7.741188771179979833e-02 1.919934330030301339e+01
-3.838505858343572719e+00 1.399040829605762704e-01 1.911635696390740691e+01
-3.350624009869192399e+00 -3.097793642519944823e-01 1.417092506191600165e+01
-4.408689494002834941e+00 -6.169979622433374722e-02 1.907863171716090278e+01
-4.851531371685497085e+00 -3.048097904076887410e-01 1.899939571778058678e+01
-4.604560950269597441e+00 -2.976585771393296387e-01 1.907807257347826635e+01
-3.350251630764498056e-01 -2.204214162827383694e-01 1.580326682649655368e+01
-5.370562799321492164e+00 2.706830932077332608e-01 1.866950537748162731e+01
8.158944777770882339e-02 -1.491109683665266861e+00 1.797501041354104245e+01
-5.454948302489316170e+00 1.486919083736849556e-01 1.869685790065349806e+01
-6.211560864644106950e+00 1.363822666473947232e-01 1.858176495281347940e+01
-6.052116549526164846e+00 -2.623076035847271559e-02 1.866346531357457650e+01
-6.870796243860683994e+00 -6.327115023592309040e-01 1.870981242403701827e+01
-7.243481571981959632e+00 -3.625778819930794983e-01 1.855393168685679939e+01
-7.600561736425216708e+00 -2.698845904236136795e-01 1.840163693507366105e+01
-8.469434201363855053e+00 -1.835655957151388629e-01 1.705190667403303451e+01
-8.403557270095927123e+00 -7.383706051642340285e-01 1.617978863394230160e+01
-6.060619069613751186e+00 -1.664232376752714515e-01 1.315285613997676961e+01
-5.932156990540129016e+00 -1.912769438458405968e-01 1.311555127653833352e+01
-2.608436283109357490e+00 3.332769561267022507e+00 1.633126298672976162e+01
-5.710906129883212223e+00 -2.354496700976457246e-01 1.309150137308240147e+01
-5.424018352068880056e+00 -9.435957869614641780e-02 1.287990673692533505e+01
-5.124145992502934455e+00 -3.545835827417165298e-02 1.271536888855220582e+01
-4.877671755221680172e+00 9.188256990840215632e-02 1.246922538407615377e+01
-4.564289333170071572e+00 -7.721868369882844974e-02 1.275598347924296405e+01
-4.761008158807793933e+00 -1.934358643094421515e-01 1.293911140139447724e+01
-4.133642866321129539e+00 -1.191832305625972754e-01 1.297084174981610971e+01
-4.137179407227943528e+00 3.996608197700832310e+00 1.571377235524351335e+01
-4.143274280538441268e+00 -2.137749738287989532e-01 1.319952922971481968e+01
-7.850916649525134794e-01 1.732396180901129457e+00 1.706852305382128066e+01
-3.887887280785040645e+00 -1.699663971355073411e+00 1.963626109030666100e+01
-4.349824264608130875e+00 -2.277567503803508142e-01 1.313844888107144016e+01
-6.059288533533317533e+00 5.159909029234829303e-01 1.281915372110238849e+01
-3.820353235184064999e+00 -2.017841940243577659e-01 1.337946875408459846e+01
-4.441075613453889126e+00 8.900452138710905903e-01 1.879788904279942585e+01
