-5.180875652665151598e+00 -4.267591551603771904e+00 1.598518245854122810e+01
-2.879044898671305752e+00 8.279646060301224519e-01 1.629711095679016708e+01
-7.184088562546897094e+00 -1.101529969755350225e+00 1.450595633718956989e+01
-5.799350998949594604e+00 1.115074049107102505e+00 1.211010631245104818e+01
-5.026354101686491660e+00 1.934756173033133075e+00 1.108170515010321466e+01
-4.826510348699794228e+00 1.856064190426071070e+00 1.105753373711048582e+01
-3.677007709766372479e+00 2.308186830462016559e+00 1.589552711809360019e+01
-5.634020765679233378e+00 1.076031822856585274e+00 1.208794834606392143e+01
-5.732642567400684896e+00 -1.550115149048151286e+00 1.698892277272364382e+01
-2.623443724680191380e+00 -2.356316033521846265e+00 1.572179842005548167e+01
-2.551840211540226111e+00 -4.028871513563415441e+00 1.483972705918735002e+01
-7.668774703853730168e-01 1.969550736140679437e-02 1.170864630996896594e+01
-1.515876750054605981e+00 6.539635109531898305e-01 1.133363357179579722e+01
-1.004483395038589855e+00 6.518965495257948994e-01 1.161445648847846357e+01
-2.203695045009161468e+00 -4.183849203771872638e+00 1.396949419400712955e+01
-6.405248132425584551e+00 1.143522610449682508e+00 1.231357055039735471e+01
-6.186900899947730181e+00 -7.229660626779261801e-01 1.672376686941307966e+01
-5.806595420388477535e+00 7.700038873476637846e-01 1.235503226524463471e+01
-5.804484031502979313e+00 -8.364710301231292888e-02 1.696925266637281382e+01
-4.193578738609964773e+00 -2.729618753295682154e+00 1.636676769543782584e+01
-4.353587049206717907e+00 5.564691421669851756e-01 1.191571224603780976e+01
-1.247676811843102751e+00 1.156383769619432345e+00 1.190171264918735616e+01
-5.787592585736404338e+00 9.456189736094342546e-01 1.221994914976891167e+01
-8.289559094526910421e-01 -2.561276796126648492e+00 1.267956473516849414e+01
-5.977238548371266447e+00 9.538985088499101206e-01 1.224521040036820452e+01
-3.414984166939996957e+00 -1.734692152797812081e-01 1.219102727386111340e+01
-5.191458208463647139e+00 -4.341462311572057864e+00 1.524786474199100539e+01
-1.053060039878627618e+00 -4.114903392504317026e+00 1.378136311227371991e+01
-5.944013110159906077e+00 -5.137676385278180380e-01 1.694835691701348068e+01
-6.381172051486458940e+00 -1.116962732449005458e+00 1.407037210742335631e+01
2.338625205581895683e-01 -1.581710136224538044e+00 1.379129987571074523e+01
-1.167079234395938414e+00 -3.853548624180077598e-01 1.542904865573935425e+01
-5.653115755683208121e+00 1.927934542331199763e+00 1.165147240029441278e+01
-7.190526471171279077e+00 1.204208431202187235e-01 1.392763759240086685e+01
-1.828040076352058119e+00 -1.549041468174855440e-01 1.162389368878897145e+01
-7.483630182181919110e+00 9.604550186845450810e-02 1.475544850308007838e+01
-1.052119855769830581e+00 -2.055022632943448002e+00 1.248921538653018004e+01
-7.116964526453596562e+00 -2.109476166485720228e+00 1.571275671877127778e+01
-4.904876465699812726e+00 2.375299524622984659e-01 1.704000066064908125e+01
-1.791292662376239075e+00 5.986258737194460888e-01 1.131868666633951293e+01
-6.328727820312782804e+00 1.267455210962245227e+00 1.231765640868366418e+01
-1.816277988857585957e+00 -3.631803401702805578e-01 1.172076577523280960e+01
-2.561944238105380300e+00 2.087731219428973439e+00 1.168006797848554257e+01
-5.562216095038236219e+00 -2.943430151898725811e+00 1.673487404287417846e+01
-4.615584899373731176e+00 8.295882819716515755e-01 1.177861694962288297e+01
-1.470013799201222326e+00 1.019377817650574336e+00 1.568012160124211718e+01
-3.355197751766871850e+00 1.138269856431151750e+00 1.114179471986791370e+01
-3.533599327975840865e+00 -1.014791840274194445e+00 1.643410081072491735e+01
-8.446606137716154983e-01 -2.216184561438012679e-01 1.173437063695348925e+01
-1.383230332066948343e+00 4.533349420638390637e-01 1.141450716485121220e+01
-2.191318732686279303e-01 -2.162471357649833337e+00 1.241142155870741348e+01
-6.207697569509255331e+00 -2.701167912297590235e+00 1.461315346913567126e+01
7.046339439133286753e-02 -2.594639631178806471e+00 1.284992943702228629e+01
-9.791052062675844603e-01 4.485461672109252174e-01 1.159667478543361696e+01
-1.399243768927418419e+00 -3.769783691045550000e+00 1.342685949073456797e+01
-7.204283790868098336e+00 3.182243258979495781e-01 1.492819351120117588e+01
-1.824532885113727132e-01 -2.885339486414117971e-03 1.475903270889320495e+01
-2.751380304264383181e+00 2.157133096343605949e+00 1.445557871871138289e+01
-7.104715878731074907e-01 -3.949239152887777493e+00 1.405622868612531917e+01
-5.859072180073960467e+00 -1.126620074674198113e+00 1.699449163085622772e+01
-4.301034283924784485e-01 -3.938393226675026781e+00 1.374745782062855071e+01
-3.173184881710823912e+00 9.121033735573957912e-02 1.188297260808348810e+01
-5.868518068174549462e+00 -5.844323891278420113e-01 1.699720587792094406e+01
-6.801200244137426409e+00 -1.526104123512303845e+00 1.609149409699601208e+01
-2.421446912722867939e+00 -4.246933315302787726e+00 1.438302522029297492e+01
-5.981336338401378683e+00 -7.156249642728909066e-01 1.693747147268036102e+01
-6.084164691513407774e+00 -1.154678542640873884e+00 1.685301541277560133e+01
-4.580338321750867081e+00 -7.714475830558049640e-01 1.338296409876545212e+01
-4.938886320287153353e+00 -2.123246758168864101e+00 1.417016756408653677e+01
-4.998698282467924692e+00 -6.780750419694460129e-01 1.346309906583090665e+01
-4.370597928508589192e+00 2.442357234468333971e+00 1.209723205221350995e+01
-2.982302107145491821e+00 -5.949655410795284816e-01 1.235487134826941613e+01
-6.073061945896714775e+00 -9.537330812867198526e-01 1.686050120674050490e+01
-4.639109328578980396e+00 2.359963256697112932e+00 1.514562679815723456e+01
-3.779532046672576584e+00 -3.236783394146740545e-01 1.248458575042800689e+01
-5.929879127503244085e+00 1.843909372822725823e+00 1.430937079781586974e+01
-6.413626555894142989e+00 -3.489310389540662527e+00 1.509577705048167573e+01
-3.900956675691739761e+00 2.028383497868501806e+00 1.682728081839779222e+01
-2.220406735831610412e+00 -3.820538659829486150e+00 1.484340509257260621e+01
-6.179081750570230014e+00 -3.013017068731804748e-01 1.347773845095462875e+01
-1.615170913402444564e+00 -3.988797272213645551e-01 1.172920620116879675e+01
-4.762468557750882070e+00 9.663042650462008165e-01 1.173174913997914004e+01
-6.112021394573906363e+00 -1.546122751571433529e+00 1.683334149334227803e+01
-4.548263982291368634e+00 -4.066840974430226296e+00 1.464140615176367888e+01
-6.578399378551878840e+00 -3.441857826834907819e+00 1.513124004970962844e+01
-7.799461548417443435e-01 -1.073306423825098666e+00 1.207202204565086490e+01
-5.010765239753884437e+00 -2.809560629122135333e-01 1.309950585623058217e+01
-1.186005757545772754e+00 -1.269476455977605056e-01 1.166591306931986693e+01
-2.626648627229773769e+00 -4.202106159490618609e+00 1.417575338269651652e+01
-6.958353283840518877e+00 5.320030744799955080e-01 1.332417215209277472e+01
-1.598570599069317311e+00 -4.163753620726653892e+00 1.431263806862178356e+01
1.570432792325865412e-02 -2.222368185582260791e-01 1.452716109226951957e+01
-1.230688797201898943e+00 -9.880259763569656517e-01 1.202017713219461470e+01
-1.530920746792481912e+00 -1.266367339462859398e-02 1.563944012989703580e+01
-1.166992510763217084e+00 5.154541553648361862e-03 1.161252458307214752e+01
-2.855960751933132258e+00 -3.600307419904989814e+00 1.374055724324748340e+01
-4.832460915374603427e-02 -3.501424462202646026e+00 1.317410029004473060e+01
-1.023099895964418415e+00 2.440313527058650678e-01 1.158744804189447919e+01
-3.222871394705406622e+00 -1.909710033764317139e+00 1.613249130278438415e+01
-1.850187924398399297e-01 1.833569777542982671e-01 1.476029040929875791e+01
-1.796022762637639492e+00 -2.757539689957257956e+00 1.515557410319211940e+01
-5.187827060283904501e+00 -7.178314825329961124e-01 1.353429373580088324e+01
-6.094778502778275708e+00 -1.335182099327346439e+00 1.683889903602939242e+01
-6.902885874768255547e+00 -3.092778120824698718e+00 1.512621676647502866e+01
-5.962738181959729822e+00 -1.131438337325602062e+00 1.693903155881213607e+01
-2.214573617730592137e+00 -3.784017981512548534e-01 1.591875439237881196e+01
-1.026463864462646480e+00 -1.256028202181689313e-01 1.168027873163530828e+01
-6.455595455456897724e+00 8.760414346819695997e-01 1.246453626113240531e+01
-4.088556334672928116e+00 1.225521438362908500e+00 1.687449071308483539e+01
-3.846645531548773533e+00 -4.235852038431085487e-01 1.259208312395241691e+01
-4.811626291070957961e+00 2.780098331723321881e-01 1.242966964595177970e+01
-4.862075154684374567e+00 1.033150163440306191e+00 1.703301387971592717e+01
-6.075049804736882830e-01 -3.809623054783296325e+00 1.339682678962678253e+01
-6.221773241444678249e+00 1.556787014264413349e+00 1.310757573291451550e+01
-1.011547557067081549e+00 6.804305694787848857e-02 1.161294541437439776e+01
-6.178061404707326787e-01 -1.725324156261345276e-01 1.177070692772085536e+01
-1.516599719286019776e-01 -1.601470934371305166e+00 1.469960156046846222e+01
-4.385391868185867459e+00 -3.956602139988099509e+00 1.595340941019513181e+01
-3.402209225563725514e+00 -4.404301048016576736e+00 1.454086814329599875e+01
-6.392031411340852287e+00 -2.547294498836150112e+00 1.457986286451843583e+01
-5.149939768743849733e+00 2.247047171318085290e+00 1.248764865003765223e+01
-1.599611938186255022e-01 -1.831993576878250263e-01 1.193709754014561142e+01
-2.846318877779400403e+00 2.188621971813170752e+00 1.077679103095128355e+01
2.031890564493482598e-01 -1.384752733292081928e+00 1.357630303831082941e+01
-3.364473104858633157e+00 -5.958443946056297680e-01 1.639135168545913146e+01
1.106989382126832844e-01 -3.331643208727763650e-01 1.317546078539760757e+01
-5.989299276598860189e+00 1.755922601016188134e+00 1.511323849461770763e+01
7.858889885508402173e-02 1.539289829950896138e-02 1.434031528909493503e+01
-1.922985935517057543e-02 3.324454305704049872e-03 1.455369168998471352e+01
-6.320562275803527363e-01 -7.978490543200125185e-01 1.511666193437828909e+01
-4.055252134306036593e-02 1.254703332519657710e-01 1.455424548877664037e+01
-5.781475826803680107e+00 -5.461705808192811595e-01 1.361785451318256079e+01
-6.754510733042137227e-01 8.462538711840978944e-01 1.360590988770771403e+01
-9.366782208627394413e-02 -1.208954768240544375e-02 1.466996799834400278e+01
-2.402509118780968400e+00 -4.154568452242823895e+00 1.398973097257240639e+01
-5.786959588946892552e+00 -3.530642368468449810e+00 1.492469501058612380e+01
-4.980068551707737434e+00 -3.675383085235297997e+00 1.468554632259656145e+01
-3.070211508306279757e-01 3.954996946397810742e-01 1.479084108600521930e+01
-7.065451678089627485e+00 -2.054067669946688213e+00 1.580114006773331781e+01
1.059941964138108039e-01 -2.047360455663167489e-01 1.338029321434605734e+01
-6.575043293251543020e+00 9.113095861293225575e-01 1.254481269651465780e+01
-4.851010144690362402e+00 1.431938127266682015e+00 1.701576364852806122e+01
-4.633459341798387143e+00 -4.306880987107704506e+00 1.578454592907854348e+01
-2.413702842421762362e+00 -2.037815406094647397e+00 1.571945312005371775e+01
-4.674772910131798298e+00 -3.163699103016698544e+00 1.434601768598558991e+01
-5.926143063410978407e+00 1.842675306382813405e+00 1.450569784748701707e+01
-6.418448499126895967e+00 5.319228613269015860e-01 1.271544745204699112e+01
-6.512073445926136017e+00 3.506058465110284406e-01 1.291272561523892293e+01
-6.391587566277316945e+00 3.261327416830082093e-01 1.288674595939188450e+01
-2.906524777983235275e+00 -3.964855532610656041e-01 1.620375134340288881e+01
-6.583284172152538360e+00 -3.713955730981649772e+00 1.603492934229301525e+01
-1.177256928010606440e+00 -3.830107122514671225e+00 1.436631407083867273e+01
-7.194306495985287597e+00 1.050928997206124205e-01 1.512157021491766429e+01
-6.690660081484758770e+00 1.037122759418104057e+00 1.290486084469783279e+01
-3.263640293900379685e+00 1.619761371314795140e+00 1.651859113672350432e+01
-5.903837378178635742e-01 -3.665642972885025941e-01 1.182239092478106457e+01
-3.557231752436723626e-02 -3.652328444890766690e-01 1.199844900843423900e+01
-6.044235474374074713e+00 -1.671616128344637353e-01 1.679966987595581784e+01
-3.826101523670233373e+00 -4.385617981531689580e+00 1.459450616068862772e+01
-4.232278221564163445e+00 -3.339804581745299927e+00 1.417336841452068441e+01
-5.580658316265169061e-02 -1.947121405984552078e-01 1.203199214055657862e+01
-6.407740398857884045e+00 -3.846493211400378698e+00 1.530882368585625741e+01
-6.003156932875143958e+00 -1.107031645456526325e+00 1.404353663872889868e+01
-4.402261942740490319e+00 8.153948258522301096e-01 1.696177136824717380e+01
-5.072032543209413546e+00 2.119979074553874021e+00 1.610602480712051587e+01
1.475813947969478734e-01 -7.392389686254752235e-02 1.417829711291113526e+01
-5.434646797462050927e+00 1.991674361890055645e+00 1.608837141435208551e+01
-1.713850789705702038e-01 3.919394593569944796e-01 1.418147016959885676e+01
-1.501877367021237974e+00 1.371685622368714386e+00 1.559121400693866732e+01
-2.428077577507238516e+00 -1.393568299690777446e+00 1.252557616114401995e+01
-4.961907528660724154e+00 -2.361280111040445995e+00 1.679582487741188501e+01
1.526238170053995091e-01 -3.356605955570157285e+00 1.316227271856837788e+01
-4.468490999215921633e+00 -2.805509901154313646e+00 1.413494393042259034e+01
-2.087470061088698703e-01 -1.980446713227534739e+00 1.238254469723723261e+01
-7.400105316706881098e+00 1.712186948639411455e-01 1.474526646042676603e+01
-7.121694016925902204e+00 -2.497464043289932434e+00 1.563832541656627129e+01
-4.940343285821027663e+00 -2.149767242558495717e+00 1.684159485605650630e+01
-2.161567851325881584e+00 8.070888395033974927e-01 1.597855703367848079e+01
-5.031922321626867145e+00 1.445849738150869923e+00 1.700049417406269825e+01
-4.961559823711831463e+00 -2.510265823317314293e+00 1.675602119488941000e+01
2.108024813820170706e-01 -2.761993103702791164e+00 1.332319693092769697e+01
-3.721796550731287567e+00 2.387035092014995641e+00 1.122257761501954931e+01
-3.622685490149914145e+00 -1.920921933324480912e+00 1.338667895104249439e+01
-7.204793698548847658e+00 -2.523055720810410296e+00 1.527784788272583327e+01
-8.427742211491042745e-01 -3.945070973682557103e+00 1.413592174064366347e+01
-7.221683926687684441e+00 -2.513385927193348302e+00 1.508801438101280823e+01
-5.658350468973025738e-01 -3.738486546407667754e-01 1.510527239748723005e+01
-2.586895840672806202e+00 2.059883989587578235e+00 1.125461905885995506e+01
-1.917224195804885234e+00 1.718032013758677978e+00 1.181270013388409623e+01
-6.577671045504461134e+00 -1.546387375942251952e-01 1.342429159604294497e+01
-7.136445485028408697e+00 -2.666874479711095702e+00 1.548925298562948072e+01
-1.865858586076764247e+00 1.717706459438340660e+00 1.342143268763775765e+01
-1.579509115701163591e+00 -7.088470727709956787e-01 1.188454475988502068e+01
8.130851294394281226e-03 -2.609216301404293503e+00 1.272989227044542915e+01
-4.222879376734255397e-01 -3.227535323842095627e-01 1.185998954064909228e+01
-4.641043042252894324e+00 -2.569841811238442908e+00 1.415597343346376746e+01
-6.721038478753181167e+00 9.324333689627857247e-01 1.274509005930646666e+01
-1.829073567447275228e-01 -2.223662378926966277e+00 1.457193297419810207e+01
-6.154361748191115922e+00 -1.314503680814111730e+00 1.415535432132340432e+01
-1.809335514207020879e+00 -2.114409153118847584e+00 1.261594314910887604e+01
-2.750702995189666655e+00 -1.767527853047008657e+00 1.595303542318539414e+01
-6.794979238628546803e+00 -1.082076895979239728e+00 1.413158384277476998e+01
-1.802047638340137148e+00 -1.944945849012058359e+00 1.253364926419130043e+01
-6.142678446786684177e+00 -2.723874257968931012e+00 1.670086379268615318e+01
-4.106746295627431209e+00 2.297093597085195782e-01 1.679845558681190099e+01
-2.162040326029361914e+00 1.919432938283620604e-01 1.593591577337376819e+01
-2.026541761875746861e+00 -4.256505549287011192e+00 1.418673186661029106e+01
-6.169830790456712677e+00 4.641400159208002307e-01 1.268782997891893771e+01
-7.145181117358311518e+00 -2.737724893183604458e+00 1.527693593796776028e+01
-2.059759334339542614e-01 -5.690255311010727901e-01 1.479909497446587707e+01
-5.506719424195172685e+00 -7.409169760956562101e-01 1.705479955931813052e+01
1.109882697225810233e-01 -2.803549380812155434e+00 1.294362413104129317e+01
-8.536766375932202111e-01 -3.366249165501318252e+00 1.445263744436577369e+01
-5.733776715634534504e+00 -2.749887598661418409e+00 1.679019085375785281e+01
-6.382043640739046175e+00 -2.974756139161235380e-01 1.349031412768997384e+01
-6.183358086018249544e+00 -2.559253723688253324e+00 1.670291002047128259e+01
-4.313527034040541608e+00 2.370367198871398351e+00 1.058050670174582208e+01
-4.507483048885408294e+00 -2.678623983467206315e+00 1.411968968235459343e+01
-3.168856128558475316e+00 -3.381930937748681032e+00 1.374623261907891347e+01
-5.796052957016605056e+00 1.610059481464709563e-01 1.292317094403021471e+01
-3.567714952053008926e+00 -2.388115054769483159e+00 1.615646040999347477e+01
-7.082247798202991440e+00 2.863608421386916181e-01 1.359433963317946237e+01
-6.298139551172255324e+00 -2.505429796843045676e+00 1.663196524656286002e+01
-4.803114133316573664e+00 2.159353985490473526e+00 1.644861103389725443e+01
-6.508910012667826095e+00 -3.114687922560134048e+00 1.637105556135376005e+01
-3.015640014044386419e+00 -2.565925205259095065e+00 1.333825181519062042e+01
-2.860038725538442073e+00 1.637953614942758707e+00 1.630512200792270860e+01
-4.513921500179253421e+00 1.830327568535219163e+00 1.696243225061086335e+01
-3.602009603800406801e+00 1.900481941847449230e+00 1.070082683133592028e+01
-6.081922485412969870e+00 -2.534363718559038414e+00 1.676898220015175767e+01
3.732874410128128595e-02 -3.215641514264043543e+00 1.393957736332508190e+01
-7.149475085454856327e+00 -2.698945015440640471e+00 1.509250823908102390e+01
-2.643576909181442502e+00 -2.044749327801476113e+00 1.293975058359958652e+01
1.326907334084811430e-01 -2.746169821443444015e+00 1.408207915878266547e+01
-7.192477952787439399e+00 -2.494491126687106153e+00 1.488793459238208428e+01
-4.078381329446843395e+00 2.345261851990283475e+00 1.579687970123159246e+01
1.197256946092434271e-01 -1.800616910474623023e+00 1.429909721416796131e+01
-2.686220551159184122e-01 -2.045846081468551514e+00 1.468556293210577834e+01
-4.438636221321130004e-01 -3.933218790803488574e+00 1.354980259105387219e+01
-2.818210400534687743e+00 -1.567609667037525023e-01 1.196771902655195063e+01
-6.923706037528711832e+00 7.422612837225606164e-01 1.311785089495914391e+01
-6.963938884678153585e+00 7.458300683608862780e-01 1.332712429274116417e+01
-4.731840485598540980e+00 2.077566534112215813e+00 1.674831993268725583e+01
-7.176346591693490318e+00 -2.929701955643162492e-01 1.407698550362794165e+01
1.810346253315343601e-01 -2.402342671266075147e+00 1.410821868011306535e+01
-5.045194324205325209e+00 8.370013715537105714e-01 1.199715767270193467e+01
-5.934048743470206944e+00 -2.806011519175710678e-02 1.317022528563774486e+01
-3.634810456526799793e+00 8.729357292538741930e-01 1.141160548521665064e+01
-1.566664349217428809e+00 -3.112106702133780267e+00 1.489725780114227760e+01
-3.977259302923744411e+00 -3.880516660572316034e+00 1.428097266304866153e+01
-7.426136834656483110e+00 -9.104145825665601599e-01 1.506788644340536720e+01
-3.742336902573120128e+00 4.299968346904592398e-01 1.666195631974372660e+01
-6.598873684427502440e+00 -1.906800200359731079e+00 1.442710323980785247e+01
-4.586981335110350777e+00 -6.789313780204677684e-01 1.331206259312260087e+01
-6.124056539820905698e+00 -2.295392090179223743e+00 1.677740034563683125e+01
-2.384591378160442865e+00 3.148370720859912097e-01 1.149065512010847456e+01
-6.188107009329655739e+00 -1.117073823794367149e+00 1.406719305629442474e+01
-8.032342695234864216e-01 9.395895596350090084e-01 1.340311854103027045e+01
-6.828153851008430308e+00 7.407160279287641202e-01 1.287831182241693639e+01
3.763151641108075651e-02 -3.414431369553368789e+00 1.376610556478936687e+01
-1.636816907154407641e+00 -1.999608570552382503e+00 1.252916624715395599e+01
-3.526295094923914242e+00 -1.534357024918827639e-01 1.650089606634090345e+01
-3.274956100317463648e+00 -4.128433853922171437e+00 1.528735323042456784e+01
-3.726527292604352670e+00 2.315098765256819568e+00 1.547235214788460311e+01
-7.227711449950073863e-01 1.708487467103776414e-01 1.522627912189865285e+01
-6.994650568464399143e+00 -2.708061880415693956e+00 1.481869393551842151e+01
-7.185550132275947632e+00 -1.504809769730262037e+00 1.465444437369310648e+01
-1.264632142173727214e+00 2.963437270417110803e-01 1.149343193328664725e+01
-5.636998734470991756e+00 1.987595553718719765e+00 1.530434879138127613e+01
-5.997690690688539661e+00 -2.950627154477250436e+00 1.668711439421816678e+01
-6.143154449027806940e+00 -2.903870162229550189e+00 1.665787323134806641e+01
-1.391891693896130655e-01 -7.911036497587986549e-01 1.474053895003303083e+01
-1.809847867838393354e+00 -1.761392059722248549e+00 1.244880540438897398e+01
-3.001998428976234479e+00 1.687159428522180482e+00 1.080767611289465080e+01
-3.568981174469396223e+00 -2.612408849813049549e+00 1.608879546635921898e+01
-1.164431625219938482e+00 -3.329577366830018814e-01 1.174598555428818614e+01
-6.842649776228455494e-01 -2.228641971768132279e+00 1.486180729884105389e+01
-6.797076405560687817e+00 -3.319254412387748765e+00 1.606497529464755658e+01
-5.773054654878749803e-01 -2.819251365780389040e+00 1.457338220569173970e+01
-2.132073105310251293e+00 1.614652592865060798e+00 1.597836039821707388e+01
-2.188267244437819836e-01 -2.784082584739746569e+00 1.269023535528216584e+01
-7.083598194068904341e+00 -2.764915195273089488e+00 1.498735503737489339e+01
-7.096622793292392650e+00 1.200022275175582909e-01 1.372915729737230706e+01
-6.871016884172643557e+00 -3.390195809059164844e+00 1.594387844089585471e+01
-7.292811065203493648e+00 -1.497554994389611593e+00 1.544248646669418790e+01
-5.919753357174905029e-01 2.273773383099870760e-01 1.179291844025092573e+01
-9.818752213693308084e-01 -3.235256716385594977e+00 1.457774017976143810e+01
-2.405238588524782006e+00 -4.241265159251811134e+00 1.417043007371249885e+01
-7.210818099963909766e+00 -2.308470332482691845e+00 1.484775941869922988e+01
-4.989784925346842037e+00 -1.332354031819026119e+00 1.387749763563920524e+01
-5.984426305413357738e+00 4.661469495091214998e-01 1.675645719140595347e+01
-3.520162301900447765e+00 2.343867226883772581e+00 1.347721449107620018e+01
-3.410806403698429801e+00 -4.097844906392275277e+00 1.421623102936577610e+01
-5.982507269626831992e+00 -1.087683500455708385e-01 1.326816656379908110e+01
-1.761624263093393594e+00 -2.015375632454858401e+00 1.542185337131389744e+01
-7.899717621897617281e-01 -7.655892066775505933e-01 1.194818240767223827e+01
-4.927147312146903602e+00 -1.083001514288394196e+00 1.373003375216459787e+01
-4.793614117174816336e+00 -7.225958866314520224e-01 1.343747966839273644e+01
-5.971788459878728084e+00 -3.356725278119913725e+00 1.490162899377083150e+01
-2.614001224623022868e+00 -3.957828014047244380e+00 1.495728221633835275e+01
-4.112451964045057196e+00 -1.541389517330941983e+00 1.350557509886957419e+01
-7.411989804570977114e+00 -2.867241842026331256e-01 1.450015669727608625e+01
-5.723329650662499546e+00 1.937446878485094670e+00 1.525382672572159848e+01
-2.217366968146416539e+00 -3.759354999281182330e+00 1.361842009952102117e+01
-4.410133717889216598e+00 -4.178907844721871712e+00 1.465411409566791079e+01
-2.769859776373295723e+00 -3.817686150373709175e+00 1.516758936286667492e+01
-5.399857760324905165e+00 -3.099484648966547518e+00 1.468339577613653901e+01
-4.569203624979687461e+00 -1.776925416421112569e+00 1.677414867001000331e+01
-4.016103054165623965e-01 -3.191573519710908080e+00 1.430014006799857995e+01
-6.319805939834045594e-01 -1.030898104322141462e+00 1.205211421096708690e+01
-6.942925880745171696e+00 -4.837768904732492881e-01 1.391530778339069130e+01
-3.631569133076573586e+00 -2.458808473541125306e-01 1.653897396372868300e+01
-6.541075295192980477e+00 -3.327257590296389012e+00 1.627654604544308015e+01
-6.957010877445104491e+00 -3.117057165126818852e+00 1.588641412390356678e+01
1.234400892403656469e-01 -2.033256725934113440e+00 1.428703007898041832e+01
-3.688410446844159640e+00 -3.707585391027341082e+00 1.572034118466933350e+01
-6.755147009507064482e+00 -3.523438418170587560e+00 1.602893715920859918e+01
-4.707711492320277635e+00 -2.404233993627374666e+00 1.668636989535533743e+01
5.830592155751890271e-02 -2.232863458670600210e+00 1.274995454991200816e+01
-2.431502009910705642e+00 -4.163851172605765427e+00 1.457888210136716012e+01
-6.479810020525880176e+00 1.240088398515230450e+00 1.529153170938800699e+01
-4.166764943648226804e+00 4.940314312298212940e-01 1.190033119203193834e+01
1.213165018612132329e-01 -1.051913210377675156e-02 1.416430070132414798e+01
-6.893545820498816035e+00 -3.495247508054598384e+00 1.579887843098120115e+01
-6.910265180185167111e+00 -3.471019560019358074e+00 1.567341493200811087e+01
-7.333185502127716582e+00 -1.105266548551477435e+00 1.470691942509884953e+01
-3.806037473961096484e+00 -2.133595413827769516e+00 1.356284570026048542e+01
-1.629021169681787784e+00 1.067942781025815302e+00 1.126604608891410564e+01
-3.636053518561547904e+00 1.100263568956908022e+00 1.123877944833179399e+01
-4.449011234900542178e+00 1.608071381005881095e+00 1.697055619543076332e+01
-5.973352056818398204e+00 -1.356360104619540152e+00 1.692120117971919413e+01
-6.018434955008230780e+00 1.537943073111946335e+00 1.209351082596755944e+01
-6.552364613999989151e-01 6.832921111978287332e-01 1.508969273792282095e+01
-6.978485211747632810e+00 -2.856152111415171113e+00 1.492435418544070913e+01
-3.203475780247668325e+00 8.877294798680732679e-01 1.129600319468063319e+01
-7.144586391866970310e+00 -2.443147131530673200e+00 1.473107971721424647e+01
-5.530236352803044930e+00 -3.194851225543258622e+00 1.663832376664278812e+01
-4.553611120370553156e-01 -2.800064200044113161e+00 1.276444672522181989e+01
-5.410451654176747560e+00 -7.737964181739858116e-01 1.363707862410371874e+01
-7.156583559698289854e+00 -2.312863834752896253e+00 1.473248726804233755e+01
-1.818650967728802081e+00 8.471269636541205461e-01 1.121858607341466652e+01
-2.622201837903872512e-01 2.022408602777763242e-01 1.484134332366782516e+01
-1.037843607629073128e+00 -1.963588422063731187e+00 1.244839658314715436e+01
-5.969148446346877357e+00 -1.322601594107499556e+00 1.412750883750542741e+01
-6.752117248099215985e+00 -3.280619304449207796e+00 1.511990868602565641e+01
-2.425569449220088991e+00 -1.158687399311381538e+00 1.592168185405911984e+01
-5.797468448991901724e+00 -4.350059569223717060e-01 1.351912425556204411e+01
-1.788065939963513706e+00 6.573214290178521768e-01 1.129534027967535437e+01
-7.302765117553525975e+00 2.620436947197934963e-01 1.468754436583659029e+01
-3.183002204613301966e+00 -1.780179739989576237e+00 1.614558623928605741e+01
-6.037495596512171048e+00 1.259243434378183091e+00 1.646244570116053652e+01
-5.004301317675416527e+00 -1.967195990709420084e+00 1.415008434835066353e+01
-7.152406046711070609e+00 -9.691531011025467102e-02 1.390783925240689811e+01
-4.299576249779367698e-01 -3.372809163353552186e+00 1.312176145212761824e+01
-1.109357613053647551e+00 -1.438991951721901863e-02 1.543051085056653804e+01
-5.574440789116636097e+00 -5.180390686735933947e-01 1.349236315619306836e+01
-4.191040835280080756e+00 -3.714748861458573082e+00 1.428487958236683752e+01
-8.148859486802688679e-01 8.142446061150705461e-01 1.220114864911474584e+01
-5.066013422889153794e+00 1.052569958394784955e+00 1.181325598711151414e+01
-1.721279560451187463e+00 1.412954112008826035e+00 1.580520585353758278e+01
-5.388495336855513074e+00 -5.457935567101872554e-01 1.345002821979315044e+01
-6.893821675696331752e+00 -5.557744730389999610e-01 1.579826635300170423e+01
-4.966306366432146291e+00 -2.054433489922229406e-01 1.301252456219823372e+01
-4.553520698147892620e-01 -2.386342061513705204e+00 1.468744433728069154e+01
-1.913128618602958575e+00 3.750396241416606991e-01 1.584203974043251506e+01
-5.385547884417277942e+00 -6.688118926340554937e-01 1.354215241042997420e+01
-1.582685865143895754e+00 8.445291118943549780e-01 1.129876749775162992e+01
-6.164804525505871879e+00 -4.250009847798351004e+00 1.577944530100154097e+01
-4.294294326895312652e-01 -2.515957219068919670e+00 1.259082026518408171e+01
-5.176430399978100283e+00 2.266103292412843473e+00 1.129058294488762115e+01
-2.413453021355016936e+00 -3.554613588823370307e+00 1.357515353411556092e+01
-2.636183339527115699e+00 -3.116413218049266298e+00 1.342089363117037593e+01
-7.290500465964684373e+00 -1.937731967130955857e+00 1.541930198237424676e+01
-4.461200118232991230e+00 2.367892962005788249e+00 1.483805132584592812e+01
-6.401285624971959187e+00 -1.143550093481618735e+00 1.650163598771299078e+01
-7.439876495553747304e+00 -1.514667422786013740e+00 1.508043362423135036e+01
-3.541048455914520332e+00 -2.870903252108705672e+00 1.369234658761716261e+01
-6.782875014530324265e+00 -2.496236349490828843e+00 1.462113307189310163e+01
-6.089140191944953928e-01 -2.577830476901071144e+00 1.264664329550155841e+01
-8.075379526712754830e-01 -2.996532681396590903e+00 1.289217571907773774e+01
-2.961179087100636931e+00 -3.005088426297654713e+00 1.565139474527067520e+01
-2.940947460702284300e+00 -1.584402479721855439e+00 1.608067258397825938e+01
-8.119077785284203319e-01 -2.789665802215959722e+00 1.278070290833757028e+01
-1.050761989882125214e+00 1.121819772384325509e+00 1.347394618735208027e+01
-2.805635813190188621e+00 8.732416314453181894e-01 1.121738670661164505e+01
-5.749736946073492838e+00 1.728998563985206127e+00 1.174401816037115154e+01
-1.094387379549980999e+00 1.098348003639620041e+00 1.521147783284449773e+01
-1.966760899531451612e+00 1.779673266299890200e+00 1.322258042065253036e+01
-6.443744904118396732e+00 1.116699676949540310e+00 1.244590986022867085e+01
-3.701044927996004041e+00 2.289669090410384911e+00 1.645801166544164928e+01
-9.248767844902801016e-01 -1.201886119938045949e+00 1.521377631847726164e+01
-5.376953500117378049e+00 2.148942144580281877e+00 1.129786426520002252e+01
-4.371291503310191118e+00 6.705605891869348412e-02 1.244056954040511087e+01
-1.985403364184046948e+00 -1.215021614735137589e+00 1.571094612014608671e+01
-3.386254997084328089e+00 -2.947782028269464227e+00 1.365126884910986504e+01
-5.724131171997319356e+00 1.945426204400119152e+00 1.508228589224124150e+01
-6.654585527716647242e+00 -3.143455247251771389e+00 1.498182737406053278e+01
-6.253361996268198553e-01 -2.785503840020859823e+00 1.276797424233207678e+01
-2.732475617870884221e+00 -3.182578424497227942e+00 1.546400991851214357e+01
-7.242082770569438388e+00 -7.620676713741542097e-01 1.444363059111413250e+01
-6.152672262429132566e+00 1.485437647882417833e+00 1.611266068568409437e+01
-5.965017148490354693e+00 -1.563751020795724811e+00 1.692561617820160436e+01
-2.904624654529321059e+00 1.451782757514996414e+00 1.633663698459052327e+01
-9.892617268360233140e-01 -2.772409271783610407e+00 1.280253298396371875e+01
-6.489206946464211256e+00 1.074797041447229873e+00 1.571321961885745466e+01
1.458505541442750575e-02 -2.786421006261316613e+00 1.273142422468336221e+01
-5.617391046256514642e-02 -3.602019981305944363e+00 1.336102927873006152e+01
-4.498573627714526069e+00 2.391639312734091583e+00 1.308779106472193021e+01
-1.024189627341770326e+00 -3.762754851586662674e+00 1.340148512950136350e+01
-9.929586879805462063e-01 -3.983748774098206269e+00 1.418793419787987986e+01
-4.731829401201432361e+00 -2.537596159833833021e+00 1.666043365833248302e+01
-5.905679984183814568e+00 -1.926908005704768501e+00 1.691417573715859746e+01
-4.365730305097149433e+00 2.458722691908483249e+00 1.086142098840945280e+01
-3.198848148825419457e+00 -1.148923598360824805e+00 1.278784292898074781e+01
-1.971770175313223517e+00 -8.873946995773159818e-01 1.204363320702578122e+01
-3.612435284326426910e+00 -3.165477540441836268e+00 1.382775252394845822e+01
-5.364390933795390559e+00 -2.354852462076436836e+00 1.435608047134685350e+01
-5.385056120111355149e+00 -4.458426211303896380e+00 1.562174467709675341e+01
-5.192899338329881154e+00 -4.403740055298166478e-02 1.290635098981542583e+01
-5.185253888223654073e+00 -4.465856021903761963e+00 1.560452450313844608e+01
-3.993521161702062283e+00 -3.368996818845813035e-01 1.259205182348143026e+01
-2.402578077506709153e+00 2.100646249998887605e-01 1.156560927287012319e+01
-2.215603404752330974e+00 6.324804825076291159e-02 1.159501226842759891e+01
-1.415927128831908632e+00 -4.013926804856595254e+00 1.436447792528513290e+01
-3.782329866093187665e+00 -4.280194022907674700e+00 1.448161553851256045e+01
-4.202291187738717682e+00 1.468080924683502930e+00 1.111189596035888272e+01
-3.159599812273243824e+00 -5.588360116355257645e-01 1.630271999562778618e+01
-5.858676270522952478e+00 1.257170592130049114e+00 1.667451641131176032e+01
-7.125035026790360604e-01 -6.005792020588669455e-01 1.189411298794084004e+01
-2.824956312965282379e+00 -3.936487097313849048e+00 1.512336584232911108e+01
-6.239462324327943676e+00 1.245314750961269867e+00 1.611475782369278065e+01
-6.773057939745833700e+00 2.774908712906543062e-01 1.574726286767520023e+01
-4.355560335251253079e+00 -2.697600655739915254e+00 1.404606549763073886e+01
1.339627876031854736e-01 -6.090748511936624476e-01 1.296160253508315563e+01
-2.467562518363988211e+00 4.420087691868335167e-01 1.608741159464823411e+01
-2.197719229000632435e+00 -1.227584780389589847e+00 1.233009536429142727e+01
-4.584761545671324434e+00 2.378912130873109376e+00 1.110045188881206357e+01
-4.579300543983499061e+00 -4.223075201530023470e+00 1.586352842631903926e+01
-5.947974596444427497e-01 -5.718695503975605998e-01 1.510990153083420395e+01
1.016876398762350808e-02 -1.401113348539423153e+00 1.456716825278451566e+01
-3.798264191422067171e+00 1.688136289607933493e+00 1.087291864684159393e+01
-6.618571554180553207e+00 -2.734448917894844122e+00 1.632589855121694100e+01
-6.298680546849719342e+00 -1.322445404778165745e+00 1.663752115595137226e+01
-4.790978832987407010e+00 -4.160499708007499464e+00 1.599646329284482604e+01
-1.961020562488262065e-01 -3.628483209099803375e+00 1.327842732445749974e+01
-6.668814531511157995e+00 -3.774062315835807979e+00 1.589377758146840947e+01
-3.584088808367804635e+00 2.873992541287191393e-01 1.186501995395387965e+01
-4.135148776153911854e+00 1.424377657026907107e+00 1.690072154424467143e+01
-4.742691635423253338e+00 1.627385869699248255e+00 1.699715694473310990e+01
-3.428699545640019886e-01 -2.828196761479873533e+00 1.444007572211015500e+01
-7.862809727148118988e-01 -2.916670337922681711e+00 1.284277636502676856e+01
-6.834746268949533743e+00 -3.544941914112039072e+00 1.587454642818515893e+01
-6.753228575223817032e+00 -3.696084337749297788e+00 1.581765305705905078e+01
-6.593284010552069585e-02 -2.029951520126505926e+00 1.240836411016460161e+01
-5.986843976222491648e+00 -1.927204353191145580e+00 1.429768729690262674e+01
-3.365758468269509418e+00 -1.786805430947928652e+00 1.623676693663650283e+01
-2.597610149094376375e+00 -3.391376052644934802e+00 1.354511711523352702e+01
-6.637567736446962741e+00 -1.765274618177475663e+00 1.438853520122685481e+01
-2.418652364172842795e+00 -2.822110207794637837e+00 1.544442202080559312e+01
-6.751105130716363867e+00 -3.724501491752442384e+00 1.564816277590635352e+01
-9.941428365877920115e-01 -1.761199026429961734e+00 1.235925161070699474e+01
-4.610718548733158784e+00 -4.107829727392389607e+00 1.595481830090010433e+01
-2.151662106105279193e+00 -1.583394394563684582e+00 1.572078408267231353e+01
1.157362010053519796e-01 -1.342671748629810313e+00 1.258398692469123503e+01
-1.762957947252607571e+00 -1.594289450030478061e+00 1.553978586209533930e+01
-5.259706200427764600e+00 1.662461556910263427e+00 1.690002599154246710e+01
-4.825473659805316728e+00 -3.918952628321019205e+00 1.615913441159307595e+01
-3.515746065315223490e+00 2.191638270219418594e+00 1.645436987176325871e+01
-6.325298309325805057e+00 1.092021823694630633e+00 1.608125341150471499e+01
-2.457836748442805141e-01 -3.208842949056973204e+00 1.297783066433732913e+01
-6.736129315666768314e+00 -3.494444870999012132e+00 1.529571687670493318e+01
-4.165623282575919850e-01 -3.184177752065336264e+00 1.300977612056843569e+01
-6.814857527389362346e+00 -3.316345247811113062e+00 1.522738766761026952e+01
-5.582364338730363862e+00 -7.233603092736049511e-01 1.366421257091329622e+01
-4.213254368740799727e+00 8.583411613642526472e-01 1.159817497824449006e+01
-6.791839233087856087e+00 -2.910061887301708339e+00 1.488547485724084041e+01
-6.970457452293723932e+00 -2.495965349786192000e+00 1.466054349355926334e+01
-1.399163978932366215e+00 8.464473228790190262e-01 1.139854853550250269e+01
-5.508971907050038475e+00 -1.798022480526880962e+00 1.698927932634183335e+01
-5.972990834463794307e+00 -5.179160681142713774e-01 1.365418422607868010e+01
-5.624413903330945930e-01 -1.605405862521661620e+00 1.495011601492881326e+01
-5.551646895904875478e+00 -2.780935617877620558e+00 1.678486693125585916e+01
-5.347171047239351438e+00 -8.996436511640506506e-01 1.370685267535229102e+01
-2.760257559945128669e+00 -3.492145270291102221e+00 1.365550810504295143e+01
-5.187768836821099683e+00 -9.480415127277592724e-01 1.370907687162854316e+01
-5.109516167805434605e+00 -2.532597056931402690e+00 1.678883784067957308e+01
-9.594624191959988391e-02 -2.564228321371604391e+00 1.261119970099398202e+01
-8.841836070115044466e-02 -3.731909614093927630e+00 1.352248313643925925e+01
-7.002859716458892159e+00 -7.080561490707470984e-01 1.569404825228450662e+01
-4.791993329079136998e+00 -1.090550525588350528e+00 1.368592230994194736e+01
-8.941666198262903098e-01 8.067762619256237944e-01 1.524038932986193018e+01
-6.380275048835953866e-01 -2.992123617825750870e+00 1.289687321130105246e+01
-4.065587995310530056e-01 -7.746609649620539439e-01 1.196531195489886912e+01
-6.819439262447838601e+00 -8.933979771747092569e-01 1.596815715346828668e+01
-2.638806818903672191e+00 2.100095836654491954e+00 1.525708458493739883e+01
-3.852484526844635049e+00 -6.027405709151286706e-01 1.275381419483090539e+01
-5.193851145200294006e+00 -5.373222107539254999e-01 1.338978725672486902e+01
-2.419122980740109341e+00 1.876556198317503421e+00 1.088570211883510197e+01
-4.261107149922301329e-01 -2.899205855190051917e+00 1.283580354543613922e+01
-2.605577800770619845e-02 -2.993907433517272842e+00 1.279256986058089396e+01
-2.072646581024189527e-01 -3.039193552082634753e+00 1.425348757420721668e+01
-4.965685255099523410e+00 1.547855956782645981e+00 1.134687395004989341e+01
-1.824348071145081240e+00 -3.825633073663201600e+00 1.354005479683656077e+01
-1.811314075844850380e-01 -3.592044654855003571e+00 1.392094411285819078e+01
-3.526307957304549046e+00 -1.187183242125747551e+00 1.641135092365390946e+01
-2.025507699961659469e+00 -2.694653781762812450e+00 1.529456889772185590e+01
-1.036531189005915010e+00 -3.632158585895134628e+00 1.329463107637037567e+01
-1.063388847004397508e+00 -4.108717990191122382e+00 1.410763765926497015e+01
-5.747369088440723139e+00 1.863540272113366258e+00 1.590655826332951861e+01
-5.229283983518452139e+00 -4.432742429968193676e+00 1.569457124489133903e+01
-4.649154680184188315e+00 2.388381439029830133e+00 1.251679461078622424e+01
-1.434481359613138718e+00 -4.224866850090013948e+00 1.413681938499151514e+01
-1.765546903530535339e+00 3.949572440442561394e-01 1.578017800845656282e+01
-6.939463038841622300e+00 -9.062980495405034143e-01 1.414122979889858200e+01
-3.191697418533449238e+00 2.269512268033538227e+00 1.063702995912904115e+01
-5.656201266423758867e+00 -1.470413882107198811e-01 1.318644561067808141e+01
-1.411740827868876114e+00 -4.138013203290232589e+00 1.427424450671066936e+01
-7.210414078418886596e+00 -1.933025318747719323e+00 1.555069706172759325e+01
-3.413391910692557207e+00 -3.983554569379998966e+00 1.413024364904807939e+01
-4.126178956187321667e+00 -4.201628395250472714e+00 1.564391487303830885e+01
-5.558128347238684430e-01 1.198977835540782078e-02 1.179000641735700228e+01
-2.635187556917137019e+00 -4.227506531924098532e+00 1.461759266851299444e+01
-2.790959099274722632e+00 -4.210678149095296696e+00 1.482158016191315042e+01
-2.564141335482418960e+00 2.084632813112964556e+00 1.207222503994409024e+01
2.990830558911334869e-01 -3.066527687447186956e+00 1.351653923169834925e+01
-4.152406187400274895e+00 -8.309083688413425595e-01 1.310945536726559268e+01
-3.364115767879886310e+00 2.333836917843159497e+00 1.264892838906349581e+01
-3.054650511863950868e+00 -4.313802302429796676e+00 1.494954372688232169e+01
-4.431979375322337766e+00 2.251135529886335362e+00 1.667285869108628660e+01
-6.433383198738892084e+00 -2.941101773706864542e+00 1.478261402057190921e+01
-5.865522291208491446e+00 1.584901373492176857e+00 1.660915832583519958e+01
-3.589974508897448402e+00 -4.514560992064614808e+00 1.494436584068769847e+01
-3.508658102699423242e+00 1.659153151580291974e+00 1.663834709788124044e+01
-5.181172352876219911e+00 -1.515083962345407320e+00 1.401723144468062898e+01
-6.641931358224795190e+00 1.055987745769662922e+00 1.506536442609667503e+01
-6.080867325358963349e+00 1.465535429121129551e+00 1.631337299115323347e+01
-5.009607540080960320e+00 7.005299514345508793e-01 1.209541399725043576e+01
-3.703207747390134585e+00 -1.039287906020879060e+00 1.650811480533473841e+01
-2.338078751764964547e-01 -1.213823880046144943e+00 1.208696763623586534e+01
-2.110768127673747330e+00 1.190194019826061878e+00 1.599009845981317923e+01
-2.808001984760254643e+00 -3.101319840269391115e+00 1.348506450597318107e+01
-4.193241822618178460e+00 -4.506870151717135009e+00 1.521346487771871736e+01
-6.348894866920520741e+00 -3.333179918945532449e+00 1.639019787578837750e+01
-1.069519629121589155e+00 1.097148913965388273e+00 1.503467197202849448e+01
-4.893164878268326135e+00 8.142960818655773370e-01 1.704161102065745936e+01
-4.364490975295140629e+00 -4.473938694128155369e+00 1.538517885078018210e+01
-5.536096913331631342e+00 2.073406819446717897e+00 1.348547277117286214e+01
-6.412918998680234850e+00 -1.872198718295114084e+00 1.656810937534959649e+01
-4.563614972233443368e+00 -4.501662243491741933e+00 1.533332316007053819e+01
-6.903343060552213473e+00 -9.011537136878300380e-02 1.566760504627756845e+01
2.135159355410697346e-01 -2.216399503019462536e+00 1.356492732419578928e+01
-4.787570695243691610e+00 -4.504388039878547190e+00 1.540980824684396921e+01
-1.636662010140732759e+00 -4.242772525521283811e+00 1.396076060447910194e+01
-4.826474367745496430e+00 -4.310432669846603559e+00 1.584589615779175986e+01
-5.907513163890786956e+00 2.610710389544148580e-01 1.685898484689083787e+01
-5.791286060119715806e+00 -3.931375877445997702e+00 1.625180778814945981e+01
-6.380405021116330566e+00 -4.083231809772287058e+00 1.579292711008006123e+01
-6.575303364091754865e+00 -3.899951318351479124e+00 1.582541317763889666e+01
-2.991336033833195351e+00 2.248754770654186608e+00 1.147349205257790672e+01
-1.836419457528578159e+00 -2.738772867125075727e+00 1.292867705370759168e+01
-6.300029776315849706e-01 -1.783638695461843948e+00 1.233246971222083843e+01
-6.574721070412898882e+00 -3.660481279555133582e+00 1.529505887955145838e+01
-5.568697127635108934e+00 1.274395828919986817e+00 1.191036605691644823e+01
-1.941320263829755310e+00 -5.610333391775257361e-01 1.578092502666443764e+01
-6.610599111934215344e+00 -3.538670274580957731e+00 1.522899101642274289e+01
-3.375879373797636251e+00 1.044383700345556720e+00 1.655470713597999222e+01
-2.681557208461297304e+00 -1.170482620438238808e+00 1.253583090783540044e+01
-4.285478383552861814e+00 2.306515380834929019e+00 1.645150601892631315e+01
-4.803134209112612574e+00 -8.480334246231079343e-01 1.695920294803041273e+01
-1.292863099035272079e+00 1.122055141254763688e+00 1.176818241186927949e+01
-4.114856848243464427e+00 2.383336657058747754e+00 1.470062935934543802e+01
-3.410672543196358486e+00 -4.493637070610286166e+00 1.480249652413958827e+01
-3.578028187451751219e+00 -4.453428153289503477e+00 1.507474119097001974e+01
-5.141234989643236553e+00 -5.464531419586295957e-01 1.704777995427559389e+01
-2.103994377310091313e+00 9.872072398988487318e-01 1.596819538488309931e+01
9.716784565871783297e-02 -1.747104185004592969e+00 1.265421972633891912e+01
-2.506805464687448248e-01 -3.762703659564288650e+00 1.336257338578348097e+01
-7.117158450874495834e+00 -7.215408815133783627e-01 1.554218926328206507e+01
-2.557642750512692853e+00 -3.286782948473368826e+00 1.347702829819660408e+01
-5.354125809116453638e+00 -1.577469895706399949e+00 1.700437677552937643e+01
-2.954041511940645126e+00 -2.590111888527120598e+00 1.579848773501592163e+01
-6.176690440650833835e-01 -2.393789481761372961e+00 1.257139942101827401e+01
-6.598294885352796513e+00 -3.315979326701930852e+00 1.504607609992163120e+01
-1.682972810474824832e-01 3.849920995363336207e-01 1.439657310944340551e+01
-5.528070868540254645e-01 -1.078795517181749819e+00 1.206606640105038153e+01
-2.213999922713689728e+00 8.932387781959616468e-01 1.118074612320997474e+01
-6.764929114261381216e+00 -2.736599076280064491e+00 1.472277402609645591e+01
-5.987938166019592501e+00 -7.086651972477285844e-01 1.380984883620714143e+01
-2.585504059084530404e+00 -3.168428736142865354e-01 1.197362642239280106e+01
-4.237951286694368491e+00 -1.142634548949033269e+00 1.338417145072057579e+01
-5.503998970922174827e+00 -1.436427788703890096e-01 1.705172470958895659e+01
-4.758812006519855586e+00 -3.171960338837334525e+00 1.648720513876960680e+01
-1.198187173173285380e+00 -2.611475485314761258e+00 1.495097996748761560e+01
-3.632545712648358904e+00 -2.530602551917656928e+00 1.361362222156904167e+01
-6.150900957012204628e+00 -5.218158514064131781e-01 1.367010107320966128e+01
-5.747292928870294304e+00 -6.683226315170052168e-01 1.370368362777638893e+01
-5.133496958993075232e+00 -1.166181882476186704e+00 1.701929159256944146e+01
-6.713131449773970694e+00 -2.319950390855097577e+00 1.624209420809019022e+01
-7.459248430313317080e+00 7.590986603648808284e-02 1.456191448218004680e+01
-5.771772946034365859e+00 -9.378616089839520997e-01 1.390753190211249191e+01
-2.703496200986784448e+00 -4.466832316000531322e-01 1.211621156427652224e+01
-2.809058591919934234e+00 2.194648144530621181e+00 1.175089855074171297e+01
2.088318394081990492e-01 -2.205773074601355077e+00 1.377687598590562246e+01
-1.147735890959806326e+00 -5.942752788928377106e-01 1.539885745373677040e+01
-5.391716702564924191e+00 -1.114618098534162272e+00 1.385087968897147093e+01
-1.135998884534006992e+00 -2.256714809107768005e+00 1.505179562509132651e+01
-5.550712173202382971e+00 1.950819348015358612e+00 1.593670540248475831e+01
-2.542335300089366701e+00 9.786042682028768258e-01 1.113766820299924021e+01
-6.780704408300055164e+00 9.978968489645323459e-02 1.331629763479740447e+01
-5.161015046129071138e+00 -1.114586478640741785e+00 1.381138753575491407e+01
-2.192806789665604050e+00 -3.957293946863319256e+00 1.373806926144635199e+01
-5.554982052801194392e+00 2.093685513968765122e+00 1.193460803325262631e+01
-5.357279932243065979e+00 9.308071566508211436e-01 1.210237386719922270e+01
-1.817634977165946353e+00 -3.940907648881523784e+00 1.362965505244167375e+01
2.384641938192069155e-01 -3.216989731080143855e+00 1.353232709789903865e+01
-6.311488962389723234e+00 -2.313799174249778545e+00 1.663705764282086008e+01
-8.047882999179623020e-01 9.461311275920729624e-01 1.379993367245844027e+01
-1.410088045713287830e+00 -3.959037808351048682e+00 1.358325344988127981e+01
-3.790802410550797141e+00 -1.899875593222277059e+00 1.347307768104373693e+01
-3.793992732472519780e+00 2.245262050698941803e-01 1.199031753689478919e+01
-3.437511772533532906e+00 3.423093379892205856e-02 1.201495415922412136e+01
-8.029428202281871929e-01 -4.046920517539462026e+00 1.395670815951329402e+01
-1.269377929369680302e+00 -3.843027229894964591e+00 1.348557628384020646e+01
-4.598906213715693525e+00 -4.275034495278462465e+00 1.485774287414273331e+01
-2.002780172951355020e+00 1.793712716468071955e+00 1.207581419096650066e+01
-6.965950071151872258e+00 -3.343810654595050558e+00 1.566492223639996340e+01
