-4.974265529355892390e-01 -1.024310366363910152e+00 1.822864744809086091e+01
-8.135056633398680681e-01 6.755811317642287372e-01 1.454996978764334159e+01
-4.413923868387675142e+00 -2.294609426904291816e+00 1.584821541787503207e+01
-3.381035589459315815e+00 -4.296761217197324179e+00 1.658342515869401268e+01
-2.998193973213924668e+00 -2.171909995566892793e+00 1.596324180187460229e+01
-6.549313742106854797e-02 -1.554079296570733959e+00 1.746794576863668880e+01
-2.603984992841887003e+00 -1.465331930720776832e+00 1.567540890593394920e+01
-4.949519667425680503e+00 -4.612433938209271389e+00 1.664040443114569712e+01
-6.106614858225979603e+00 -3.149260793065944419e-01 1.348229753522623042e+01
-2.401365240528276601e+00 -1.345507470106209080e+00 1.556166494741967199e+01
-2.002351697618775184e+00 -1.537631497923452439e+00 1.554962438580663786e+01
-3.370963520148002601e+00 2.350732794363486811e+00 1.570483282303749206e+01
-1.808884202423736820e+00 -1.508039545847015717e+00 1.544799668404466075e+01
-1.587191048852982345e+00 -1.272682633282120168e+00 1.512984135043799938e+01
-2.843948021920150726e-01 -2.922226101971260093e+00 1.776634585553195222e+01
-1.043974072706411071e+00 -3.603256518037635470e+00 1.791312534861290828e+01
-2.273655074230614748e+00 -4.277273942670283269e+00 1.761897260924332187e+01
-1.629223871202162499e+00 -4.156252778160800077e+00 1.772257446373798473e+01
-1.971048030685888630e+00 -4.195202402557698385e+00 1.768991397105138930e+01
-7.925807247423806157e-01 -3.618788083813128331e+00 1.786623152383223356e+01
-2.197661660299131015e+00 -4.386325100802732635e+00 1.756612212200081302e+01
-3.254826227102058489e+00 -4.271653080812284564e+00 1.759568721189611296e+01
-5.971937033918305993e+00 -4.761374396924003882e+00 1.682055632545736046e+01
-2.410417057983524458e+00 2.288082738947419426e+00 1.633530459399034385e+01
-1.045852991602245208e-01 -3.439805270241679036e+00 1.729631621322369028e+01
-3.373673180494620283e+00 -4.411237894240494839e+00 1.751306177756716664e+01
-5.382574871492875168e+00 -4.401131107792330965e+00 1.742986901996618343e+01
-7.876106834995789008e+00 -2.663870239536850537e+00 1.714567392061302797e+01
-3.390238283117053442e+00 -2.953321072202132136e+00 1.613069918082278775e+01
-1.875056030955606357e+00 2.292597827978388292e+00 1.847943139512457122e+01
-5.582323381659993089e+00 -4.221858791694058866e+00 1.747785764098709649e+01
-6.766414898559466984e+00 -4.219850371278430323e+00 1.718244688614647941e+01
-4.770325250344323642e+00 -3.993448747529237952e+00 1.621460122310138985e+01
-6.760657788321102757e+00 -4.049876297946166659e+00 1.726272791189807521e+01
-5.953070873646979955e+00 -3.791568882163947496e+00 1.589058516898796114e+01
-8.054098949683812236e+00 -3.083500893617116212e+00 1.563165692633362625e+01
-5.453081021142030416e+00 6.684414317162323815e-02 1.351005949292770936e+01
-4.343720123327163840e+00 1.008000426462135390e+00 1.286146900497243450e+01
-7.218618160155231500e+00 -3.642043453464484326e+00 1.729452026367957984e+01
-2.575763550860018292e+00 1.396629028175504939e+00 1.353421231291925153e+01
-7.867232967410841660e+00 -2.050191427436288016e+00 1.735783963787240936e+01
-8.436702156652355455e+00 -1.809195468502263981e+00 1.586764914339459409e+01
-3.997371738640197236e+00 2.439839931991803823e+00 1.568221791075473703e+01
-8.368065139746541092e+00 -1.988342170800293296e+00 1.568655464708731984e+01
-7.823650526663983307e-02 -2.790147667394891062e+00 1.744124571135871804e+01
-7.936011939059951281e+00 -2.179206639997492534e+00 1.465634728642922369e+01
-3.810133013135974522e+00 -4.202382557752954106e+00 1.762860520323145153e+01
-4.963745783112917032e+00 -1.119989073369011212e+00 1.515454389504746757e+01
-2.792020054084906722e+00 -5.079587796602287320e-01 1.507089038309118934e+01
-7.893060504463131899e+00 -2.469130831308431695e+00 1.473110637295906145e+01
-3.872476892473240007e+00 2.399023634097771307e+00 1.829295418509239823e+01
-3.947571085015029624e+00 -3.621972232939148828e+00 1.618046032069428009e+01
-7.367574026272524002e+00 -3.386820148501703986e+00 1.518568716914710848e+01
-6.041213862243185240e+00 -4.713450827141000943e+00 1.650982806041290019e+01
-6.352550698887091229e+00 -3.580171942952980579e+00 1.565155992194553392e+01
-5.787059272904342855e+00 -3.365434305855330877e+00 1.582562996329581040e+01
-7.287282378327380350e+00 -4.538457131617986917e+00 1.628421186698087553e+01
-5.628020942284746475e+00 -3.703150275652149492e+00 1.596836870853579882e+01
-3.522872211105190665e+00 2.164276321189715802e+00 1.838488173990988628e+01
-4.975709770800281539e+00 -3.907738952451628833e+00 1.616319645813565131e+01
-1.081030445497053183e-01 2.141373409584514942e-01 1.736132703698650914e+01
-4.770517151413255164e+00 -3.798332279823508184e+00 1.614999268833166468e+01
-3.184978554625319980e+00 6.151737207626313264e-01 1.373493827622554164e+01
-5.562615490855779221e+00 -3.539189252738970559e+00 1.593755568597595840e+01
-4.396198754332735881e+00 -3.144700798652899643e+00 1.604508425432922536e+01
-8.132045170902046038e+00 1.639557767578542213e-02 1.513578780274169588e+01
-6.382620459737376351e+00 1.524400328024411166e+00 1.466308112353213744e+01
-6.982683448367108525e+00 1.216906202725535291e+00 1.482010279286092214e+01
-3.773681693287487704e+00 -2.721343245999495952e+00 1.603747005055662100e+01
-6.151420261002357392e+00 -4.684597590602670003e+00 1.639663685780293179e+01
-2.569094189746397472e+00 -2.356490710408380984e+00 1.601319106869473785e+01
-2.558316554579468161e+00 -1.712259000739889903e+00 1.579078340991595297e+01
-2.370163312393518407e+00 -1.552310286543418627e+00 1.567220760117412937e+01
-2.152399396460736192e+00 -1.755211687795314557e+00 1.573515470030906016e+01
-1.396091772156649480e+00 -1.906511390002239459e+00 1.541646516082843732e+01
-4.184421012386538852e-01 -3.480462600419074626e+00 1.608865807402765569e+01
-5.458465052573995280e-01 -1.064424476930010410e+00 1.483202385055413686e+01
-3.609932919171194854e-01 -1.050190306138106378e+00 1.490142035670832854e+01
-1.446617013435926413e+00 1.871735979385184656e+00 1.846723460419492113e+01
-7.068990956812863935e+00 2.032671233334836902e+00 1.642162597860497897e+01
-1.497486768727389617e-01 -3.165581119270588495e+00 1.745055276367257591e+01
-4.169398077665955604e-01 -3.178547296905284369e+00 1.780183607830803538e+01
-3.364991244424880179e+00 -1.372702464536516231e+00 1.563833004831413831e+01
-1.796311401094149662e+00 -4.324064882425934009e+00 1.766054106782247857e+01
4.293774734784872038e-03 -3.246643325757911369e-01 1.693815441296942481e+01
-2.001206755106007762e+00 -4.401493785676372283e+00 1.759567866298589678e+01
-1.560958502460738639e-01 3.421755541708464410e-01 1.709986040080022462e+01
-2.782752641213997791e+00 -4.404643836491343833e+00 1.755097810419502480e+01
-8.164841261073291889e+00 -2.209480849670351965e+00 1.700818329171077892e+01
-8.183727022564237785e+00 -1.983867857223733822e+00 1.508252278800884483e+01
-8.069461266253188825e+00 -2.144701411098851818e+00 1.487751824267490264e+01
-7.993743093233688590e+00 -2.399636283958926253e+00 1.487092407756775714e+01
-2.983443311826293520e+00 -4.641245755786398419e+00 1.713466916384788874e+01
-7.924806531947989008e+00 -2.772916763643944016e+00 1.504622952275945380e+01
-6.546053104315943116e+00 1.420661000495754056e+00 1.462690389487607234e+01
-7.222236364060717229e+00 1.532110431906921200e+00 1.755517926512388271e+01
-3.894302393639177851e+00 5.715695871147905560e-01 1.834236369028098323e+01
-6.977305312463580655e+00 -3.739963098254212692e+00 1.552045240907806090e+01
-4.261814012347386438e+00 1.575263330936277573e+00 1.821434702730311272e+01
-6.532760507107961523e+00 -3.620475498667089731e+00 1.558481804363309209e+01
-5.601127672200193253e+00 -4.149440147875198548e+00 1.611413445538574507e+01
-5.940450608774037189e-01 7.113041066758637454e-01 1.556630984166329057e+01
-4.560650936865076055e+00 -3.773592963835363800e+00 1.615717028744047923e+01
-6.406231022149462717e+00 -2.506482654087212936e+00 1.490059447870242337e+01
-3.797450179572380513e+00 -3.145895921836573184e+00 1.611356209284593888e+01
-2.031139123048982587e+00 -2.669576491436979282e+00 1.809443504001801983e+01
-1.616479586909458366e+00 -1.915797312999313995e+00 1.559489110699229997e+01
-3.663773778768365297e+00 4.156016833850296743e-01 1.838414822807484228e+01
-1.886507154513034745e+00 1.154004018356810768e+00 1.856157603825127467e+01
-1.543432828878337659e+00 -2.103805362926922662e+00 1.564966699418611995e+01
-1.344340882172080143e+00 -1.691875516039674121e+00 1.523979162319745484e+01
-3.957573420952456900e+00 -2.962365841987629533e+00 1.606081753500700415e+01
-4.649846014523362214e-02 -6.693299042925124898e-01 1.511590194860541914e+01
-6.377312535715816466e+00 2.681002208616828142e+00 1.728920504053837703e+01
-2.561901047887655825e-01 -3.299528817079968146e+00 1.758321198237032945e+01
-2.631314071861696746e-01 -3.167939935524734629e+00 1.763094034299483326e+01
-5.940702185311459438e-01 -3.550996046315321841e+00 1.780773909536971900e+01
-1.696227669548186157e+00 1.594660478245106816e+00 1.561976769818147659e+01
-6.072387226174560393e-01 -3.963303937335524552e+00 1.761645972355051981e+01
-2.589377303026652033e+00 -4.509418670100410864e+00 1.743826657438343375e+01
-8.363099564953934362e+00 -2.041638183834833864e+00 1.668896100096211654e+01
-3.799851140480809963e-01 -2.921656088989063260e+00 1.566355685821335442e+01
-8.039864691746139158e+00 -2.438317818493092926e+00 1.501537546527540457e+01
-5.477134172447790661e+00 -6.485940519010371386e-01 1.804512108367250534e+01
-7.343086840308640895e+00 -3.846346222084022326e+00 1.556515749401824422e+01
-1.858519030431964314e+00 2.018187483283629291e+00 1.660194842841072926e+01
-6.170307536721368891e+00 -3.773563851654478718e+00 1.580219886306533539e+01
-7.077603003617313426e+00 -4.478124731881413467e+00 1.688659422621552864e+01
-1.166362761675970638e+00 4.297393683991962421e-01 1.378703827146780725e+01
-6.151143423440474045e+00 -4.163397466094391319e+00 1.600026744032646064e+01
-5.616609821276163039e+00 -4.704610663632285750e+00 1.713698434984838315e+01
-2.620715418427525645e+00 -3.989358308021416999e+00 1.772433309098128262e+01
-3.753523810994972898e+00 -3.332207528160600951e+00 1.614857379833509299e+01
-2.973911360936494219e+00 -3.152742199122382960e+00 1.618670114152854467e+01
-2.200666188624800679e+00 -2.547558889487256728e+00 1.606584072187128953e+01
-2.172791526887683844e+00 -2.339377587204792164e+00 1.599318770534964784e+01
-7.378310456686031138e+00 -4.243917137054504352e+00 1.679650002473481862e+01
-9.560760305305451290e-01 -2.097907601429678248e+00 1.524450359187175508e+01
-5.490202577791094551e-01 -1.454194052884798083e+00 1.495751005441668724e+01
4.449415535569989366e-03 -1.101716310728705572e+00 1.548482787277215778e+01
-6.485314885545305774e-01 -4.232719141799986318e+00 1.750110348693457496e+01
-4.875924700326542904e+00 -3.250568004457266014e-02 1.816556418493067326e+01
-2.626709957127715711e+00 2.460260977895583956e+00 1.652399327825327902e+01
-7.549426530439014904e+00 -4.013100127287527741e+00 1.680003290140804495e+01
-7.913603119119916762e+00 -4.895123632103359212e-01 1.740801497892632455e+01
-7.554702042348986346e+00 -2.883493079786271895e+00 1.474570687737330843e+01
-7.942722357900367847e+00 -2.820648885759999835e+00 1.698404113188710340e+01
-8.030514037313910336e+00 -2.821265354417452631e+00 1.683812397368512137e+01
-4.047007556361355896e+00 2.386606230398326645e+00 1.552195504606159204e+01
4.356576759921637620e-02 -3.208149264651122268e-01 1.672586902439721257e+01
-8.355680619906987516e+00 -2.257390532550563655e+00 1.642670255593552042e+01
-3.713370455613050680e+00 -3.555919296289502984e+00 1.619467192622398954e+01
-7.267223538555085405e+00 -1.227541513506246407e+00 1.376908959940638510e+01
-6.560960985306468096e+00 1.813812961793699330e+00 1.773851752951245686e+01
-2.959368781509226665e+00 -3.716968233976204683e+00 1.630928972170057278e+01
-2.405901847528971960e+00 -3.173568121356286742e+00 1.621451441196185073e+01
-2.408970225270558263e+00 -2.966062871473325924e+00 1.616777026614726509e+01
-5.871327634517025551e+00 1.253723375849770671e-01 1.797680872027224552e+01
-2.018634905756134579e+00 -2.719773097182191179e+00 1.611087915560153760e+01
-1.998620567299017825e+00 -2.517716327521753783e+00 1.604152573014874150e+01
-1.130772811360618579e+00 -2.678975039710986383e+00 1.568662768513100048e+01
-3.764871089789294523e+00 -1.702919435510593937e-01 1.476612671052721026e+01
-4.850462211156966852e+00 7.662381560572942840e-01 1.813083090095821603e+01
-5.578712062887466239e+00 1.684481085145457691e+00 1.423230120804743848e+01
-6.875283088774717832e+00 2.412761622289683938e+00 1.727163975318912748e+01
-7.917832256285515236e-01 -2.646177204290949270e+00 1.550836974536782975e+01
8.387814240833790791e-03 -1.288326077221109367e+00 1.548670787630743462e+01
-6.185786019151315429e+00 -4.768839995722874647e+00 1.683841903405941309e+01
-8.150553427984487342e+00 -2.787413710877188144e+00 1.662415687360179817e+01
-5.203105190998024376e+00 -4.666623003171933348e+00 1.665474721070031450e+01
-4.052188356147146564e+00 -6.282577938268466555e-01 1.828772372819847192e+01
-1.939808076597327346e+00 -3.160776308210280217e+00 1.624101218301402838e+01
-6.287886286843328065e+00 2.450345434339986639e+00 1.639018114824633443e+01
-1.774737355761183633e+00 -2.516275157982484689e+00 1.599198334366747076e+01
-1.930177699503139443e+00 2.351263779009683752e+00 1.760520712739175764e+01
-1.579071721814164331e+00 -2.677734445329276625e+00 1.599415206970825665e+01
-1.973157118456654313e+00 -2.643545755671350417e+00 1.608008146275844297e+01
-5.140911247244577709e+00 -2.468836309551368513e-01 1.421528842515626678e+01
-8.131281055683672321e+00 3.546129426897768333e-01 1.560631620169255029e+01
-1.186117321092249544e+00 -2.879401313513274108e+00 1.585491790688220703e+01
-3.658562247975893911e-02 -2.296092973441156371e+00 1.585736367458002150e+01
-2.671984897914003732e-02 -2.124089845261759368e+00 1.584837116781969257e+01
-5.386074619311822076e+00 1.564643132022702776e+00 1.382261099208823651e+01
-2.215456296570927908e-01 -3.953666792862600587e+00 1.719141028015297934e+01
-4.381272173226878230e+00 -4.708084220271730125e+00 1.709647508185388176e+01
-4.007551696825219167e+00 2.553375251104749388e+00 1.824120081882285405e+01
-8.046953781339755807e+00 -3.266445980982167541e+00 1.645261575164509082e+01
-8.130833645748822391e+00 -3.041086142942640791e+00 1.641455660302951003e+01
-8.008604066413429479e+00 -3.216462483406361095e+00 1.564691716741258887e+01
-7.925568844056910756e+00 -3.389203916348715317e+00 1.561728767509814730e+01
-4.476257368594828812e+00 -4.260174077788040359e-01 1.824207576945985210e+01
-4.289355275884096486e+00 6.357113386760377960e-01 1.355466171853226598e+01
-7.208095495288335819e+00 2.133725238673888303e+00 1.704693870976907988e+01
-8.113349935916048139e+00 -3.188922721133111704e+00 1.621066720281618245e+01
-3.659943610936417180e+00 -2.452143127362200747e+00 1.808505779139682090e+01
-9.679980073135279195e-01 9.435386471438235167e-01 1.532071083309463688e+01
-8.233402146491517470e+00 -2.586725574554945783e+00 1.584284031160133566e+01
-8.185891763535405374e+00 -2.787892084960857275e+00 1.583275292958351343e+01
-6.660067528438163187e+00 2.555641666698827308e+00 1.739836828459538509e+01
-5.076814264420596245e+00 1.590113227127831763e+00 1.801689901938843263e+01
-7.916809968391494756e+00 -3.596235911290465825e+00 1.583320490048824780e+01
-8.047513530351842803e+00 -3.399528199387181537e+00 1.622692955544012960e+01
-6.642501636761595663e+00 5.701532426894537764e-01 1.785148291084040295e+01
-2.760660666995601087e+00 -4.023420668233451458e+00 1.645301194421474378e+01
-2.356113845059359502e+00 -3.985007299048024532e+00 1.647517194182295697e+01
-1.582007184274977885e+00 -3.131601444393998790e+00 1.618416358100376584e+01
-2.120653925056942501e+00 1.797387313664222219e+00 1.852737898985370180e+01
-7.916729354680113850e+00 7.952743964067175986e-01 1.726340719667049939e+01
-3.957062014259846716e-01 -3.082994388371202987e+00 1.578165245590660959e+01
-3.642313693562575505e-01 -2.759197329525691966e+00 1.555948437026051323e+01
-2.811865372189634282e+00 -3.987097746373829299e+00 1.772131240853975953e+01
-3.867715672919025405e-01 -2.490580861628957976e+00 1.542873813737429600e+01
-2.568230467089348323e+00 -4.143797051487488226e+00 1.654638082442692593e+01
-7.239878890094606056e+00 -2.031082337341658661e+00 1.768514937410105858e+01
-1.968765290630428932e+00 -3.971541017271799756e+00 1.649957631688756976e+01
-8.360529101593975554e+00 -1.178179902421568226e+00 1.546354336183699019e+01
-3.253966981623433341e+00 -2.055698107366052074e+00 1.815981805662082138e+01
-3.347008624973031310e-01 3.659889484489285971e-01 1.511306717159331470e+01
-1.960856553743824282e+00 -3.763407610755374666e+00 1.640884641618072948e+01
-2.075670511683015640e+00 2.457516747388369449e+00 1.757502650963150614e+01
-1.568552508614323049e+00 -3.736301460312381639e+00 1.640308016060118490e+01
-1.339866773046847204e+00 -3.098895090081577042e+00 1.606901429146186189e+01
-5.304389126584630354e+00 1.440571770934960583e+00 1.350589321402074461e+01
-3.422143120329379506e+00 -3.637075042755349763e+00 1.781661288495685369e+01
-5.549011909601244685e-01 -3.216555368296517781e+00 1.589311594749511869e+01
-4.442611886834288981e-01 6.640076032609024681e-01 1.695826157448902194e+01
-2.592624656627051660e+00 -4.384204382670284339e+00 1.673226487874565294e+01
-4.705691635062798639e+00 -2.148559744331407506e-02 1.820128888332202166e+01
-7.653659030326866564e+00 -2.794413058495225921e-01 1.754510160272841546e+01
-3.763437779114778614e+00 3.712851653770229410e-01 1.404651150856656017e+01
-1.254282657613208674e+00 1.645352498908126737e+00 1.739126994651778091e+01
-2.397851221158234125e+00 -4.380272470032059218e+00 1.673478698572450440e+01
-1.995905924183646096e+00 -4.152738691202942256e+00 1.658770525118244876e+01
-1.780082143648197057e+00 -3.946287191701430164e+00 1.650076569111610070e+01
-2.577253826503585366e+00 -3.326050617770059503e+00 1.623743041038795099e+01
-5.262741360895536680e+00 3.455765970871568227e-01 1.807350182163796859e+01
-5.523698617057108962e-01 -3.562524729222135367e+00 1.615658936189406347e+01
2.343805505510676568e-02 -2.866010807099599766e+00 1.603492596183630070e+01
9.338525921800278073e-02 -3.308438471252986179e+00 1.644968218350735611e+01
-2.726802690306934895e+00 -4.145327248726133007e+00 1.653734337375711050e+01
-9.728446290125252194e-01 -4.298838065458561175e+00 1.665246452299385993e+01
-1.155543630150742462e+00 -3.880345074671246675e+00 1.640825735773299243e+01
-6.437558157937240289e+00 2.534224866194651149e+00 1.685551203607135307e+01
-1.047167062741142463e+00 1.459899300532575772e+00 1.777236386985435956e+01
-7.252332806080057370e-01 -4.119337943724418416e+00 1.655320339503423099e+01
-1.493098406845030812e+00 1.591960848738815493e+00 1.619322492266070412e+01
1.223799941854860629e-01 -3.126611580465932239e+00 1.639565546446846867e+01
-3.551928827321446214e+00 1.496245737433588019e+00 1.310574079487938803e+01
-4.033331500981113926e+00 3.102571608295012329e+00 1.755202259971622425e+01
-7.135399449539762351e+00 2.223267668515864326e+00 1.707547279868644097e+01
-1.234855962109134619e+00 -1.829514179833755083e+00 1.829196069290512128e+01
-3.900936877219240984e+00 1.651870929037591917e+00 1.332459660702152604e+01
-2.733174435250343759e+00 2.933990950450261259e+00 1.819476039066709916e+01
-2.474639771946942179e+00 2.603909359244640953e+00 1.839428497525788941e+01
-4.903137242411268915e+00 2.564126491644491246e+00 1.797101821148859102e+01
-7.739626121822904103e+00 2.466658034760219609e-01 1.435947735078445930e+01
-3.275854150681293042e+00 3.077557343449772720e+00 1.815118667216669479e+01
-5.128466637792060467e+00 9.874230383086629592e-01 1.265113588518798338e+01
-4.926442787378807253e+00 1.190450788966373352e+00 1.265370885185769367e+01
-1.675879107985074334e+00 2.135361298928682317e+00 1.848363715876041624e+01
-1.885448317748931402e+00 2.204424814372962338e+00 1.848636808943326315e+01
-2.095170271555580221e+00 2.414154086112315412e+00 1.844775020933074217e+01
-1.491530015159433287e+00 -1.757231044710055867e-02 1.850342033115504137e+01
-3.320614443230097024e+00 2.821974491886960479e+00 1.836547117520427008e+01
-3.498119239357004417e+00 2.936749429793000576e+00 1.829575545842551776e+01
-3.720787423086745704e+00 3.047148677603239708e+00 1.824986855662361762e+01
-5.940085458509122951e+00 7.197084513613699608e-01 1.277037033355512818e+01
-5.554244867661244811e+00 8.098423118625216466e-01 1.270481406280297421e+01
-5.163004184643706473e+00 7.935953050297589462e-01 1.288311338960340890e+01
-3.345385541880220082e+00 1.685481069836022527e+00 1.373195506587096304e+01
-1.629732582921409989e+00 -2.410849529133247682e+00 1.818066494485290008e+01
-4.125571660610781954e+00 1.236880535009976079e+00 1.257034177942638564e+01
-3.396359534197531005e+00 -1.074099488085809462e+00 1.549071231827428363e+01
-4.161129378079731822e+00 1.356773618385935354e+00 1.268379056949259365e+01
-4.875321182129106035e+00 1.825985336935624925e-01 1.815817634903428512e+01
-3.756685802141600306e+00 1.335376959970294042e+00 1.256375375081351109e+01
-3.743640234073729367e+00 1.336526949758887639e+00 1.267730790589960321e+01
-3.012644850112768502e+00 -3.649590059406571996e+00 1.782132310109235362e+01
-3.369493915429875308e+00 1.307408213082022375e+00 1.275566868465219272e+01
-3.329155269618811808e+00 1.346782293462258639e+00 1.286309678681351443e+01
-1.549326039458904791e+00 1.983784155568727670e+00 1.848132894904770751e+01
-3.212982089263630492e+00 -4.011678571706332797e+00 1.770176623641599889e+01
-1.708884393892298625e+00 1.798861474846610520e+00 1.851124699904107729e+01
-2.456606057900049045e+00 1.989809779579970517e+00 1.850286278488868419e+01
-2.696053454860475540e+00 2.366611627466384427e+00 1.846457397875445849e+01
-2.901062804639952475e+00 2.337878102912689382e+00 1.845907236301022891e+01
-5.904674501961471034e-01 -2.145030170276968740e+00 1.814969612193414150e+01
-2.721092263405388678e+00 2.169298306392052123e+00 1.848082578338770787e+01
-3.845254309854513330e+00 3.011349699146767200e+00 1.825471127859219678e+01
-5.399209808164409985e+00 -1.281072041867649780e+00 1.500853685626944412e+01
-3.391103002292298108e+00 -3.554372423071166409e+00 1.784432679113598397e+01
-3.960739046710934907e+00 2.859791592864305176e+00 1.823116168762178546e+01
-5.762884359856032646e+00 6.000344592615558525e-01 1.287216204715099366e+01
-4.017182852424924455e+00 -4.424202660257662956e+00 1.756583873224496983e+01
-5.934961051835438539e+00 4.799968495135916724e-01 1.294079265424217340e+01
-3.429569608050829110e+00 1.075280966321588316e+00 1.300539350509313863e+01
-8.441920331631092012e+00 -1.000170077066393048e+00 1.568703542368889714e+01
-5.736741517919659472e+00 3.989421347001353979e-01 1.307530935231701363e+01
-5.236881815689746311e+00 5.789785872234832764e-01 1.309035164408849994e+01
-2.144682511501545985e+00 1.158668783144225056e+00 1.331479375165815071e+01
-8.077186511286274850e+00 -2.863720866854548408e+00 1.671563362214035209e+01
-5.389233108298459030e+00 3.900659362624836479e-01 1.321939463477333732e+01
-5.159393977707766865e+00 5.149959108567259136e-01 1.319450820214649411e+01
-4.692447841509650885e+00 1.015407912143959202e+00 1.275138484773455616e+01
-4.805587329213147463e+00 1.731214593930440859e+00 1.366545999158940816e+01
-1.094829621446830714e+00 1.414340085841268913e+00 1.839265150679098326e+01
-1.562194496576663205e-02 9.016897328235551345e-02 1.672569504556690845e+01
-4.096942189081736352e+00 2.620451547095027589e+00 1.820369057336509400e+01
-4.670253369278411171e+00 2.965835352595883379e+00 1.798030952435038898e+01
-1.143632173261812657e+00 1.584994398793945880e+00 1.785778963395795671e+01
-5.130717459828538551e+00 3.122462812553809197e+00 1.784480292346861319e+01
-5.401821232250619609e+00 -3.645607429203785443e+00 1.764992125737998663e+01
-5.482091578607193760e+00 3.115998391267907230e+00 1.770463993874921727e+01
-5.720214516685258488e+00 2.797987208050077168e+00 1.777168420379761216e+01
-2.179151819387840749e+00 -3.767310998098369446e+00 1.639686401985837705e+01
-5.948455416439232479e+00 2.828149782357307185e+00 1.757018756767921985e+01
-6.511631354337960254e+00 2.390895142203999679e+00 1.763900993591892075e+01
-6.507702312053140759e-01 -2.430452472568665812e+00 1.812588871836170767e+01
-6.761360563967520498e+00 5.465337126818657909e-01 1.318768229193687347e+01
-5.928330200062229771e+00 3.493500686235743169e-01 1.305164541963424085e+01
-4.809981255243468645e+00 -3.483730963660159219e+00 1.777129542393392114e+01
-5.548555547987582770e+00 1.220002840770096353e-01 1.339954386335419656e+01
-6.301587774179473467e-01 -2.015188514551870647e+00 1.514639023419695008e+01
-4.707382186240516297e+00 7.918832443485838146e-01 1.307660482108585143e+01
-7.809146252426983459e+00 -3.797299414549323959e+00 1.581651305372364646e+01
-4.683429386006548789e+00 8.621228716091923205e-01 1.297011572477943986e+01
-6.451158957390255466e+00 -8.795126134456185962e-01 1.792333871342371765e+01
-4.320658308310055595e+00 9.098724126861382766e-01 1.302983554798260712e+01
-3.962484417275009108e+00 1.960611829319590438e+00 1.431272851125449108e+01
-3.943826097909164830e+00 1.085597311991682634e+00 1.286829214425686274e+01
-5.604106008725979748e-01 9.495687591049836174e-01 1.813628013308861853e+01
-6.288674795692621444e-01 8.369809230801984468e-01 1.821948251575530264e+01
-4.481235535761115329e+00 -1.714312462543225168e-01 1.461019879404313571e+01
-1.198512156322062872e+00 -3.787567216447808249e+00 1.784583153144387069e+01
-1.869617850748489296e+00 1.361279296219509050e+00 1.854774664276038010e+01
-4.137130466862867451e+00 2.334363518198677490e+00 1.821243731095108132e+01
-4.464403909582994601e+00 2.383637072575063076e+00 1.810153002217827378e+01
-4.539864508617114325e+00 -2.377545365550883805e+00 1.584947961751318957e+01
-1.772073628630169484e+00 1.339734883331671345e+00 1.453187283820985698e+01
-4.893454003947094400e+00 3.178186529746585887e+00 1.775488209508660020e+01
-7.028263894872938344e+00 -6.419848615660795899e-01 1.780272327555179146e+01
-5.111475413771532139e+00 2.993692997272948908e+00 1.787786186432376212e+01
-5.874201800605545642e+00 2.490884280522286609e+00 1.778439696409764537e+01
-6.681841699875093354e+00 -4.438482028370242638e+00 1.711189338682790151e+01
-6.694205932699929029e+00 2.168364261029182671e+00 1.765288619312612184e+01
-4.395767624716378386e+00 2.476788069343789811e+00 1.568918078850434483e+01
-7.030533421158140506e+00 2.077102482385399629e+00 1.753679237191321505e+01
-6.114276151318286168e+00 9.189172399870748631e-02 1.320066511235555140e+01
-6.470496381706844602e+00 -2.420769571303853063e+00 1.466981052792147011e+01
-5.764138194192372389e+00 -4.489591593800168479e-02 1.343562049626164878e+01
-5.948601356442414279e+00 -1.257355884962902126e-01 1.342064665465868245e+01
-5.182881141515156997e+00 1.698137869785537601e-01 1.359250663732403552e+01
-5.012557082951938803e+00 3.709204649505665197e-01 1.345675563111759487e+01
-4.763722490150683164e+00 5.390544749207150099e-01 1.342755834237822654e+01
-3.451978203195174899e+00 2.388215567875861645e+00 1.576438664823839275e+01
-4.720664968407620066e+00 4.551213876897221011e-01 1.359814330471468935e+01
-2.635668912051486679e+00 -3.730721667914515649e+00 1.633838315433881405e+01
-8.361572436819606935e+00 -1.819683919956521123e+00 1.561020587092922796e+01
-2.786508506186831546e+00 1.031976378947804474e+00 1.311040413657965331e+01
-2.695187604028196127e+00 1.186202223106450404e+00 1.303956264027745249e+01
-2.002963364556304970e+00 1.026463851277674699e+00 1.320535528436231942e+01
-4.762545873844699074e-01 6.142067287578908408e-01 1.815371282559764410e+01
-8.827153430350205277e-01 8.197811248512630877e-01 1.501740341288436298e+01
-6.557127005656795404e-01 6.220328715391553187e-01 1.828007131688664799e+01
-2.511992549166008448e+00 -1.221314361614809219e+00 1.551315830921505068e+01
-1.109925797211241960e+00 6.075297353694864011e-01 1.845062941678376234e+01
-3.321256754898743502e+00 1.178693474921341355e+00 1.844471378643415704e+01
-4.697802500020729966e+00 3.148327732803287482e+00 1.757934775798083393e+01
-4.079863010630859321e+00 1.947171409510430440e+00 1.824894784292538219e+01
-4.174301037652318414e+00 2.173879361931081444e+00 1.821033522673048566e+01
-1.976861523723297598e+00 1.760646721019361927e+00 1.550963662104840068e+01
-4.300138064752991873e+00 1.970180062273828359e+00 1.818164699983022103e+01
-7.936560780431718420e+00 -2.322241837109468410e+00 1.472693612605592506e+01
-3.148851764251618945e-01 8.727378508975330851e-02 1.810539443335813559e+01
-4.693063773581299003e+00 1.611320921688184526e+00 1.810148361874740885e+01
-5.922338724635768159e+00 1.780884168357642405e+00 1.472748792002911955e+01
-6.232448313282303864e+00 1.984842966942546028e+00 1.777146876645409890e+01
7.147666115357753647e-02 -3.122142283920314565e+00 1.643026029648301289e+01
-6.237364935590376191e+00 2.186203542311425885e+00 1.774691006919284320e+01
-6.431771333888818276e+00 -1.470105999870245039e+00 1.790273808893000762e+01
-6.680946548771991012e+00 1.738930377812879069e+00 1.773032429228349827e+01
-6.893416021371140623e+00 1.779425311052662106e+00 1.766841926377607308e+01
-6.892692399711896734e+00 1.528280435150545902e+00 1.770220515874449774e+01
-7.414116563128918536e+00 1.730067131613058251e+00 1.738801425091300246e+01
-6.317353210728592572e+00 -4.932603955628407921e-01 1.351061195567197615e+01
-5.147242764440863816e+00 7.350582272692324226e-02 1.376221857172525631e+01
-5.037208017196852516e+00 2.049635905406649306e-01 1.368888869687285137e+01
-4.889696411685482857e+00 2.283814908531767163e-01 1.380446240906120181e+01
-3.577120722555586774e+00 7.549516889321178370e-01 1.345502189100080415e+01
-5.013394982008523293e+00 -6.975020076445510586e-01 1.481853007246540699e+01
-6.992143246279868052e+00 5.460119010757382707e-01 1.354419446523461090e+01
-2.070395172497671687e+00 7.984475756928691714e-01 1.855829740096113056e+01
-1.980847464014195758e+00 8.166012224718005585e-01 1.334687214025561985e+01
-3.374640221908820070e-01 5.354981315893442284e-01 1.807993919218302636e+01
-2.262512645568025782e+00 5.574482184374197624e-01 1.855533090136447072e+01
-6.654819112003261594e+00 2.376494627093314271e+00 1.663603820580478043e+01
-3.524769157930099261e+00 1.009093882837417411e+00 1.841075537991078903e+01
-3.293218030848038325e+00 -6.446098506693174190e-01 1.838199756073981206e+01
-3.513253682946724687e+00 7.806103461718575387e-01 1.841739146483179468e+01
-4.873752101806693382e+00 1.371503852086588537e+00 1.807763335444158770e+01
-7.012456677273358530e+00 1.335046422675343347e+00 1.766852649367633887e+01
-7.460428922139928254e+00 1.340970532809870441e+00 1.745980437988078648e+01
-7.603686992068191763e+00 1.552964544640317968e+00 1.731490264836472193e+01
-8.288234710386825910e-01 -3.563604686057025184e+00 1.789940273769339285e+01
-8.249766915295410286e+00 -1.967100878074965031e+00 1.527344534820928601e+01
-3.691588790756602734e+00 2.567538507878656340e+00 1.832567287127781697e+01
-6.924084327714695064e+00 1.163913512086781066e-01 1.314148335779235310e+01
-5.401975833906962343e+00 1.760330397320858165e+00 1.422805343674352230e+01
-6.735047718790686311e+00 -9.617556569964932911e-02 1.321403215717270996e+01
-5.367199776210102691e+00 1.695206265585794458e+00 1.406598611840584567e+01
-6.530385809277938769e+00 -4.799357733200478870e-01 1.343782466243062856e+01
-1.619906065821685281e+00 -2.627526258605481502e+00 1.813381408998409938e+01
-5.918148071944939304e+00 -4.273222954526271766e-01 1.364806615802622503e+01
-5.716247147363914927e+00 -5.505722059124337209e-01 1.398633855184209551e+01
-5.321964125147498059e+00 -3.349576182428145588e-01 1.414609602247217879e+01
-7.816526714825358546e+00 8.079258431590260470e-01 1.556902350380094191e+01
-5.518327547097829466e+00 -5.090516834109399813e-01 1.416171047597900667e+01
-4.766372897922529717e+00 1.441835020149494495e-01 1.403975358480048641e+01
-9.731512620925235613e-01 -3.673084167806269562e+00 1.626785207494738472e+01
-2.520190094372556810e+00 1.544678820596362634e+00 1.853178562362122506e+01
-4.463219702926023658e+00 4.535715901890639001e-01 1.378731696332680912e+01
-1.989996683520145915e+00 -1.345308259501460491e+00 1.541720254543149338e+01
-3.940190049192569433e+00 5.837100781019850526e-01 1.370304734729245411e+01
-8.051045355837789685e+00 -3.058665138973228892e+00 1.662284992221596269e+01
-3.036841341942642103e-02 -9.645415026607320197e-01 1.728834633984818225e+01
-3.944532687740196053e+00 5.085734675456189402e-01 1.383314098216906984e+01
-3.140180409086137381e+00 7.636490781717627518e-01 1.349639288557467154e+01
-3.342563645337654599e+00 6.785304264486785586e-01 1.360637983733045075e+01
-2.787931702099300857e+00 7.677126781838544689e-01 1.350056813299276826e+01
-2.366703209617020853e+00 8.238898293451691890e-01 1.336900138559916229e+01
-6.227849725157318161e+00 -2.674692862244699931e+00 1.776462359059215856e+01
-2.170999383394308424e+00 7.043887894884320877e-01 1.348808536954663140e+01
-2.349154417567744790e-01 -1.635133954571986514e+00 1.513339311114790320e+01
-5.169614006988088040e-01 -4.431666440744608249e-03 1.823639190885826622e+01
-1.867088862969978447e+00 1.482727368268709767e-01 1.854943254906068262e+01
-6.851795638130987243e+00 -3.452299891188571390e+00 1.745493091439031730e+01
-8.080065143258757132e+00 -2.763345679763129503e+00 1.545500508382230009e+01
-2.258153808790590134e+00 3.972581875996737955e-01 1.855247769336189378e+01
-2.517124222428660296e+00 4.078625527095306458e-01 1.853373227833233017e+01
-2.273541138282263674e+00 1.922411762681811576e-01 1.854551363206693537e+01
-3.144172757588351352e+00 1.540441379724427406e+00 1.352314958952872104e+01
-4.659349486742188517e+00 1.153804359832022453e+00 1.814359236590092195e+01
-7.219820620664529010e+00 1.351070326525418253e+00 1.757855995289232709e+01
-8.006541747944584841e+00 1.145297391256794750e+00 1.681877855100997721e+01
-3.711256874582431031e+00 2.170185890845192311e+00 1.502181717311091091e+01
-8.100568251374635764e+00 9.922546367653303223e-01 1.697404366917812268e+01
-3.602411142138900679e+00 -9.627609953379507868e-01 1.541143855313701749e+01
-4.333011677857657951e+00 1.551584393460657463e+00 1.308426324317976253e+01
-8.175736843410199128e+00 8.727686719249093672e-01 1.673482241034164986e+01
-7.254165571668223400e+00 1.101757766925585691e-01 1.323703726921576163e+01
-7.594060721183143237e+00 -3.305236990064735481e-01 1.370743377682138231e+01
-1.816265462544467191e+00 -4.003052369044199921e+00 1.776143331027768824e+01
-3.031473752572288127e+00 2.219716743885332910e+00 1.554300111989313393e+01
-7.220539441147935555e+00 2.019006594049854719e-03 1.327487844380824100e+01
-6.522773772568294604e+00 -8.426773192329393147e-01 1.362157455188489763e+01
-6.496980143802872476e+00 -1.078892040323050416e+00 1.374451384529451303e+01
-6.349303151711661819e+00 -9.216452182448416908e-01 1.372990479163694744e+01
-5.549225307115658090e+00 -6.931782945036184529e-01 1.436140579506972159e+01
-2.046222114254864000e+00 -3.321532530030372410e+00 1.627514000606905142e+01
-5.393824655529926737e+00 -4.708536649494766024e+00 1.668518351637290209e+01
-5.200331259644162429e+00 -4.535230896894979491e-01 1.441505726744208005e+01
-5.025368701742428890e+00 -5.028802493334716406e-01 1.462123162958930322e+01
-4.859370223297796443e+00 -2.438118436228762231e-01 1.448706986228516058e+01
-7.454146092424788428e+00 -4.878104839086613298e-01 1.766170677052046756e+01
-4.812340475108814353e+00 -5.256195660136742109e-02 1.427489609299856710e+01
-1.982555141551133548e+00 1.476370882727771061e+00 1.453833982100540112e+01
-4.729945564222152399e+00 1.820182319015017924e-02 1.424536138954559306e+01
-3.082084810558025190e+00 5.915349320648525255e-01 1.847617020087187001e+01
-2.704805520757476600e+00 5.950334052372316940e-01 1.373381843747551301e+01
-1.240256651995115256e-01 1.733602464733658977e-01 1.613137033444962753e+01
-2.107310528795265814e+00 4.193655029743230678e-01 1.377839655999620305e+01
-1.244974106144334680e+00 1.965199474045592476e-01 1.848188303560183243e+01
-9.653491443006667616e-01 -2.953538112811831540e-01 1.842106286162420048e+01
-2.998241240804281560e+00 -1.335176855865000345e+00 1.564635944496961883e+01
-6.775048802875407894e+00 -3.791189641347908257e+00 1.736509258248713650e+01
-1.893920501308790971e+00 -2.343425728804254815e-02 1.853434354454056887e+01
-3.303143194176322517e+00 3.049846485008476549e+00 1.796075535138600543e+01
-1.216810832517179364e+00 1.488754039198195489e+00 1.674808394915882559e+01
-2.467106114932041017e+00 -1.777046243638333578e-01 1.851968708308242384e+01
-2.880288616163826809e+00 -2.002554704336546032e-01 1.847669459470913012e+01
-7.194074538255155638e+00 -1.831980776102603237e+00 1.772569275676634248e+01
-2.896994071287041894e+00 -4.479096657269205362e-01 1.844926318101779827e+01
-3.621165547945888186e+00 -6.164618354299773451e-01 1.835437067975399117e+01
-5.097245251698858226e+00 9.517008385714865737e-01 1.806195284385916722e+01
-3.240792668642685115e+00 -3.202660247735911625e+00 1.794059981945826365e+01
-5.020333211700778620e+00 7.580027526937115345e-01 1.809218503960666879e+01
-5.285809065335893564e+00 5.142448654507204564e-01 1.805214815136289275e+01
-6.834839099483293268e+00 9.327260227437607076e-01 1.778548615639904540e+01
-7.082829248521140819e+00 1.164431766741926388e+00 1.766190229412877954e+01
-7.084815477794315974e+00 9.338528638865467579e-01 1.768584599632430354e+01
-7.792023520329130370e+00 1.093571163385295364e+00 1.730652474040361710e+01
-7.394690286576635962e+00 -1.491085358715781017e-01 1.344786590823109407e+01
-4.936327509921327739e+00 1.824247833530632246e+00 1.397625129830059620e+01
-7.220696564811816209e+00 -3.828037094791251205e-01 1.345911962740006373e+01
-4.283693484480726177e+00 1.367628262048016463e+00 1.821936175054359808e+01
-3.207735106410090076e+00 2.049527260137002038e+00 1.491851315608158046e+01
-7.053391344629273085e+00 -4.951797589920389209e-01 1.344155140883775346e+01
-5.575682305946118689e+00 -9.159786206831569411e-01 1.457431797198233880e+01
-5.204119491227646499e+00 -6.463186997742976780e-01 1.462358547043928070e+01
-5.593962945124350661e+00 1.364252455818265819e+00 1.360338172832086201e+01
-4.705980508344986823e+00 -2.143984053796063605e-01 1.454307863603294493e+01
-4.584771151157349678e+00 -9.207404021574353004e-02 1.446783192503632876e+01
-1.190820738633329157e+00 -4.543765364620986347e+00 1.749884233772085906e+01
-4.465798085694886232e+00 2.150488464790980547e-01 1.414565965657101287e+01
-4.346004645981302872e+00 2.599919922406297434e-01 1.414144205201463933e+01
-5.858020295117086995e+00 -1.495197624612892184e+00 1.481301004913732555e+01
-3.175576057834593513e+00 -1.587372941431428874e-01 1.480136196905576185e+01
-5.414835197774947595e+00 2.416788112069756522e+00 1.566077302856310638e+01
-3.904178912280635849e+00 2.571753892899475424e-01 1.419855188300383730e+01
-3.161561414296789607e+00 4.445521826244268615e-01 1.402418062816525435e+01
-5.310498469591067305e+00 -1.453506268429581638e+00 1.804517003576558665e+01
-2.565030843344708877e+00 4.792090418996777235e-01 1.384213047029889054e+01
-5.853488191669086405e+00 2.640403311798661168e+00 1.646762098948860853e+01
-1.776162936676221271e+00 2.544881127881556404e-01 1.386920398264903298e+01
-1.547502499913837148e+00 4.968123978137047869e-01 1.362980292656413184e+01
-1.521512109120849665e+00 -1.044433522610547005e+00 1.489914302094628340e+01
-1.557046165562096629e+00 9.034652769784731197e-01 1.353656412675073994e+01
-5.113086425134909518e+00 1.583844572964637765e-01 1.810959331857748822e+01
-1.300126730844825218e+00 5.475144189893998981e-01 1.365091040018597113e+01
-2.727863912020187520e-01 4.262115189241525437e-01 1.775025298322648837e+01
-1.825612319263547612e-01 7.870787270906842714e-02 1.772355844963706772e+01
-8.665930613962944395e-01 -6.100379511297137070e-01 1.837690106151131886e+01
-6.834535348380089026e+00 2.015398267280871014e+00 1.606071333562904613e+01
-5.401882401188482064e+00 2.622956043806740745e+00 1.610538429153733375e+01
-1.290143037962082406e+00 -3.964043609191182371e-01 1.845549549023058944e+01
-2.279500951857236224e-01 -2.403897008327017915e+00 1.544977189071110502e+01
-1.672243661162206685e+00 -3.981414327944042819e-01 1.847330896293816949e+01
-1.612303683167108925e-01 -1.982709067093057165e+00 1.791125863333019907e+01
-3.722910165735831889e+00 -8.579619235339732697e-01 1.830874753090962059e+01
-3.861373417361707361e+00 -3.514895036906213188e-01 1.833606550035179339e+01
-1.414140240213731303e+00 -2.183298182873104842e+00 1.560382399467605552e+01
-6.496346311096243831e+00 2.627950519182218336e+00 1.726782907454217053e+01
-2.218745412947922713e+00 1.461756149551023842e+00 1.414751332182132870e+01
-3.876483097693504298e+00 -6.532908371811187997e-01 1.831069630188709851e+01
-5.246679582973555966e+00 2.489449037214082061e+00 1.568892894844346131e+01
-4.065376357640941407e+00 -2.350654839288166542e-01 1.830787555367200525e+01
-4.495565139525115050e+00 3.202318235915020406e-01 1.823390651743752500e+01
-6.667275572665862349e+00 3.603530898059241760e-01 1.785541061400471818e+01
-7.132449843983622806e+00 7.787306234267027394e-01 1.768131005565967939e+01
-1.536410494535388249e+00 -5.242630958420713139e-02 1.409963900978767981e+01
-7.021025266181170288e+00 3.153001629639566872e-01 1.776947686761334211e+01
-2.349265104127968407e+00 1.234226136218867342e+00 1.331062988090896226e+01
-4.802241603362169542e+00 -2.737755839925564594e+00 1.588662930692253639e+01
-1.217880876380656119e+00 -2.369973712592440940e+00 1.556633741741170951e+01
-7.303313606272209491e+00 5.148671514086264889e-01 1.762245623508558623e+01
-2.716396240852581023e-02 -2.842482115677701371e-01 1.556047178952270116e+01
-7.619396521740406492e+00 -1.644807209280552684e-01 1.368843161366309857e+01
-1.235300477680607134e+00 -1.419704336572356507e+00 1.834999588446831353e+01
-7.430096285837596959e+00 -5.671442411874078049e-01 1.364370732773947736e+01
-4.151559277116563251e+00 1.830626177741702776e+00 1.388356399501060423e+01
-7.337103222609884234e+00 -6.756529494263954216e-01 1.361729065465943478e+01
-6.650139952558995482e+00 -1.389452547096647450e+00 1.382628702734293569e+01
-6.092661061055612670e+00 -1.184422515838623680e+00 1.409667977626025248e+01
-4.850804515365781278e+00 -2.442649001322006352e+00 1.798040313819203107e+01
-5.968917790231947684e+00 1.246262027101470160e+00 1.366201256009713205e+01
-8.482636003541291103e+00 8.123686688491671415e-03 1.634468904463461314e+01
-5.834097267991838365e+00 -8.930409623237679506e-01 1.423654014007740187e+01
-5.911880037086949535e+00 -1.099107904010722558e+00 1.434219274611830031e+01
-5.704572637341971841e+00 -9.728512439585573768e-01 1.451046071535869686e+01
-5.787841513852627351e+00 -1.025717531034370023e+00 1.445195503355888178e+01
-4.571129020804786336e+00 -5.012383855278988998e-01 1.487484798644057093e+01
-1.949291436306480385e+00 9.089696639945599177e-02 1.405932489283539155e+01
-3.628266086114068756e+00 2.417600069071440760e+00 1.574673045829958795e+01
-1.564795803804804208e+00 2.612506328171368963e-01 1.383078001793631984e+01
-5.033690855382944029e+00 -6.440459423064501809e-01 1.813704564631306937e+01
-1.583692183022857858e-01 -5.617352177469778773e-01 1.776897782473933063e+01
-1.622849979419599631e+00 -3.433244061198878594e+00 1.794479699500518421e+01
-2.857137113015122409e-01 -5.895649610381255012e-01 1.805999481157084574e+01
-5.081941066008979213e+00 -2.235029390052213627e-01 1.812570679730291801e+01
-3.697749828879870471e-01 -7.833132050729285645e-01 1.815089235995311867e+01
-1.891812846114162561e-01 -7.640860438171188651e-01 1.790216188406751030e+01
-8.790821985425636420e-01 -9.582778684764560184e-01 1.834858267176041835e+01
-1.010318041047753468e+00 -9.709980584438998585e-01 1.837048680362857311e+01
-1.259635545112737454e+00 -1.022227323259500720e+00 1.839522622254778383e+01
-1.468763587593296283e+00 -5.928646863588420413e-01 1.845086655937249986e+01
-2.827802321228433335e+00 2.315621721239260911e+00 1.595125653430294221e+01
-5.767713151526045579e+00 1.503101982155366834e+00 1.404536595739801896e+01
-8.476948168763023261e+00 -6.252687528170191023e-01 1.571228961427510740e+01
-1.669022571260818655e+00 -8.042227237589870681e-01 1.843854128186416119e+01
-6.015014729004067640e+00 -2.840725869621774535e+00 1.775105883599236734e+01
-2.693777430709912490e+00 1.914314017580802663e-01 1.430447271106384477e+01
-2.655560621727561799e+00 -8.042467259419587844e-01 1.839197921644034750e+01
-2.831490541940156369e+00 -1.057778341720832849e+00 1.832856071025869937e+01
-3.440077508384677962e+00 -1.406458773005871965e+00 1.825351658726856385e+01
-4.224878050713098077e+00 -4.745363283407140753e-01 1.827516759900604626e+01
-4.690338890631657875e+00 -6.448273226332436048e-01 1.821300266333486206e+01
-6.027728353912608306e+00 -6.694865860841148208e-01 1.797342654243197302e+01
-6.848835693373745315e+00 -2.384620921515379077e-02 1.783448989249450278e+01
-7.162868190300382132e+00 3.197116477031096693e-01 1.771475085328182075e+01
-1.952097770577361224e+00 -1.508033948523870293e+00 1.550951629328559278e+01
-7.451576832370066406e+00 3.456115464528047854e-01 1.756803559079619248e+01
-7.234050477540036717e+00 1.124600356362530640e-01 1.770909003712839080e+01
-6.719385964490440788e-01 -3.379780705523261819e+00 1.791938349706081368e+01
-1.651060014380221652e+00 -4.325123248693748756e+00 1.766379680826546661e+01
-8.250029416743071664e+00 5.208339612678136721e-03 1.552059540824610906e+01
-7.975729666428164499e+00 5.053464754599266140e-01 1.726791674227291651e+01
-8.299323468648836410e+00 4.149844950405527921e-01 1.698456576143947672e+01
-4.374429324633958949e+00 -2.563911690922241249e+00 1.592351164935958963e+01
-7.121928578155794831e+00 -9.681014503052336462e-01 1.363277590198044464e+01
-6.933331683837151260e+00 -1.486322311601995683e+00 1.380439110298505057e+01
-6.777921786389159209e+00 -1.698645950679799732e+00 1.394271978668646028e+01
-6.217326408506324675e+00 -1.509596386193273965e+00 1.418084235289332184e+01
-5.554226413182296263e+00 -1.136447919162377751e+00 1.479212203547221804e+01
-5.348390976118211348e+00 -1.139576444270126832e+00 1.494320356721244281e+01
-7.852462664239447498e+00 -3.848708807556664446e+00 1.594311143680400988e+01
-4.428526966529342523e+00 -4.572858398762917886e-01 1.490795960818997656e+01
-2.151980698591722252e+00 3.965729681581237065e-02 1.418991504471169662e+01
-5.261233715398820898e+00 -1.030383449657619188e+00 1.808227141568811192e+01
-1.957657917712906315e+00 4.066878839240339882e-03 1.414986965156290211e+01
-8.509327437386409176e-01 -1.997276869720060244e+00 1.822273785462358120e+01
-1.308386331538051728e+00 2.762414618390045540e-01 1.381921199403011258e+01
-4.475360231976866388e+00 2.535238786939073563e+00 1.583126460100514521e+01
-1.916407351534354930e-01 -9.720761191273640245e-01 1.791508109035605401e+01
-1.395288651239043887e-01 -1.083070232174624614e+00 1.780744795093689703e+01
-3.924762994178845332e-01 -1.015470844046764132e+00 1.816806813031500667e+01
-2.840146487359242133e+00 2.245893050191412055e+00 1.574952917276830533e+01
-2.967998956216606476e-01 -1.189309269749935449e+00 1.804956750893976647e+01
-3.135758755829143318e-01 -1.390875012900999241e+00 1.803740445297734851e+01
-6.384649756502760454e-01 -1.190790199748891665e+00 1.827199217240926288e+01
-1.269091018301171214e+00 -1.206152559484941822e+00 1.837861890186974279e+01
-1.454995013738566989e+00 -9.965262254449969159e-01 1.841715662403272091e+01
-4.786857678542830286e+00 -2.390800173321504740e+00 1.580376905653848496e+01
-8.331590635580557347e+00 1.418908065308486233e-01 1.598718063953454305e+01
-2.661955466913676904e+00 -1.195879556192561699e+00 1.831083779364318787e+01
-1.552374679993733686e+00 1.345904452257899120e+00 1.514970014047043634e+01
-6.468027995652061435e+00 2.157938874956890185e+00 1.770202560853747542e+01
-2.677328714274389565e+00 -1.630408853000814506e+00 1.824473543436908329e+01
