-1.340916880160832436e+00 -1.825791991931316582e+00 1.819342447803862939e+01
-1.818885927110691636e+00 -4.279283031487433497e+00 1.789692553520465168e+01
-6.408228978049727687e+00 -3.280827437477221498e+00 1.880334355323569184e+01
-3.696097861476506541e+00 2.017363976117067526e-01 1.371612762314325096e+01
-7.976491453897807560e+00 2.174122434437427920e+00 1.561171477240937833e+01
-2.054537800621281662e-01 1.020467868271476730e+00 1.614698386908487038e+01
-6.396604047767606716e+00 -1.563066385084260213e-01 1.314450946900973349e+01
-5.795728989881680171e+00 -4.760764439786429492e+00 1.769133749140090828e+01
-2.538066363968811134e-01 -4.159786063845908544e+00 1.718861855629371860e+01
-6.775170127444859247e+00 -1.887685803050866529e+00 1.868130084873149599e+01
-7.579078388240073849e+00 -1.907338569216537882e+00 1.848527692814788992e+01
-5.629690194246724566e+00 -3.059266411266421404e+00 1.660306984481661630e+01
-4.379914299099305630e+00 -2.876468021235112360e+00 1.660991629246703383e+01
-2.656825995461950196e+00 -8.522330434833158552e-02 1.301366137114775512e+01
-4.939989743763633090e-01 7.925265456382137863e-01 1.520691066351706411e+01
-6.611512000856355487e-01 1.506978536414470327e+00 1.771916784395897793e+01
-4.226526323255683337e+00 3.502289617493364204e+00 1.435635084215755342e+01
-8.015045249602602340e+00 1.411862504420054121e+00 1.437339501533967479e+01
-3.170713994156316051e+00 3.120474825791175189e+00 1.431558626313196214e+01
-8.390099504398650154e+00 -2.422918131258309793e-01 1.709405537435036138e+01
-3.206229839422873873e+00 1.055257072046506872e+00 1.212488410792113314e+01
-3.793646236108060954e+00 -2.881164353911751519e+00 1.875292338251242086e+01
-2.216075091543187714e+00 -4.249186221500834471e+00 1.798805155630689967e+01
-7.767682140172480487e+00 -3.855748617210090323e+00 1.808263354718710048e+01
-8.233566609062144437e+00 1.002288602265375417e+00 1.477063109739592051e+01
-2.619687087200111009e+00 2.060875169654025063e-02 1.291437449134662785e+01
-1.229602154460482488e+00 1.936020712294768575e+00 1.792025064818651003e+01
-5.181288792743933946e+00 -4.473240574199959241e+00 1.843311745159177661e+01
2.872929088665540642e-02 -7.691631557879016201e-01 1.493379511567545848e+01
-7.082949026308126506e+00 -4.550075641229266665e+00 1.807630635575912947e+01
-8.116384625435237865e+00 -5.625128844562891084e-01 1.476967427465123706e+01
1.797659234804849238e-01 -8.444364301379689852e-01 1.692890020353658542e+01
-2.427404623473272682e+00 4.761687074993103952e-02 1.289436087007068465e+01
-4.829717648264845842e+00 5.068945845920641569e-02 1.377201878728817519e+01
-1.606120643483371913e+00 2.575812319155013630e-01 1.288894854912325627e+01
-7.792950564072135933e+00 -7.708737283136883889e-01 1.416486096462754318e+01
-7.897037500324577408e+00 -9.833236433827639011e-01 1.443030779675784459e+01
1.727666044360665065e-02 -3.265629111071508550e+00 1.744852216044063198e+01
-3.452207834522857510e+00 3.158395759445131290e+00 1.406367967200684888e+01
-4.402444242953085229e+00 -2.209514713105132255e+00 1.632701431875674558e+01
-1.659217255927780243e+00 5.068263128949010987e-01 1.278250910643471627e+01
-8.040338424464769318e+00 -2.218579649259015074e+00 1.527656572881122798e+01
-1.871644215366286446e+00 3.329644027260469930e+00 1.682967804251395449e+01
-9.812317554497346217e-02 9.401122841285436404e-01 1.727641629138413037e+01
-1.539459311801096852e+00 -2.294159746830628954e+00 1.436816099181289275e+01
-6.413272699218842909e+00 3.129252005380288360e+00 1.782730327835249540e+01
-2.367809168759226868e+00 -4.377658944415184550e+00 1.727885812550429279e+01
-6.002962434372039802e+00 -1.476658039784077392e+00 1.865864254001874656e+01
-6.213901101317405917e+00 2.830338387163551683e+00 1.381538739736579657e+01
-1.737902800450394913e-01 8.110648535568063533e-01 1.741447258957205690e+01
-4.449108935094067130e-01 3.625688727645514642e-01 1.778892623135364204e+01
-8.259107359403778048e+00 -1.858004577328392415e+00 1.794796702182859605e+01
-6.068820802606347264e+00 -3.349675527802177921e+00 1.671555244743227320e+01
-6.429374635227600443e+00 2.740380224862180469e+00 1.793336695212859411e+01
-4.018834717631315279e+00 -1.225179532924291603e+00 1.569268934616775368e+01
-9.993483652223651426e-01 -2.941567293705287245e+00 1.490832785222465873e+01
-6.749991653129654878e+00 3.511621378139771821e+00 1.551329740059540541e+01
-7.964239081523581731e+00 -2.793049533462036216e+00 1.548159512106092706e+01
-8.543283077262648462e+00 -6.298115379471018738e-01 1.594595181970981912e+01
-5.965243271429281791e+00 1.941398747956141202e-02 1.312537666798221636e+01
-2.391559573975581277e+00 -7.228007821133096700e-01 1.355450128568353563e+01
-3.407330569995917102e+00 1.366102552911481416e+00 1.182309842245300757e+01
-6.161911787391892048e+00 -4.275199957668399442e+00 1.723792488907084675e+01
-7.027704100690093547e+00 -8.762131193993905054e-01 1.847906401359734474e+01
-2.380103481815040389e+00 -3.391154121885458395e+00 1.653425635932091353e+01
-4.812747383820196179e-01 -2.114645371491683079e+00 1.438268141459278837e+01
-5.177153494058621241e+00 -3.292025287079770823e+00 1.878569863697511266e+01
-5.429664203405573986e+00 2.701675229777026122e+00 1.808585905341307409e+01
2.969586629043421966e-01 -3.652383817522603104e-02 1.593227293825842139e+01
-7.926856043920736283e+00 -2.005577022255392805e+00 1.494079284200211788e+01
-7.695716202409804474e+00 -6.576634415127062816e-01 1.822333743738163037e+01
-2.228978732334190749e+00 -2.215917925432900670e+00 1.588172088030287910e+01
-4.029249223570926297e+00 3.403096546468455941e+00 1.421888639949291644e+01
-8.369804989171992560e+00 -2.419350603634494501e+00 1.767743135790792053e+01
-1.204593754690891139e+00 -3.269740308079892022e-01 1.333227966056400504e+01
-4.035409087227350255e+00 -2.992218007765238497e+00 1.877911564874063544e+01
-2.988713844423286581e+00 -1.049487309865214657e-01 1.335522705290774326e+01
-1.008437567218101183e+00 1.342108881740841753e+00 1.794056330215435935e+01
2.039467734937633892e-01 3.168492916125803527e-02 1.555463641593422608e+01
-3.408785700865099244e+00 -2.602805666636605952e+00 1.641845395795504459e+01
-7.581432646125222163e+00 1.721211418594325693e+00 1.753610257196817201e+01
-7.791963930418184248e+00 -4.676456520897351865e-01 1.810865995169061193e+01
-5.815018406052989697e+00 2.736626123664513077e+00 1.805363845690680336e+01
-4.228130710961885974e+00 3.442984831636427323e+00 1.421316660371294205e+01
-8.811825088511613391e-01 -3.113755568420066844e-01 1.357972547014540510e+01
-7.214620568336421513e+00 -2.396277482660217562e+00 1.470955162219034662e+01
-8.505274537760120879e+00 -2.223230692605554226e-01 1.663791109054385942e+01
-3.216339698914597811e+00 -2.549202943530060939e+00 1.636992864626837019e+01
-6.360305195566212433e+00 -1.096428075474643604e+00 1.857756341272152412e+01
-1.455888834761702277e+00 1.033318400358663958e+00 1.357850146026424198e+01
-6.193250353174190259e+00 -1.483425020406390349e+00 1.864871238419961941e+01
-4.838797862654409698e+00 -4.139289150123921068e+00 1.850974365052762494e+01
-6.937298630741314476e+00 3.099304219382114312e+00 1.509945343738325363e+01
-4.853807820527929806e+00 -9.478768664480701212e-01 1.530045785085386711e+01
-7.022622633296034422e+00 -2.282787619353772723e-01 1.836295611262504224e+01
-7.808109600188656074e+00 4.756846223305202792e-01 1.299911703402954544e+01
-3.927111072226802113e-02 -8.498639498346590715e-01 1.747736918271424145e+01
1.093436070915373981e-01 -2.445746796382799459e+00 1.743881377096204233e+01
-8.050391208393831377e+00 4.520119034690978643e-01 1.378059985854202552e+01
-4.999658591879379443e+00 -3.187402192049481608e-01 1.432176346584355997e+01
-7.768988648341543790e-01 -3.721302368520591930e+00 1.589458058336873592e+01
-3.602763626179965595e+00 -4.049611544650050021e+00 1.687608749263290520e+01
-3.832238825699764817e+00 4.423690134641118377e+00 1.773010858224046871e+01
-5.380506691452997536e+00 -3.903920879039237235e+00 1.872843155428170547e+01
-1.832078451488088788e+00 -4.345901970918101931e+00 1.777407245869430596e+01
-4.841161645401802716e+00 -3.299717195570661676e-02 1.393109844022726662e+01
-7.983548980497832126e-01 -2.637727810951789209e+00 1.459493751740090772e+01
1.249953729954529913e-01 -8.398950313696548209e-01 1.711343949413956977e+01
-7.591239000494662825e+00 4.514589108028846387e-01 1.301445556329793618e+01
-7.424417421754239133e-01 1.698529182318258446e+00 1.616098689407681377e+01
-8.026189304071817077e+00 1.724984420447734368e-01 1.758668668060554552e+01
-8.290770073189392519e+00 1.319091931199766865e+00 1.658994041117475149e+01
-2.014411049041762602e+00 -2.440909802137419149e+00 1.832086616150505165e+01
-7.608317670572828817e+00 -1.274016435430843086e-01 1.335295919495140282e+01
-6.579949730460733726e+00 2.210388725541017951e+00 1.342293248733259503e+01
-2.615584648195382833e+00 2.362144870891965009e+00 1.811982827144774433e+01
-4.362856615605798183e+00 -3.011805478123795066e+00 1.665535381774716228e+01
-1.058588945438319051e-01 -2.246229527871363985e+00 1.485689803494113903e+01
-7.037051270438983153e+00 -2.365872956440492114e+00 1.471989406205961615e+01
-7.483190532589214072e+00 2.844446077036423048e+00 1.555268746860456019e+01
-2.026462687913201055e+00 2.428615832055052604e+00 1.483367293496156947e+01
-6.412279001821969082e+00 -3.630558716123005958e+00 1.686202241626148179e+01
-6.466552642072645796e+00 -1.969904441004510343e+00 1.495750050599828285e+01
-4.200322802560255475e+00 -3.140871244816167973e-02 1.428059530246724051e+01
-2.406210342108816125e+00 -3.360561427887206465e-01 1.318727367844505238e+01
-8.361256021060281540e+00 -2.507651820616331406e+00 1.706171000472233601e+01
-5.690513554731693624e+00 1.764195441940671127e+00 1.173213360750482792e+01
-8.577404271941412972e+00 -4.670050515143818748e-01 1.631246891648140007e+01
-6.834111562922463357e+00 -4.755179945487386650e-01 1.339617628652116821e+01
-4.404872617213376529e+00 2.355915684018937029e+00 1.814138891369073292e+01
-9.877535555327223715e-01 -3.885018246787057539e+00 1.798222972008298370e+01
-9.739744353058217285e-01 -4.341614909206766626e+00 1.725893149436927843e+01
-5.268909267893197024e-01 -1.192985512044342222e+00 1.800310187504413051e+01
-2.951605996477309812e+00 -2.686714929720726008e+00 1.857096013636238752e+01
-1.256274331027997349e+00 2.794892405377753963e+00 1.722618139734217380e+01
-8.134173282860588827e+00 -2.064248408065180840e+00 1.812594761346728944e+01
-6.044649586402890407e+00 -2.799817270708400585e+00 1.634901782628175937e+01
-8.217354394085038649e+00 -2.905732056574057420e+00 1.785395761087651323e+01
-2.275623117846226950e+00 2.217738818863048245e+00 1.400883304912629512e+01
2.801248640199240358e-01 3.743434014055357917e-03 1.616635149287261441e+01
-5.436031902554140594e+00 3.431321149932192061e+00 1.421493740909848214e+01
-1.111975491070763544e-01 -2.909513862948702734e-01 1.460095868808561903e+01
-2.427017483087908989e+00 -1.880850183368881212e-01 1.307000959930054051e+01
7.730958784034702713e-02 -3.629154843402425890e+00 1.688110900090175193e+01
-6.740305984182032084e+00 3.546465292389320734e+00 1.752694448384174564e+01
-4.803019333692864379e+00 -3.509522730318244577e+00 1.874849671785565164e+01
-1.823219171328235522e+00 7.497318814461589875e-02 1.294950399281307796e+01
-2.238517865281121622e-01 -3.441303437771186857e+00 1.783129465755784082e+01
-7.368032937079133760e+00 1.969253585147044738e+00 1.420695984796641653e+01
-2.594982781111891956e+00 -1.679100174099266707e-01 1.309295463717003116e+01
-5.232889388938018804e+00 3.355706091980710237e+00 1.797684514306821768e+01
-5.805935907603850588e+00 9.529110538510037198e-01 1.835524737044254096e+01
-7.731469780563513972e+00 2.502275359709984048e+00 1.546575673588901623e+01
-1.724868235639457348e-01 1.416129565003732216e+00 1.695598761579645952e+01
-4.624664421042389506e+00 1.126649292479551256e+00 1.196760675988461031e+01
-5.019994409301493654e+00 -4.604257475622205220e+00 1.821434921373759863e+01
-2.138967783332557548e+00 -1.528659759789164907e+00 1.414420548085032436e+01
-2.844987110598609981e+00 2.134811546521304670e+00 1.814443885297825432e+01
-3.568514214201991219e+00 -4.599814551711260968e+00 1.803554333676029131e+01
-7.620304972255674159e+00 -2.871153432321865928e+00 1.851472057600360444e+01
-2.101479412242586609e+00 5.248267614877253351e-01 1.262312382910671005e+01
-1.986861361422224359e+00 -1.930356646584592717e+00 1.431364606188347466e+01
2.675998492088807468e-01 -6.038013978745452315e-01 1.573250899086485788e+01
-3.021190726347487310e+00 1.734801508553731608e+00 1.818705208131393647e+01
-6.668583194084762411e+00 -4.573628924573734267e+00 1.833767752901046322e+01
-4.407780914341071998e+00 2.155375698483919411e+00 1.816503871678540349e+01
-3.496238689572976899e-01 -4.587846673855034973e-01 1.779576312907773428e+01
-1.415430852855628308e+00 2.748808407549334087e-01 1.298752457721177933e+01
-8.067092819627484701e+00 -1.642787744236467562e+00 1.508428683017913130e+01
-4.049127551388647994e+00 2.034786088435065476e+00 1.141626245063725520e+01
-2.813449771963191903e+00 2.504023360935792031e+00 1.812146902349078204e+01
-2.840738310349379958e+00 4.113049243246196696e+00 1.774889503994233309e+01
-3.358098249583190587e+00 -1.721675119135918752e+00 1.597916195757537139e+01
-1.235541908819137280e+00 8.063901702512138447e-02 1.318103755368279195e+01
-3.855215282843670321e-01 -2.572940988792678851e+00 1.468915617152685371e+01
1.622940423547398758e-01 -2.013195600751640502e+00 1.730838403381480362e+01
1.508724336230230501e-01 7.901255090470460374e-01 1.670952285018226036e+01
3.132990066898283521e-01 -2.014314881335485197e+00 1.651302423563117827e+01
-7.148685941439431701e+00 3.114889744857407106e+00 1.542460762822943821e+01
-1.463589054278062185e-01 5.990896336452977700e-01 1.743199127258871783e+01
-3.275868495697844551e+00 4.137075025048201127e+00 1.778495054848690415e+01
-2.798132336800752684e-01 9.407199395707337430e-01 1.750892007279544771e+01
-2.445711071740120923e-01 5.640439236260961220e-01 1.755907969933635115e+01
-1.404401501281310027e+00 1.894843521998001101e+00 1.798781167354550092e+01
2.158338899343062445e-01 -1.785091069417363396e+00 1.710864184945778987e+01
-6.045957219079185485e-01 -5.305236116954309411e-01 1.392781831964967409e+01
-6.153085101366955190e-01 -2.126349736423835957e+00 1.430011777027721109e+01
-7.718101674194163486e+00 1.629856219422876062e+00 1.743254135358133539e+01
-7.750562238875098320e-01 2.243714412760102750e+00 1.714718934497764025e+01
-4.093108434613952351e-01 -8.472951090734360813e-01 1.789252737061386966e+01
-8.122708563201307186e+00 5.017355048747578206e-01 1.731976858890116233e+01
-6.025125977947003442e+00 -1.668899357926062033e+00 1.869432982465240656e+01
-2.236623787328180679e+00 -1.336969029888680938e+00 1.409443820376387180e+01
-5.971720162846769320e+00 -2.522069940878048477e+00 1.881362758859128093e+01
-7.282077301746393339e+00 3.393100252325217614e+00 1.603723997720328498e+01
-7.735150440462841281e+00 -4.007535712348410328e+00 1.797598604272668155e+01
-7.217146353798169045e+00 1.393693589917687436e+00 1.321339220695685412e+01
-6.796165794115622383e+00 -1.285496988537145668e+00 1.857334315416194670e+01
-4.012969883692517392e+00 -1.117567876823633011e+00 1.559490261794442745e+01
-1.989336789545162465e-01 -7.565149095044174654e-01 1.449794589897850727e+01
-7.876852208443013481e+00 1.414586381297550655e-01 1.778074990203484163e+01
-7.025019567372634555e+00 -1.076395976968120838e+00 1.850846158480410963e+01
-7.171105404299257025e+00 -2.248648789701039430e+00 1.460112007915449794e+01
-6.234516167197150516e+00 4.352153533362896454e+00 1.743175863212911025e+01
-6.010351669330050051e+00 3.133701471102549707e+00 1.794020216130907386e+01
-2.406260943411765663e+00 -2.844570057315299216e+00 1.631747194885137731e+01
-8.272723894943677436e+00 -2.100801229939215808e+00 1.792311996361812731e+01
-8.144231073002480059e+00 4.355250854706051444e-01 1.415211805194211081e+01
-5.834633686686795606e+00 3.160637341945339074e+00 1.796008588151830310e+01
-7.810913986120288754e+00 -6.508163062488641071e-01 1.815302254244440405e+01
-7.447030402119332315e+00 -2.137535553616205064e+00 1.456326435730178304e+01
-7.766549938192316205e+00 -1.091565812018513881e+00 1.826266626248355607e+01
-8.004400197240233439e+00 -1.286696970356108860e+00 1.815508457664696351e+01
-5.846587123724805046e+00 4.424883810739488332e+00 1.623864227235897317e+01
-7.561481505842241546e+00 -4.025899405255889185e+00 1.820927557823038256e+01
-6.011485918072225765e+00 -4.288352765094259667e+00 1.859827059120434001e+01
-8.577832049580228713e+00 -6.144044579592570221e-01 1.613378481796031139e+01
-1.583285882850901549e+00 3.188189301721812807e+00 1.744666288434538615e+01
-8.233698569390966782e+00 -3.079277511266821588e+00 1.767903376787081982e+01
-8.583665634297499736e+00 -4.314593041682068253e-01 1.610668542931357194e+01
-7.703631246938044796e+00 2.460991142455108083e+00 1.535553587728080771e+01
-1.831471631819827195e+00 -4.207400344112649293e+00 1.797989864984747044e+01
-7.869053742657138528e+00 2.773094301352562852e+00 1.639914554384645129e+01
-2.409788895121951047e+00 -4.484389873393257453e+00 1.763790769194556418e+01
-5.702736898960153233e+00 3.315189576062620436e+00 1.413641824331887165e+01
-1.713675650473932555e-01 -4.044973580068203844e+00 1.724689962154484135e+01
-6.884394731219664720e+00 -2.918390083490773002e+00 1.548224665226354801e+01
-3.186619592375056431e+00 -2.633159570858195409e+00 1.863236676743813547e+01
-3.684303055117721382e+00 4.858161996299720009e+00 1.753015855351848984e+01
-4.375859737728602816e+00 5.873835672972318456e-01 1.290267014372182786e+01
-7.798304493047982788e+00 2.490909764435689233e-02 1.334549657559022506e+01
-7.205898320132124724e+00 -3.472236625808732491e+00 1.605746223745772738e+01
-7.750009240674948785e+00 -1.310602326985806365e-01 1.340564851560810666e+01
-6.649259291038696951e+00 3.903993387586209174e+00 1.742591281616134324e+01
-8.052685723151544295e+00 -7.959652727604780154e-01 1.471586733091543664e+01
-8.104907021255627342e-01 -1.619643583589924329e+00 1.812553288116643557e+01
-7.964023929295121818e+00 -7.802798233893619706e-01 1.451737234527607256e+01
-1.804277602601238595e+00 -3.847077552220245167e+00 1.658237398602774704e+01
-7.817577992040666501e+00 -1.517029958412121071e-01 1.353904961169887855e+01
-2.220965467963784690e+00 -6.391689025936152513e-01 1.828615556439336842e+01
-6.472682302702433610e+00 3.933772077327889249e+00 1.750519972531508017e+01
-7.416303185768005513e+00 -4.322856971068088860e+00 1.803417410695435308e+01
-5.784018248186477251e+00 -4.675720468618413506e+00 1.839062945339960464e+01
-2.762224602033835907e-01 -5.635210770884683251e-01 1.437658602027975974e+01
-1.838037138451305896e+00 -1.203206530674042707e+00 1.364983245963101410e+01
-7.675314516920949792e+00 -3.932688542136645538e+00 1.680668673562463766e+01
-4.588629820879853938e+00 -3.392293596597540262e+00 1.682154049533683349e+01
-8.065651330920566853e-01 -1.079663803500725994e+00 1.808854677201385641e+01
-2.622488800674641407e+00 -5.791667086613416782e-01 1.369200065486079154e+01
-7.764171267986485603e+00 -2.122399146003273174e+00 1.477399371259483019e+01
-3.492225969934510843e+00 4.702344232548870906e+00 1.742172631274289785e+01
-1.815809222363733877e+00 8.965556027311183396e-01 1.275675507562608146e+01
-2.216240631673824346e+00 -3.217316343271386936e-01 1.314640445691832582e+01
-3.780556376560916476e+00 4.286425048498209378e+00 1.614348716031673803e+01
-7.187020778006420585e+00 -2.776343453832212482e+00 1.508446763473929764e+01
-4.887027143745354962e+00 5.084855100719299692e+00 1.740845044481562098e+01
-4.429529127068822625e+00 1.914149566552843851e+00 1.820036403678329862e+01
-5.813826045461441439e+00 1.732638818022990357e+00 1.821488269644495261e+01
-8.512759538725912734e+00 -1.247190314359604146e+00 1.706159794560759480e+01
-5.638167910240191816e+00 -1.004128335049244924e+00 1.491703735587689295e+01
-5.503172363652504728e+00 -1.963825131903798482e+00 1.598818419851038186e+01
-1.397889838545693486e+00 5.903560812832059357e-02 1.306468573357113172e+01
-1.996685953719640194e-02 -3.811728723238931860e+00 1.706298981756759758e+01
-8.276804302190075902e+00 -4.431510363604673208e-01 1.511148609504562756e+01
-1.999402019767754446e+00 -1.653878392304250600e+00 1.828601745804768086e+01
-7.699533402854819020e-01 -3.818542431638431101e+00 1.604251034085400107e+01
-3.969296967305846024e+00 -6.374193076273673153e-01 1.854691646251824722e+01
-4.221891891062377056e+00 4.562939274824740821e+00 1.767903565315268821e+01
-8.284153719252296710e+00 1.966670856172105242e-01 1.475875262380055375e+01
-1.697029165698868525e+00 -3.648984230357195546e+00 1.815268621637652302e+01
-5.816187673753109522e+00 -1.243423161687695400e+00 1.511043410760861150e+01
-8.464708866249877062e+00 -1.851587952715033625e+00 1.729460107003408353e+01
-3.037359485690356742e+00 3.910752797697214511e+00 1.785186226907902807e+01
-3.601342085249262581e+00 -3.859413330728600489e+00 1.856629914941815684e+01
-6.431470180737472120e+00 4.869980513800736821e-02 1.296804141905091967e+01
1.856094587609507240e-01 5.849790199345672459e-01 1.638432309616994331e+01
-5.177397326681113299e+00 -1.455485246519216957e+00 1.568496623647129695e+01
-4.168037773924623934e+00 -4.618297208282723609e+00 1.765537905303760624e+01
-5.042666656548425941e+00 6.844473260328411968e-01 1.260808133589399915e+01
-7.403504382308203624e+00 -1.208343023366396762e+00 1.405746719106838327e+01
-7.682104780927653920e+00 8.332960595987943808e-01 1.311349267429466181e+01
-7.052307424840201122e+00 -2.747295401427296557e+00 1.511186476926965838e+01
-2.136262680490847554e+00 1.723049361610364372e+00 1.328174839537071961e+01
1.685028019370451990e-01 5.961176741486928776e-01 1.674588144638195786e+01
-6.947447004668969583e+00 -2.244550283380726707e+00 1.464738285153543274e+01
-6.090189719359240250e-02 3.722336884568140936e-01 1.735761153466908979e+01
-6.409769234649274949e+00 -1.685156342619015035e+00 1.867775764111848247e+01
-3.230790364391193048e+00 3.411802336164407645e+00 1.482573692925036113e+01
-6.015885277867266900e+00 -1.004744448270672663e+00 1.454743979028581435e+01
-6.059659906573022781e-02 -3.966011543258954886e-01 1.746824169489082124e+01
-7.402898475080077034e+00 -4.190788533564276719e+00 1.724160947477963646e+01
-6.000579381233672294e+00 -3.840274303078912599e+00 1.700467488098774282e+01
-9.834596202090353234e-01 -4.201223668958289359e+00 1.682380295618028043e+01
-2.715915160812502060e-01 -8.350691493825277423e-01 1.777305827510765823e+01
-8.326738118355999418e+00 -1.417829903800705393e+00 1.552631666279236100e+01
-3.812683176583328226e+00 1.945035418017673212e+00 1.817588577651987691e+01
-5.425777105564933755e+00 -1.009676634681423213e+00 1.860889904126649697e+01
-5.804694526766287943e+00 1.695450398101664202e+00 1.180818132351978988e+01
-7.430147298531926126e+00 -1.892310104926262726e+00 1.855504500350617292e+01
-1.052628274317489732e+00 -2.629875460395284748e+00 1.459869951551479517e+01
-5.626153024130599256e+00 -2.956774491321719989e+00 1.655021722183525412e+01
-4.588508933892560648e+00 -2.078399763154044511e+00 1.875317233108911097e+01
-2.600518827241721898e+00 -9.645933816260112703e-01 1.492029630203861501e+01
-8.317042469482272438e+00 -2.574912349707094261e+00 1.648878080424378112e+01
-1.979800707321772268e+00 1.122603903000695347e+00 1.274761071272295965e+01
-6.179559443363059401e+00 -1.651116998776784861e+00 1.868302473056856883e+01
-4.032786244182299251e-01 -2.811262847869043568e+00 1.487276382121095963e+01
-6.591983599427244656e+00 -1.699639398869893681e+00 1.866336074060357930e+01
1.236344162068941516e-01 -3.552631036086274285e+00 1.631038068967636434e+01
-2.125300616391634367e+00 7.978410826727005967e-02 1.823939317014515638e+01
-7.012409180899823902e+00 -1.274403426496744540e+00 1.853546845744840255e+01
-5.784785301362183496e+00 -2.629965191679808356e-01 1.851825458652264444e+01
-7.793495480930261010e+00 -1.266671379306577361e+00 1.828239214828475667e+01
-3.613106690741930915e+00 -3.078480188743887958e+00 1.658834438620277041e+01
1.387554952745367887e-01 -2.325268066046740856e+00 1.532997337147618566e+01
-7.493646191761461850e+00 2.922866255791773948e+00 1.722241224788901803e+01
-2.945727692605712100e+00 1.250978306239838855e-01 1.293887349928748876e+01
-3.145050358141862068e-01 3.809091135605212064e-01 1.766164733644941975e+01
-5.173750709733581310e+00 -1.122137707830364040e+00 1.862927039674669771e+01
-3.353607092834164582e+00 -4.514489199761200666e+00 1.747652761154994749e+01
-6.989350201730723633e+00 1.596938967058572967e+00 1.320523731189052086e+01
-8.130935545351670513e+00 -1.321611788920344255e+00 1.803914509320009074e+01
-5.246914833000213108e+00 2.931281960587814428e+00 1.312879804539005590e+01
-6.579111412454606622e+00 -1.244911132973797852e+00 1.409023622350167670e+01
-8.240049920557643404e+00 -1.481040760604258821e+00 1.793261996046084761e+01
-4.230854600225542939e+00 -1.574650354912859207e+00 1.598486782070264667e+01
-6.363579018115607333e+00 2.346949676830308640e+00 1.328830158070942247e+01
-7.902827472036022538e-01 -2.322205903781344727e+00 1.434114185361747218e+01
-8.177252252724407811e+00 -3.060376133363866380e+00 1.667208933537955318e+01
-6.446633288467347178e+00 -1.366750084364743767e+00 1.432009826093481308e+01
-4.625669594010489050e+00 4.287187802345649446e-01 1.315412472540923261e+01
-4.415482522856323477e+00 -7.642613197777958778e-02 1.850388551355155187e+01
-3.005919192176744303e+00 1.521297008045625176e+00 1.172240773070729603e+01
-4.567091505655650252e+00 -3.291839955990483624e+00 1.877258617141632158e+01
-6.165857101538627205e+00 -2.278100001865770441e+00 1.586298927646417667e+01
-5.567798969232016226e+00 -4.806392398323764859e+00 1.782548085916612024e+01
-8.301591717529896997e+00 -2.871980688172298013e+00 1.745807693171318675e+01
-4.226966229319891966e+00 6.850218595303814162e-01 1.271891803075208571e+01
-1.837059181162711941e+00 -1.474861191892402612e-01 1.307902150118643902e+01
-5.928282181951300522e+00 -8.673876957084181161e-01 1.449103502574303803e+01
-7.478082360870405232e+00 1.695245335934852271e+00 1.395108560913752882e+01
-6.991814110237929647e+00 2.978626432202517549e+00 1.502033895557785570e+01
-5.454511491443430060e+00 6.503747790933722683e-02 1.338320810956874851e+01
-7.619824055016413134e+00 -1.085620961485483704e+00 1.832345893202272435e+01
-5.200566679515092439e+00 2.060209615555613105e+00 1.818675019710908458e+01
-6.128225967136562424e+00 -2.023880980600203383e+00 1.566776510573821923e+01
-3.606520788294817592e+00 1.929361035515765543e+00 1.817468630866200385e+01
-6.196167711503752784e+00 -4.571471051841044186e+00 1.746504866266937483e+01
-4.839487818165975064e+00 3.250717440149421211e+00 1.367588833850172847e+01
2.879553967327321273e-01 -5.488977488797691651e-02 1.577441278532940316e+01
-4.601064277038677375e+00 2.143464675928536511e+00 1.817385178122874834e+01
-4.212977400720824050e+00 7.516129473764103786e-01 1.259023155211169609e+01
-5.842556921426060867e+00 -7.338861683284236825e-01 1.438524574596375061e+01
-3.236162838090044236e+00 -3.247323037484336261e+00 1.659992732512390745e+01
-3.015862135353508222e+00 2.506151408940505476e+00 1.338719445172401379e+01
-6.182809473147045765e+00 -3.082874353045503280e-01 1.850768036291758278e+01
-8.423134076860126385e+00 9.752116413852907062e-01 1.556650587095725768e+01
-6.397587999893131538e+00 -1.616325657967159879e+00 1.467734863795926259e+01
-8.549035510196899779e+00 -1.203833068326609634e-02 1.635366377449626896e+01
-6.969694091983235751e+00 7.530459445755393055e-01 1.815959815195081717e+01
-7.210410191815227243e+00 -1.802441871583964295e+00 1.430810104905518898e+01
-5.819845750381043459e+00 -8.064592636098242284e-01 1.451537395696228572e+01
-4.579081879359105933e+00 -4.575399949891084894e+00 1.765709099770795376e+01
-1.399593678006990638e+00 -1.040826722740239574e-01 1.314030108169503563e+01
2.918529448038329477e-01 -6.746711190278069648e-01 1.600534327044805138e+01
-4.836687724688307988e+00 2.750644444804314581e+00 1.809536100160772065e+01
5.800220707864212066e-02 -8.369832325875976586e-01 1.729059747590392959e+01
-6.822740575522348472e+00 -1.175007625575714032e+00 1.393133252906236663e+01
-1.168446352542578115e+00 -1.686951344695319932e-01 1.329468197139894414e+01
9.535731606693706452e-02 5.088177516984002668e-01 1.599215790547371796e+01
-2.464895646227159176e+00 1.596031356076796914e+00 1.245849492468084208e+01
-4.228446810793661470e+00 5.810538763621682090e-01 1.292223192462655135e+01
-7.891578557869078914e-01 -4.097948955042038044e+00 1.657342615740111569e+01
-8.242916381374243429e+00 -2.851569535233000163e+00 1.668876233956660116e+01
-8.215350159462490254e+00 -1.258950242025753674e+00 1.790723333479692059e+01
-2.406674848690795621e+00 -2.013635697415149917e+00 1.588151911299971175e+01
1.893238300289584730e-02 -4.380928207351442727e-01 1.733217093141477960e+01
-8.032004742924755192e+00 -2.856826020158781620e+00 1.567689821406771244e+01
-8.286455098192417879e+00 -2.679371012509278671e+00 1.633929709789589424e+01
4.256123696542890578e-02 -1.005860813685949484e+00 1.735878657482803789e+01
-7.318069744745134386e+00 3.651470870965830784e+00 1.697843003757710534e+01
-4.016558246419855038e+00 -4.627235435120394591e+00 1.814442009667313727e+01
-6.399623801541149071e+00 -1.879658305052935408e+00 1.871279900925737394e+01
-2.048207624286318751e+00 1.027495011205469932e+00 1.255746342503588409e+01
-8.535271299199086670e+00 1.532902460427262858e-01 1.634959166309760548e+01
-6.940654212929056932e+00 3.498562329122991255e+00 1.571407170020295752e+01
-2.580214686820073933e+00 -4.391905177758301804e+00 1.797159241414038178e+01
-8.001331867414968713e+00 -3.459480399199567291e+00 1.647036529382324943e+01
-7.403600954068087603e+00 -1.713680210741175935e+00 1.852190582161837540e+01
-4.575878543223994122e+00 -4.470574247892978192e+00 1.828179701266802226e+01
-8.124504548349525734e+00 1.185669338019987862e+00 1.444552928987076257e+01
-7.811355037758660913e+00 -1.708456200781396150e+00 1.833706095146352055e+01
-6.314120994950498833e+00 -3.018764799153043743e+00 1.638536055977205308e+01
-7.192977911040916439e+00 -9.486461440317284222e-01 1.378579018253373789e+01
2.321262272122782688e-01 -3.870631629243472815e-01 1.554246718554817619e+01
-7.979982793799376140e+00 -1.873201144787759453e+00 1.824487446705030180e+01
-5.016855547611035249e+00 3.988145692040252044e+00 1.524318561725589660e+01
-8.059037270769197292e+00 -1.469836318612185222e+00 1.815420492457375445e+01
-2.403364432452530508e+00 -2.286419692088150324e+00 1.841515955047928799e+01
-8.153082523467796605e+00 -1.539739227703519342e+00 1.807371116445103354e+01
-7.042962363528298297e+00 1.534973836894941046e+00 1.794417395243514335e+01
-8.319023515627819165e+00 -1.687974063202207775e+00 1.785616813234157263e+01
-7.585688096438304662e+00 2.377116818669122722e+00 1.735249675327829522e+01
-3.671914005505053424e+00 -4.298893155856513104e+00 1.715879310374909750e+01
-3.632459369558939777e+00 -3.865515474934956508e+00 1.677431913914634265e+01
3.120188039196839513e-01 -2.216771042037430028e+00 1.627271457333992544e+01
-9.962222092281864949e-01 -9.610188644399948465e-01 1.368560589763553281e+01
-8.322750300813096302e+00 -1.823684717922472887e+00 1.784238153974759200e+01
-6.102207354154167263e+00 3.678439174256451061e+00 1.514090576743593175e+01
-1.513787815086235389e+00 1.749761506720236781e+00 1.463456223708765691e+01
-5.638496627895729141e+00 3.933132755935256242e+00 1.526465810397128564e+01
-2.413902567055126624e+00 1.737023133431954580e+00 1.815666615584988364e+01
-1.990288450006894028e-01 -4.095836008226699576e+00 1.683974872519382870e+01
-7.462139209997966205e+00 1.735792441917956896e+00 1.762768608663063929e+01
-8.396376926295538112e+00 -1.615581988758949539e+00 1.571330904563581043e+01
-3.373163365462240826e+00 -4.522310543773295777e+00 1.812167656887533695e+01
-2.966457036386033863e+00 -2.882069649310567083e+00 1.856072862160327475e+01
-7.626564169541715899e+00 -1.770684564087690926e+00 1.447103885471932472e+01
-7.419092580861355479e+00 -1.415910314963242156e+00 1.414018441107123181e+01
-6.023131295961692722e+00 -2.537280520424245012e+00 1.615960083111421852e+01
-2.790421575992658720e+00 -2.029941323484140803e+00 1.604077110498973013e+01
-6.361633559608775634e+00 -3.301694306241065302e+00 1.659108502207828195e+01
-8.280883979602467804e+00 1.549128180435397795e+00 1.638230954887648494e+01
-1.404467956708329135e+00 -3.969260080096447485e+00 1.651023266311359805e+01
-8.465470390319667970e+00 -1.198489142404998820e+00 1.587205322123212170e+01
-7.408846286780766732e+00 -3.005632126315224362e+00 1.529542123679037502e+01
-2.690770021510812349e+00 2.372874357972192705e+00 1.363005328137241889e+01
-3.560904419485361405e+00 -1.535787073232889544e+00 1.861337221586519775e+01
-9.376302969478389482e-02 -1.009770901446437330e+00 1.469858241630789308e+01
-6.798635584288580169e+00 -1.411180245607155825e+00 1.411130617582430347e+01
-6.014747485340139477e+00 -2.407222982515718535e+00 1.606658901622640911e+01
-5.248409302079616090e+00 2.139090125631943451e+00 1.178084109880883545e+01
-5.694286321914212579e-01 -1.149879544827408173e+00 1.406511709123584808e+01
-1.774418833742667623e+00 -4.381759961134618742e+00 1.764904512865172137e+01
-6.644816245782441122e+00 -1.368085124402237396e+00 1.414511040011711174e+01
-4.441196816659012114e+00 3.729165190216354175e-01 1.332795457136101192e+01
-8.415556097154361481e+00 -2.238432810020295705e+00 1.749463252580591188e+01
-2.338211179479543045e+00 -9.111286801216184061e-01 1.371871929065139994e+01
-6.043787581988518953e-01 -3.939464496441395180e+00 1.627062801768795453e+01
-6.084893871697217627e+00 1.908590006246120296e+00 1.234049033151742236e+01
-6.618479353479418847e+00 -1.559785098433294381e+00 1.432169965484721530e+01
1.896249938323084083e-01 -2.393230533010006322e+00 1.547124160363152612e+01
-2.280729710563961898e+00 -1.408126705072475060e+00 1.490131568923557381e+01
-6.548214894936822184e+00 -1.644014939058311198e+00 1.446996605967449057e+01
-6.417263547113802424e+00 -1.535621042187845786e+00 1.453763726785764732e+01
-8.482201687729178374e-01 -4.147570004314362180e+00 1.668437271246520481e+01
-7.876419379547389354e+00 -1.067959503422323042e+00 1.819870710909247435e+01
-1.033899753919447662e+00 -3.094175248842574000e+00 1.809869327118057925e+01
-2.492589109443768547e-01 1.522002001143838434e+00 1.698568383937040238e+01
-7.643428024586413905e+00 -9.760451375577683386e-01 1.412937501942965923e+01
-6.019350962998201382e+00 -1.235504099866746808e+00 1.491500591410718357e+01
-5.815149841033450784e+00 2.166427289597527395e+00 1.814259473650690069e+01
-5.991076797064641468e+00 -1.079274422533871514e+00 1.473075028602347913e+01
-5.377020422120697418e+00 -4.637604966344365920e+00 1.839637108798356735e+01
-5.800074153066293370e+00 -1.041267554218148428e+00 1.486475463529455965e+01
-1.671138850542023824e-01 -3.023741017761826466e+00 1.787749378092487973e+01
-5.207982276838170499e+00 -3.238397520913575134e-01 1.418408090837805702e+01
-2.411962874098019238e+00 -3.624575425323275368e+00 1.663823179877416436e+01
-1.613626821432481595e+00 -6.451522347831394333e-01 1.820092359128454262e+01
1.697809034643691928e-01 4.159046656534609032e-01 1.675377912340790942e+01
-1.824294656456270314e+00 -1.815222975548376194e+00 1.405029477448765363e+01
1.944947393142217873e-01 -3.174484473530067685e+00 1.689062242902508615e+01
-1.600430791804956954e+00 -2.886984289172346840e-01 1.319974268002478368e+01
-6.588301034314679505e+00 1.523383835833200250e-01 1.290041543908824195e+01
-1.784865773523987453e+00 3.221713783708747947e+00 1.679851263626486713e+01
-9.422959348044535055e-01 -1.236444186235905240e+00 1.382708880887201985e+01
-8.341333805118035016e+00 1.335806124874285183e+00 1.638246704914904228e+01
2.532360925071813762e-01 -2.999225289760387270e+00 1.645466932367843782e+01
-2.218248310474118856e+00 -9.980682516002061799e-01 1.367418467670989202e+01
-5.393723164611583520e+00 -4.267996543809214671e+00 1.861569228551777400e+01
-5.616458079424585748e+00 -2.239098759782429671e-01 1.372611206494723035e+01
-1.616093128386990596e-01 -3.407958129989199225e-01 1.454894949082871847e+01
-7.207257794971805076e+00 -3.236211273835149171e+00 1.565232449034508733e+01
-7.561597356279029292e+00 6.662618323974376366e-01 1.786874283590281465e+01
-8.516693256689379155e+00 6.095058139903044570e-01 1.587953400437233853e+01
-2.014056307488984121e+00 -7.925122168315428262e-01 1.344744115756619607e+01
-1.398768867476972488e+00 -3.839148406813152059e-01 1.328508203485843353e+01
1.519940601014620474e-01 -4.581963657639798182e-03 1.692228033776579821e+01
-6.814890609272119981e+00 -9.701305860754743104e-01 1.378775790938152568e+01
-2.388225036527454215e+00 -4.255495030633166031e+00 1.803192072940519353e+01
-7.075779460085840356e+00 2.846870183005277166e+00 1.496904839404822241e+01
-1.383401371516052913e+00 -4.357267775795348186e+00 1.764812804794519963e+01
1.539874119747956793e-01 -2.032399835219930451e-01 1.695188143141167814e+01
-4.235408827627063388e+00 5.224582231320018533e-01 1.843370328616475717e+01
-4.777440813987895218e+00 -3.280452611593733359e+00 1.679117461807451406e+01
-6.627003787717835159e+00 2.898496729906193004e+00 1.783308034097039041e+01
-1.610711522242716631e+00 2.604335507261662741e+00 1.594423834703768961e+01
-3.623435523936573421e+00 -2.635212814825023120e+00 1.645368706908099199e+01
-6.804287562823641444e+00 -3.859395308180469275e+00 1.863068211666671914e+01
-8.148625057792886039e+00 -3.013685325504955603e+00 1.612993436003148418e+01
-5.860212886231592755e-01 -2.492137543214618223e+00 1.812245025451186820e+01
-2.597369820274974650e+00 -4.476848016558724552e+00 1.783649909483899165e+01
-3.207592369986147496e+00 3.671643145443796108e+00 1.537423188270948060e+01
2.561922789294007741e-01 -4.332860847550594752e-01 1.647875073888878461e+01
-5.771383371377558191e+00 -3.660594280826645619e+00 1.690901385498550269e+01
-7.736054206641668429e+00 -3.677312619030888463e+00 1.824083268244079648e+01
-6.001884778069950244e-01 -4.293778650821333365e+00 1.726881129823411953e+01
-4.558370631518248395e+00 -1.397845246275394304e+00 1.583867352684455909e+01
-5.008504557793038714e+00 -3.671473520236474553e+00 1.872494267328565343e+01
-5.972112728791876712e+00 -3.642474043877494516e+00 1.690459528503717479e+01
1.701996139449608592e-01 -5.813139714033142003e-01 1.531879058086387602e+01
-5.833632741998437510e+00 2.819436634781166351e+00 1.340029090285989355e+01
-7.843083537840286112e+00 -2.058927561308676157e+00 1.835185802071120520e+01
-6.168920308882849035e+00 2.607842465349656802e+00 1.340010005943832994e+01
-8.083515491941460240e+00 -1.678533165737963628e+00 1.816122700403725787e+01
-3.616137574555332801e+00 -1.092189892136681717e+00 1.855673899873657007e+01
-1.854420572646919840e+00 -6.204011249110154003e-01 1.822901537612582956e+01
-4.599705078601338037e+00 4.088555002772942260e+00 1.555812481588018414e+01
-2.832886549685479149e+00 1.057979961361208421e+00 1.218115823716052404e+01
-7.611080264788866678e+00 -1.966276502418130567e+00 1.449603095522893170e+01
-6.174190429106915623e+00 2.765344230636979539e+00 1.366005733605997108e+01
-7.184401003948729603e+00 -2.143615968982985454e+00 1.452488212860339445e+01
-7.019985620416741234e+00 -4.084182132603504378e+00 1.850514197450553411e+01
-2.522501986729193568e+00 4.072400342726639977e+00 1.745788915269117325e+01
-1.841784620554406171e+00 2.449145948626580416e-01 1.284928570914583901e+01
-1.103114410965561065e-01 -3.451720520049449625e+00 1.766670449889065964e+01
-6.618454875994971509e+00 -3.066573128875975662e+00 1.878777424720119882e+01
-5.574197791725333140e+00 -3.421067705832127048e-01 1.398453490743411010e+01
-2.204728650280120217e+00 -1.994828397822394628e+00 1.567552564785830782e+01
-2.410506692583401556e+00 2.791378017337203254e-01 1.275116359817324962e+01
-7.869823041532987062e+00 -5.983576427551411392e-01 1.411350458365489402e+01
-6.614899355620282861e+00 -1.787176060036244074e+00 1.453244934947058198e+01
-4.274196733976823204e+00 5.367948132470075073e-01 1.300666868161285805e+01
-7.882321321823559046e+00 -2.030904269056024614e+00 1.487281586037150305e+01
-2.331594570023453716e+00 -1.082734748814020431e+00 1.393703182688564368e+01
-5.672870132848878200e+00 4.561394067111060657e+00 1.751993701713058016e+01
-2.975985573525609107e-01 -1.274721781390616204e+00 1.440602661681226238e+01
-6.419532521367869116e+00 -4.350188083303038411e+00 1.853040734800406142e+01
-4.008568023896192933e+00 -3.001895994979786320e-02 1.431852116598589220e+01
-2.028793067770448211e+00 -9.665245738640315665e-01 1.354405520174393018e+01
-3.541371539810419744e+00 -3.792928150997735504e+00 1.674065432412349708e+01
-1.838393749552784229e+00 -9.431600000495496960e-01 1.352193409736842966e+01
-4.670130883796771215e+00 -1.548255925963544444e+00 1.594737346698906322e+01
-6.010853531225318847e+00 -1.322123027035448262e+00 1.863246256832707104e+01
-4.799768786925143083e+00 1.560660454005003972e+00 1.136876973014845760e+01
-6.145620588625633651e+00 -1.836109177773228573e+00 1.545750012363175330e+01
1.089058508742368203e-01 -1.841242192628294694e+00 1.741280491695189170e+01
-1.232579608629477130e+00 -4.801193363264967817e-01 1.338641318303188399e+01
-7.374212537416590330e+00 -2.963264580277212845e-01 1.826392552152906745e+01
-6.609152847062639502e+00 5.267253780886622661e-01 1.831487029495369967e+01
-8.075351140282862161e+00 -2.902507677501602767e+00 1.582125209724644321e+01
-3.538236039564701674e-01 -3.468928084122649413e-01 1.429292008054279250e+01
-8.449689646558685041e+00 -6.545424620701632001e-01 1.712323381312764781e+01
-2.213132380863034321e+00 5.900710184394970526e-01 1.824453595010253792e+01
-5.222475994966394808e+00 -4.235680004545010036e+00 1.858863523051265076e+01
-3.344248764633546589e+00 9.752889755751947831e-04 1.842138093197368676e+01
-8.438030414686899405e+00 -1.029633607819267382e+00 1.572099689928139554e+01
-7.591526424339656742e+00 -1.255953096770095589e+00 1.836525242356371024e+01
-2.078415202790877103e+00 -1.765761671346005812e+00 1.430581354572873920e+01
-3.386346771744805029e+00 -4.009613136408098910e+00 1.685409852871327274e+01
-1.027177032591571892e+00 -5.172207849130308066e-01 1.350043784131755586e+01
-8.098764337382668543e+00 -1.891613167726454714e+00 1.816092386264887182e+01
2.353338873523316277e-01 1.971909100600022779e-01 1.591422220396698606e+01
-4.986730802664947504e+00 -4.714105022479000429e-01 1.855679056789136183e+01
-2.305978879909313051e+00 1.789194692234893136e+00 1.305787030162507989e+01
2.728624141995702468e-01 1.967507373582914609e-01 1.616636947601694629e+01
-7.435187458571966168e+00 -2.472250463405240239e+00 1.482114361956883641e+01
-2.483172152987520143e+00 2.985240349603974774e+00 1.503963381932607746e+01
-8.284281002353212742e+00 -2.650519935488675038e+00 1.608198239597316359e+01
-5.830771334793150018e-01 -3.869899941335083415e+00 1.787405658407924136e+01
-3.779646086620561896e+00 4.019839331749793243e-01 1.315964805230945700e+01
-1.577203323589309036e+00 6.606518291516987329e-01 1.291393481788502839e+01
2.622090774543683334e-01 1.475786590724886826e-02 1.632303536911891229e+01
-1.898406589164436387e-02 -2.584581769922102978e+00 1.507713977950672302e+01
-1.781431400535829823e+00 2.246963405377024436e+00 1.496554594185185039e+01
-8.381345102177347073e+00 -2.474961240244896832e+00 1.727715963958868173e+01
-2.594026040222191742e+00 3.360886080827568012e+00 1.796272172365161168e+01
2.099053254711711336e-01 -3.785308198768317922e-01 1.674236702791427689e+01
-4.434386217938403263e+00 -1.006364496829585287e+00 1.548161799535365901e+01
-6.600410627804754071e+00 2.538096299338378881e+00 1.793324787326052672e+01
-7.983569097180017948e+00 -1.225821555883025882e+00 1.469567861533442255e+01
-2.050994181001699612e-01 -2.244265262224088175e+00 1.792345783318744878e+01
-5.382952832742801341e+00 1.686482424206841912e+00 1.143960986169467020e+01
2.407890816381650922e-01 -1.445634664797383007e+00 1.688810939766592867e+01
-8.586602635034914499e+00 -2.241391025446580199e-01 1.593885990557306087e+01
-7.435644082137080169e+00 -3.567258215269371480e+00 1.607817898078936736e+01
-1.824471367670717825e+00 1.556311412002105099e+00 1.811618810207143326e+01
2.301061026334332293e-01 -7.910761226880094199e-01 1.550908438028605474e+01
-7.424814618537419975e+00 -1.090465998505466105e+00 1.839651878274942476e+01
-6.024918187038246220e-01 -2.353316500344909967e-01 1.796031006043320843e+01
-7.900448907809973775e-01 -4.321202129303731709e+00 1.748909753588426241e+01
-2.153656324440974767e+00 -4.313123889247515663e+00 1.791291158267558359e+01
-5.826348657015125276e+00 5.066148851512358497e+00 1.725651382780113607e+01
-5.023022147130213888e+00 9.703428252543971899e-02 1.357757913807994044e+01
-3.034721420739264097e+00 -4.535207524694137682e+00 1.759722993222074905e+01
-3.604211726163309981e-01 -2.024770059067840577e+00 1.802678709268016632e+01
-3.899707292626830579e-01 -2.248880459232819540e+00 1.805588207743708296e+01
2.250088042887782025e-01 4.244863069847719106e-01 1.631820972103569289e+01
-6.190575851506230798e+00 4.512558207619115080e+00 1.737832714222240327e+01
-2.578428296979835110e+00 -3.671940124761354340e+00 1.832598153514442885e+01
2.433880983419023092e-01 -1.406240025229567703e+00 1.550461583645125785e+01
-2.132052778505058477e+00 2.511187684668688469e+00 1.478758664482657537e+01
-2.179178828655954803e+00 -2.459498180700292025e+00 1.835943224310706512e+01
-5.212021534196290773e+00 -3.875526766641530951e+00 1.870885965673080875e+01
-1.623430388612799868e+00 -1.595297626224773557e+00 1.386067102777245452e+01
-4.032520797405626745e+00 3.858242191056802106e+00 1.521584267493072673e+01
-7.153263802625559054e-01 -1.531480617773099406e-01 1.379686575225132117e+01
-4.210960008051611858e+00 -1.845265788404406804e+00 1.614961896312973977e+01
-8.370250973187777888e+00 -1.483771352425060641e+00 1.769829024498794467e+01
-3.634481298077573808e+00 1.527676686795875316e+00 1.824039899091538786e+01
-2.831424802411997899e+00 4.183378849649114883e+00 1.702825351848520086e+01
-5.394449324397049494e+00 5.088321154452062345e+00 1.737535290407360833e+01
-6.547693899788023408e+00 -2.921670513650630241e+00 1.602202022265797154e+01
-6.786749513689244395e+00 -8.024780455832141168e-01 1.366844867115342765e+01
-7.225752862758606732e+00 -1.921597677344790700e+00 1.863359883948147910e+01
-8.233710543511782998e-01 -1.962629162739482735e+00 1.413377401330802741e+01
-7.934150173743205414e+00 -3.008807937481143391e+00 1.569513032261465924e+01
-3.696034049060206605e+00 2.014878699422794295e+00 1.164046121414612855e+01
-9.585990979614040786e-01 2.194258918715679130e+00 1.658471530737692490e+01
-5.054642943379326070e+00 -5.142455865214773381e-01 1.457113277093290549e+01
-7.450856772381898807e+00 -2.075596880536479283e+00 1.858128308116860694e+01
-8.224322670623307019e+00 1.752732489695261631e+00 1.620234252879736658e+01
-5.568189675418101281e+00 -4.328476625123879096e+00 1.718243093857169868e+01
-4.621541883470238865e+00 1.553289007028176627e+00 1.137996577091011829e+01
-3.393969139093000909e+00 -4.615995450710093095e+00 1.783583423474400576e+01
-8.306689096872167610e+00 -2.319433429923094980e+00 1.784486841296632775e+01
-7.737790274488202336e+00 -1.801026593568034295e+00 1.455537207234861796e+01
-5.394448136865621635e+00 2.247310490286614559e+00 1.202620479344210480e+01
-5.810796256806780580e-01 -3.036821519921249823e+00 1.807023457053284687e+01
-8.241802604349020456e+00 -2.833492891616587350e+00 1.645439557674463771e+01
-4.110131670605633225e+00 2.750636759421451472e-01 1.845207848706265708e+01
-5.870110477804383109e+00 4.298338732937453166e+00 1.757077781475403810e+01
-8.086106771235556323e+00 -3.323173322185727141e+00 1.661750411588261755e+01
-7.790240808382552729e+00 -3.014132409157876502e+00 1.551128867189812865e+01
-5.230383386997048412e+00 4.979219110163205286e+00 1.721635752447121348e+01
-6.422478823000382420e+00 -4.711073602633997215e-02 1.843433690387930568e+01
