-5.290928732390927536e+00 3.786107601101948439e-01 1.851827429785707579e+01
-6.412604862946865047e+00 4.638485506815034909e-01 1.866823323656570466e+01
-2.684138573696179364e+00 1.333251012533023805e-01 1.823715580956123006e+01
-7.016073402828271632e+00 7.884531970228194631e-01 1.860243330556286168e+01
-7.232831003670814773e+00 8.027730587988299860e-01 1.858262484617074506e+01
-2.270170216572203081e+00 -8.654093829796205561e-02 1.819871229072015240e+01
-2.280192612652739204e+00 6.816824057997974418e-01 1.288919965870920237e+01
-7.646597779618532265e+00 1.405949429613080559e+00 1.802129850392684318e+01
-7.764339958172518763e+00 1.515040835526139107e+00 1.786264234696128739e+01
-8.802809034998045234e+00 -3.575396556624359512e+00 1.758713035504791833e+01
-7.997814742593627457e+00 1.588739374990689956e+00 1.754741994905602809e+01
-8.021590013974277511e+00 1.715018939299679968e+00 1.742020394946725048e+01
-1.481066442486080215e+00 -2.178491909313256869e+00 1.541250604849386718e+01
-8.223900726385753757e+00 1.847396572668672299e+00 1.691402424951321137e+01
-8.318213759355385761e+00 1.765138953355810170e+00 1.671940827451550859e+01
-8.402389820614109439e+00 1.644372269327117664e+00 1.651876879160279543e+01
-8.512835910471377332e+00 1.384715732044317749e+00 1.649336408040534252e+01
-7.803063258089757426e+00 -2.396259160411671640e+00 1.679888852106422803e+01
-8.524159959448093460e+00 1.419813138360742188e+00 1.590518918325685860e+01
-6.527451128262593549e+00 3.596985166984965510e+00 1.525916238045512330e+01
-8.506002086757733949e+00 1.441219634438736685e+00 1.568873924983091683e+01
-7.564099346244865352e+00 2.857262207744048155e+00 1.554925593169473075e+01
-7.078675853938652729e+00 -2.212357429942382048e-01 1.404312930640404034e+01
-6.487804919773025425e+00 -3.904962232053194038e-02 1.401235086165815602e+01
-1.428132408193355296e+00 1.546908122540661568e+00 1.602124643938848436e+01
-1.939294678161910035e+00 8.254834245923623470e-01 1.373949922580856509e+01
-5.860410359968859062e+00 6.610359919834413178e-02 1.396544528178618805e+01
-6.160522347012005184e+00 4.476396526866272541e-01 1.862453468656246969e+01
-5.290897015622910260e+00 1.159147337575527348e-01 1.398019858258935955e+01
-9.127852609078782820e+00 -1.203361405687707997e+00 1.821531412692889518e+01
-3.926037559654841580e+00 -1.833869490710728911e-01 1.381009859252579020e+01
-4.846867812768707040e+00 1.683659010888633456e-01 1.854243692592702075e+01
-2.669175274528615027e+00 -6.020085343877406014e-01 1.383026445427881868e+01
-5.313376047491474630e+00 3.323159892849870012e+00 1.482410663303577536e+01
-2.143099903657552652e+00 2.779186841420742571e+00 1.676718855268903496e+01
-2.505391120190255450e+00 -6.408613192705588935e-01 1.386355130906528643e+01
-2.078098207117476726e+00 -6.010811628679557650e-01 1.384580959577455417e+01
-1.879541502148215137e+00 1.147112916218432921e-01 1.338665208277610219e+01
-3.916276253842704058e+00 3.218227837165130722e+00 1.510636525296283850e+01
-4.879085495519818849e+00 -2.460444037262908168e+00 1.905343763694928327e+01
-4.147557324122636224e+00 3.376599725413746977e+00 1.516508572279325762e+01
-1.867235029108865962e+00 -8.559767993682115828e-02 1.350618460082431938e+01
-1.765487416454094127e+00 1.194567001459282185e+00 1.472966493012835087e+01
-1.750407035108120679e+00 1.578233354829681745e-01 1.354916192427108967e+01
-8.181967059788791019e+00 5.436723490063215536e-01 1.827524151215143178e+01
-5.371445885543980836e+00 -2.488550575323445202e-01 1.488168468197963534e+01
-4.585160844932816282e+00 -3.394963772450694695e+00 1.690739257717294208e+01
-1.635284671624046560e+00 6.984126589751837866e-02 1.780479709034787561e+01
-2.335542853923857187e+00 5.984888389082958504e-01 1.798196867704267987e+01
-6.696628519921803857e+00 -2.784820692340003734e-01 1.454001231677911932e+01
-6.077155292632372863e+00 -3.865878895103056490e+00 1.917596242308304966e+01
-2.853775912930746728e+00 3.429122587426368107e-01 1.819929599223006988e+01
-3.215589017059754529e+00 5.422253144264450597e-01 1.817766707124182091e+01
-8.629100862225273616e+00 1.026163376225111667e+00 1.689404901388126490e+01
-6.669899181171906832e+00 -8.442120604490940261e-01 1.903722221452223096e+01
-3.061336092342440196e+00 5.384325577199458035e-01 1.816219001859185767e+01
-3.826606211657117562e+00 2.638153263878270649e-01 1.834025098137569643e+01
-5.081924971233923394e+00 3.408632256352197021e-01 1.851240501293678165e+01
-5.409261770450687123e+00 1.158556356739460225e-01 1.862197621249129043e+01
-5.851709470370218824e+00 -3.888570484184955545e-01 1.882209138797953329e+01
-7.945134909075148855e+00 -1.051775167861364935e+00 1.914350418458986525e+01
-6.666638300509608150e+00 1.772249114819003935e-01 1.880455043172400309e+01
-6.402139516013954257e+00 2.230246319739849881e+00 1.360556560477737520e+01
-7.228711168329928327e+00 3.713915034871054233e-01 1.878532614459219019e+01
-7.407949738096723635e+00 6.767312433711054620e-01 1.861639984078988164e+01
-2.343638710397744518e+00 -2.872229001871858145e+00 1.851844035813211775e+01
-7.485602764883113380e+00 1.262569743337247585e+00 1.822258363223296840e+01
-8.093422965613699560e+00 1.243855955285017245e+00 1.775133624612816163e+01
-8.439447913741441099e+00 1.466244705226255274e+00 1.673603783692416869e+01
-8.554223998148849262e+00 1.231150487025989060e+00 1.669640523158943068e+01
-1.165140685703555112e+00 -9.603898958375820527e-01 1.530801056733893262e+01
-8.432511526159165882e+00 1.390014646021334732e+00 1.694223849637965884e+01
-8.588766267166414892e+00 1.212319781594378920e+00 1.647093918500318210e+01
-3.379808052962844922e+00 -4.457515086344195687e+00 1.861594814844737300e+01
-8.400744721374248769e+00 1.487191754735503135e+00 1.523773494251648231e+01
-6.727784665840598421e+00 3.869856165862717745e+00 1.581447286590149304e+01
-7.450794580201047346e+00 -2.575326580187336512e-01 1.415298681218311572e+01
-6.969940101864367854e+00 -2.350803828749053470e-01 1.417794331330543400e+01
-6.899254122930734923e+00 -2.562175918412726849e-01 1.432312067831162494e+01
-1.515288567773158013e+00 -3.271094300429735924e+00 1.793815457407023928e+01
-6.050271769067419037e+00 -1.226474280474582068e-02 1.412632129905567524e+01
-5.507772017882373916e+00 -4.904125148438132076e-03 1.430911258681592813e+01
-4.696228504232281331e+00 -1.101610858985774266e-02 1.431650392305549246e+01
-4.083516734533067627e+00 -1.550972033782173631e-01 1.397286523260171975e+01
-2.649526426523102440e+00 -9.910789937637323188e-01 1.434454159695818021e+01
-3.497458681523953672e+00 -5.157950507040366395e-01 1.401088411025964575e+01
-3.046398251851174077e+00 -4.872237223832871500e-01 1.372399321420137852e+01
-1.900324244257418194e+00 -6.457509486797837761e-01 1.395705103461562402e+01
-1.650891336850763391e+00 -6.566860461550827477e-02 1.784901180102340135e+01
-3.687212632435143078e+00 -3.302667220995930464e+00 1.876037019228262182e+01
-2.222446080006525992e+00 3.492079092255684913e-01 1.802514538547313805e+01
-2.835641092679065611e+00 -7.851242372103522937e-02 1.832510894626229714e+01
-4.863945990288555343e+00 -2.962713049213582805e-01 1.869128403712893771e+01
-5.811436448575951097e+00 -5.355905660107547206e-01 1.884738965852371706e+01
-7.625735471399940124e+00 5.117863403716349513e-01 1.863964715455910692e+01
-7.670212965171828934e+00 6.136005927696486228e-01 1.856381449426233132e+01
-8.002424689603815366e+00 9.684522378247288898e-01 1.809452781366604057e+01
-7.180227128058279895e+00 -3.206439136825844471e+00 1.728058339691875034e+01
-8.039119504403540617e+00 7.267797773981643505e-01 1.826612492150298550e+01
-8.101339714666558223e+00 1.068295002893722589e+00 1.791152689752474458e+01
-2.465779937153857126e+00 -1.517355615866754270e+00 1.849379464971192988e+01
-8.150278404416878786e+00 1.120345542230085867e+00 1.780122774044232159e+01
-8.530695302954510950e+00 1.151434023435234488e+00 1.703730959254870925e+01
-8.075229208660822167e+00 -1.626649262039637223e-01 1.452084716248567986e+01
-8.696453256466609716e+00 9.413632910881104543e-01 1.667072846470829717e+01
-8.686028890641786404e+00 9.057141439896922996e-01 1.693877711327841951e+01
-8.745000717442547256e+00 8.379517409869485789e-01 1.649414271741436266e+01
-4.265071155028318017e+00 2.603864692130095637e+00 1.370177070656284002e+01
-8.793957468740636330e+00 6.617629075848971976e-01 1.620806860430791119e+01
-8.770543903562318278e+00 4.593735566839063922e-01 1.564437346596072587e+01
-6.109934092875421108e+00 -1.647047677352707629e-01 1.452948853268283358e+01
-5.312286953760183117e+00 -8.871299095819851210e-03 1.434277119678992563e+01
-3.855897359009222924e+00 -2.048756753564913158e+00 1.880428890137450537e+01
-4.933569399678746414e+00 -1.154829584458461067e-01 1.458970566768784494e+01
-4.688319349500013722e+00 -1.408194899034447833e-01 1.459809363639922708e+01
-4.364969969761730795e+00 -2.962361903451016243e-02 1.410734930017068223e+01
-1.310783761316717921e+00 -3.076310160818191086e+00 1.728439847794108886e+01
-4.082171480392895901e+00 -2.397950331222740150e-01 1.414605232785805100e+01
-3.493226791426307098e+00 -6.070024031786136476e-01 1.416700814905848915e+01
-3.238566975212596510e+00 -6.609118565439693338e-01 1.409284851987708009e+01
-3.070739649950592121e+00 -8.553148864677233565e-01 1.429478329434613215e+01
-8.819310001534834242e+00 -1.395348027067887520e-01 1.534745563549964942e+01
-7.489334255662486228e+00 -3.920670949723203069e+00 1.908341273423777551e+01
-2.751070886334575416e+00 -9.181823671516207153e-01 1.426972521614007405e+01
-1.835889951451118218e+00 -8.357466834966301716e-01 1.418164512441038028e+01
-4.484368064978298207e+00 -1.474488408285187235e+00 1.887956165755540638e+01
-1.626703944885528275e+00 -1.591289376486845764e-01 1.390190580832861400e+01
-2.405905304431251501e+00 -3.063982495804211670e+00 1.612191771825015252e+01
-1.512669652403663800e+00 -8.921056827926520105e-01 1.778862471866061412e+01
-1.803348120017995715e+00 -2.592930644502101645e-01 1.800914103841994773e+01
-2.031898721129985930e+00 -4.257524552714181398e-02 1.807980269444650645e+01
-1.966045002667078379e+00 1.938453779188989423e-01 1.797032371183630062e+01
-2.658028108464774331e+00 -2.456538152688291787e-01 1.833935819772510456e+01
-3.801044306900895897e+00 -6.444345963487524420e-01 1.858872243850153438e+01
-7.338132488469507386e+00 1.326303367109797238e+00 1.385591472210371933e+01
-5.830688108772765332e+00 -2.525226049024640318e-01 1.878184923567923192e+01
-5.447786327178116395e+00 -8.230450025541773407e-01 1.888894472412299308e+01
-5.829577662145791983e+00 -8.514852574805568119e-01 1.891997138038897219e+01
-9.455230505446893474e+00 -1.570715030996502559e+00 1.716975260006366000e+01
-7.081997474382307090e+00 -4.773457388406843194e-01 1.902203574126799879e+01
-7.273824486185536564e+00 -2.423733687836562845e-01 1.898530163838604068e+01
-7.454233114961178686e+00 2.566569981996887351e-01 1.881557992890394360e+01
-2.634166891372353714e+00 -2.425513404707110077e+00 1.858773451429413370e+01
-4.722995870662262341e+00 3.828044543835074087e+00 1.568228334949346703e+01
-7.822720855617342650e+00 3.347655731341274143e-01 1.865629282526403188e+01
-2.735665631920008334e+00 2.365819369427403007e+00 1.514124523003268052e+01
-8.265467429784392195e+00 8.468250243807662336e-01 1.793367560840436425e+01
-8.472000778012679589e+00 1.089012128602689700e+00 1.734272485632329364e+01
-7.063800987359971195e+00 -8.654355128656641138e-01 1.910079906024159868e+01
-1.257009576786743965e+00 -1.472877289175371862e+00 1.540368661721722532e+01
-8.679004890748833745e+00 8.693015941140260772e-01 1.708757155039688769e+01
-8.822400766346095935e+00 6.367855165729019440e-01 1.683610749178341592e+01
-3.436886993179002481e+00 -2.653911645402144970e+00 1.873037571524897515e+01
-1.273927726514421321e+00 3.741336046389431291e-01 1.703921280562574481e+01
-2.249386949791731816e+00 -2.860894702977914594e+00 1.592730032850636945e+01
-8.856270141624795755e+00 4.912311682207450292e-01 1.621845115426326345e+01
-1.142340639474493935e+00 8.143312133766886785e-01 1.632938901891812122e+01
-8.907229113377312046e+00 4.259552510301193862e-01 1.661142551427342795e+01
-4.846597092761246728e+00 -3.780201696857862448e+00 1.711477668066307700e+01
-8.860935135889270953e+00 4.105247058041234243e-01 1.604950808526970718e+01
-8.658187230785953759e+00 6.616252355253233741e-01 1.526580487241579220e+01
-8.703393233035336962e+00 2.766649947763051842e-01 1.518283539300652762e+01
-8.427242709035523305e+00 8.656363874604382502e-01 1.472780627357568051e+01
-8.304150920395672486e+00 1.053621903454112552e+00 1.470644983176391918e+01
-3.791316397043256181e+00 -8.238616016672536402e-01 1.482186199152055650e+01
-2.881417556295973625e+00 1.618902716229601690e+00 1.314954559520536037e+01
-5.710844365202697226e+00 -8.483963161643752748e-01 1.574321567017377532e+01
-1.482091204443863441e+00 1.604732651169109126e+00 1.596102365645660370e+01
-6.542119531764989837e+00 -7.601993691388863050e-01 1.554162774410276171e+01
-7.752774286067817044e+00 -1.018246476763132957e+00 1.518846685353668846e+01
-6.287289160120542952e+00 -6.499327484205309480e-01 1.546869373149969107e+01
-5.886917038120580870e+00 -2.861894550055358311e-01 1.491528607371125759e+01
-6.131688958936600820e+00 -4.138573339545573160e-01 1.511711624183666913e+01
-6.662087155304496910e+00 9.081481299796980711e-01 1.273145626775198735e+01
-7.858063209663653126e+00 -3.627790467137169017e+00 1.751960539359060220e+01
-4.693039141024953231e+00 -2.739688548318063299e-01 1.487108185501637081e+01
-4.577151605578425375e+00 -2.276147185787425198e-01 1.471141870280928288e+01
-6.384666360355396364e+00 -8.750697054656665363e-01 1.576199581367429658e+01
-4.326966221387026579e+00 -1.903379577314034954e-01 1.440452259720194661e+01
-3.773153238855515124e+00 -5.836607668865847476e-01 1.439893095721843252e+01
-6.819512646047355631e+00 1.469651451587909108e+00 1.335886257108295183e+01
-6.717462812801979766e+00 1.542923193472539811e+00 1.330650521960783550e+01
-3.682961667959181895e+00 -6.515349539881821750e-01 1.442089959420643197e+01
-7.652673602184023594e+00 -3.440632047351331213e+00 1.916022976491611729e+01
-3.523628414344655901e+00 1.850236792043246314e+00 1.256246228430678258e+01
-3.707005567365724730e+00 -7.482782361610422761e-01 1.459491725947880525e+01
-3.296851560272419768e+00 -8.278834771447862728e-01 1.436235003646802255e+01
-2.742552831456927631e+00 -1.332381310824337417e+00 1.467812660364955235e+01
-1.351209953424757693e+00 -3.222884570938793214e+00 1.744467669324995995e+01
-4.028753492736085740e+00 -3.672099091949075245e+00 1.880386257124663985e+01
-8.445446954871689726e+00 -3.256900055278146855e+00 1.899825097674165164e+01
-2.499065106990153939e+00 -1.347451973856523155e+00 1.465563415047744655e+01
-1.923772047259419082e+00 -1.238499759625746988e+00 1.455813824292634706e+01
-4.044378672523257556e+00 -1.663232848250467688e+00 1.880745998247876116e+01
-1.757521828838885414e+00 -6.812151024610102468e-01 1.411314688159270503e+01
-2.216411302704227371e+00 1.087721279263641705e+00 1.349190626911141777e+01
-1.692428193664456515e+00 -6.382488300888127242e-01 1.800666073808363876e+01
-2.869560896264367500e+00 -2.645529123179329645e+00 1.862820910702711075e+01
-4.260519846675220990e+00 -4.020241361175535211e+00 1.883130027429695730e+01
-1.975027502047954631e+00 -3.777171627849719715e-01 1.814172706285734193e+01
-2.655546834451977922e+00 -4.742423365651397549e-01 1.839098419026719000e+01
-8.938492926460023469e+00 -1.123985560257002025e-01 1.777879217507926768e+01
-3.008466771360521097e+00 -6.688871061000489782e-01 1.848585739106655268e+01
-3.709928325010218852e+00 -1.281902552012124774e+00 1.869473653566712557e+01
-2.420384074841146482e+00 -4.526590339746376923e-01 1.833498234764974910e+01
-5.460460026148496127e+00 -1.245461874813176717e+00 1.898866035745717085e+01
-4.710112751090946404e+00 3.299812431273944302e+00 1.486437907034442674e+01
-2.812583047555504923e+00 -1.430469369980702288e+00 1.855655534800784778e+01
-6.292737639081739331e+00 -1.254310280737485295e+00 1.903972852916891156e+01
-4.808080930249129636e+00 -4.014086458502161392e+00 1.724751749953367863e+01
-1.284413144044522781e+00 -2.852112465031051869e+00 1.717642970461444207e+01
-7.459138296432529458e+00 -6.370758335299675501e-01 1.908300257280951229e+01
-7.449403711893241464e+00 -1.998056116404617888e-01 1.897355193924653349e+01
-5.351351957906373968e+00 -3.266540942944190284e+00 1.700908795052917100e+01
-8.021815741308806480e+00 1.517707313746169961e-01 1.865787573924603748e+01
-2.090717938240270968e+00 2.208741924489788566e+00 1.588949332440572704e+01
-8.119810061854733974e+00 1.732618474064985814e-01 1.857501910909258669e+01
-8.445048613682558880e+00 8.432374688172410426e-01 1.770003583162390015e+01
-1.294864263081428213e+00 -9.106800771460641375e-01 1.716141210166139786e+01
-8.559816512776903252e+00 9.041639270158401409e-01 1.739749263792365497e+01
-8.656220521358932274e+00 8.037196431168469601e-01 1.728642704434498967e+01
-8.915315897308534687e+00 4.224281771236977900e-01 1.684410396585362690e+01
-7.142371492229629304e+00 -7.674309725125849635e-01 1.526164251747868406e+01
-8.904541849019489419e+00 -2.415664643030480008e+00 1.885400483166355201e+01
-6.766890881422043869e+00 -9.586127364873724410e-01 1.574669465756374365e+01
-6.181930654165435080e+00 -6.317275649237354962e-01 1.546944940368049259e+01
-6.147454075242679394e+00 -8.065842235301624585e-01 1.571229267636429938e+01
-3.454659457336049844e+00 -1.252929622119151709e+00 1.864705050359095395e+01
-5.918170539866155266e+00 -3.916542602858178457e-01 1.512835109738865924e+01
-5.531343704999436284e+00 -3.575304345147157781e-01 1.510385032947311146e+01
-5.083658341040882434e+00 -4.638816951145684486e-01 1.523864110580563391e+01
-4.149363272371787481e+00 -6.116246240252392052e-01 1.495424705801186605e+01
-3.966735392327088050e+00 -6.226584992874470981e-01 1.472092631846235378e+01
-6.433375300734544666e+00 -4.247406733543258817e+00 1.913326824337781318e+01
-3.970707918063868469e+00 -7.544944725528446305e-01 1.494651772348390040e+01
-3.825054477495515748e+00 -1.019756852542162973e+00 1.866840351416672661e+01
-2.905547096163056064e+00 -1.505159151687824881e+00 1.485688292836801594e+01
-7.893024354765966422e+00 -1.572524104058186989e+00 1.578159440715377571e+01
-2.341932665735648289e+00 -1.587996864056640423e+00 1.484318343090016867e+01
-1.636966350909576873e+00 -5.531444265376884717e-01 1.418490816551506839e+01
-4.973964101057899434e+00 -4.468543332253095635e+00 1.896734889686344872e+01
-1.433792088899195960e+00 -2.320479756117753978e-01 1.427918786390989681e+01
-1.015432871504209800e+00 -2.167488304902235874e-01 1.549862199154866005e+01
-1.666112084140019656e+00 -1.011844604982320650e+00 1.803943176691234385e+01
-3.318185328236276099e+00 3.063371403297120654e+00 1.568526623181077184e+01
-1.567037403253522587e+00 -1.258697665544054711e+00 1.790420841689506659e+01
-1.877176607774077688e+00 -8.219169075103651689e-01 1.818764008475550753e+01
-3.669446883531562786e+00 -4.731794589340045043e+00 1.824355132204766505e+01
-1.751685423196526203e+00 -1.026321727506618098e+00 1.811388375737285372e+01
-2.033833586667773030e+00 -8.563800958605256586e-01 1.826907127236007966e+01
-2.241557260743504809e+00 -1.024322333959539755e+00 1.837987966312466881e+01
-6.362910814964088502e+00 3.940074409450500248e+00 1.572189853262798209e+01
-3.600397257630415293e+00 -1.373262050323417416e+00 1.868861654640480907e+01
-3.886911086792894210e+00 -1.825459923240224214e+00 1.879147919419123269e+01
-5.296398209423326620e+00 -1.391487298018331042e+00 1.901049830682398323e+01
-5.875543558157235502e+00 -1.443691553705325648e+00 1.903688657310146937e+01
-6.065307733109049693e+00 -1.279862536731446676e+00 1.901724297227160321e+01
-5.379497454901855491e+00 2.809359497185383692e+00 1.770690628489930418e+01
-6.296404758897937270e+00 -1.475276477728025393e+00 1.907404204431443873e+01
-6.970625372437658562e+00 5.758568646962769488e-01 1.298375169556477715e+01
-8.014189987727730724e+00 -1.144154928703380869e-01 1.879237781372896876e+01
-8.232164758976633578e+00 -8.156080939908039174e-02 1.863434267417780177e+01
-8.598212316159912660e+00 1.654256783268097108e-01 1.810847489321205472e+01
-7.713726152186534790e+00 2.241923173006322045e+00 1.515211312224791840e+01
-8.578654603165098536e+00 5.108069950596614284e-01 1.782459943739347352e+01
-2.170280410983058683e+00 -2.622311021476946724e+00 1.847393774120461529e+01
-8.748426845588838319e+00 3.746475252153446678e-01 1.765867147578063623e+01
-7.034714108299612079e+00 8.539387461637295562e-01 1.312774091565371037e+01
-8.904831401787092204e+00 3.449819496710690436e-01 1.722513669312697004e+01
-4.612354041823346407e+00 4.148237212493172343e+00 1.632605104918328465e+01
-9.029045879446242040e+00 4.124779453100557713e-02 1.644238935984207473e+01
-2.347164249109503498e+00 -1.997718513845536892e+00 1.518389758057262640e+01
-8.960782053117995360e+00 -3.418939015854974284e-01 1.561832498548583459e+01
-8.509384640329587413e+00 5.848302130615318228e-02 1.483127329010874007e+01
-5.011193245219895509e+00 2.408988077449980114e+00 1.779949952447499584e+01
-4.124450640529993883e+00 3.889111756085288363e+00 1.627418741638345523e+01
-4.808959218314834416e+00 -1.218844514976480609e+00 1.587362533730893688e+01
-3.160139737491798773e+00 3.430255874841569241e+00 1.650263884333048736e+01
-6.887290298419905810e+00 7.207153479610437508e-01 1.289994492000606385e+01
-7.749949044213084726e+00 -6.170295186960523814e-01 1.459898913687520405e+01
-2.213460828803575531e+00 -3.078680101304008598e+00 1.611606024899024447e+01
-7.331401612717753480e+00 -6.571183876798036838e-01 1.493560038642644372e+01
-7.329902919473646250e+00 -8.931521405030875549e-01 1.531887468305824029e+01
-6.737264057329140243e+00 -1.109238503073548987e+00 1.595386626298389388e+01
-5.201988116997124045e+00 7.928447084990142280e-01 1.226146021899561589e+01
-5.762415570862922998e+00 -7.232234234638383885e-01 1.563236209897922180e+01
-5.742171297585590750e+00 -5.238767072476181452e-01 1.536641184555247008e+01
-4.928063982842803448e+00 -5.820825249081160724e-01 1.533758123683709584e+01
-4.729253786706038909e+00 -5.379545703673821455e-01 1.525074396898740048e+01
-3.668951714742592962e+00 -2.251480511931483353e+00 1.877104990225350889e+01
-3.465622714669445603e+00 -1.106358064511069772e+00 1.482168103637566503e+01
-1.806060078128465030e+00 -3.943587910856936052e+00 1.684834462048704751e+01
-2.733386901997976182e+00 -2.000807585044753534e+00 1.520055145796089846e+01
-2.488720097541404552e+00 -2.102644543732218985e+00 1.527289508895593428e+01
-2.144021820635280129e+00 -1.801761968429839378e+00 1.500342304677943162e+01
-1.443938673503680326e+00 -4.260077883503026186e-01 1.441999675211419429e+01
-1.064617328353356651e+00 4.867212224723904690e-02 1.491790579457266119e+01
-3.821062320479983399e+00 -3.947994460999057154e+00 1.700554899232738393e+01
-2.007202150717173783e+00 -1.247815010924064216e+00 1.831764779129420617e+01
-1.947544545415294870e+00 -1.384640440567964870e+00 1.830785851343460990e+01
-2.675529310477176903e+00 -1.247021978161372502e+00 1.851412035342560358e+01
-3.240369326000470007e+00 -1.875473352236468605e+00 1.867154041798477948e+01
-1.669394917978406001e+00 1.900458491128719896e+00 1.604452037076634241e+01
-4.926070020934942839e+00 -2.058605324279667137e+00 1.904587598020571448e+01
-5.024311623095370827e+00 -2.240350718464583668e+00 1.907531751122474617e+01
-5.208940608256705573e+00 -1.670172877658455013e+00 1.905157218250302265e+01
-5.293969106509087474e+00 -1.866120414303413133e+00 1.908320819981712191e+01
-5.081511420644045707e+00 -1.712041387498615119e+00 1.904332340081592889e+01
-6.851406979291695620e+00 -2.244891937584794217e+00 1.920621082580072425e+01
-7.515412810463756088e+00 -1.622473196596217360e+00 1.926976210904113884e+01
-8.143416588660857158e+00 -5.919551931234109388e-01 1.892017610825862306e+01
-8.408157279593050148e+00 -6.496825559451003818e-01 1.875651709451891236e+01
-8.834107064619054484e+00 8.463011236440554086e-03 1.787065948426136686e+01
-8.847363340873826587e+00 -1.980979583084828410e-01 1.802027065479443735e+01
-8.760377500620478486e+00 2.007965570371822994e-01 1.782174284019306754e+01
-8.588590191903328730e+00 -3.124473452137982443e-01 1.495589662871996239e+01
-7.482119208349260475e+00 -8.684267474478646331e-01 1.516213086036053426e+01
-6.833984881297688219e+00 -1.340918671000182139e+00 1.617078584327859403e+01
-6.570687233499461932e+00 -1.395411540542974782e+00 1.624052001850771632e+01
-5.118626530446294787e+00 -7.635925128688277885e-01 1.555044567746033835e+01
-4.940327078103706526e+00 -7.823923972262242232e-01 1.553157362399930008e+01
-4.706560152865567836e+00 -7.129995543894276366e-01 1.541396680600112035e+01
-8.945707565245141879e+00 -1.027616508975722542e+00 1.838433724974006367e+01
-4.066562945978699162e+00 -9.233912838282409830e-01 1.524622406881380954e+01
-8.678651092027262592e+00 -6.257390958589610364e-01 1.849521889293073684e+01
-3.314709636376187873e+00 -1.607589371569490444e+00 1.513835239666757104e+01
-3.790128381799053425e+00 -4.061485972226742014e+00 1.708234196770177959e+01
-2.307794684937984453e+00 -2.514660363562413625e+00 1.562010272154499546e+01
-1.375478971219484370e+00 -9.039693983251813059e-01 1.490117048590830962e+01
-1.492903510274589562e+00 -1.632163132260985527e+00 1.785686463289390247e+01
-3.574123863350332719e+00 -1.996098293771362719e+00 1.572325002729978394e+01
-1.956211806795868480e+00 -4.089042483531168060e+00 1.826125673067563326e+01
-1.579337872090497363e+00 -1.633672785635731595e+00 1.805608951316012423e+01
-3.109259194450010089e+00 3.476052104598083670e+00 1.663444009128500056e+01
-1.458799231880031577e+00 -1.802593847174095654e+00 1.785598504134623710e+01
-1.799539800184252414e+00 -1.489512443311446610e+00 1.825498171641469725e+01
-2.026461064634453635e+00 -1.675577837635871203e+00 1.837494304688544844e+01
-2.203569974067133952e+00 -1.698973884051726557e+00 1.843768364454884079e+01
-2.515584084702415790e+00 -1.869161256308829566e+00 1.853280231897249308e+01
-2.269836905283072692e+00 -1.888077750744865835e+00 1.847591319947323285e+01
-2.385364576632844180e+00 -1.839164805067561304e+00 1.850320340910572270e+01
-2.690733296952181330e+00 -2.028643990887713411e+00 1.857832059448492146e+01
-3.413694482328765378e+00 -2.042049002410051717e+00 1.871425084448994625e+01
-5.823360485720212587e+00 1.229428120820054593e+00 1.828011311323167831e+01
-7.662027181932663744e+00 -4.493302472583332374e+00 1.811464288824480917e+01
-4.460869037851177943e+00 -2.659940776454281952e+00 1.894997077465176005e+01
-3.893518221503334154e+00 -1.295453288197451203e+00 1.540957720179334700e+01
-4.894327842534049289e+00 -2.813819718354366284e+00 1.904608195683466931e+01
-3.290001720745734382e+00 2.426772752765220531e+00 1.429834508336848842e+01
-5.088126365848663291e+00 -2.406233202407684235e+00 1.909067781870268732e+01
-5.668211425830916639e+00 -2.240659104610336794e+00 1.913380176149657785e+01
-6.054849830140351052e+00 -2.268802131555941237e+00 1.913870768280817458e+01
-8.321548599853091588e+00 -8.458817562634756149e-01 1.891053068625154054e+01
-2.815119129431478573e+00 2.947637419328224428e+00 1.613551391450675254e+01
-8.962780078108147919e+00 -2.612704754054211431e-01 1.786274402837336339e+01
-8.905668135167745803e+00 5.295762162795192296e-02 1.767893100970419340e+01
-9.133092889922940216e+00 -2.168555273979350662e-01 1.703000044312042149e+01
-9.140155413050001343e+00 -7.307850566646683088e-01 1.601492725366661318e+01
-7.725867906512008609e+00 -1.090400516204781622e+00 1.529513745891348009e+01
-7.736715849689228541e+00 -1.198753390260737239e+00 1.542079437673019982e+01
-7.643193306230987361e+00 -1.253519550524006432e+00 1.557012812996453732e+01
-1.835548236886827222e+00 2.521545072530037235e+00 1.685057698474223287e+01
-5.120743418184031448e+00 3.298532504515858221e+00 1.480739372049966107e+01
-7.372311199049676134e+00 -1.434073444183398660e+00 1.605105801425280987e+01
-4.810327353446949061e+00 -3.645064910482938902e+00 1.898111678404231384e+01
-6.928339062306872798e+00 -1.445231966896524778e+00 1.624300366322818689e+01
-5.724524764311174962e+00 3.465020392369519087e+00 1.500587135016376550e+01
-6.542581681621421730e+00 -1.648176865721377338e+00 1.642666393952973891e+01
-4.769311981941566359e+00 -9.823863587979011491e-01 1.566792040405305642e+01
-4.644211650863850238e+00 -9.228964971655166938e-01 1.558519713092591985e+01
-3.578837217112771363e+00 -1.776766226698779372e+00 1.553334752696060406e+01
-3.379035266262638171e+00 -1.774555125699555758e+00 1.533366375426744810e+01
-2.738455568649820204e+00 -2.316470329700305086e+00 1.544894069637464185e+01
-7.977595991629751637e+00 -3.535305191523161028e+00 1.748017792365914147e+01
-2.550595834670883466e+00 -2.567282482712287095e+00 1.566512032127707954e+01
-4.927141593813068710e+00 -3.642687790163945838e+00 1.901193116522047433e+01
-2.614006264109956845e+00 -2.673673536237526793e+00 1.575773111818996597e+01
-2.162925033084277970e+00 -2.639151212329835072e+00 1.572517223145835885e+01
-6.811653948511060541e+00 2.396354844809997608e+00 1.424293671137183281e+01
-1.554145293488255142e+00 -1.998441694699018889e+00 1.523280829009247839e+01
-1.369825064425191252e+00 -1.337557376512653828e+00 1.515376346271042252e+01
-1.930026402833624477e+00 -1.833576029442289146e+00 1.834853829966049688e+01
-3.269380124861878567e+00 -3.257054647901396205e+00 1.868598949942633425e+01
-3.473529387137749058e+00 -3.072488698380874794e+00 1.872629659283605719e+01
-4.233640487554636955e+00 -4.077822299111025117e+00 1.720873862416788569e+01
-5.274462947679217528e+00 -2.860514103263362529e+00 1.912205945076924962e+01
-5.890278575387542404e+00 -2.648038533880864964e+00 1.916488606276720219e+01
-6.342406616194921298e+00 4.380696023478320988e+00 1.646295679446360793e+01
-4.859333294720164176e+00 -4.703341070557160108e+00 1.807289714453974483e+01
-7.840032942861579812e+00 -2.415997897215252710e+00 1.929892643697824184e+01
-8.288539800389155943e+00 -1.540793596211785355e+00 1.913254745641712162e+01
-8.800233766597964191e+00 -1.040972230464212389e+00 1.855545764524811858e+01
-8.924633383102603901e+00 -1.239376590150018664e+00 1.851131953112201245e+01
-8.813329854824369036e+00 -9.539502145334501915e-01 1.850095530645650399e+01
-9.155640301207528253e+00 -8.848533787587817834e-01 1.796897181332562354e+01
-9.084449467232140307e+00 -3.357519477561694554e-01 1.766975137958964126e+01
-9.236977429487431834e+00 -6.025795980617784098e-01 1.721400449393880905e+01
-5.807734236429298313e+00 -1.579475611551791836e+00 1.634438496632318305e+01
-5.821276909265218791e+00 2.076490762082060293e+00 1.280633093525582922e+01
-9.305703444186740114e+00 -8.599169989590678131e-01 1.731265704897651148e+01
-2.071345231466299452e+00 8.809718075954366956e-01 1.351508026984159017e+01
-9.334018508098354872e+00 -9.929315677034999954e-01 1.720221692745187880e+01
-9.380278548859051213e+00 -1.200742478199560814e+00 1.721062281547271766e+01
-9.310714078052829024e+00 -1.385718443255238297e+00 1.638732415053075187e+01
-9.055306834400980165e+00 -8.847057218249201327e-01 1.570115552238581103e+01
-6.997278293280208672e+00 3.666987248003360733e+00 1.576653485734956206e+01
-7.860428257005589003e+00 -1.214456119383179322e+00 1.535633382037929096e+01
-7.731061402629023860e+00 -1.599392088676401258e+00 1.596119963727591795e+01
-3.126373039116773001e+00 2.834697307882533490e+00 1.549537036125856559e+01
-7.551227857872451210e+00 -1.649799272683566409e+00 1.617526661613632655e+01
-9.335509680482493522e+00 -3.273321130314691185e+00 1.821903401529580435e+01
-2.186746211023063768e+00 2.127304268540518795e+00 1.559875274949474999e+01
-3.045178305650062534e+00 2.065378140793877382e+00 1.389487053343563616e+01
-6.531886873647025027e+00 -2.150411237623977012e+00 1.672134385045800542e+01
-1.257069197060292520e+00 -3.168425990655902691e+00 1.700401610367339345e+01
-5.094260523264682483e+00 -2.312294963718390495e+00 1.659497872137462338e+01
-5.704251765211935776e+00 -1.336103999356101912e+00 1.616445355730947142e+01
-3.565657013782245421e+00 -1.897388243302517985e+00 1.562759903398925587e+01
-6.738660719251167386e+00 3.688142441095804358e+00 1.554493289885552088e+01
-2.910931525818917454e+00 -2.770822471324668079e+00 1.583514552697404554e+01
-2.733803169653457488e+00 -2.860104858593170540e+00 1.591472035841232469e+01
-2.565574548005930655e+00 -2.844720447883794190e+00 1.592077988127269350e+01
-1.960074509333412429e+00 -2.981129863625753273e+00 1.598807593524079351e+01
-1.682134841890459809e+00 -2.480327371620588472e+00 1.550831543498853193e+01
-1.371152564097882998e+00 -2.041055444758643311e+00 1.765450070126077264e+01
-1.897746006871558588e+00 -2.227927918738968671e+00 1.835820000310760491e+01
-3.155566437149895265e+00 1.335631834229010773e+00 1.205128068248160389e+01
-3.461160597324077326e+00 -3.438949551639942648e+00 1.871701779602057059e+01
-5.806624043496151799e+00 -2.780574622749496516e+00 1.917271172852157690e+01
-6.448369747937451990e+00 -3.089869082704610026e+00 1.921098605191149744e+01
-7.705347718357269393e+00 -3.059190818321071870e+00 1.922477062786671098e+01
-8.094117211061726991e+00 -2.457594654912381937e+00 1.927386630112459898e+01
-4.369419589371589474e+00 3.542887073971511036e+00 1.535133456232006921e+01
-8.387049227964592291e+00 -1.828435648507093392e+00 1.915171161165252300e+01
-8.671100367235172968e+00 -1.463000999488158538e+00 1.885791222964613922e+01
-9.211642371990793166e+00 -1.408333759745813651e+00 1.818447075823979731e+01
-9.301110486983757752e+00 -9.427839940877398295e-01 1.765326546368417837e+01
-9.405313781084656100e+00 -1.590998870626302519e+00 1.678368251453286319e+01
-9.393074671499421768e+00 -1.802942722076316562e+00 1.657274437314669058e+01
-9.031105765592414514e+00 -1.215394472466660547e+00 1.573566361059857144e+01
-8.148854247289873953e+00 -1.853277079955078843e+00 1.600465309581412043e+01
-4.554208898480044176e+00 -1.627730785640921107e+00 1.610425636979093156e+01
-3.784839323945276224e+00 2.619400273593797124e+00 1.755738957591149330e+01
-4.358295202441622607e+00 -1.442037707212538766e+00 1.589365438396524155e+01
-3.544706199780416789e+00 -2.371179017013022250e+00 1.598128630770042946e+01
-1.227422855556906667e+00 -2.975324005759838908e+00 1.688823865067323737e+01
-3.330882824635632566e+00 -2.373122290581257232e+00 1.578822898038973221e+01
-3.103875358391047445e+00 -2.703277370375354760e+00 1.581905669982877782e+01
-2.959145241967971796e+00 -3.086901906405036033e+00 1.607749607346216436e+01
-1.993781143605041439e+00 -3.198190489412085835e+00 1.618761628303443700e+01
-1.550664434605750097e+00 -2.717816557879074946e+00 1.571882768323633428e+01
-8.037411977321427869e+00 3.164762240840970908e-01 1.432531078361883914e+01
-1.039034253071431380e+00 -4.711073650186941575e-01 1.532582318092636342e+01
-2.187051044722000626e+00 -2.874872874426638525e+00 1.846795867045732109e+01
-4.246357613294772904e+00 4.121014704763717340e+00 1.657433546498594978e+01
-2.063088310514282764e+00 -3.266914485247754740e+00 1.839550348840288763e+01
-2.039192721690860743e+00 -3.483397370882433286e+00 1.837205368357724211e+01
-2.666979684810597107e+00 -3.865487805501415686e+00 1.853380358608040268e+01
-3.452806418614424278e+00 -3.887880082267973325e+00 1.869215289954568249e+01
-4.680663413543999063e+00 -4.298603146619971227e+00 1.891254003550603358e+01
-5.684636661601418339e+00 -3.330943125962439577e+00 1.917940701586125840e+01
-6.051858379003401289e+00 -3.282252204281412400e+00 1.919821182657196346e+01
-6.069351231910324884e+00 -3.483226095605521877e+00 1.919981411401830940e+01
-7.655496395254666631e+00 -7.038471245975108648e-02 1.417511378801147970e+01
-8.079611003955292858e+00 -2.898710959333424153e+00 1.920532132117227064e+01
-8.835017306151570438e+00 -1.849259615042600835e+00 1.881875370537342462e+01
-9.111209067444208998e+00 -1.639546396821792706e+00 1.844064024046272721e+01
-4.627466467114501825e+00 1.217742507520697126e+00 1.149170631332775372e+01
-9.326864001460787534e+00 -1.308441728261007242e+00 1.791059920187537813e+01
-9.310219435815140443e+00 -1.150156291659998553e+00 1.784997488996271642e+01
-9.459637765251114772e+00 -1.776492403275561793e+00 1.696198095633986469e+01
-3.048164464751954572e+00 -1.658452506860028652e+00 1.861793737967718698e+01
-9.497742986285674149e+00 -1.752731721768409523e+00 1.727945690792255817e+01
-9.278904406031138308e+00 -1.765707030186942195e+00 1.624597831253938551e+01
-1.244787005784859790e+00 1.645809662083027036e-01 1.691079317259605830e+01
-8.230730688199091816e+00 -1.685017715330819676e+00 1.571082440829848537e+01
-8.200255851042342670e+00 -1.942032763852831634e+00 1.610539956082589441e+01
-1.295160776968441008e+00 -1.083626966172253958e+00 1.714456207154697864e+01
-8.002493812078382618e+00 -2.046230995171941736e+00 1.637292110429836356e+01
-7.204755095047201685e+00 -2.229004360613800362e+00 1.679920190505788469e+01
-6.822066688959289138e+00 -2.533353638697057875e+00 1.693643803935148640e+01
-4.263856355043432522e+00 -1.860572302415278045e+00 1.887566508933980458e+01
-4.783721187929719676e+00 -2.382043626132816616e+00 1.656718436378668713e+01
-4.136018448036626438e+00 -2.170180780788943942e+00 1.623475262876534231e+01
-3.962515697070128518e+00 -2.411760801736928972e+00 1.626309082301541054e+01
-3.498506789003444695e+00 -2.729614315448849471e+00 1.617829128035309338e+01
-3.305160387430176705e+00 -2.711836471307603968e+00 1.602282997044074619e+01
-1.821201788185712989e+00 -3.442118382573645885e+00 1.636583965087862680e+01
-2.386944526592197136e+00 1.548213371165689356e+00 1.406360910066660352e+01
-1.162396588202816217e+00 -1.817872878026975281e+00 1.588090787232046353e+01
-1.170489775245511233e+00 -1.581425850052781579e+00 1.566362810277443884e+01
-5.182803639505033644e+00 2.780526714868742477e+00 1.392820367050504160e+01
-1.108818843910790441e+00 4.216745402349260652e-01 1.533219603742666948e+01
-1.588757602596505114e+00 -2.443847467520306793e+00 1.811841740666085343e+01
-5.849709146843302676e+00 -3.678362700898355264e+00 1.917781336887344423e+01
-1.417392648972274127e+00 -2.613692085967775913e+00 1.779612231744945205e+01
-7.784550596565622982e+00 2.312030244539374113e+00 1.530802898093940456e+01
-1.812142153093925234e+00 -2.682780856259427082e+00 1.832409289211310011e+01
-1.905598958710567725e+00 -3.461870364095836816e+00 1.831958098385917566e+01
-3.170498764286686644e+00 -4.130715380517928637e+00 1.861794758821520901e+01
-3.493380801050816054e+00 -4.087746515458531960e+00 1.868340551285191964e+01
-3.697394533958912266e+00 -4.219151811202419111e+00 1.870080615147230674e+01
-5.731902821651325475e+00 -3.470097063548194249e+00 1.917865410295355133e+01
-7.992383042159477924e+00 -3.400065045371513328e+00 1.909768511685437176e+01
-7.585901549190047000e+00 2.309790009088017904e+00 1.505365602514624612e+01
-8.575530204478910790e+00 -2.613918325255224939e+00 1.909435279373729344e+01
-9.077311688850954852e+00 -2.012915277778254630e+00 1.858120725976194620e+01
-9.523277367762677414e+00 -1.818957199029559657e+00 1.739109001668207100e+01
-9.517018508702580704e+00 -1.984778624621012844e+00 1.717258782661396310e+01
-9.510158013136889465e+00 -2.156203380342205822e+00 1.700992043835162804e+01
-9.489223119764863768e+00 -2.190540080025684677e+00 1.690517577752549983e+01
-8.544961599740441116e+00 -1.879853854919572687e+00 1.589127914427243837e+01
-8.019025163569095227e+00 -2.333353132766755156e+00 1.667895955599629332e+01
-8.230149504188489118e+00 -2.369594864601832551e+00 1.663898799687792263e+01
-1.575156323346387000e+00 1.209470724247152074e+00 1.516237767130593994e+01
-7.561562388826429171e+00 -2.172623257685847964e+00 1.668956735022024418e+01
-4.449819046549364998e+00 -2.402826242556035830e+00 1.648684913418057363e+01
-5.910523845670791587e+00 4.256924323775137964e+00 1.621269801040106984e+01
-4.153124676292717865e+00 -2.527742419462217782e+00 1.641601646527996650e+01
-3.772173644511686685e+00 -2.787026083307849511e+00 1.636194101706720261e+01
-5.457639888832044761e+00 -4.112709108449005946e+00 1.909143748992732981e+01
-3.408354396079743776e+00 -3.193927598914983346e+00 1.637853697357275706e+01
-2.751621891827178867e+00 -3.627080183825112769e+00 1.652827468867025118e+01
-1.974302139037114490e+00 -3.658289283569157835e+00 1.658794487861536027e+01
-1.558840163416595592e+00 -3.641302720314292252e+00 1.652126956432213944e+01
-1.423865287181655281e+00 -3.306944302058895779e+00 1.628361658688238123e+01
-1.217824111510769081e+00 -2.185141716900200759e+00 1.585393626367009290e+01
-1.570537741728920356e+00 -2.806476366879082640e+00 1.808098462989656241e+01
-1.559725399170101445e+00 -3.442074399657062411e+00 1.806123318783807008e+01
-4.831570324702877173e+00 2.040560695202999320e+00 1.246460504791172497e+01
-1.854442392355204472e+00 -3.855433127672206695e+00 1.825071350805512083e+01
-8.715041650295104247e+00 -1.749736405993785437e+00 1.890144078352835777e+01
-6.225444618037004219e+00 -4.282345153666163640e+00 1.754711008298099273e+01
-2.775643046014420356e+00 -4.508961492296040596e+00 1.842769649956363054e+01
-5.660173140505351697e+00 -4.022710635480248875e+00 1.913089084627781489e+01
-6.000633017825491855e+00 -4.531147092984793012e+00 1.769571755266088076e+01
-6.696969023871651494e+00 -3.863534557221415700e+00 1.918720301372896841e+01
-7.452072565732319021e+00 -3.828883452908812934e+00 1.911651714369134680e+01
-8.323000873310389736e+00 -3.712773054676585360e+00 1.886336963813445777e+01
-8.678152827045773066e+00 -2.672317030999701082e+00 1.903269989051744204e+01
-8.918594274683215417e+00 -2.647971915230368012e+00 1.884891564888244631e+01
-6.501802329782012890e+00 2.492376577961497919e+00 1.398149604822699388e+01
-9.588902011896056621e+00 -2.231077072456663313e+00 1.758387762008545963e+01
-8.912012132799732811e+00 -1.721561154140559324e+00 1.585638346088619954e+01
-8.558828909511062122e+00 -2.121249870925089098e+00 1.621558943657352359e+01
-8.444882374065269204e+00 -2.470978659534465827e+00 1.670664506279665318e+01
-8.167658257864173876e+00 -2.639329734635611935e+00 1.691174929046143660e+01
-7.012902806576629899e+00 -3.026957627401719808e+00 1.718685154080294808e+01
-6.227452330537214920e+00 -3.622577124973903828e+00 1.729037611825401655e+01
-6.710480954686782518e+00 -6.608392113436898363e-01 1.901051480075224021e+01
-4.187765660908692844e+00 -2.803999493587034486e+00 1.655308531054262033e+01
-4.244775835579745582e+00 -3.015631852798382528e+00 1.666076865485516834e+01
-2.646279806577576998e+00 -1.515432334131869840e+00 1.853298021249524652e+01
-2.974720274636165840e+00 -3.646540686833036560e+00 1.651166521105724172e+01
-2.425323335411632808e+00 -3.502857210997660342e+00 1.648201697082336636e+01
-1.312385122428656237e+00 -3.026371833805640676e+00 1.619025674636123568e+01
-1.231250402829323409e+00 -2.725475457330448492e+00 1.611142306212700959e+01
-1.509419446499020934e+00 -3.062430637888685414e+00 1.796203896928219734e+01
-1.408122490685481676e+00 -3.391019350491737860e+00 1.763651816508397019e+01
-4.508007993100397570e+00 3.659385425323998575e+00 1.548847274311042099e+01
-1.985735677352922668e+00 -4.239211472740988640e+00 1.824505610985852400e+01
-4.549955582616547645e+00 -4.777585283292829388e+00 1.879613282651045125e+01
-7.465323988369991781e+00 -2.884366802980657507e+00 1.715782269107322833e+01
-6.254631266835602332e+00 1.543567400774020215e-01 1.873741717449462385e+01
-6.246779774586293854e+00 -4.286994170360404866e+00 1.912958264567298272e+01
-7.070286977520980898e+00 1.098042915044989520e+00 1.333263641902922103e+01
-7.219340505892664517e+00 -4.025485141585979143e+00 1.910749814760403353e+01
-7.848485311957473343e+00 -4.004865038046805381e+00 1.892690923022598071e+01
-7.306012850575200446e+00 -4.523321258973092895e+00 1.795728747746371567e+01
-2.825911525082219100e+00 2.135991621750119585e+00 1.447503011859091515e+01
-8.798330582288633295e+00 -3.584000709831582920e+00 1.866985852833087023e+01
-8.904410770703108824e+00 -2.867436902001648136e+00 1.885064963782519953e+01
-5.809497213035823115e+00 -3.195907332868007877e+00 1.706247775858522431e+01
-9.351926197803184238e+00 -2.691847793504572373e+00 1.828745621471342275e+01
-4.270155167803909357e+00 -2.661601898889129902e+00 1.890143742926748871e+01
-9.424457996407667792e+00 -2.643752570437654992e+00 1.816124815169666817e+01
-8.613174073851833867e+00 -2.552065276386516590e+00 1.678155458347254125e+01
-4.462232672022773627e+00 5.545644467884986994e-01 1.834410914494236522e+01
-8.402992481544480086e+00 -2.697677922914654136e+00 1.692612363759383243e+01
-2.736784848721060204e+00 3.256960362649879759e+00 1.676129306577869471e+01
-5.457747883481035345e+00 -4.541032024485305740e+00 1.771400552843940090e+01
-8.374011182556994726e+00 -2.903623625166940947e+00 1.708740058922421667e+01
-7.981473530353332180e+00 -2.670890784648863647e+00 1.696318181446893902e+01
-7.766479171667304726e+00 -2.620845993539164809e+00 1.697308040234099025e+01
-7.401638229077293296e+00 -3.367198174801703470e+00 1.735721308740472324e+01
-6.467391512580413782e+00 -4.235204726685004140e+00 1.757070430048263177e+01
-6.177646916981291980e+00 -3.860321390608032477e+00 1.736202775162951184e+01
-5.663751829127710025e+00 -3.636236981067684226e+00 1.718500639589179002e+01
-6.553864138491550584e+00 2.145835667706246674e+00 1.369924827830775627e+01
-5.545563487768870203e+00 -1.141025324674314056e+00 1.597545032937293286e+01
-4.226889597500007589e+00 -3.435735426178668117e+00 1.682719878606732777e+01
-3.419974598272750743e+00 -3.432049398679339891e+00 1.651555648364391260e+01
-2.148431600946863362e+00 -4.108338689752655704e+00 1.710776820584846547e+01
-1.244493883973936343e+00 -3.008353075689784273e+00 1.642432972882537001e+01
-5.249005240720218346e+00 -4.889009812548444245e+00 1.864916632026199750e+01
-7.663973689963380131e+00 -4.193562471817357640e+00 1.891849520512812433e+01
-8.976675933424505871e+00 -3.623227183595592926e+00 1.849963424652931820e+01
-9.140050581131491825e+00 -3.427871488871180983e+00 1.842924043851931515e+01
-9.507715470074360908e+00 -2.831877463459512079e+00 1.798809491071958888e+01
-5.030209541776105908e+00 2.044252826162102910e+00 1.248148472169022938e+01
-9.541626612375758043e+00 -2.599385554049383096e+00 1.792740655156555363e+01
-8.756426283842580816e+00 -2.802108742485883042e+00 1.702141424035674078e+01
-1.363260165362124798e+00 1.403236429066901714e+00 1.714338509537903121e+01
-8.815311192059885670e+00 -3.013951945079672790e+00 1.719573721573294023e+01
-7.617095430607621509e+00 -3.194985625072296553e+00 1.728860080552568235e+01
-7.515403799946970942e+00 4.686545820419978914e-01 1.369542096624156358e+01
-7.925050172756256117e+00 -3.257048106883903227e+00 1.731555914506998306e+01
-2.381925977223290136e+00 1.165241784087029719e+00 1.325657803112027011e+01
-7.159630187554170355e+00 3.107037293123334987e+00 1.533391303382523319e+01
-7.225858181409605230e+00 -4.254745043926608794e+00 1.773292745760126365e+01
-7.529963232886708546e+00 2.478691549166273322e+00 1.514282020888914104e+01
-6.677367184954639434e+00 -4.371629346303843811e+00 1.768935478860504418e+01
-6.426228727946745600e+00 -4.378289337263754355e+00 1.764126671239935717e+01
-4.734459917414644003e+00 -3.526039358521534162e+00 1.699290134703311139e+01
-4.006550354745278320e+00 -3.523595671975486621e+00 1.680449021169032875e+01
-3.268796039206945725e+00 -3.728708636862672066e+00 1.662487625031106830e+01
-1.527809199937524065e+00 -4.069577165796135709e+00 1.787302819846227919e+01
-9.210746151454323183e+00 -2.719487849684579572e+00 1.702288595512133185e+01
-9.000345352263128262e+00 -2.983880794662766789e+00 1.719640067572472475e+01
-4.843312253102342702e+00 1.302424026368092180e+00 1.812935276721687217e+01
-7.460590355262571194e+00 2.757333453058838368e-01 1.372645735632350750e+01
-8.605210646176216116e+00 -3.227807473195085652e+00 1.733142351029442096e+01
-8.396330172948015758e+00 -3.247676102654340369e+00 1.732609309028102729e+01
-1.758695209086386768e+00 8.257910533945114206e-01 1.414412376607171495e+01
-8.203049092415588106e+00 -3.604421800535133169e+00 1.754858442881960201e+01
