-5.702066605969713819e+00 1.406313211701163191e+00 1.200002600412888754e+01
-2.445317682636761969e+00 4.225975421693451750e+00 1.633165775536371811e+01
-6.437997786450097237e+00 2.773572772336326153e+00 1.371960027391714831e+01
-6.847644319622599340e+00 2.570148935858809658e+00 1.388940593573880378e+01
-6.809127358584783352e+00 2.163517654967843207e+00 1.351250530434537822e+01
-6.030003874322439117e+00 1.789487470104629718e+00 1.249914077975342863e+01
-6.867103637863939625e+00 3.767225182614639234e+00 1.505939088972142414e+01
-1.852050361561570213e-01 2.944119545734125154e-01 1.515456152396889777e+01
-1.878577674564476663e-01 5.013852941282419540e-01 1.537938142661736762e+01
-7.091933938065029253e+00 3.565688571608517154e+00 1.557869297031556144e+01
-8.696941206449406714e-01 2.832103597940907935e+00 1.683587129097849200e+01
-6.293771613477897597e-01 2.284302428923958850e+00 1.661529014644429836e+01
-3.583570105781424542e-01 1.484867204740359270e+00 1.620891804722963414e+01
-2.359692750279450413e-01 9.121626135555189752e-01 1.577109845933732757e+01
-2.627247281892953201e-01 7.287501118569076342e-01 1.535368348663606142e+01
-1.211636980424582788e+00 2.529719093187472456e+00 1.580281220344542348e+01
-2.793384020351163954e-01 1.048417657161917482e+00 1.580529150004051431e+01
-6.732195089358894435e+00 4.016563105856892690e+00 1.516137693934380692e+01
-6.698427341871397545e+00 3.760324664019313090e+00 1.486320039503668156e+01
-2.953228865490519883e+00 -2.263099911517615359e-01 1.881138622122226778e+01
-6.667913885701070242e+00 3.157687064269635968e+00 1.426175686884148419e+01
-1.238207151614102219e+00 -2.006207209585456619e-01 1.319833301368578660e+01
-5.104045624646933454e-01 1.936921473505465396e+00 1.639147623888186800e+01
-5.741457427137524050e-01 1.906776466028652139e+00 1.617257825371178726e+01
-1.164897224353558913e+00 3.281415009294578411e+00 1.683841276568535861e+01
-8.332446617807612865e-01 2.673869176654627644e+00 1.665778556098885232e+01
-5.225828845004691914e+00 1.579016132721843046e+00 1.175574697640056954e+01
-6.037846386048952851e+00 1.989997159922617387e+00 1.267241151073725902e+01
-6.494428228268638748e+00 2.413270321996033196e+00 1.345618189402486209e+01
-6.594057918898096560e+00 3.751597289494707166e+00 1.475068491519248326e+01
-6.231775153914499654e+00 2.329948581314059020e+00 1.314518768778245672e+01
-5.622707122516679590e+00 1.772916636130605239e+00 1.212566772121733649e+01
-2.438284794488649043e-01 5.287233642358055707e-01 1.514823107819871595e+01
-3.338671827342581944e-01 9.469544085568332159e-02 1.452552430388709936e+01
-6.203525226454836172e+00 2.749507121310421187e+00 1.350668543655980969e+01
-5.585279068323922402e+00 5.206602900663170885e+00 1.586836426875957429e+01
-5.617238609585660569e+00 5.119162622053469391e+00 1.577042243679911948e+01
-6.245822362920682380e+00 3.947058801544311990e+00 1.472137049507555773e+01
-6.246903307053557342e+00 4.164553252782292603e+00 1.493507450558806582e+01
-6.051456246331154532e+00 3.196347845751955408e+00 1.387546188780605760e+01
-5.604267814288547811e+00 2.005571558986514624e+00 1.231351231648014632e+01
-5.369610484536142536e+00 1.754368769143960449e+00 1.191981358161715221e+01
-5.429798493908268853e+00 1.962679331326763421e+00 1.214470299984883539e+01
-5.610377103018713285e+00 4.726302632186966335e+00 1.532316168162976666e+01
-8.109256903256007121e+00 1.028123293241066216e+00 1.605999399284455009e+01
-5.212116159970978657e+00 5.143941092717298602e+00 1.571358863674380402e+01
-5.292940506251589738e+00 4.963566220991673106e+00 1.550506279625199468e+01
-5.468350036729043850e+00 4.755602291508813195e+00 1.531296525411918097e+01
-5.572543041702529010e+00 4.456171195397372387e+00 1.503105221717029494e+01
-5.913309638524980372e+00 4.210992523140609123e+00 1.488383835297412716e+01
-5.384084898514517548e+00 4.477932979631443544e+00 1.498170231604965963e+01
-5.622335700305363559e+00 2.930912732335037685e+00 1.333288794942024325e+01
-5.414224918905885531e+00 3.914036574240369326e+00 1.435206381064925907e+01
-4.094484623387569799e-01 7.346380385448171291e-01 1.495522575962251111e+01
-1.040921638775236024e+00 2.700346376404580528e+00 1.624727570450984970e+01
-5.572040732706271537e-01 1.314346831509271230e+00 1.536883163154455545e+01
-5.028907824303850305e+00 4.909140985817071368e+00 1.533624624756506805e+01
-5.066230269563863686e+00 1.716155801548300053e+00 1.176170605228440635e+01
-5.192929051009517849e+00 2.122157553249363726e+00 1.214758338409317773e+01
-5.376467388865371788e+00 3.463850124605456049e+00 1.380523421610173429e+01
-1.774353390145916975e+00 -7.480076900539185392e-01 1.863557243199268143e+01
-3.170096284498878703e+00 4.962087401543933685e-01 1.227467320521645533e+01
-3.030430136505614769e+00 1.802608879857624080e+00 1.282733314265740532e+01
-5.229834568271936490e+00 4.319148946083117835e+00 1.472728739241910390e+01
-5.226979397659814452e+00 3.682834286211841501e+00 1.398877802439053752e+01
-4.064510860481973964e+00 1.667336530936675221e+00 1.178238141856435917e+01
-4.682952698715941997e-01 8.999874396100983054e-01 1.502627132859463543e+01
-9.887379292003327658e-01 2.289982936939481739e+00 1.583781757739233953e+01
-5.821449141782236936e+00 4.119279679903272040e+00 1.475774494503861334e+01
-8.284768033279131805e-01 1.893713138539791840e+00 1.561411316873727273e+01
-5.036593628539415946e+00 4.745029427291404645e+00 1.512673552303720115e+01
-1.505407977797408536e+00 1.097124863476936385e+00 1.388838439764375821e+01
-1.495019047849009297e+00 -1.675373494035591326e-01 1.304426110461477251e+01
-4.806477704759172909e+00 5.129681440249560964e+00 1.559508560172894320e+01
-4.795522963953221307e+00 4.939675200904535046e+00 1.534363492053696021e+01
-4.856120233180067913e+00 1.610353616024694068e+00 1.166238096697939497e+01
-2.687270807396129779e+00 3.065445282844641017e+00 1.475208960950981307e+01
-4.851967035434979536e+00 1.850536462346610289e+00 1.182629335574565843e+01
-4.831415990035612396e+00 1.965093237816815774e+00 1.191570049627107508e+01
-3.912810927356743296e+00 5.177656915949615524e+00 1.609708051404015450e+01
-2.075340199054474866e+00 7.573920736488942707e-01 1.280864012209842073e+01
-4.661892068353621355e+00 1.833166569420245917e+00 1.181003974086707942e+01
-5.216444607114825160e+00 3.966349491537749294e+00 1.431259000951223825e+01
-5.025407020913910117e+00 3.537715570021227496e+00 1.375018964218572748e+01
-4.635579300431453831e+00 2.144983374225537975e+00 1.212068980271939367e+01
-5.071791231988107551e-01 1.592851781073099549e+00 1.591232799021744526e+01
-4.837254802240449791e+00 2.611546206727722641e+00 1.265894220044085827e+01
-4.977522615435130859e+00 4.085535787483441261e+00 1.436004154738698801e+01
-4.683466424803887307e+00 2.336362183891423694e+00 1.232230452089814676e+01
-6.273573719255047365e+00 2.206478622326867978e+00 1.307651889847869953e+01
-4.866796160475260535e+00 2.980334871758635096e+00 1.308510204191597737e+01
-1.373864255955162150e+00 1.580678572415306737e+00 1.457370384592826795e+01
-4.844000458159749556e+00 3.538117421018166731e+00 1.372843429078821842e+01
-4.603400270279134787e+00 4.915455833382432971e+00 1.535184829012179009e+01
-4.817623141326295766e+00 4.535455534645246090e+00 1.488683663434481375e+01
-4.816188822001686631e+00 4.334785245305699419e+00 1.467330653405262453e+01
-4.456389511585679308e+00 2.048709664705252287e+00 1.203994747765688444e+01
-3.917454700906841669e+00 3.456988558033297299e+00 1.398211135471053623e+01
-5.655769126793904533e+00 2.831126201064892545e+00 1.324168900499924817e+01
-4.626221723105503614e+00 4.046029337681645188e+00 1.438335734451444736e+01
-4.509055606293642882e+00 2.318251241672730778e+00 1.233222437370848823e+01
-4.271742847055844727e+00 2.193223967408086672e+00 1.226196027992499538e+01
-5.358976375698828676e+00 -1.628590258222650800e+00 1.624555529945765286e+01
-4.649623442901663850e+00 3.333606253406603326e+00 1.353266719649466054e+01
-4.443306825073618960e+00 3.566660820112183661e+00 1.388148318726479502e+01
-4.421271681724036284e+00 3.106020096778394191e+00 1.332888980251025757e+01
-2.443134617797382280e+00 4.438749309598268411e+00 1.653211836279798419e+01
-5.737731484537883508e-01 3.770667725274275961e-01 1.436023138588003789e+01
-1.443058165659250269e+00 1.135850317199649684e+00 1.400923901749719747e+01
-5.864310617180429341e-01 5.743794851585584116e-01 1.452075084649380088e+01
-7.472201769907855784e-01 6.059552305831936714e-01 1.433472259093188583e+01
-1.066806990136168976e+00 1.749425126123757002e-01 1.355645514619665093e+01
-1.196410806447796293e+00 4.022252606155978794e-01 1.355120679960792174e+01
-1.631605993299875657e+00 5.756995813199801137e-01 1.318953933852608529e+01
-1.280304384862276379e+00 5.504396256998267400e-01 1.360072786345366680e+01
-1.445428748513473138e+00 7.550972174261645353e-01 1.360590916033740783e+01
-5.615946100491933990e+00 2.747625430356680276e+00 1.312094955698332299e+01
-1.072399576371184438e+00 2.431780811106921014e+00 1.587700967448364864e+01
-1.799115166630111950e+00 5.809418488187702012e-01 1.298694423486082528e+01
-1.551863516552488775e+00 6.406081825206384472e-01 1.335138949342895742e+01
-2.207099745720003448e+00 5.933274501724044026e-01 1.253996257496009648e+01
-1.878903952163768709e+00 7.296042546078969071e-01 1.303019477997470332e+01
-1.473283713909226744e+00 9.740175624383740072e-01 1.379980001616497631e+01
-2.974962891715421609e+00 2.046312230927645359e+00 1.318735356143453075e+01
-2.568736149881281072e+00 4.516299805089712294e+00 1.650334771870087636e+01
-3.021447784906452494e+00 1.015790816845562716e+00 1.203815122189811504e+01
-2.244834121465213883e+00 1.332215512990521766e+00 1.320512292092666584e+01
-3.015896613724958097e+00 1.216705987209132589e+00 1.218750220635203974e+01
-1.776592257019818488e+00 2.938228515516882577e+00 1.562358769967064021e+01
-1.730343913665449929e+00 2.373883012008634275e+00 1.503987362045079479e+01
-1.791462937047069826e+00 1.936617183484852900e+00 1.446502881084579784e+01
-3.740386018811548308e+00 4.483213333667375622e+00 1.722290979132216293e+01
-1.821772663132673165e+00 2.486958617345733202e+00 1.506390861194339337e+01
-2.452213858243133870e+00 1.395568112971342867e+00 1.302336566415175767e+01
-2.042707103913942390e+00 3.283712742458708700e+00 1.572585868403444564e+01
-3.607890390346138787e+00 5.153660564977839087e+00 1.629094505009136284e+01
-3.417853189589331375e+00 4.860374927152863123e+00 1.614495598034580226e+01
-1.939009199372946801e+00 2.566873043583754121e+00 1.501934223816866520e+01
-1.978289873655628917e+00 2.765555053919459993e+00 1.520437489731041225e+01
-2.033535161869830521e+00 2.517851317377432174e+00 1.485052727402567641e+01
-3.166720932821242673e+00 4.662434712334391662e+00 1.614241040129177307e+01
-2.146285854290184147e+00 2.572861797185704180e+00 1.478017712446925103e+01
-2.229329732350636917e+00 2.711776235867461526e+00 1.484760789984597196e+01
-2.705040776076071296e+00 1.340125251497579661e+00 1.265132980046810118e+01
-3.123877974267333713e+00 1.190476775994881109e+00 1.206319798683877664e+01
-2.630999655184527164e+00 3.308417591480946829e+00 1.510811398519826909e+01
-2.627242857600645909e+00 1.757994894313424705e+00 1.324327486239497986e+01
-2.996361920947739232e+00 1.440418769362943108e+00 1.242962712543134884e+01
-5.330427260641545928e+00 2.742219518342026596e+00 1.821312095886176863e+01
-3.226413875347202698e+00 1.469261602206792361e+00 1.222328756271238248e+01
-2.572055388394548281e+00 2.185821463719345825e+00 1.382042016064484002e+01
-5.724826464917665447e+00 1.254660001093792943e+00 1.199349447190992279e+01
-3.610894090234980869e+00 3.178437111021353623e+00 1.386485734735492414e+01
-2.832196046709578141e+00 1.787203096987848516e+00 1.303847428381161322e+01
-5.831582886334881977e+00 2.964784497746005609e+00 1.350342833795480502e+01
-3.258441472423582841e+00 4.621115861534022429e+00 1.600118955186407632e+01
-3.630630526911975409e+00 4.872807382702287526e+00 1.594127963109167112e+01
-2.638605121883789373e+00 3.121663011235244589e+00 1.487505731737427439e+01
-3.403993781120187023e+00 1.621104085795727512e+00 1.220074483324989600e+01
-3.225804889255074137e+00 1.819813832483749838e+00 1.262249844992995307e+01
-2.967271719961324550e+00 3.926586144702035597e+00 1.548394968277236572e+01
-3.062227827435526795e+00 4.066243362951826867e+00 1.555050238440130883e+01
-2.354828361410040927e+00 3.170119236567289889e+00 1.524796851628019922e+01
-3.266803412120119265e+00 4.432690954664758820e+00 1.577361212425940451e+01
-3.042509928151869936e+00 3.872781867075024920e+00 1.533872618479618311e+01
-3.743306869476049403e+00 4.942950333444789734e+00 1.592169450824643562e+01
-3.362329110362977325e+00 4.477483852004283449e+00 1.572829137098021945e+01
-3.471423226378632432e+00 1.741687556452251373e+00 1.227134953819232166e+01
-3.257313438157725116e+00 1.923416561816119197e+00 1.271254892391720759e+01
-3.251974578102499791e+00 2.359759762183998077e+00 1.325489200559279723e+01
-4.219489128365145447e+00 5.274619613761476700e+00 1.598350342246947164e+01
-3.457890247674793471e+00 4.423996639112708351e+00 1.556620586347473889e+01
-1.271867107786549544e+00 -5.069252392124168338e-02 1.322016398734361431e+01
-3.239220713819542574e+00 3.341066920452154587e+00 1.447983304713475761e+01
-3.070971634163696340e+00 2.719705338747777645e+00 1.390232063655237837e+01
-3.136960013814667381e+00 3.364888249220252092e+00 1.462146504662803537e+01
-3.210287981177366579e+00 2.790514169946217482e+00 1.383312097771900184e+01
-7.178169913246186695e+00 -3.486340373278809412e+00 1.845509304475906376e+01
-3.360902856514867754e+00 3.941574099501413020e+00 1.508401150571721061e+01
-3.446410927049996964e+00 4.059559581597062206e+00 1.513602918545455012e+01
-3.491864934838991186e+00 2.130586478983149235e+00 1.270011173976860519e+01
-3.511376457780719829e+00 1.989202378184478093e+00 1.250335207228338774e+01
-3.600140411767593029e+00 3.976909515384039917e+00 1.486624448844900215e+01
-3.984888032095941224e+00 4.883131682896404868e+00 1.558665052465020651e+01
-3.683964698363587420e+00 1.952009481931597623e+00 1.229215685165423011e+01
-3.629363148350714496e+00 2.377534809193952547e+00 1.285370065747567381e+01
-3.773966959451543257e+00 4.337228217517292705e+00 1.512162954929523195e+01
-1.239587887303795988e+00 7.230947552927421418e-01 1.383191355293359592e+01
-3.525492694344226408e+00 2.515575077898775547e+00 1.313845353157292450e+01
-3.583899203112792975e+00 2.812898989236449321e+00 1.344141064336922753e+01
-3.611882951214870463e+00 3.015742298896080253e+00 1.366178675499009998e+01
-4.036535457199960319e+00 1.959134998398198269e+00 1.206695340064542776e+01
-4.053521895221221527e+00 2.242121880486595664e+00 1.239965412412860601e+01
-3.827110414903219571e+00 2.194322960454921478e+00 1.246830052007699763e+01
-4.092899565879092094e+00 1.574276897983155621e+00 1.170956645004589447e+01
-4.206650196203167269e+00 4.951988012346681955e+00 1.553327580831038190e+01
-4.400568857028018144e+00 4.197659973657744459e+00 1.464125487715271490e+01
-4.393947932405835033e+00 3.893033253746071232e+00 1.429436220100116017e+01
-4.253361047296030151e+00 3.702008593095687417e+00 1.412146712856148056e+01
-4.410460704228983175e+00 5.164498970833847125e+00 1.567854335475113814e+01
-4.403587530380370652e+00 5.074885438337709331e+00 1.558318687972126426e+01
-4.223307453319399940e+00 3.004230341276212357e+00 1.328182494435051453e+01
-8.090528926906413787e+00 -8.143892109180408401e-01 1.818123188515149380e+01
-3.876858204991631141e+00 3.099355176289729563e+00 1.356305447228691108e+01
-4.073727219141859202e+00 3.323420123055623510e+00 1.373749276753893511e+01
-4.050809107693892130e+00 2.952533940788196976e+00 1.329359701258764304e+01
-3.829363169355715080e+00 5.455245340379420327e+00 1.642599901537461804e+01
-5.070406756122364911e+00 2.935365931133325224e-01 1.297772464144211213e+01
-4.094061458902627848e+00 5.582683178684343162e+00 1.644900875604244206e+01
-4.786064134614280263e+00 5.595940024844141547e+00 1.625464618914659454e+01
-5.005010210503211709e+00 5.516886108439141623e+00 1.615727897912174527e+01
-5.265355616354661095e+00 4.954186636699672519e+00 1.686284338936237148e+01
-6.557292342302709187e+00 4.398822613654484570e+00 1.610324239866443818e+01
-4.148761544622075803e+00 -1.614280083078504902e+00 1.935020877011193008e+01
-6.700358617594444510e+00 4.159567724329253480e+00 1.613922947211309733e+01
-4.668252059526208697e+00 8.884645495292051720e-01 1.189329193430154774e+01
-4.487637589307061248e+00 9.519925533981543619e-01 1.176815098706147822e+01
-3.726660747745201618e+00 1.204961423685191324e+00 1.152931777660824864e+01
-6.319228622983837695e+00 4.186212217731926089e+00 1.690686235650089131e+01
-7.690744931401868101e+00 1.749838345615305712e+00 1.720264002516941915e+01
-6.707136571403351510e+00 3.817882235437419780e+00 1.675137407282594992e+01
-7.148353289209369521e+00 3.433829981505458040e+00 1.595016138135506978e+01
-7.285713011320172683e+00 3.137995500876931576e+00 1.556470221504940454e+01
-5.059454509022176083e+00 7.126694983406816064e-01 1.219925451895101887e+01
-4.846721601647828948e+00 6.619780726906245860e-01 1.226213459419163243e+01
-1.839404213999075610e+00 3.473467395856726370e+00 1.612007003127739679e+01
-3.456719662187368591e+00 4.606824003678626767e+00 1.704045032364915713e+01
-3.582338148255301835e+00 4.621609909388929793e+00 1.706821396656063783e+01
-7.273590590578262294e+00 3.143748020628678308e+00 1.639636377051687433e+01
-6.788033775344036513e+00 9.710960167693802880e-01 1.327409115450255328e+01
-5.452403763056423713e+00 6.641624756692219300e-01 1.231802046886473434e+01
-4.969182916168891850e+00 4.976404649074997466e-01 1.255022147616464778e+01
-4.650772238139506243e+00 4.685858954941539700e-01 1.263099590022043017e+01
-4.468728875869167894e+00 5.072759787139400345e-01 1.255563808645498014e+01
-5.779312079846175010e+00 1.018846619338056758e+00 1.885385315457581967e+01
-3.223444750942480841e+00 3.299735741995684646e-01 1.257239098451776371e+01
-2.811535691463800557e+00 2.623839278171259393e-01 1.248757272558660603e+01
-5.822508578344642416e+00 2.980330812202881541e-01 1.294906069837330520e+01
-5.657828854893828918e+00 2.278610787356921130e-01 1.306662607171988455e+01
-6.459338219469636044e+00 4.373738247083544195e+00 1.530272498220057642e+01
-5.045176763979386081e+00 1.958694511889524925e-01 1.320635765461232936e+01
-4.841707253980130687e+00 2.938585475205109931e-01 1.299675870554640156e+01
-4.613795365235857204e+00 2.689187613588877035e-01 1.307456195971120039e+01
-4.877470020140634688e+00 2.409976752884127049e-01 1.311639217874415309e+01
-4.205081308088087333e+00 2.885122527840027762e-01 1.300768619352586697e+01
-3.217835149329216549e+00 2.593061649815587844e-01 1.268961105557387370e+01
-3.479647142834632501e+00 3.136430961642881488e-01 1.273683031125896647e+01
-5.245928302889797834e+00 5.086493371808908925e-02 1.350920843773974056e+01
-4.623961039374286486e+00 7.187705104001440581e-02 1.352989942619106145e+01
-4.395155562700153951e+00 6.566298971718176336e-02 1.352585833876907984e+01
-4.754222409975044528e+00 3.413532177464759343e+00 1.797268822111308495e+01
-6.629510609417023304e+00 2.463316701090672467e+00 1.797961510666371154e+01
-5.028979102465699569e+00 -1.345161627936732884e-01 1.396291526363286195e+01
-4.438842618812961049e+00 -1.515408481392475082e-01 1.398792046685032986e+01
-1.551429261155735650e+00 -7.355609329482171166e-01 1.344448748314321662e+01
-6.454161825697536159e+00 3.789403944802153035e+00 1.467727474734838822e+01
-3.455377347263331789e+00 2.751226028271690716e+00 1.799714228955096118e+01
-3.864364544029886606e+00 2.961707219275358405e+00 1.799527307643994689e+01
-3.544030984667948747e+00 2.613517655328195133e+00 1.807375672326783089e+01
-6.118906244413917506e+00 -1.544231453731093051e-01 1.369400737371838872e+01
-4.085625347363889937e+00 -3.445722853515931217e-01 1.430125435899658370e+01
-1.617175096283454794e+00 3.260979837383070290e+00 1.611660558256597042e+01
-4.027206692188491033e+00 -1.954735830637910343e-01 1.398327342782346605e+01
-1.073371504750248562e+00 5.108766957936804465e-01 1.381422916211859686e+01
-5.011759637645631926e+00 2.504429124446641453e+00 1.255449011426544459e+01
-3.789207435358775466e+00 -1.616599401906547717e-01 1.383282806412149668e+01
-2.770537015298468297e+00 -5.581508187275388000e-01 1.366342942473233180e+01
-1.021194744319117387e+00 1.613883991087217362e+00 1.791281084251610523e+01
-9.139387511468832770e-01 1.493692024762799608e+00 1.787901136062822260e+01
-3.168089863909363757e+00 2.242472838938071256e+00 1.815561769454607699e+01
-4.147866776142562273e+00 2.698553337654208129e+00 1.816777978442611285e+01
-5.473808785412337841e+00 2.731652546832394002e+00 1.820741148209453897e+01
-6.469327466952321970e+00 7.310964713477136057e-02 1.358442480906753147e+01
-4.426966814758410251e+00 -6.021258857680824583e-01 1.488220730767658395e+01
-1.043291960260714912e+00 1.030072632395647947e+00 1.811834564128361436e+01
-4.158454439388297175e+00 2.172695296979275881e+00 1.838281397319424215e+01
-5.040444804367732345e+00 2.320488007398453956e+00 1.839656421417128129e+01
-5.176629382043792305e+00 2.205631961494547433e+00 1.843929024825623131e+01
-5.001436454011729538e+00 2.015620611138328133e+00 1.851858222058310943e+01
-6.524330144764849848e+00 1.795215194930611213e+00 1.839322443908099913e+01
-8.143101793472308003e+00 3.111398303243668728e-01 1.546630447721767965e+01
-8.109432610016737542e+00 4.610244900647210708e-01 1.536222979559223845e+01
-6.220141185176235155e+00 -5.809182884274128877e-01 1.425126005245457961e+01
-6.057633623767905817e+00 -5.668702117323252132e-01 1.428545707675072052e+01
-4.428005564311281006e+00 -7.501418377993560593e-01 1.513855947949582159e+01
-4.305008675946407237e+00 -7.751375399274385014e-01 1.512183168039591052e+01
-5.565352665975256130e+00 4.825005162057243169e+00 1.541737076717314281e+01
-8.829236296047098254e-01 8.369381804631956800e-01 1.805747924228367296e+01
-5.137554989997278554e+00 1.448153388233057282e+00 1.871764323671660790e+01
-5.759372658077822393e+00 1.613624597645660241e+00 1.863992826361416277e+01
-5.766645580510919800e+00 1.751970065331387216e+00 1.859022816048070226e+01
-6.642007287087787759e+00 1.712162451094898508e+00 1.838317508595342886e+01
-7.069554978577492932e+00 1.604620784109835663e+00 1.816846251498826703e+01
-4.744521113357561548e-01 1.803575889174010793e+00 1.627767286264041147e+01
-5.991288620699258161e+00 -6.997521833512976297e-01 1.455769645193140960e+01
-4.699036951797207706e+00 -7.981436795694740738e-01 1.526725551276408410e+01
-1.338492750488094463e-01 -9.441391633377838044e-02 1.556348460063298589e+01
-8.657757278499838005e-01 6.107147776836574504e-01 1.810477651268086774e+01
-1.493882351787110041e+00 -1.152539084096722011e+00 1.863268976767124130e+01
-3.369838466357033990e+00 1.144876359913607811e+00 1.854544774002589591e+01
-4.964987195295741174e+00 1.204012810954570689e+00 1.879652540235649028e+01
-4.547013393484313326e+00 1.156926501314857969e+00 1.877692418685370157e+01
-5.349959299267263546e+00 9.987902739953409270e-01 1.887274375025419815e+01
-5.610013415405513015e+00 8.333499189101840621e-01 1.892767733326879309e+01
-5.747340260791050426e+00 1.287803793733410807e+00 1.875895795876084193e+01
-4.792854538335665993e+00 -1.156915488807690906e+00 1.570594128702854775e+01
-3.201734286465760970e+00 -9.741087176414937598e-01 1.488688510761561545e+01
-4.850170841257496201e-01 -1.590792469792843722e+00 1.459693273376217704e+01
-5.114185968132998195e-01 -1.686222359991714992e+00 1.463049074298291785e+01
-2.787136976516330078e-01 -1.396845280523168142e+00 1.478777888911810479e+01
-3.471042780363609026e+00 6.622460115378725476e-01 1.870166109515659869e+01
-3.578328917285074517e+00 8.369039969069942408e-01 1.867304474393218428e+01
-4.159807743307661454e+00 1.078324626052599378e+00 1.872681200741240204e+01
-4.313833484472854529e+00 1.227812312606617606e+00 1.871287596126110131e+01
-4.482131241322740323e+00 1.232550473772466404e+00 1.874167516089782382e+01
-1.585871615692433512e-01 -1.721845529559950183e+00 1.669818328510909211e+01
-4.372739355524031701e+00 5.733608529174952784e-01 1.893935792951205244e+01
-5.142131273972909256e+00 8.535632094953831128e-01 1.892021372412736824e+01
-5.446517489941292922e+00 7.401791478676627012e-01 1.896170992921392795e+01
-5.756555969693305741e+00 6.062820922619006625e-01 1.900386172047044298e+01
-5.973559684631313260e+00 3.844648974824441678e-01 1.907179178764510041e+01
-1.305912991934046197e-01 -9.011272515083164070e-01 1.570910867510123055e+01
-6.147565535464716291e+00 6.001971895523757761e-01 1.898142523922185987e+01
-5.930716920028133998e+00 8.142605002627582023e-01 1.891772157284357192e+01
-6.119387187543960493e+00 1.117679241738461116e+00 1.879199178423362682e+01
-7.876878398559776784e+00 8.597559812761692566e-01 1.755442290860489507e+01
-6.950249178690402374e+00 -5.914048719281188582e-01 1.449550678888930477e+01
-4.958088729017580576e+00 -1.252622942618468738e+00 1.583615259432011513e+01
-4.783633257255573312e+00 -1.579973885597558247e+00 1.610302962781002023e+01
-3.149271975527567324e+00 -1.435457657072843451e+00 1.539182385479788095e+01
-2.825318630143048848e-01 -1.801250151810249722e+00 1.519342504562557039e+01
-3.169214354156836944e+00 4.418820939835672590e-01 1.868823735949834841e+01
-1.114907689837167926e+00 2.938138451325406741e+00 1.643200005104679562e+01
-3.326400382842445325e+00 4.563056539762026520e-01 1.872278459197496048e+01
-6.642374019496941173e+00 -9.238497618401206868e-01 1.948521901468938822e+01
-3.170089408314652246e+00 2.030105746395981514e-01 1.875472294079530045e+01
-3.578681508444068626e+00 4.275767057131577009e-01 1.879349696960492722e+01
-3.378697747841201249e+00 2.305398786271476430e-01 1.879938864916134733e+01
-3.334522315782640689e+00 -3.092941903547008486e-02 1.886057770297464842e+01
-4.115079128920751117e+00 4.706339485707651260e-01 1.891157756364949805e+01
-4.696827421594901963e+00 2.742628901030433330e-01 1.910184514334439498e+01
-4.021017955192960791e+00 1.869178774976605784e+00 1.197000069745902451e+01
-4.569557171941649898e+00 -1.693564682639903118e-02 1.915478443684942889e+01
-5.954961021966184376e+00 5.859690699101033351e-02 1.918675281130102306e+01
-6.126081924112650512e+00 -1.467528913258597800e-02 1.920744166646769102e+01
-6.360123661901033287e+00 2.377682037882714594e-01 1.910879570397571214e+01
-6.129486446893588791e+00 -3.239021323242501360e-01 1.931018555702854300e+01
-3.974243386124586053e+00 -2.235735368616516450e+00 1.935240109307762779e+01
-6.441066183787659938e+00 1.278349772252017069e-01 1.914690885607904036e+01
-6.031341529567125548e+00 4.567698700327127881e+00 1.526810846481140160e+01
-3.551115270652091649e+00 -3.970035698552518699e-01 1.900745814426418789e+01
-8.280957949208172408e+00 -2.972753676867986306e-01 1.690887437038803043e+01
-4.963598431366781583e+00 -1.682183515028159881e+00 1.622240924394341377e+01
-5.137548944160627684e+00 -1.633375147349529488e+00 1.621480273094227087e+01
-4.439435375739902767e+00 -1.622487218182647073e+00 1.605430983816421886e+01
-4.394289246192244036e+00 -1.853303216276505516e+00 1.622697597746889286e+01
-3.026988236689403866e+00 -1.782220920201763370e+00 1.566670611166859928e+01
-1.820562508643744026e+00 -2.362107764575987368e+00 1.500876351115414664e+01
-1.721490670177306948e+00 -2.412032550281062893e+00 1.499632191820603921e+01
-2.471798370573487169e+00 -1.105642282046557234e-01 1.865752928285739998e+01
-3.818121622701034834e+00 1.669999380751838736e-01 1.892816579069296878e+01
-3.732459186436045240e+00 -6.228686316711844473e-01 1.910261057237362436e+01
-4.416864720725487636e+00 -6.015363129709816459e-02 1.913596741049828509e+01
-4.231315184419400133e+00 -8.837488995383291357e-02 1.910299715118484087e+01
-4.761403081665966042e+00 -4.743566509412247001e-01 1.929751966165128252e+01
-6.334532440622309579e+00 -2.504707284710347981e-01 1.928065458804895016e+01
-6.558732071986556278e+00 -3.556529246925975718e-01 1.930530893489643418e+01
-7.882116028434795751e+00 3.024643231230916829e-03 1.820274634993788609e+01
-7.930857114367380944e+00 -6.661441925374607109e-01 1.529893419138093336e+01
-5.313777578559802706e+00 -1.840226978538999525e+00 1.641512226285423637e+01
-5.205653287758940095e+00 -1.973363401066696277e+00 1.650102528415490966e+01
-5.392036254538986384e+00 -2.075946637025515962e+00 1.662671516791058579e+01
-4.980203175328002274e+00 -2.121191161248093593e+00 1.656842966766327763e+01
-4.186685109916485459e+00 -2.104192058130147647e+00 1.636409135709984852e+01
-4.580651718876005418e+00 -2.361360060725505416e+00 1.665249661962407757e+01
-1.657008479504602505e+00 3.617250656809329445e+00 1.648657023119984544e+01
-4.135521929954568243e+00 -2.444578544013884969e+00 1.659565458014128225e+01
-1.362691251945422399e+00 -7.748470479914240094e-01 1.854973142249179219e+01
-1.935476132892905099e+00 -5.579139885113988395e-01 1.863866217345232812e+01
-2.004943554524693639e+00 -6.617313837557228240e-01 1.866942352919356196e+01
-3.005381999891281630e+00 -4.887654425617364851e-01 1.889086044888981419e+01
-5.998184070090436748e+00 2.120938567774136807e+00 1.275085468600913785e+01
-3.314648037720012042e+00 -7.883576214005594274e-01 1.903014182348633554e+01
-3.371278299483777552e+00 -6.089307853052015052e-01 1.900893131219946852e+01
-3.407046159120769691e+00 -8.685174675229956343e-01 1.907006997742842103e+01
-3.585047281100749217e+00 -8.506088932670323732e-01 1.910953556517069885e+01
-6.914411032209674346e+00 2.627228176858024122e-01 1.397749580865003693e+01
-4.006993196522989464e+00 -2.871294153755490353e-01 1.909471529595457540e+01
-4.520146683442087365e+00 -6.174410185321226319e-01 1.928365578905573940e+01
-5.202453898160952050e+00 -1.109947600231318887e+00 1.949455116655172660e+01
-5.334151847716514183e+00 -1.001293382409406352e+00 1.948527551281204140e+01
-1.438824952931777368e+00 -1.247884439785620581e+00 1.863471465301147489e+01
-5.730276690333836243e+00 -1.248128437040531669e+00 1.957209066817959453e+01
-6.131083768578285742e+00 -9.255206022753748041e-01 1.949727149603071652e+01
-8.277894288721629579e+00 -1.829801928910711695e+00 1.671401250029151342e+01
-7.341016619787632536e+00 -8.779578172503934574e-01 1.491100241818238104e+01
-5.007173648928734622e+00 -2.539990903982552783e+00 1.690116133467673265e+01
-3.479346478853480473e+00 3.096222476894725517e+00 1.391000615952154007e+01
-4.565069308177294616e+00 -2.740281077506151242e+00 1.692141765429787270e+01
-3.552219933279849418e+00 -2.425090533985782670e+00 1.641819854260804945e+01
-2.556365046084001058e+00 -7.852325113520643995e-01 1.883346516167854290e+01
-2.356729402588024769e+00 -1.014742830424437026e+00 1.882286870042424809e+01
-3.325074079713010278e+00 -1.443408532519449228e+00 1.913265740820164140e+01
-3.166734004773311462e+00 -1.252719326696762003e+00 1.907030108267865742e+01
-4.041256417354320618e+00 -1.190099951847321202e+00 1.927032530689210077e+01
-4.949425837545502915e+00 -1.173923701965746469e+00 1.947110807237352859e+01
-5.335117007262409672e+00 -1.621819856576231622e+00 1.959958369003868839e+01
-6.705208337026201448e+00 -1.047117753573238552e+00 1.951915245022007284e+01
-8.194762899678361023e+00 -1.399669804704266163e+00 1.822933520680721031e+01
-5.773062102344422186e+00 -2.669265246982379214e+00 1.717684709706810864e+01
-5.790890873860622179e+00 -2.457548615875182918e+00 1.700609408698892011e+01
-5.441342138748314738e+00 -2.839043127742288064e+00 1.724769015635029135e+01
-5.000922893360648658e+00 -3.001474622434985751e+00 1.724462851862712753e+01
-5.178327066563273462e+00 -3.130200319949379750e+00 1.739430174848336819e+01
-4.402892431102555904e+00 -3.011679667810807981e+00 1.705438598842625098e+01
-4.269119900441307180e+00 -3.025185912570056423e+00 1.701980843540991017e+01
-3.719708142275891749e+00 -2.859826200614907332e+00 1.675353251576183666e+01
-3.611054814892214360e+00 -2.781272841175173038e+00 1.667289805745999232e+01
-3.725967136349816133e+00 -3.251100356256159785e+00 1.699960126062849142e+01
-3.230698945451139004e+00 -2.580327733381122091e+00 1.642203629190827385e+01
-3.131277163381668949e+00 -2.861920857946014696e+00 1.658180219486034801e+01
-2.799240071887301617e+00 -2.793240965989477242e+00 1.641592174725001385e+01
-1.284961794992041106e+00 -1.299552014719829396e+00 1.860423970842523644e+01
-2.176213212865899305e+00 -1.482537989526212741e+00 1.884572992122988566e+01
-2.353365917191079681e+00 -1.593455201957666656e+00 1.890888799023610645e+01
-2.815664536723678779e+00 -1.805934750565191482e+00 1.905134632774863590e+01
-3.376448976979471883e+00 -1.989790193628170556e+00 1.919984680769848850e+01
-4.563861131340541277e+00 -1.418268281025011568e+00 1.942375305693792953e+01
-5.672432596016024675e+00 -1.784900679343131014e+00 1.967044018691049345e+01
-5.952883893937595872e+00 -2.485224433174782810e+00 1.704542377106621487e+01
-5.066539385240023563e+00 -3.250594915817150099e+00 1.744388312087351878e+01
-3.566764063408379482e+00 -3.256503688596952717e+00 1.696383327903600602e+01
-3.543251456750219130e+00 -3.529444159850291474e+00 1.713450572462386035e+01
-1.367076324355793071e+00 -1.763775012608877812e+00 1.868820612749898302e+01
-1.856373378250292250e-01 -2.116670126693121379e+00 1.627544593294242148e+01
-1.703698986756688516e+00 -1.824186951286034919e+00 1.877970271504225153e+01
-1.953753993483315687e+00 -2.015796622274152572e+00 1.885680334228669963e+01
-1.662382996648291034e+00 -2.025751142369864422e+00 1.879299027336926642e+01
-3.020901173977001974e-01 1.176523935190238457e-01 1.461489736112345028e+01
-4.679335489733245090e-01 1.458200805783057330e+00 1.582080115422011701e+01
-3.131034163488382482e+00 -2.172571692218219663e+00 1.915311998549703176e+01
-7.666404027483450179e+00 5.387304075533854153e-01 1.478736870692768335e+01
-2.603978315272420296e+00 -2.078974055393122189e+00 1.902411322614165456e+01
-3.481564822805213844e+00 -2.125650421059425810e+00 1.923156419997122768e+01
-6.464356402815475633e+00 1.959286187932844481e+00 1.304280553594311343e+01
-3.575412723609247223e+00 -2.195593530616894107e+00 1.925509390973294543e+01
-4.132563891222753583e+00 -1.807836162206443387e+00 1.936519577347053556e+01
-4.370364616823071202e+00 -2.000271014086666632e+00 1.943328763661615355e+01
-4.927693440557693094e+00 -2.421439601020868970e+00 1.957248270540627644e+01
-4.955245409258170142e+00 -2.225684212890972180e+00 1.957065698673963894e+01
-5.365297900471707848e+00 -2.415698574910039476e+00 1.966422480725817579e+01
-2.173683415581004752e+00 3.904938239173179060e+00 1.624932343865357254e+01
-5.447259134071330777e+00 -1.996673208151815260e+00 1.965095813287671334e+01
-5.614302030270520660e+00 4.532365898806984816e+00 1.512443008086133389e+01
-5.591913950469303174e+00 -2.032779911229642966e+00 1.967743201956124111e+01
-8.064756380197572128e+00 -1.858940913258896543e+00 1.875022784219536831e+01
-8.268723385502340761e+00 -2.275370307114654267e+00 1.788172855421963092e+01
-5.788263182669938445e+00 -3.243553790371947354e+00 1.765070622890350549e+01
-3.909972583345413977e+00 -3.692976399546974431e+00 1.735561281747123630e+01
-8.582109826944565034e-01 -2.149038229747596507e+00 1.859667825649055928e+01
-1.664975906559570173e+00 -2.124335254570439702e+00 1.880235016158529859e+01
-1.481131802814799281e+00 -2.407608922507852078e+00 1.878504480281326394e+01
-2.538984274186468326e+00 -2.236782952331881624e+00 1.901673407664260296e+01
-2.784767629283212642e+00 -2.621063694571032165e+00 1.908244454246727528e+01
-2.751082731814756599e+00 -2.411802151600238808e+00 1.907131704303014530e+01
-2.969129610311698197e+00 -2.588694033314999476e+00 1.912600945653985107e+01
-4.145858990459768911e+00 -2.609278315970156026e+00 1.939616140571704861e+01
-4.351174511231626241e+00 -2.270433637549103878e+00 1.944015488139445225e+01
-4.518496147836083665e+00 -2.213043040867189060e+00 1.947617506831130285e+01
-2.652066459232617301e+00 4.048446136341008028e+00 1.595198335248438681e+01
-4.896779893347359192e+00 -3.716279510970804001e+00 1.777635304690468487e+01
-4.523421269736088490e+00 -3.893675449945642075e+00 1.777665268941881394e+01
-2.613893468134136366e-01 -2.215116512546705607e+00 1.786807003198492438e+01
-2.298151533267819957e+00 -2.607473207055345465e+00 1.897390741470799114e+01
-2.541813099446589952e+00 -2.808075203001072051e+00 1.903155969713182216e+01
-2.320611665513108157e+00 -3.019271876729006543e+00 1.898595586609768660e+01
-2.778020226189651165e+00 2.211144560838242068e+00 1.361360279241241145e+01
-2.964575849050664846e+00 -3.212176664064072984e+00 1.910473191723903241e+01
-3.320366274513690819e+00 -3.204954572916714373e+00 1.918089551460493780e+01
-1.426855467548429734e+00 2.858604162560896444e+00 1.590230030172132203e+01
-4.146089670930503956e+00 -2.986712292257356349e+00 1.937588425209675691e+01
-4.386301902264805541e+00 -3.154474050416121500e+00 1.941552452339715629e+01
-4.147932620454191976e+00 -3.425000542879275578e+00 1.932673943897136226e+01
-4.319181563540148261e+00 -3.246121448686981381e+00 1.938907948654513902e+01
-7.317082502829745039e+00 1.969342845039414036e-01 1.451447238227212111e+01
-4.948065573336375422e+00 -3.872651654212678540e+00 1.799831862195923904e+01
-1.596623749997566177e+00 1.900195175599954100e-01 1.294875960564180062e+01
-4.411008070480498588e+00 -4.074040863489418740e+00 1.796181219695869302e+01
-1.568452238926872688e+00 -3.460563283099819198e+00 1.629459973107927695e+01
-2.427512401161691535e+00 -3.375202747438889261e+00 1.898682173550790608e+01
-2.457682034965896101e+00 -3.655615009976121765e+00 1.895745939351430920e+01
-6.927214747634627301e+00 -3.307858760800784115e+00 1.798775622480031799e+01
-1.314832282001847652e+00 -3.416235363361948885e+00 1.875575290848896159e+01
-7.287047871313927061e+00 -3.509190248889236141e+00 1.859954613315627725e+01
-2.007427124695875253e+00 -4.236080008484089277e+00 1.760585447322756281e+01
-2.351117130369246855e+00 -4.266983585527611922e+00 1.772594458177274745e+01
-1.933554596277550885e+00 -4.265122083452606461e+00 1.771212169598377884e+01
-1.566566951014446207e+00 -4.263628755766619705e+00 1.771465287666088884e+01
-1.606181936328255011e+00 -4.232410804885994082e+00 1.760156425279043546e+01
-6.059560752917194648e+00 2.802492794892451844e+00 1.346792668143114113e+01
-1.317928514783129446e+00 -4.030762322274334508e+00 1.698227795140511986e+01
-1.218921302305553400e+00 -4.027717140946835528e+00 1.698237086428536813e+01
-9.948698296626544701e-01 -4.067968187068752073e+00 1.709693319021205937e+01
-7.533499895401443158e-01 -4.022568819250135874e+00 1.698773301607783637e+01
-7.864557806827917830e+00 -2.890521012595694827e-01 1.514711078440759096e+01
-7.616772815993298806e+00 -4.759540057802773561e-01 1.500877525594792772e+01
-7.586986642182250051e+00 -7.364080940978654510e-01 1.505788030782229825e+01
-7.075502811088510313e+00 -5.059828195971725062e-01 1.456442454878202497e+01
-5.130661329006242610e+00 4.428114474491060548e+00 1.480435938564760434e+01
-7.292777816748969855e+00 -5.360469598076011977e-01 1.475213240581699736e+01
-7.017324889098528473e+00 1.594118151682553663e-01 1.421962154807635059e+01
-7.497965296996470741e+00 9.258192658591593016e-01 1.438998013741199955e+01
-6.514456240862916303e+00 3.414705593861562249e-01 1.334629093960606738e+01
-7.467150353226783110e+00 1.142341478012145473e+00 1.421834198479652756e+01
-6.693444267113433099e+00 8.041021319420793567e-01 1.320452639086957092e+01
-7.448658256665879662e+00 1.911531576014926515e+00 1.402123556257066994e+01
-7.494612990438644928e+00 1.769263438933639021e+00 1.405627702285487501e+01
-7.355398220724239877e+00 1.580058606673649724e+00 1.391516621430710998e+01
-7.344404934039584276e+00 1.343568641516363904e+00 1.396518548076282329e+01
-6.589817870132462119e+00 1.024773597501756894e+00 1.294348535629271524e+01
-2.615199007404894749e-01 1.105940438983577190e+00 1.598122620199498201e+01
-2.034986326421576730e-01 -2.945102240072845490e+00 1.649514870970644509e+01
-2.051511155438617284e-01 -2.909947494753935437e+00 1.685900576454964650e+01
-1.977384995048686589e-01 -2.682275749280457422e+00 1.630353541136762274e+01
-3.950637025749261344e+00 5.338214989074707262e+00 1.627601353270043560e+01
-1.556785595540142730e-01 -1.780828990201831719e+00 1.714754218397630936e+01
-2.445299875982172300e-01 -2.098618335255867162e+00 1.548533347163896323e+01
-1.933244509693875512e-01 -2.137132513735930495e+00 1.606618661381101631e+01
-1.344771082870826473e-01 -9.729757339908804425e-01 1.710587467566333331e+01
-1.898588066774715144e-01 -1.928966775864907834e+00 1.591482149891512066e+01
-1.347748342330818971e-01 -9.176185880292446750e-01 1.673396151555386879e+01
-1.383454731824600437e-01 -1.179059308386062321e+00 1.687170606759077529e+01
-2.071523079160181080e+00 2.263205880602371600e+00 1.450548666621819294e+01
-1.660268465851706399e-01 -1.300204713774413490e+00 1.545355619959869742e+01
-1.181405542838508960e-01 -1.607269753921969357e-01 1.657554752900219697e+01
-1.546439520559625969e-01 -4.712281281631378604e-01 1.491548888206034817e+01
-1.405015545740546101e-01 -8.923773357504081183e-01 1.534531088089798700e+01
-1.212749828043859779e-01 4.572379988530463346e-01 1.656301273991972423e+01
-1.098126047387149029e-01 9.326894868818463857e-02 1.637407016716963781e+01
-1.531581395672165780e-01 -2.786692451245059710e-01 1.514406963813115325e+01
-2.258378921029029485e+00 1.911869396192339421e+00 1.386650576368346677e+01
-7.010541860445149709e+00 3.573435431935613193e-01 1.405337135966673756e+01
-1.394825539427846373e-01 -2.753199527322213180e-01 1.535949259671969358e+01
-1.230049277735543178e-01 4.919484938360052517e-01 1.614680953791869555e+01
-7.121048203096366436e+00 3.028082027329424886e+00 1.459021230828239979e+01
-5.832286666307675560e+00 1.552985427789947748e+00 1.214850230933786079e+01
-6.822588950296934129e+00 2.365267016232019515e+00 1.369077991939414929e+01
-6.083597598910008841e+00 1.608991593703600786e+00 1.242124192159436902e+01
-6.241753963853430065e+00 1.779950908032478463e+00 1.269216510189584923e+01
-6.470759562399170051e+00 2.238181382892293847e+00 1.328206427880241236e+01
-3.053901486295080403e+00 4.435378224715202933e+00 1.599151577805990954e+01
-6.633701859316241567e+00 2.753442822646422261e+00 1.387648417370951037e+01
-3.985528352355620640e-01 1.681989997399169878e+00 1.639559739876949962e+01
-9.219605915229049931e-01 2.918755532219416082e+00 1.684037215373559704e+01
-3.205739005898741167e-01 1.353103566136735658e+00 1.613590739587220568e+01
-3.266636789033918187e-01 1.134178449555218737e+00 1.576397302610185491e+01
-6.683019376038787485e+00 3.598555680519739841e+00 1.467897287385067884e+01
-6.337747163559441788e+00 2.066837619319245700e+00 1.301581177940789402e+01
-6.399313963242070358e+00 2.350219687942114888e+00 1.331543722270793850e+01
-6.499921596831965687e+00 2.624917023068804589e+00 1.364648655519517817e+01
-6.585905672664683408e+00 3.334982718848036320e+00 1.434316401306710631e+01
-6.293537484428330941e+00 2.390545606813259560e+00 1.325463440594475983e+01
-5.029458371082371926e+00 1.583746407410418833e+00 1.167301351353229322e+01
-5.315529746142479084e+00 1.648927043851321272e+00 1.183522018950657539e+01
-3.060372219322887499e+00 4.995544856447299509e+00 1.658749321781008135e+01
-4.862885911154559704e-01 1.649513624486284913e+00 1.604181823393026818e+01
-2.717813183663060350e-01 1.666729217687464293e-01 1.475127937197728656e+01
-9.536615294387721375e-01 2.692196465087090651e+00 1.641493720787115151e+01
-6.346867610045404007e+00 2.679446968474722635e+00 1.355448271746152855e+01
-6.301258148948214455e+00 3.020713826040847927e+00 1.382427777891471621e+01
-6.407803197562314423e+00 3.289723430071045840e+00 1.415891519814621446e+01
-6.212688243271159649e+00 3.858582156620529613e+00 1.462240228916327212e+01
-6.060423835277278570e+00 3.988997426105448607e+00 1.470272075199703110e+01
-5.395294184002214166e+00 5.043754036425529108e+00 1.562344505110237591e+01
-6.036022733286566577e+00 3.400367831513367189e+00 1.408155423986120169e+01
-5.342636368893781906e+00 1.885497381590882204e+00 1.201181814192621644e+01
-5.431499002557686140e+00 4.594927128143801554e+00 1.512880211758998783e+01
-5.686320774168629910e+00 2.432764079262261347e+00 1.282257681684369643e+01
-5.555593938694361356e+00 2.489509544719891831e+00 1.278839827428916109e+01
-5.658418042900352773e+00 3.014822307476487051e+00 1.345147006476133456e+01
-5.646345494751239258e+00 3.767492668834946379e+00 1.430281092086010020e+01
-5.625489976762098721e+00 3.972406145747870987e+00 1.452242527793513815e+01
-5.469496402461729190e+00 4.002927424384700394e+00 1.448291410929160961e+01
-5.483560514152976850e+00 3.816546979137870554e+00 1.427599517315436017e+01
-3.302262782948999220e-01 5.585437927286107662e-01 1.491299428680492767e+01
-1.056347984966365061e+00 2.793033510972850131e+00 1.632918769702540729e+01
-5.294884568687652227e-01 1.375043267646544720e+00 1.552676298980101066e+01
-4.640606779900672829e-01 1.078812397110032739e+00 1.524271001859019847e+01
-5.272718250199746493e+00 4.604627777232817465e+00 1.507496667995788542e+01
-5.169147363694596820e+00 1.916766428882389572e+00 1.192775707571174948e+01
-5.328498293601645841e+00 2.482962346692496602e+00 1.262645237890354721e+01
-5.432413180286426169e+00 3.546389783456202149e+00 1.393394677801368076e+01
-5.173013146284644037e+00 4.239071765670241021e+00 1.460729976592594781e+01
-5.221185853993633330e+00 3.304068983220778577e+00 1.354623312806631574e+01
-5.531266044453254649e-01 9.598428634305362639e-01 1.495363084584609581e+01
-2.565958213673965371e+00 1.455884426396680809e+00 1.295716356491000809e+01
-4.547394172756364483e+00 5.197996361346303829e+00 1.571396075858213592e+01
-5.024900425274607230e+00 2.156403631945580379e+00 1.211824201821510982e+01
-4.838169035534722440e+00 1.727236736106327442e+00 1.173509242002922193e+01
-5.127880575979393285e+00 3.236241821016491826e+00 1.343372632448776116e+01
-3.679195229155972857e+00 2.145819902150048808e+00 1.252539956641040320e+01
-5.023095766394904516e+00 3.147683046769013782e+00 1.330703936305618740e+01
-5.036715936921350334e+00 3.912715871638977383e+00 1.417823125568078169e+01
-5.038465157268658956e+00 3.696226555091370436e+00 1.393398144746570821e+01
-5.128705409376404845e+00 3.608082330126372028e+00 1.386223614694601380e+01
-4.653066632628870991e+00 2.048327577512744746e+00 1.201911304541101444e+01
-5.028864109731445708e+00 4.461077425868623436e+00 1.480090346749704011e+01
-5.057784107780081584e+00 3.996537861864739583e+00 1.428146621704410890e+01
-2.801342634448753088e+00 4.311501402711146014e+00 1.610134220224162149e+01
-4.810266096619812970e+00 2.907141322978253228e+00 1.299254302253629234e+01
-4.849375764893792962e+00 3.700229726303565503e+00 1.392632119233674715e+01
-4.698584073426793850e+00 4.840875861065159214e+00 1.524189455002619908e+01
-4.830885641966249366e+00 4.656801992438920124e+00 1.501591715018618700e+01
-4.832226493950010138e+00 4.428220446699537405e+00 1.476988461385063900e+01
-4.443439363028669042e+00 2.216721841013910677e+00 1.223337898730703799e+01
-4.609061672194622261e+00 3.945377066497004925e+00 1.427451241565034579e+01
-4.652011808793748315e+00 2.959681475625411284e+00 1.308409127369528235e+01
-4.493766282372330778e+00 3.666699415312363541e+00 1.398366213869166685e+01
-4.415361360706325122e+00 3.214990520456491918e+00 1.346363520788466772e+01
-2.344791690259196315e+00 4.315869320232298634e+00 1.650220214879458425e+01
-6.908700048813308792e-01 2.213614348711268498e+00 1.631732746474112261e+01
-4.862763309103713683e-01 4.911052783176281245e-01 1.458463848818565012e+01
-6.503137262093050541e-01 7.298310636222911096e-01 1.458523739596425273e+01
-1.728446287895754940e+00 3.334428522675435547e-01 1.285231225719699566e+01
-1.377886781898941093e+00 4.174491114541929448e-01 1.334092782879736561e+01
-1.285583708303655648e+00 3.862340105738855112e-01 1.342909546713562108e+01
-1.962771829551487990e+00 4.512174686251909650e-01 1.269380208996333792e+01
-1.745916589352281445e+00 4.411552600526326140e-01 1.291912030389068988e+01
