-3.318051838325968284e+00 1.794459416451343881e+00 1.432650918192755540e+01
-9.320098904784664740e+00 -2.970203475264422188e+00 1.288606965217005040e+01
-8.882430610404835392e+00 -4.165689738198888215e+00 1.692574263379628263e+01
-1.029321698134168273e+01 -1.575368566280246352e+00 1.561234472172396437e+01
-6.581293089129435003e+00 -2.256808285496870070e+00 1.460833142924357020e+01
-4.675955472422061554e+00 2.659991015233327705e+00 1.718606142205918275e+01
-8.731650216186121582e+00 2.760645621468381883e+00 1.522724963466116321e+01
-3.291557847895410838e+00 -7.760638247563546033e-01 1.835306021414426425e+01
-5.446483694852750190e+00 -2.450701592971224141e+00 1.512783326549341467e+01
-3.057774793206724961e+00 -4.178137445026966823e+00 1.576460081775136501e+01
-1.012922059092009519e+01 -4.191208311290162136e-01 1.351737573216797728e+01
-2.929152249678593112e+00 -1.197263175474037045e+00 1.827806618236124336e+01
-3.691604337472909947e+00 9.170677209600335278e-01 1.792727868160651639e+01
-5.040505598810859134e+00 -1.641355957696575718e+00 1.832176062209995848e+01
-6.101719888748503351e+00 -5.122302642744805290e+00 1.629955787479859453e+01
-7.459440695628289042e+00 -2.397932171393898138e+00 1.395459625906230627e+01
-5.083060259577939277e+00 -2.395441949091420053e+00 1.518779630249243695e+01
-2.313251563480406059e+00 1.719660414005957372e-01 1.381921196902634108e+01
-3.448222662870112032e+00 1.827265428729889507e+00 1.409664952022124851e+01
-7.638358196593423521e+00 -2.246691250903089521e-01 1.113679397620698097e+01
-1.888794877068185052e+00 -1.057638559223613495e+00 1.644224543672758898e+01
-8.525297237331415090e+00 -3.623318270307696043e+00 1.715581522200126585e+01
-4.392146612070463085e+00 -1.502884011987138724e+00 1.408355280678861732e+01
-4.917415383794002004e+00 5.764348729985925290e-01 1.023831689646621612e+01
-7.698995056997950392e+00 -2.552996389271855904e+00 1.335144363939631518e+01
-1.934005493541062215e+00 -2.544933964734487075e-01 1.401471997248500401e+01
-2.391650192096617555e+00 -2.709115490762541878e+00 1.753658323573020539e+01
-3.771596798148108221e+00 -4.370771563623926603e+00 1.626030784018915654e+01
-5.026138867942411714e+00 1.637083530646107565e+00 1.751332000813562217e+01
-5.680810981255287828e+00 -8.584898835925528493e-01 1.258006480698279717e+01
-7.987268792022976349e+00 -3.214024712780176429e+00 1.745968675602072295e+01
-8.035182263911710976e+00 8.159789878995256096e-01 1.678826702294652762e+01
-2.813744733903988049e+00 -5.451837337545931694e-01 1.805974622211086000e+01
-9.047158290474907716e+00 -4.809488322148464334e+00 1.510157437106952472e+01
-2.025359074607224308e+00 -8.720431882943781021e-01 1.722294491593389409e+01
-5.727543976021205019e+00 6.278957253778163494e-01 1.018483434825476053e+01
-6.833773741707016569e+00 -2.601222152501520668e+00 1.795985340948477926e+01
-9.190358971629187579e+00 4.376767253985750505e-01 1.623362722848158768e+01
-4.217238175698392766e+00 -2.292634625792751457e+00 1.515956692112486337e+01
-3.459506899805231406e+00 2.479494835314906886e+00 1.547350952096737586e+01
-2.151283882481862975e+00 -2.649923599602906243e+00 1.668905961082824518e+01
-5.226891184287064895e+00 -4.627980095992694665e+00 1.836667617673123942e+01
-6.806387449194617467e+00 4.175749042661871968e+00 1.578859637580299591e+01
-6.175454981177116665e+00 1.182787329930942821e+00 1.071932533262934584e+01
-1.020233024438727298e+01 -1.038582803028666568e+00 1.368555925829987530e+01
-9.579504425432407544e+00 1.485514753955683442e+00 1.411110654845715118e+01
-3.471361354983751646e+00 -2.013892495183204012e+00 1.862688630635424403e+01
-5.429466639423369045e+00 -5.341971262386000063e+00 1.811054549467085906e+01
-4.363663849832103203e+00 2.145807195583925964e+00 1.321482365534218673e+01
-7.374763992283223324e+00 -5.267350549490049438e+00 1.686457685236486981e+01
-6.971982534898361727e+00 -1.687258865538288521e+00 1.345038216111269946e+01
-8.554130220479702729e+00 -4.630678658476960585e+00 1.678500726272870480e+01
-1.913101321557641565e+00 -2.041095613902934591e+00 1.597513364961882587e+01
-1.019258035333474055e+01 -8.582368246346055995e-01 1.368137641674069727e+01
-4.962033701880639747e+00 -1.298319463446662603e+00 1.358926500084444910e+01
-2.464293748596805500e+00 -4.078137887330343325e+00 1.619245665396551459e+01
-8.228341815897895373e+00 -3.051795949173326861e+00 1.307188639158178489e+01
-5.001283304616300107e+00 -6.379837146430417105e-02 1.123153873018699045e+01
-1.020245167696678834e+01 -3.690106478182884508e+00 1.451637175585564421e+01
-2.858535983420216198e+00 -3.939262494896532907e+00 1.780221112774611925e+01
-7.406479834580962596e+00 -3.070284981832372750e+00 1.471894448631387320e+01
-4.570588729610840062e+00 4.152983567327362957e-01 1.054474241183574179e+01
-7.617546180500492703e+00 -3.397422721683985181e+00 1.480402577708149181e+01
-1.017504421815870330e+01 -6.464058616744046137e-01 1.368974073519515144e+01
-2.377498081324920243e+00 -4.800724658443817905e-01 1.772578901216077440e+01
-7.248357702106419609e+00 -4.037496529179649407e+00 1.547720816095507956e+01
-2.160563595280396765e+00 -1.307150604976339725e+00 1.376789325821722798e+01
-6.216915020642343137e+00 -1.969016377368457138e-02 1.772192946994375973e+01
-4.784823715677371858e+00 -1.497826861014504907e+00 1.404835967770832639e+01
-2.976945298800111939e+00 -1.573857733898296196e+00 1.364674507220637878e+01
-2.220001235744713863e+00 -1.465635424363870065e+00 1.382303946679832762e+01
-6.977305808275936272e+00 4.370788994131378224e+00 1.562479432101436316e+01
-8.992718108222248929e+00 -4.478206945957979634e+00 1.478825950893781283e+01
-4.909242478785469821e+00 -3.921174761754182114e+00 1.625830083560094153e+01
-9.793555772456688402e+00 4.050467491227475181e-01 1.312378077388783737e+01
-5.278750636783970940e+00 2.207737034921969155e+00 1.194018054837361120e+01
-2.668544132855787954e+00 -4.136997709637764586e+00 1.725268325688433890e+01
-5.204738383416836811e+00 1.777870408324957019e+00 1.099352536596515506e+01
-2.156845001661124250e+00 -1.553735477288967548e+00 1.396603134595535778e+01
-1.795341518673492676e+00 -1.321925926805379792e+00 1.421771978162761485e+01
-2.883215582929490317e+00 -2.298299663719830521e-01 1.219794454703192343e+01
-5.355888447226596405e+00 -1.223203121206734689e+00 1.333654410507865151e+01
-2.474496826478415734e+00 -2.153405979139368043e+00 1.787248090252386135e+01
-5.884781541072142907e+00 3.417651296416743811e+00 1.440869199263781297e+01
-1.019653079443685684e+01 -1.235370035098099173e+00 1.365107066411736270e+01
-1.935396399297898196e+00 -4.832078451466438329e-01 1.344608943744800200e+01
-4.251030776409837841e+00 3.357404454560290130e+00 1.699790119080753215e+01
-6.477771970470319829e+00 2.102667273441287676e+00 1.191441047171130663e+01
-5.052206831493625927e+00 1.752608025278982407e+00 1.099545906689438368e+01
-2.118206647810324306e+00 -2.657691902167842013e+00 1.652479040263845178e+01
-6.291425345574579886e+00 1.837757941179312571e+00 1.714168875699149197e+01
-1.003215418029174799e+01 -3.770531345318253180e+00 1.426388406524162633e+01
-1.017204263006717468e+01 -1.031755911999761466e+00 1.347617285100097462e+01
-3.053913744043706746e+00 -4.542755016643199362e+00 1.630827448848737049e+01
-7.232232561152795114e+00 -6.072795430030555330e-01 1.750362338867389411e+01
-9.380876743008112584e+00 -4.531704725008686374e+00 1.471364450967253390e+01
-9.392972829396647683e+00 1.404598791842047945e+00 1.365354713132289532e+01
-1.015110197553506666e+01 -6.440415988958130278e-01 1.351434054557577724e+01
-7.205914201550178255e+00 3.696036505056280230e+00 1.599195394288992844e+01
-4.058839882375185226e+00 -2.644410782514795333e+00 1.538509174034992100e+01
-3.283913455505294010e+00 -4.769162772025574704e+00 1.668129298219486856e+01
-6.847825348601526585e+00 -1.851755879064250210e-01 1.118111194411844167e+01
-1.012196919737888834e+01 -6.238703479241225480e-01 1.339267178994640517e+01
-8.549113109252168385e+00 3.116872270498047826e+00 1.504080373331115794e+01
-2.710863337022112241e+00 -1.576675138265350107e+00 1.364454581580093873e+01
-5.757652626497832493e+00 3.776402234936373059e+00 1.524522481811434460e+01
-6.417827690778091565e+00 1.868952039200930115e-02 1.099445854238147291e+01
-7.574565539917434087e+00 -2.653278658562226333e+00 1.413618726886868160e+01
-1.779661843938408428e+00 -1.784480359584671216e+00 1.520850640870767023e+01
-2.702477551645577680e+00 -2.764427777569188560e+00 1.803262996853636935e+01
-5.445247192278113602e+00 3.920439021154684678e+00 1.653863286753720985e+01
-2.757893562041472624e+00 -2.100364858161006154e+00 1.413775331591725859e+01
-6.746922377156687745e+00 -1.386461979451607096e+00 1.308696205820823621e+01
-5.202959694413324065e+00 1.387558791334148722e+00 1.036412399078982105e+01
-9.085592137666385071e+00 1.120921415516220154e+00 1.310939365551132596e+01
-2.361005159837604062e+00 -1.633338238921932195e+00 1.382727854090402531e+01
-7.575438284095423747e+00 -2.372185593115934132e+00 1.339155021000435397e+01
-2.218712861553871374e+00 -1.980911508334159965e+00 1.429429880466809522e+01
-1.582852233731313341e+00 -7.391419338865097277e-01 1.466868279374035922e+01
-1.987932069408801627e+00 -1.530917629448492967e+00 1.415746338366938062e+01
-3.258247967697309289e+00 2.717883020215345447e+00 1.672946310037632145e+01
-4.389771227197247327e+00 1.464685948425256345e+00 1.135692298480960716e+01
-6.548738940786188678e+00 -1.398203533179397162e+00 1.332620288454111090e+01
-6.535817109376865552e+00 -1.453441439330455331e+00 1.348291545284651249e+01
-7.639224085202523717e+00 -1.833434760085522086e+00 1.754940366393896767e+01
-4.662394055851563301e+00 -3.272457365124278539e+00 1.588981607890097081e+01
-2.410722374302852522e+00 -1.104121732440501713e-01 1.766718986400412916e+01
-6.844927527452754568e+00 -1.764120474690621609e+00 1.388382918280168354e+01
-3.713884070226484369e+00 3.209194247486986562e+00 1.682457858291237329e+01
-9.839409022398751148e+00 8.907192415038575062e-01 1.444181169781757035e+01
-4.673271114961056405e+00 6.113853973983807144e-01 1.788966278795064113e+01
-4.173287062330421904e+00 -4.120111125325978563e+00 1.631140761911195369e+01
-5.349167208548338159e+00 -1.423615923447224318e+00 1.380058553998817672e+01
-9.838897987120503785e+00 -8.791454725321220520e-01 1.616357385512628753e+01
-6.714110254770826458e+00 -5.451262490740523603e+00 1.668584566152570403e+01
-6.445819485969786378e+00 1.221118241791300907e+00 1.734382897649441446e+01
-2.789006389029775157e+00 -3.556768226792049514e+00 1.784026495635566789e+01
-5.210895279247940159e+00 -1.388973046938523748e+00 1.375849313730364543e+01
-2.672100369588033431e+00 1.041969453932440892e+00 1.468033544157133718e+01
-2.332108114357604123e+00 -6.143310316258709936e-01 1.304332362886598418e+01
-4.941593350465276480e+00 -1.246800823652569168e+00 1.348405717797270142e+01
-6.523256280889181191e+00 -5.491031639499716732e+00 1.668927788993028827e+01
-5.891503640495321825e+00 2.027711510890726654e+00 1.146901631016127965e+01
-5.939503981090196838e+00 -5.727528915921731745e+00 1.727750822478110848e+01
-8.126405309939467969e+00 -2.754920563022996483e+00 1.280463582404926370e+01
-2.537098293947167793e+00 -1.559744247157764274e+00 1.367627372169292244e+01
-6.149301073713265176e+00 2.686189048894266129e+00 1.255465129866115603e+01
-3.140287787215862547e+00 -1.654142295272045260e+00 1.375978785632366908e+01
-7.425339085312587351e+00 2.831006901345058502e+00 1.348421544378332726e+01
-2.872220365176577417e+00 -3.999724662252284624e+00 1.562358648171487374e+01
-2.908526664174010179e+00 -4.372871912146385931e+00 1.764379834611568043e+01
-8.719358659149026636e+00 -3.053717814888226911e+00 1.280085166637543637e+01
-7.299455881394518286e+00 -5.282589924097045753e+00 1.626799240484825759e+01
-2.965380779104389575e+00 -1.783761634638600047e+00 1.384049813585946964e+01
-7.109143219570410288e+00 1.181171866615102761e+00 1.153269924993989548e+01
-5.014473339677476105e+00 1.459452372827420019e-01 1.087001131752048622e+01
-2.377854556450445855e+00 -1.506115826711770023e+00 1.372281340409145400e+01
-9.427037656646351849e+00 -4.482278709523711768e+00 1.591171435867060779e+01
-5.400603130534703311e+00 2.846006549722708723e+00 1.696773580069386611e+01
-7.714831901798832270e+00 -2.625390080419786720e+00 1.357345979756468068e+01
-8.639879121615258839e+00 -5.120247283070882283e+00 1.574810494460195542e+01
-1.037314743414241747e+01 -1.924915357273127015e+00 1.529888591960136779e+01
-1.736498993223559495e+00 -1.355138726141771777e+00 1.435962540669785170e+01
-8.834778174256250338e+00 -1.117360303178828396e+00 1.219657388416720778e+01
-2.621607178810472671e+00 -4.330827656934378211e+00 1.619796750233120974e+01
-6.394584948627450416e+00 -4.598578018210724316e+00 1.800894494614520625e+01
-6.301195572899989550e+00 -4.315470772619099726e+00 1.593774143962077261e+01
-1.040252245528843034e+01 -1.892286405746169020e+00 1.460052811432534980e+01
-2.274228822644587478e+00 -2.327626557949307617e+00 1.745696597333133582e+01
-2.373266375161283914e+00 -2.142122074543174826e+00 1.774033810456507609e+01
-4.996748737282213249e+00 6.657167742085285944e-01 1.009161478990854732e+01
-8.597015337387595935e+00 -4.288310061002128748e+00 1.479340363969291161e+01
-5.502457226684725811e+00 -4.134011104375370671e+00 1.615362014768158616e+01
-2.395710607339017084e+00 -2.324633269928963131e+00 1.772884153183250788e+01
-3.571567453891857369e+00 1.292468942632842399e+00 1.264878995551529783e+01
-3.685775446464774951e+00 -5.801773959309860507e-01 1.833917375614936418e+01
-7.173268941381466313e+00 -5.249044714585252791e+00 1.710444527423101135e+01
-1.031822276333904753e+01 -1.550101814467441219e+00 1.548145307910816371e+01
-4.304613390427330266e+00 -2.641652111978544770e+00 1.860826063725559720e+01
-4.212997445427668630e+00 -1.608846076611611497e+00 1.424886162617946894e+01
-6.957191524212025691e+00 -4.450485462967276540e+00 1.579147766877032666e+01
-8.899200193002712922e+00 -4.613190435025155800e+00 1.642909736549654554e+01
-4.212815434026473405e+00 -1.952586782148552746e+00 1.480901875546467750e+01
-4.549955710411210497e+00 -5.690728984145212443e+00 1.757800352041546432e+01
-2.244745099738980176e+00 -2.716792326257610579e+00 1.708661609320523667e+01
-2.902977068791817494e+00 -2.983654420408800689e+00 1.822774067638242457e+01
-8.626712512599723937e+00 4.608369755503665677e-01 1.655326733922652238e+01
-4.837380308848368671e+00 1.559614484040381832e+00 1.082509875346187300e+01
-2.730396576546128440e+00 -4.414799918778110843e+00 1.619861624156109770e+01
-3.052641250262609240e+00 -4.448773432733657884e+00 1.616155562892945596e+01
-5.428835775154016829e+00 1.980620081827933809e+00 1.730289923892300408e+01
-1.013854683529275746e+01 -2.779036035742911803e+00 1.598091520172384605e+01
-1.012346206459346831e+01 -3.441777732631379205e+00 1.414539952288567548e+01
-8.426467210020813781e+00 2.025516328319224346e+00 1.355213713714429247e+01
-6.438743530731315445e+00 7.824050533723559964e-01 1.059772568434893714e+01
-9.817374300108749452e+00 -1.346720947274179903e+00 1.630043380649364337e+01
-1.012432898339053366e+01 -3.675165912532199375e+00 1.432571614727125819e+01
-7.228756240806392341e+00 -2.801236046551502490e+00 1.462277188423730934e+01
-1.040049202084257729e+01 -1.525963651548110089e+00 1.482521458368576361e+01
-1.019185718785823980e+01 -1.396835453753309420e+00 1.364500141358583818e+01
-7.452389016180604564e+00 -2.991750296230422546e+00 1.460714993714991294e+01
-8.777293478208331834e+00 1.754791710200237720e+00 1.356788218453434069e+01
-9.357223149394908290e+00 1.647125073626280578e+00 1.514920077098026496e+01
-2.315811205161124153e+00 -2.322256542117425493e+00 1.757264172149944415e+01
-3.256622278014710048e+00 7.897737236652140336e-01 1.223179929609261052e+01
-1.016705983156565551e+01 -1.248766308113792967e+00 1.348281737130442792e+01
-8.022251209200327082e+00 -1.246554601565724507e+00 1.178698164786600699e+01
-7.079781119000582379e+00 -1.341310651723792713e+00 1.247074571191141956e+01
-5.662859101811488216e+00 -4.559654664060041052e-01 1.181330413954826497e+01
-7.977730974093732108e+00 3.286306235213932059e+00 1.569389484378749700e+01
-2.614092239150429098e+00 -9.944956091080970895e-01 1.800898647472908465e+01
-6.895753351700822265e+00 -2.007991893388008098e+00 1.415781506175621729e+01
-8.216271682986974412e+00 -3.165253701643727435e+00 1.370559535006613316e+01
-8.708099359333346001e+00 2.916325016155517869e+00 1.500082903732964468e+01
-6.784691933765995664e+00 -1.495679453991300534e+00 1.329024720395943149e+01
-7.482006642021048926e+00 -1.935403014740369798e+00 1.279992243879302549e+01
-6.567033118216777154e+00 2.175391977968460788e-01 1.077396576804186168e+01
-6.600217040097304810e+00 -1.480654882991569998e+00 1.350333197017397424e+01
-4.408998218006995984e+00 3.729171040240594870e+00 1.652982860594117653e+01
-4.317206141747436554e+00 -2.952125331291803434e+00 1.569053520104868227e+01
-8.961507190846855764e+00 -3.948849398930359911e+00 1.429788294537608806e+01
-6.398308788574095018e+00 -1.631026824753194937e+00 1.393117850370634159e+01
-4.503613447808443304e+00 1.448578158758132006e-02 1.807428235309888720e+01
-2.841787132281253125e+00 -4.109555870148972723e+00 1.574443733816513458e+01
-7.721363782318012348e+00 -4.970562650410486505e+00 1.723889634391861847e+01
-6.692111127957013572e+00 -4.266502846240554092e+00 1.580376698890676579e+01
-6.599646936496874616e+00 3.028475498081697026e+00 1.312702816577392184e+01
-8.517143597371472197e+00 -4.243394383227525601e+00 1.713623546327340108e+01
-5.159997529522129867e+00 -1.318783936169539484e+00 1.359491464613256539e+01
-5.773633077652649881e+00 4.196948317950814356e-01 1.042946352382898567e+01
-7.717083717195087011e+00 1.455037751786079969e+00 1.236348773975642246e+01
-2.069158418172780234e+00 -1.652046276368984046e+00 1.700546657048927557e+01
-1.019134273006813984e+01 -3.912560074240764685e+00 1.473597383222345769e+01
-4.224561228706249949e+00 3.577328425748028451e+00 1.682537622823182488e+01
-8.012089362109502844e+00 -4.262893610762862551e+00 1.741361974310941463e+01
-4.198066535817706502e+00 -1.289636132400687973e+00 1.367625909325988687e+01
-7.518970404348775283e+00 -5.242502579634321869e+00 1.683077349195770012e+01
-9.785317916279392847e+00 -3.443717456740637672e+00 1.358001788866430104e+01
-5.027850612336901115e+00 -1.893504680190715828e+00 1.469393244088325190e+01
-6.440642497271812594e+00 -5.285291856199032523e-01 1.171207964064537776e+01
-9.746574404869992492e+00 -2.977224978850767201e+00 1.640988817612955586e+01
-4.054811688628014998e+00 4.379376122959419693e-01 1.805656122475951975e+01
-3.788183377120946993e+00 7.981964465889980209e-01 1.079471851457461185e+01
-4.773974544617381355e+00 -1.293059020429239592e+00 1.363248756534462558e+01
-7.370835571602216696e+00 3.275836159149212445e+00 1.609307995515537471e+01
-5.004763879622891487e+00 2.787017947232696136e-01 1.065809604775723329e+01
-2.207641234854968992e+00 -3.024399066923405321e+00 1.650782688587123914e+01
-6.622510774252622134e+00 1.414672216785020531e+00 1.721473327774870654e+01
-1.039786068086366200e+01 -1.693265503270103167e+00 1.462327146605841222e+01
-4.562747280368679270e+00 -1.363161444027724656e+00 1.381290752865652394e+01
-1.946111144123016334e+00 -2.592199111082459151e+00 1.555101245759834683e+01
-3.150416656555285133e+00 -1.763565199019814234e+00 1.387205657523640667e+01
-1.880160622441194640e+00 -1.997499045366359471e+00 1.577481065174443842e+01
-6.244726582032245510e+00 2.860324847511439117e+00 1.672327175335872340e+01
-3.020754387443540523e+00 -1.882130658109085086e+00 1.394967172092792396e+01
-4.082761011886475444e+00 6.178360128292851305e-01 1.799656115805829870e+01
-4.796975175190800300e+00 -5.177679279276442337e+00 1.835288829222526630e+01
-2.058881350716542880e+00 -7.386593307329930580e-02 1.708198501139672487e+01
-4.260259244780849386e+00 3.273079602553738976e+00 1.580302213212092965e+01
-2.225055995546391774e+00 -2.568048461653542613e+00 1.490247416348594101e+01
-4.220109168269353894e+00 2.241619728469808059e+00 1.365034887290352827e+01
-1.673509525610938020e+00 -1.357177341412385108e+00 1.460753348054514333e+01
-9.357508103650289399e+00 -3.021554008603711150e+00 1.666130020470075834e+01
-5.108933030241755269e+00 -9.278577185584463427e-01 1.281734201728657041e+01
-7.506196849889598788e+00 4.077054947699592091e+00 1.522008686128329202e+01
-8.247824265926404053e+00 3.184915114521973845e+00 1.551272132628412237e+01
-8.488687069984674594e+00 -2.678410035224202179e+00 1.259070288690694639e+01
-6.386353983343866503e+00 1.137111852906152798e+00 1.085060753769710118e+01
-2.289535624422919913e+00 -2.457574628311912424e+00 1.746584550029645300e+01
-6.238516723934570685e+00 2.665583253879051373e+00 1.679916070135715955e+01
-6.670033369948659363e+00 2.331105743510672124e+00 1.679680595277381627e+01
-3.541405400006530257e+00 -5.005297527812512470e+00 1.813141237819279894e+01
-5.997991100756300931e+00 -4.627068032958772115e+00 1.812408821270786774e+01
-4.500528941799733396e+00 -5.275926712154526577e+00 1.705597698408784879e+01
-9.483454729617882606e+00 -3.599700918705603492e+00 1.652995102772703717e+01
-3.703795823848236246e+00 -3.216368864636081515e+00 1.871619943591407065e+01
-2.427160773227457824e+00 -2.528073470645210374e+00 1.770027402815815520e+01
-2.825198561080091153e+00 -4.297638281344207556e+00 1.596872492334642146e+01
-6.452493866026854263e+00 -1.116731117887586500e+00 1.274423132017272309e+01
-2.889110121932581876e+00 2.039133724119583047e+00 1.708461715189594798e+01
-2.432295338774861371e+00 -1.857082861053354073e+00 1.399497144861732068e+01
-2.827477068390804593e+00 -3.550775392389760921e+00 1.525457982913790289e+01
-2.899826950376944712e+00 -3.177322000343181241e+00 1.816816594055745071e+01
-3.042892225340590784e+00 -3.324821656564973527e+00 1.507454673373543130e+01
-6.904159298291257407e+00 -3.833651581734983660e-01 1.136848853578203489e+01
-5.563877666435599778e+00 -2.095315890179032081e+00 1.825605068005022957e+01
-8.509765728993258449e+00 -4.077382834433514347e+00 1.717128735694021202e+01
-4.995101804485644337e+00 -5.708379555308279230e+00 1.770791240608682671e+01
-5.846091020437837571e+00 3.237721952946658543e+00 1.400255368999887651e+01
-4.148145510287602811e+00 -3.719012479362818091e+00 1.607709155761404674e+01
-7.521071366196637520e+00 2.173223939664595150e+00 1.290327850349381578e+01
-1.004483642218793094e+01 -2.765223136584769037e+00 1.612449605023468280e+01
-4.679803310819433904e+00 4.178517329834459115e-01 1.794200443213552632e+01
-8.297642331727352882e+00 -2.781009150636692073e+00 1.272492438101542689e+01
-4.817616857558505217e+00 3.480424191041691540e+00 1.555742175723197107e+01
-9.388065486051701214e+00 -4.845047464433583251e+00 1.516103853765500986e+01
-3.929468891430373922e+00 -7.445084779686285126e-01 1.269598300045095840e+01
-4.253333405140986123e+00 -2.056059151923342210e+00 1.494010460561814568e+01
-2.760702176843599087e+00 -4.488723997414362898e+00 1.716338609345232413e+01
-1.015713940413891336e+01 -3.167366854920272257e+00 1.583244666535945555e+01
-7.018990582116629184e+00 -1.670188962544319811e+00 1.320976027222609162e+01
-3.354345797850942112e+00 7.593188644106464436e-01 1.794169490820909374e+01
-7.129047094748488966e+00 -1.492778859259407565e+00 1.264300631285989596e+01
-8.089222173060456100e+00 -2.949124447830206996e+00 1.311138608540510830e+01
-6.051841528214131571e+00 -3.326002314090696466e+00 1.556264606918993110e+01
-8.792592214945646134e+00 -9.951233327112462002e-01 1.678897516143594260e+01
-6.913157087979985960e+00 -1.592324751433745522e+00 1.326777603610414502e+01
-5.558190980645733248e+00 1.539784993479500486e+00 1.745353810780216719e+01
-8.426105663509360966e+00 2.144291124392088688e-01 1.672942423688174074e+01
-4.834545482048708820e+00 4.038244506024621927e+00 1.640465875918498995e+01
-2.378549044664179046e+00 9.773576035657385308e-01 1.573939992863381576e+01
-6.764047985311912647e+00 -1.559981070506871959e+00 1.350609810431372892e+01
-7.924863163346235417e+00 3.586733633220128947e+00 1.486686843359593979e+01
-6.152687025761895079e+00 -1.576483989247035922e+00 1.390449250558081928e+01
-2.150174042990998124e+00 -3.251432638855110691e-01 1.747234949303864227e+01
-6.556263667465484168e+00 2.164710134597684021e+00 1.204487804703806120e+01
-6.565527630799659953e+00 -1.648057073913610893e+00 1.388324857900222753e+01
-1.932629819837288210e+00 -2.561445050600903439e-01 1.665909100014022215e+01
-8.427468629595995964e+00 3.067012742316272078e+00 1.469307376640664131e+01
-6.809181716805897011e+00 4.204732150667159218e-01 1.076500538089679537e+01
-3.688313727121204977e+00 2.318091337747390512e-01 1.814979261954351131e+01
-4.970302727523193020e+00 -5.521673418772550690e+00 1.792386784621366758e+01
-7.058664014891564698e+00 -5.378011339231862920e+00 1.647754594296826269e+01
-2.151564392172784057e+00 -5.657050054693776309e-01 1.751176895124199717e+01
-9.215270051469879320e+00 7.005131962831214754e-01 1.277851892515233345e+01
-6.413663333465136063e+00 -1.689088669567585299e+00 1.403469260385901407e+01
-2.689242169618125899e+00 -7.650164594878522406e-03 1.221975079650025009e+01
-8.448771693860884113e+00 -8.530630343777142466e-01 1.185524656832185997e+01
-4.493638739904287860e+00 -4.313966858549876271e+00 1.652508236144603160e+01
-4.944919041618619282e+00 -1.445827708835967673e+00 1.392193421046309965e+01
-4.469057822388474044e+00 -2.070105543261931302e+00 1.497711603400373548e+01
-1.707237949823880552e+00 -3.784764240709990180e-01 1.468228543868784897e+01
-4.663894381432792002e+00 -2.050036041714808910e+00 1.496155448075591465e+01
-4.374512318584322657e+00 -1.445288246937185050e+00 1.397428179734796316e+01
-4.367259902922747905e+00 -1.361586344242373681e+00 1.382135946252687120e+01
-4.877436824220819922e+00 -4.155501670308056283e+00 1.638083585861850366e+01
-9.329093647083695373e+00 -1.384395806203635892e+00 1.262985899412517909e+01
-9.462128360925408543e+00 1.330374055899395280e+00 1.528225752272506810e+01
-6.865284646439890892e+00 1.526550227351062716e+00 1.165132190521912037e+01
-4.219086613985980172e+00 -1.399839173328830899e+00 1.386731203375168775e+01
-8.770725137906950408e+00 -1.586781103070142418e+00 1.690675553200247094e+01
-2.412314490067301698e+00 -2.370783058269948729e+00 1.449213195538717258e+01
-1.714856855558357651e+00 -4.304482225851522514e-01 1.402396873882471340e+01
-2.943239638667614066e+00 2.138982070785316214e+00 1.633599760553157410e+01
-3.717771287113143863e+00 -1.550019439753410389e+00 1.389104801899685526e+01
-1.951901333551355311e+00 1.860882347409916482e-01 1.531071205636955312e+01
-2.336256125546092743e+00 -2.556249664702522129e+00 1.752360139033451958e+01
-4.352894623828022169e+00 -5.645799134202583502e+00 1.758413172692311122e+01
-5.997518217275709773e+00 3.433204627061096081e-01 1.053728804145450226e+01
-4.118412791000617190e+00 1.525498331020027631e+00 1.203236672646814043e+01
-8.356967400801995183e+00 -4.405961245440420448e+00 1.714844459785481945e+01
-2.380339278090524147e+00 1.160740285448796705e+00 1.629968658934159720e+01
-5.488180767377627944e+00 3.351393090902710981e+00 1.464936631756010144e+01
-1.011912124450818240e+01 -1.990373463093199291e+00 1.605846199892867787e+01
-2.452858464455720089e+00 -2.902067574555253326e+00 1.749779330433167956e+01
-5.448116274912317536e+00 -1.203186218761105319e+00 1.816923230260736943e+01
-8.426231221603543986e+00 2.958627154824779559e+00 1.547815840780506846e+01
-8.681007924836752210e+00 -1.757241727355735250e+00 1.229927830751746143e+01
-6.422891041359057418e+00 -5.022670571468308864e+00 1.792073343754526604e+01
-7.588642890243924022e+00 -4.608849748713617522e+00 1.760946852094330239e+01
-9.158020134629929032e+00 2.311611584281445975e+00 1.476303036226833143e+01
-3.470407367673278287e+00 -3.868922384269794179e+00 1.552371967253051110e+01
-8.466331118735102024e+00 -1.525237050846450337e+00 1.215729103429616487e+01
-8.336897772359307623e+00 -3.698412030006464235e+00 1.443424389429963384e+01
-2.104499316515826113e+00 -1.500082197473110668e+00 1.720172578012353171e+01
-9.055481802720088069e+00 1.819125973649756034e+00 1.387783306574806375e+01
-9.767021733695035124e+00 -3.802871524617839505e+00 1.400147172322084543e+01
-3.487076324350099732e+00 -5.602638507615814722e-01 1.834369948360450309e+01
-3.515860919537966645e+00 -1.046722826991667077e+00 1.317383183113032175e+01
-7.807706636748391382e+00 -4.661285554601021452e+00 1.745878459012085671e+01
-3.393873017869065478e+00 1.663354436155774607e+00 1.386999924538557849e+01
-6.928468613909864793e+00 3.998647570418208730e+00 1.499698079296250341e+01
-5.263022328242464631e+00 -7.462834833153690894e-01 1.243650481977608280e+01
-3.646237967047746942e+00 -4.967153176565547668e+00 1.824761062830370406e+01
-6.410850538692955070e+00 3.357230505476262561e+00 1.647438250367029866e+01
-7.965426236760722922e+00 -4.579490672657039241e+00 1.738852929237778966e+01
-6.813851577327620035e+00 1.461025860517277952e-01 1.090640043160797745e+01
-3.872287217488633360e+00 -2.788587545607445595e+00 1.522829448325405366e+01
-3.442922874569726233e+00 -3.016014854956352131e+00 1.498688596843722820e+01
-3.380081904203411369e+00 8.709540784733553753e-01 1.208986788959017389e+01
-5.602641401623332129e+00 2.746025891828596799e-01 1.063301831198336345e+01
-6.888386085109553747e+00 3.667515657699443210e+00 1.410941866935429090e+01
-4.664735265470390857e+00 -3.833158076891123311e-01 1.188548023765880401e+01
-7.951419227808741219e+00 -4.442685887310181769e+00 1.742949944544550078e+01
-8.921264230975758380e+00 1.237995095228862308e+00 1.607548248909162680e+01
-8.227217261395040282e+00 -4.034015842255734619e+00 1.731199774616074905e+01
-9.363317252381630595e+00 -3.777657609756066126e+00 1.382730599637045543e+01
-9.917549020746854183e+00 -3.784500976712867004e+00 1.599044637726286311e+01
-3.762696149179284077e+00 -1.192111764531524454e+00 1.341956882369018444e+01
-7.580934292676418274e+00 2.252052073521949804e+00 1.303746837144075243e+01
-9.628904754564224788e+00 8.507740845565988641e-01 1.544540656123053424e+01
-9.090221721246912523e+00 -3.364394138119582323e+00 1.307607717614830278e+01
-8.387384875058859990e+00 -4.196244960904068400e+00 1.720854728272144740e+01
-8.624982719115845242e+00 2.133574359803511733e+00 1.583042444843962926e+01
-7.436701224903084828e+00 -3.654868669652365565e+00 1.512954285815196442e+01
-1.024213524951780485e+01 -1.250684559240919036e+00 1.385916690762687864e+01
-5.394490575787849629e+00 5.110538077263344636e-01 1.029921447834422565e+01
-4.550016291225935205e+00 -9.755554888562106841e-01 1.301003816060745066e+01
-7.210302785718721630e+00 -1.916979008273935303e+00 1.362051371935394428e+01
-3.365531103919709111e+00 -1.230818927383127814e+00 1.335424364024048316e+01
-4.957600865430404014e+00 7.468130723300330231e-01 9.968632466554851135e+00
-1.676983579796370361e+00 -1.355556173874694625e+00 1.503955347787142927e+01
-3.640612096173634349e+00 -1.587264792235353328e-01 1.175559125403334804e+01
-6.281395508789103133e+00 -9.441253717450012184e-01 1.251143897478392120e+01
-8.624852148920599149e+00 -4.221200126157983235e+00 1.708622907509081301e+01
-2.000447066504473348e+00 2.909186372753879146e-01 1.541663953140189847e+01
-4.077809693259843549e+00 -2.391075576205925035e+00 1.863039199332776263e+01
-6.847699311484888973e+00 -9.410098770861664574e-01 1.205231710610335938e+01
-8.737780776688413908e+00 -4.368549435304852402e+00 1.696271632116658878e+01
-1.731591095196887586e+00 -4.179396751982824565e-01 1.566389985199560186e+01
-2.364680226785066619e+00 -7.485624733497672767e-02 1.303355076308282179e+01
-3.067179222394511129e+00 -4.152440252063724913e+00 1.800437657338413544e+01
-9.660603860430512668e+00 -3.371438617050186881e+00 1.338207053296788729e+01
-7.598798638921031134e+00 -3.264223842116668273e+00 1.471967617015103258e+01
-8.973981271497180501e+00 -4.229403503140638065e+00 1.684930632934995742e+01
-9.140175552309891316e+00 1.447883279333610496e+00 1.571410184462114756e+01
-3.570111694490229581e+00 2.790175221437430242e+00 1.593109053079578530e+01
-7.367002462878045499e+00 -4.645111337077556968e+00 1.771361605078022450e+01
-1.030176189202619241e+01 -2.551252705483458172e+00 1.559056437649987714e+01
-1.921316919331466089e+00 1.906837570564691164e-01 1.547714483469266611e+01
-9.830392660743150657e+00 -3.524059963395921091e+00 1.370063570042017176e+01
-6.463332556316498945e+00 -3.686019452848534605e-01 1.772603745521005436e+01
-9.339898171989478470e+00 -4.194759711903104815e+00 1.655091713664774744e+01
-7.869890597386944187e+00 6.962437074292813222e-01 1.174463796627089351e+01
-6.504256165013886815e+00 -5.454503322447747493e+00 1.651376190470504213e+01
-5.712436323215556833e+00 2.655838594005099473e+00 1.259071794678433776e+01
-3.981041814763746522e+00 5.627294843594261575e-01 1.048371370671129199e+01
-5.635362772706957735e+00 -3.505058688714131065e+00 1.581720885835541424e+01
-6.094348474495431489e+00 -2.875096760002715968e+00 1.816924733675133297e+01
-1.002552162788423118e+01 -3.423185324491825554e+00 1.596938222168589760e+01
-4.991164683293050963e+00 2.494367754057161157e+00 1.321499059572359158e+01
-2.358788085367448772e+00 -2.889567555159175516e+00 1.728718992949279709e+01
-1.012647901396505290e+01 -2.183925923029406135e-04 1.431025550491133913e+01
-4.429136049650907125e+00 -1.644398921803016833e+00 1.437201010989801375e+01
-1.039966645670983425e+01 -1.696273327552587418e+00 1.505821123668616934e+01
-3.876248156538569134e+00 2.437432433961444378e+00 1.467323079918566719e+01
-5.304881272132957903e+00 -1.809213627493441834e+00 1.828771473601662478e+01
-1.002224846870975838e+01 -3.769318606077714406e+00 1.579061415786858902e+01
-3.435108139644507119e+00 2.268555444824066125e+00 1.507415889654637908e+01
-1.009794801996949332e+01 -2.423634609806923912e+00 1.361248373061648920e+01
-1.015567038856848114e+01 -4.715901583819036569e-01 1.370820942849992718e+01
-6.953918514034732823e+00 3.280078641288393548e+00 1.629014349420173602e+01
-8.096256518621167686e+00 -3.005528940441176022e+00 1.331734541741935374e+01
-3.673055708441948397e+00 -4.448356231400751426e+00 1.630052166251021362e+01
-5.258392816086788990e+00 2.021054462246038241e+00 1.731822713476002207e+01
-2.845917115261108687e+00 -4.320305402015564233e+00 1.756962999782682999e+01
-9.522386148973502884e+00 -2.615586831072966856e+00 1.288410557576975890e+01
-3.393303122336105204e+00 2.904451879218648891e+00 1.660008809849327349e+01
-9.688530500880471408e+00 -2.784697236317181801e+00 1.304190141999811203e+01
-1.005968939093458303e+01 -2.254657142765000621e+00 1.343436658297894581e+01
-5.870258693331295241e+00 1.225332608091741271e+00 1.750380682075937955e+01
-6.401726433438297725e+00 2.671931499497340656e+00 1.674779780224914560e+01
-4.699805360168695323e+00 1.549201112307606376e+00 1.101946137744835852e+01
-7.615335362030777766e+00 -2.583229758448625013e+00 1.397148179627527753e+01
-8.418812906011289954e+00 -5.933201463888825300e-01 1.691748761828335290e+01
-5.191212401746545524e+00 -1.979460831434237456e+00 1.473278889500436151e+01
-7.929544223196722363e+00 -1.401136421951165278e+00 1.733395039982035257e+01
-8.375445624440768455e+00 2.250592222454208979e+00 1.595593273147333235e+01
-6.559891893879031599e+00 -5.420782768706239985e+00 1.751109450193924033e+01
-7.482142140986225876e+00 -1.762163281811520488e+00 1.258459976234146183e+01
-7.442181386482976002e+00 -1.834643986427768159e+00 1.271868137259722431e+01
-7.852345953780505816e+00 3.793119209357028954e+00 1.540419091457367529e+01
-5.243857978478910553e+00 1.433374983292835747e+00 1.754741570996007027e+01
-2.121438272049667617e+00 7.213389056521783971e-01 1.672693466679587715e+01
-4.080751806018166228e+00 -1.431272547550518137e+00 1.846877704621248029e+01
-1.012213300340288669e+01 -1.829341910276536698e+00 1.344331674438947033e+01
-8.731645935667408764e+00 -3.365891572244242180e+00 1.324488723716665106e+01
-7.152679816376731559e+00 -1.741974380206445350e+00 1.305479844112706189e+01
-8.164366851066962028e+00 -3.177065675161346636e+00 1.392904126016561150e+01
-4.620666057413282068e+00 -5.151231461347656193e+00 1.838812133902663959e+01
-8.550988849049449669e+00 8.925534350275120543e-01 1.248162061350802077e+01
-3.487983474675732332e+00 1.369306444324976280e+00 1.301684336814172127e+01
-6.032667747461810670e+00 -3.661190271630308857e+00 1.575321234831592676e+01
-6.864900220220875759e+00 -1.702766227960711198e+00 1.375509270342233492e+01
-5.490456355968864166e+00 -5.627600808793387088e+00 1.710152176872963992e+01
-5.788043845890336492e+00 4.022891345833588872e+00 1.638045033700552722e+01
-7.128856995098631799e+00 -1.229466841450376879e+00 1.224776834593006214e+01
-4.868972028506187932e+00 -3.519915700367918010e+00 1.603064892528470864e+01
-6.610452839111986556e+00 -1.766839758341672173e+00 1.406418344346504057e+01
-6.585112279279219827e+00 2.884847755767534494e+00 1.291864791202747398e+01
-8.741138334300227797e+00 -3.170039283889302340e+00 1.288997480830452247e+01
-2.743268304427640025e+00 1.588117454674785378e+00 1.571872127879097292e+01
-3.093188836917973195e+00 2.448568888772188590e+00 1.654697586519822750e+01
-7.792785457630167834e+00 3.713398540532508285e+00 1.557880291151072782e+01
-3.700611058965546540e+00 -8.017781454724665080e-01 1.839019512692986780e+01
-5.945309202272397009e+00 3.826176623446823299e+00 1.518237839630522501e+01
-8.001223788464667308e+00 1.443853056982289829e+00 1.657986300795563039e+01
-6.607539151647309872e+00 -1.853431839026503880e+00 1.420078274339117286e+01
-2.152089348438289473e+00 -2.837473840889316534e+00 1.647333416591798994e+01
-2.041916338048814339e+00 -1.626330197272054523e-01 1.387184896016386659e+01
-1.892483284456401904e+00 -4.448834273057830635e-02 1.645718004513381061e+01
-5.619990280582159770e+00 -5.371891212076015165e+00 1.805965377072378431e+01
-7.363554930616543537e+00 1.567894926914648934e+00 1.215016859195312549e+01
-6.404452541971848767e+00 -1.862955581960712870e+00 1.428604772285734015e+01
-3.200042335139295258e+00 -5.676273575952159867e-01 1.827588564963102868e+01
-4.062194510772922484e+00 1.474048908442826544e+00 1.770010828928205626e+01
-4.896696058828622355e+00 -4.843728347478714724e+00 1.670180134200972333e+01
-6.575137631336155586e+00 -4.258541713158487951e+00 1.800419713831549728e+01
-5.808127176836237027e+00 -8.581698785524338735e-02 1.117107447566622369e+01
-4.768505865337286487e+00 3.786784595901895312e+00 1.613173035352281204e+01
-8.675200387336726493e+00 -3.260922401114810576e+00 1.302207854908346718e+01
-8.775556362785813747e+00 -8.132367401250083505e-01 1.208465058152449956e+01
-4.641479855676071686e+00 -1.660055901502446751e+00 1.439321778466515411e+01
-8.244541206471605932e+00 -4.523372861095911190e+00 1.519726294768415897e+01
-9.223113159354529245e+00 1.910007881583585032e+00 1.414543186332578273e+01
-5.471956105976540918e+00 -4.736028867800496478e+00 1.642149321000727014e+01
-9.439646409531825100e+00 -1.882362182931582861e-01 1.628207381216060412e+01
-4.384314987668298969e+00 -1.563951835036299087e+00 1.420216591756919655e+01
-3.634020317255038712e+00 2.312853152017889879e+00 1.480761438049382406e+01
-6.370069678228880150e+00 2.494475277882644559e-01 1.066561224524168239e+01
-4.401286081882116008e+00 3.111398640729720277e+00 1.534110722172619035e+01
-7.649624445493876657e+00 -9.064699498545502054e-01 1.161143474919495588e+01
-9.359905684368953871e+00 8.575438342623813437e-01 1.586118880106250373e+01
-9.844901007828990913e+00 -2.414120584597279962e+00 1.307440146205881604e+01
-8.910455717508256157e+00 -4.159846261157380098e+00 1.453920895848754924e+01
-2.303041626504660933e+00 -2.703356724533841238e+00 1.731741204910633058e+01
-2.263367371434795494e+00 9.070391692991864874e-01 1.709351176234179803e+01
-3.524233137594463550e+00 -7.020637676640466562e-01 1.268766451625042890e+01
-3.830710801940059085e+00 -4.390755124175238500e+00 1.856858684989716579e+01
-3.176716826965626961e+00 1.488806872620355826e+00 1.406539299272799326e+01
-5.792198179152553195e+00 -5.071448134271835606e+00 1.813168488031934800e+01
-6.244120210521357350e+00 -2.627888738273608027e+00 1.812268766381529161e+01
-6.832332663999687306e+00 -3.219341898881280972e+00 1.797081279103490203e+01
-6.586741279344452416e+00 -9.439885609980203096e-02 1.113012088320873971e+01
-7.658140908550174153e+00 -1.447393315499972744e+00 1.210942116865676610e+01
-7.009316816784303406e+00 -2.233434232625623128e+00 1.427889883024096918e+01
-9.090122605987364324e+00 -1.950920770468827836e+00 1.255660043120407465e+01
-5.953920776547641402e+00 -5.181650284742302937e+00 1.804181894375919626e+01
-9.299603258749051804e+00 1.810273842868743710e+00 1.408510868480138356e+01
-7.052043638805505665e+00 -5.211322262732646315e+00 1.617964913509683100e+01
-2.475390303142372961e+00 1.194036416394963940e+00 1.589014785913617800e+01
-6.205411577072966089e+00 -5.232435336641345636e+00 1.792742454510518968e+01
-5.456590424413772844e+00 -2.226573921633813735e-01 1.142079499751064731e+01
-5.095402329142577180e+00 -8.277144449719117114e-01 1.262659476856142504e+01
-6.398574883536927160e+00 -5.220140094411042320e+00 1.785805068160046716e+01
-6.169700325877157887e+00 4.002666205661824961e+00 1.538476046731767610e+01
-4.484722879686875885e+00 -2.254140449720920536e+00 1.852066828232555196e+01
-6.580384877808295840e+00 -5.038469705452850889e+00 1.786012098328114917e+01
-5.984273804816464093e+00 3.127204246915208596e+00 1.351225380127412024e+01
-2.065817376196037891e+00 6.564094025054636461e-01 1.650350651490812481e+01
-8.033159687847444275e+00 -5.253567969166713425e+00 1.604972142249565792e+01
-7.994580458331188133e+00 3.514257868736847534e+00 1.552879962397898339e+01
-6.585260603325121309e+00 -2.906002254284662523e-01 1.767458948866489976e+01
-3.243861374056874691e+00 -4.117939111686312437e+00 1.569139146655940920e+01
-5.646928676788290247e+00 -5.256240535616697684e+00 1.812973997329686426e+01
-9.940690828960974557e+00 -3.626289639258127639e+00 1.397857722946381642e+01
-1.910547948679292229e+00 -2.215568475659680736e+00 1.573936350712768473e+01
-5.505301854793359873e+00 -3.936722607246577077e+00 1.606805388063554574e+01
-4.424598202584963502e+00 3.715154881531447906e+00 1.676770780117424664e+01
-2.654698914840133650e+00 1.792779240655484330e-01 1.260411733383759270e+01
-8.089731266480114869e+00 6.880114088155284691e-01 1.191219314900338588e+01
-5.385960388139162447e+00 -3.993000901076626086e+00 1.836199311244817522e+01
-6.356786103684605393e+00 -4.209860538816442066e+00 1.806676371194851072e+01
-6.727829313032285263e+00 -5.001182605271728754e+00 1.782115544339976054e+01
-4.584692343426083561e+00 -5.631480600764148470e+00 1.780340740035835978e+01
-7.017601215084195765e+00 -5.033783706785566636e+00 1.768608944469080768e+01
-3.614516525457819540e+00 1.885473000827136758e+00 1.388049046886547444e+01
-3.268534279614233817e+00 -4.748580930421064661e-01 1.238057555137069699e+01
-7.320421433058102778e+00 -5.164462499675336993e+00 1.723133726869667726e+01
-8.907780322176218846e+00 -1.969150450935073238e+00 1.245196918617276083e+01
-8.196096454219453875e+00 -4.402431206411606013e+00 1.726498445686702610e+01
-4.289448493012844033e+00 1.619987932498026861e+00 1.197643488889195851e+01
-3.280719093090919802e+00 2.017640035335422244e+00 1.489251322422857982e+01
-8.195791993204522896e+00 -4.222230015216808852e+00 1.730944893365993664e+01
-6.409536260620799730e+00 -2.659186583956677508e-01 1.136806622866191674e+01
-4.675308008314674524e+00 -5.843667834881701717e-01 1.225022484334996875e+01
-3.661987081700837088e+00 2.053559401238267856e+00 1.747866348373912615e+01
-1.032285352351627949e+01 -9.144700473777674921e-01 1.492513560531580907e+01
-4.165882840797319631e+00 8.740789576545162642e-01 1.014498033787137388e+01
-7.033648540310408315e+00 2.247795120842404959e+00 1.669334510262913795e+01
-9.112139992530504884e+00 -4.812217432672947659e+00 1.580512546072734636e+01
-5.308030171838693079e+00 -5.165454382154728741e+00 1.672786043707171899e+01
-5.397612655654359770e+00 3.842965425984130601e+00 1.659738332763899393e+01
-6.560541345055757922e+00 -5.457697130244723027e+00 1.706874960365990290e+01
-8.556589462776269528e+00 -4.413654473103706621e+00 1.703900148269479331e+01
-8.093294958643738823e+00 -3.091460092027496831e+00 1.384091844858382103e+01
-6.484766854639853584e+00 -3.493895425262290910e+00 1.551558455054729535e+01
-4.242718430896008641e+00 -2.698349478654738842e+00 1.549070284012074694e+01
-8.948935329834327490e+00 -4.366619898344162642e+00 1.679258295644854826e+01
-3.214841117361111777e+00 2.093198649455133786e+00 1.522764646015298950e+01
-9.889614097061350861e+00 -3.588306677761685659e+00 1.611323450734940366e+01
-7.953177226397870392e+00 2.397641059648421002e+00 1.616734825367738893e+01
-6.866227831018623107e+00 3.098577911373305405e+00 1.329725596815261213e+01
-1.031645196460943126e+01 -3.263691537563098599e+00 1.458681956223792753e+01
-9.728692183322007025e+00 -2.791200732123061190e+00 1.644058918033774574e+01
-4.054226656944159402e+00 -2.184501518847091095e+00 1.499394496063172255e+01
-6.809232216847098229e+00 3.179815225096945586e+00 1.339072869394832566e+01
-3.452154307546329015e+00 -2.982182006256397511e+00 1.864913554084667169e+01
-5.422371935978995694e+00 -5.714172228700943101e+00 1.766075514621363141e+01
-9.910956244123166670e+00 -3.408341519600492031e+00 1.614355576001273107e+01
-1.007818521624101749e+01 -1.252904985963819939e+00 1.598687390201189373e+01
-9.944028037972387324e+00 -3.991554611825309351e+00 1.577571790879361657e+01
-7.687050297447480141e+00 -2.647018987936638368e+00 1.388858285935531001e+01
-1.001228343160874701e+01 -2.444164588226412249e+00 1.340201926459949533e+01
-4.048459070539489169e+00 3.333998344648223977e+00 1.699680333120991804e+01
-2.448185930549023670e+00 1.002715023739847444e+00 1.548107202321943277e+01
-7.373747692571350321e+00 3.913284793912721327e+00 1.577336544508310823e+01
-4.154191661550137304e+00 1.493891852882246685e+00 1.188490148352453701e+01
-4.663410791932319555e+00 8.390694194642430714e-01 1.782953466937038911e+01
-7.011980043146219366e+00 -5.273271900501762310e+00 1.722255609673657517e+01
-4.008276585035594586e+00 -5.529857553027844652e+00 1.761859292304201574e+01
-7.306226453461973414e+00 -1.961020553861244853e+00 1.318983812588014359e+01
-9.699679418837138911e+00 3.943367244627489221e-01 1.305160969559786821e+01
-6.017839926295801334e+00 -4.956581639478411461e+00 1.626018376737322768e+01
-4.912573576530101072e+00 1.955711482780114974e+00 1.179896413060044580e+01
-1.013750504823892840e+01 -1.156079051678768899e-01 1.417649931658346674e+01
-2.824596572291504959e+00 6.575968217135049754e-01 1.324866871325116335e+01
-7.119268671752069899e+00 -1.782732357486676467e+00 1.324991005471678562e+01
-3.255922334382093108e+00 -2.831058392779139954e+00 1.480390336437104537e+01
-8.207091452201623838e+00 -1.397384654718532460e+00 1.718852982037216037e+01
-7.303064169102766456e+00 1.878376016548232386e+00 1.673900656755878202e+01
-2.722211013011619496e+00 -4.148107958369985582e+00 1.740644483149135624e+01
-2.758912262629527490e+00 -4.314633392476402207e+00 1.736127781227626343e+01
-7.731532409468354849e+00 2.893451027358105776e+00 1.382375691225009007e+01
-4.620788525048442175e+00 3.717716021055729403e+00 1.677061742267217426e+01
-9.406894872064764712e+00 -1.606674929322113865e+00 1.658349562360658069e+01
-3.859660717013551512e+00 -7.953328236628350867e-01 1.836744531232151445e+01
-5.464206999186924207e+00 -3.076911576765427814e+00 1.561711630559955211e+01
-1.025344003580283925e+01 -8.599564315866762287e-01 1.404947152701595314e+01
-4.425466059368056371e+00 -1.199565869826072717e+00 1.835366152386772853e+01
-5.043188123457643890e+00 -3.210505725222565943e+00 1.845595666672343071e+01
-1.005706156110326077e+01 -4.114920794402549653e+00 1.469608213043046874e+01
-9.228484070490473812e+00 5.699253831690216654e-02 1.248115961939166851e+01
-6.125660654968145380e+00 -5.615604225486341861e+00 1.688922044000702982e+01
-4.466070922248859709e+00 -4.638586929298300632e-01 1.207703094687096268e+01
