-1.521961301954787515e+00 1.799323875979875753e+00 1.748311346453294846e+01
-1.620314867193320296e+00 1.943892595726384842e+00 1.648642945258785630e+01
-5.113578025148481920e+00 3.322706892357784714e+00 1.528328827151933922e+01
-1.741169788441104593e+00 2.060400580075598231e+00 1.653892051106444683e+01
-1.267440905172128041e+00 1.532552567490539586e+00 1.589049419694094922e+01
-9.131262043906222203e+00 -2.128735783326816677e-01 1.538407993195415457e+01
-1.755190839658387514e+00 2.016198192489076391e+00 1.618053055940874430e+01
-1.856912486289926445e+00 2.157249563919725777e+00 1.651841822561382145e+01
-2.397401834872397774e+00 1.791155541195663448e+00 1.310653549362165649e+01
-7.897410845102345256e+00 2.456655413139350763e+00 1.601926875983046017e+01
-7.320353872593209132e+00 2.797709979193221397e+00 1.564694105910389510e+01
-7.104038484525936781e+00 2.880094697669973502e+00 1.545537104150367469e+01
-4.813803349379674579e+00 2.258203764319425044e+00 1.207581817515255551e+01
-8.890038044700638409e+00 -2.407019301154075919e+00 1.567075454284498903e+01
-4.854737826391639643e+00 2.192656858198276382e+00 1.187898295428671247e+01
-1.951433697475347451e+00 2.276664597060041206e+00 1.673990840662396806e+01
-1.970045625083832519e+00 2.251502903887526497e+00 1.648233333047551952e+01
-5.396950333864634963e+00 -3.519421742946481579e+00 1.448827675369559387e+01
-5.623047295282416869e+00 2.252901594285126929e+00 1.239217727007006431e+01
-5.287562981313247867e+00 2.273525882165091883e+00 1.227501975949282098e+01
-5.861095633903637747e+00 2.005172425835668459e+00 1.201191620592351939e+01
-6.515912861722513050e+00 3.253878561873155828e+00 1.566818156743027401e+01
-4.613478346053669021e+00 2.298488126406892817e+00 1.230509791881911497e+01
-4.445691494986455439e+00 2.339351545848195713e+00 1.248800283698697910e+01
-4.802481511529888891e+00 -4.007779424845801408e+00 1.694829113115858377e+01
-2.643850905390245032e+00 1.954542037942929023e+00 1.289096508546901276e+01
-4.439976780110967525e+00 2.401987964877910997e+00 1.266680243049194132e+01
-4.293795768503418486e+00 2.457944068156463491e+00 1.278650169475555742e+01
-4.208633899418520841e+00 3.559884628605301859e+00 1.657297744188254995e+01
-7.528929320438939143e+00 2.380164633790408768e+00 1.708586821541054945e+01
-2.270567875501752653e+00 2.541636393870832844e+00 1.672328195370698012e+01
-2.488328907740404716e+00 2.127791331640268790e+00 1.371156068370536474e+01
-4.942187983419819908e+00 3.836763991644360328e+00 1.748173472588914024e+01
-4.319055378625098029e+00 3.741625279269109594e+00 1.771188340897948876e+01
-5.786476691098653369e+00 1.388638235360324824e+00 1.790076773345616346e+01
-4.546832220568417071e+00 3.839761601419093839e+00 1.768929853545621000e+01
-5.162425210199298453e-01 6.708144592317206722e-01 1.667758938333018648e+01
-5.932204628900851873e+00 3.750378747234286880e+00 1.689286166543298862e+01
-5.903934602510641838e+00 3.667781874949965992e+00 1.645965215172579121e+01
-5.337498303719084625e+00 3.822807324947001373e+00 1.672710928343980186e+01
-5.292312908199708232e+00 3.694359350417077525e+00 1.632360245159497225e+01
-4.079645336137684097e+00 2.509738425323597699e+00 1.289472435540287876e+01
-4.535486028418860727e+00 3.748074847048335823e+00 1.712927480426198912e+01
-3.445775659390176049e+00 2.515650142581490112e+00 1.349240096954007839e+01
-6.893927106136102267e+00 2.770721641920542044e+00 1.736646930887211937e+01
-3.059149445100268760e+00 2.306367633032475606e+00 1.308979812588539460e+01
-3.444354181863048314e+00 2.387916562515106200e+00 1.288276635310181462e+01
-3.425520163635076720e+00 2.424506771620540402e+00 1.306545773429992607e+01
-4.292345106696353163e+00 3.283749002652702753e+00 1.571675585728431201e+01
-5.998685986847125839e+00 3.658732875423464481e+00 1.756620117614360765e+01
-1.306808370386772111e+00 1.675080806039426884e+00 1.668615203965471494e+01
-5.751208577722522364e+00 3.393457681933742531e+00 1.770905436912197217e+01
-5.029811108504576467e+00 2.421953969678676266e+00 1.285989233966658674e+01
-6.215434193388884587e+00 3.655854630699335583e+00 1.735623137046940911e+01
-3.056667105537354434e+00 3.105217079004441327e+00 1.773981856067750584e+01
-3.111119247846247049e+00 3.053968285658053894e+00 1.796373937825411105e+01
-3.721575790461093547e+00 3.464964378533479383e+00 1.794787425932425151e+01
-4.185213232003325956e+00 3.358640293179665726e+00 1.801997758960443718e+01
-4.935408178224329312e+00 3.394527019777331400e+00 1.789808179885312001e+01
-7.498988951321124752e+00 -1.389587857298658857e+00 1.697878717895205369e+01
-4.118855411470897288e+00 2.956931920415523773e+00 1.809318088778749001e+01
-4.385196978687866398e+00 3.160710439577480990e+00 1.802290022333630759e+01
-4.923691930813181017e+00 3.602110869001254212e+00 1.787891540269183821e+01
-4.736272179550820915e+00 3.390975187437182736e+00 1.793752412234338323e+01
-4.957617219759741900e+00 3.178563148562528529e+00 1.792729193115986419e+01
-5.783915106062860190e+00 3.013654131379750467e+00 1.777026980731189809e+01
-6.744784728377078764e+00 3.216168477071081444e+00 1.727916122891969763e+01
-6.754047739994456734e+00 3.384513254454427411e+00 1.710297735695019838e+01
-7.013627516807842355e+00 3.232860995603409116e+00 1.689923200466959941e+01
-6.562620491116761379e+00 -4.941251862513321491e+00 1.574674667609467349e+01
-6.875780071166992080e+00 3.324668451542207581e+00 1.699338072915501385e+01
-6.635990173944814607e+00 3.524916867718015379e+00 1.702350773229990466e+01
-7.094304698399050757e+00 3.204244267083286246e+00 1.668151671402031155e+01
-6.530392457977135301e+00 3.565503347056527161e+00 1.688654650240810184e+01
-4.239679019639941870e+00 2.234115533748077809e+00 1.203812380331753928e+01
-3.440856490837694182e+00 2.124419638919614162e+00 1.193319607186239750e+01
-8.509993546063598924e-01 -1.983792099376532114e+00 1.426647968204644457e+01
-3.306762821086537851e+00 2.129783916428533264e+00 1.211180500925456727e+01
-2.175047464364288974e+00 -5.167998105367820116e+00 1.517387013282296238e+01
-2.040331332138478171e+00 2.309989085630435923e+00 1.773844739657921110e+01
-2.252565812104250220e+00 2.523249653160937189e+00 1.758395426472517897e+01
-2.485668367948322466e+00 2.662886416524433475e+00 1.772638879137580403e+01
-2.582557947749749339e+00 2.552760540706206616e+00 1.808445217500634783e+01
-4.344463846125188766e+00 2.773831370190127821e+00 1.808461910672311745e+01
-4.810712189751237489e+00 3.026566174328507941e+00 1.797824412248880321e+01
-5.526781484450370208e+00 2.581621452069228440e+00 1.791725480509590085e+01
-5.879456702883928187e+00 2.741111543445252430e+00 1.779021565832825047e+01
-6.725777712522490681e+00 2.560043542788683624e+00 1.748853979699685368e+01
-6.929570251532168434e+00 2.583833313842228918e+00 1.738965984258906872e+01
-6.770364708721089642e+00 2.391513295315605969e+00 1.749800693779923222e+01
-6.769843868452588787e+00 3.011751097961982371e+00 1.733993013136257133e+01
-4.635391521519731661e+00 1.813428713478544507e+00 1.166374738831915892e+01
-4.576303304266159167e+00 1.940786553646798085e+00 1.157854738867142430e+01
-3.634634404649919048e+00 1.829299317927042923e+00 1.191405192308869232e+01
-2.001425990563391544e+00 2.165429118819210075e+00 1.788393430797007255e+01
-2.188034816547647310e+00 2.170808933667322194e+00 1.805259683551970085e+01
-2.081283463145977120e+00 2.123390527696969787e+00 1.799904493739629174e+01
-4.741694568455131709e+00 2.371263883372896952e+00 1.808413936625976959e+01
-5.422214692488296350e+00 2.479532357529169673e+00 1.795925106958991790e+01
-6.199489776615680015e+00 2.413351013796222855e+00 1.772388651159863571e+01
-7.277386033080665229e+00 2.381312395454705744e+00 1.723737989192583342e+01
-7.128865543267218108e+00 2.589020027100163546e+00 1.728179824435394352e+01
-5.024031652339244758e+00 2.126086776557468472e+00 1.167233632792167697e+01
-3.848126980727497148e+00 1.703305490425057078e+00 1.194656840869863856e+01
-3.552235596839413923e+00 -3.658340952321571748e+00 1.481307099736449118e+01
-3.427684362308391020e+00 1.767119449577805979e+00 1.206199446849670665e+01
-2.287712968336462538e+00 1.836339859205733172e+00 1.818499932947871400e+01
-4.264237228099235111e+00 2.702671508801913092e+00 1.351970532517217549e+01
-3.143560796733774421e+00 2.529712343215040349e+00 1.821010525701321825e+01
-2.902970657372577534e+00 2.211515409009145561e+00 1.824302840996483610e+01
-5.933716734136186943e+00 1.950396880215414575e+00 1.785389245567538552e+01
-5.755289032624368417e+00 1.769006790781869620e+00 1.791293106086091314e+01
-4.510975413633454778e+00 3.026742956151759589e+00 1.468064028258758213e+01
-7.887871529872326981e+00 2.421323153943799156e+00 1.584604447603278743e+01
-6.110641310765869250e+00 1.788178872735964875e+00 1.778036782812939975e+01
-6.222659553017490630e+00 2.018574541959945456e+00 1.773950736119005001e+01
-6.486670513557735163e+00 1.798517048224721249e+00 1.762622259813053205e+01
-7.616347488168487168e+00 -4.325176512297540521e-01 1.708877955198653353e+01
-7.228000394211449020e+00 1.974055559447343677e+00 1.733493687745661305e+01
-6.171315283145760944e+00 3.342354181445060579e+00 1.560282636299562853e+01
-1.715905035051937588e+00 2.069171806769053212e+00 1.709718697263733844e+01
-8.723434495630868923e+00 1.393655127434300312e+00 1.599383237421767490e+01
-7.583829450356266655e+00 2.245892437055186708e+00 1.709131606402620207e+01
-7.017224125449324390e+00 -3.403133586142135236e+00 1.649622234465516613e+01
-7.656279200383340644e+00 2.733006971097784454e+00 1.682889668956250517e+01
-3.148550869377860106e+00 3.007184099339408334e+00 1.612735136778329803e+01
-7.453137767196547969e+00 2.952858709044134056e+00 1.663942244629165401e+01
-2.879239743200583401e+00 2.526355485886619068e+00 1.450634103227908156e+01
-5.582153501241163163e+00 1.937566421203726241e+00 1.171569872823549474e+01
-5.055348267202828261e+00 1.679270523044534835e+00 1.173029083268445305e+01
-5.151478960392357642e+00 1.459183900816859447e+00 1.192679858729259479e+01
-4.887662775030799267e+00 1.241410876649523543e+00 1.212632738736640192e+01
-4.253181096970159558e+00 1.540830845544349348e+00 1.197781967495328814e+01
-4.422394566236952151e+00 1.528940001766007750e+00 1.195093321589499169e+01
-4.430052921810242239e+00 1.291639765779318161e+00 1.215418643783433339e+01
-3.453896693715327260e+00 1.388442483731241017e+00 1.236457889233582108e+01
-3.562660025724299295e+00 1.323691615181433523e+00 1.237959019599970389e+01
-3.304459769393943702e+00 1.482699901263278441e+00 1.235781431788677054e+01
-2.032888356519078954e+00 2.354667190132259336e+00 1.689801643886725202e+01
-3.015458928534142213e+00 1.476105042233237352e+00 1.250519938030236489e+01
-1.553653374106397145e+00 1.829866251708382796e+00 1.612786415135657592e+01
-3.033612177025561962e+00 1.343864953971931397e+00 1.260487110127471766e+01
-3.321794249933091248e+00 1.615370040539512386e+00 1.826218805661169142e+01
-7.838713939609729842e+00 2.132465581047684910e+00 1.695772375587196024e+01
-7.994781802173350549e+00 1.861144167432323693e+00 1.689575684544124812e+01
-3.845346256977607347e+00 8.434605970585395962e-01 1.269106392280829709e+01
-3.631060197548216628e+00 8.001942679453737384e-01 1.280621825200540798e+01
-3.206768273387865076e+00 1.069732692221623926e+00 1.273549314141728672e+01
-2.659347605427626604e+00 1.243387812403566883e+00 1.284895032771981249e+01
-2.837863025700288588e+00 1.265376843350356051e+00 1.274741497119308065e+01
-2.597583106809356668e+00 1.382545359049560441e+00 1.279368700327211172e+01
-2.798281589622770849e+00 1.503950154855164811e+00 1.260564728745320906e+01
-2.342250159579171598e+00 1.622777690840090381e+00 1.300926254050096986e+01
-1.984038198946787901e+00 1.431650606087278010e+00 1.346276759492555897e+01
-1.389038769251655037e+00 1.564390341173675925e+00 1.763105152041941892e+01
-1.405136507092338061e+00 1.400595610984214812e+00 1.781911722555546618e+01
-1.595162206811470362e+00 1.240212093595381981e+00 1.803266608617040134e+01
-1.735377488353288200e+00 6.652883967009839417e-01 1.818269752323346466e+01
-1.678800405034784227e+00 8.620603270857902789e-01 1.812824974551087109e+01
-1.778497954911037571e+00 8.467828654156821511e-01 1.817181216859386694e+01
-2.699615127966425998e+00 8.099674570026833553e-01 1.832033088370991436e+01
-3.776936855097085655e+00 3.548578947122395633e+00 1.778781853674558988e+01
-3.947954864807067921e+00 3.612727237363737132e+00 1.712133051269271533e+01
-3.708479899245642031e+00 1.342008551607628331e+00 1.823777439623562913e+01
-4.825929692247032499e+00 2.474616887630648687e+00 1.293665895355916007e+01
-3.941922623408016690e+00 1.606530588349032618e+00 1.820611833826561821e+01
-4.069082637353011123e+00 1.541996874398403161e+00 1.819874409013483074e+01
-5.707942771951143968e+00 -3.727802804492705402e+00 1.438818345008817801e+01
-4.462899667893938549e+00 1.490413194446747358e+00 1.815447429082846753e+01
-8.372266838527472999e+00 1.584847262100722798e+00 1.423522547764070367e+01
-2.614857953843004790e+00 -4.491494195970505032e+00 1.495605509467270622e+01
-4.509492561607818750e+00 1.200412797380659091e+00 1.816116453996230007e+01
-1.800358171318197975e+00 -4.091278634059372088e+00 1.740330298110819740e+01
-5.674191092293840555e+00 9.469097503119148218e-01 1.794043964073268427e+01
-5.779718190456909710e+00 1.099137392257659718e+00 1.789736369215307121e+01
-2.927386249900886916e+00 -1.866935067727525932e-01 1.406930471291482121e+01
-6.081536387852325198e+00 1.146716766921967112e+00 1.777118346680610017e+01
-6.218517695323248162e+00 1.206257343114323977e+00 1.771020667860435083e+01
-6.501088879712328961e+00 9.795703161811946114e-01 1.757468831267561882e+01
-5.143524595368316188e-01 7.261153418875565535e-01 1.587492706250291263e+01
-6.778732463076566184e+00 1.576103484761866680e+00 1.750541354829798735e+01
-6.666101529899622236e+00 1.343365050915125369e+00 1.752678632191449282e+01
-6.750969104616118877e+00 1.184953639621586063e+00 1.749490754700750728e+01
-7.268926074660889469e+00 1.396997245720787983e+00 1.733272276694459890e+01
-7.744442038444920406e+00 1.717358402845971410e+00 1.708923631897997808e+01
-7.772546974696001421e+00 1.554558028851953377e+00 1.707558932112547723e+01
-8.037208248303571168e+00 1.560864038865053871e+00 1.689667882313758440e+01
-8.326237376186785610e+00 1.593705895456303034e+00 1.666005761404686325e+01
-4.620092719351348798e+00 8.556586256542217939e-01 1.248765030975343393e+01
-4.476058220498702944e+00 8.413742155981507320e-01 1.251513438627078756e+01
-5.296106789672924364e+00 3.245710063072345442e+00 1.509083343384303078e+01
-4.304120823154462094e+00 6.688714185483073393e-01 1.271386209694401259e+01
-2.927323392960375692e+00 9.292136377554498505e-01 1.297716023455957668e+01
-2.623048257578564968e+00 1.108663701674182933e+00 1.297383207091220214e+01
-2.814927442956803194e+00 9.298943156730756776e-01 1.303039560234940097e+01
-1.374202945864829717e+00 7.876407672234826407e-01 1.800008618071719724e+01
-1.177264853813887902e+00 3.733453171588418384e-01 1.796565223592082106e+01
-1.447103584347176675e+00 2.376464321304628258e-01 1.812485670575061647e+01
-3.326295903024329093e+00 7.868778672983944844e-01 1.828244965588334736e+01
-3.547605523159049756e+00 7.833379706426977229e-01 1.826712326570813616e+01
-4.041166600181123059e+00 1.018922613740925964e+00 1.821356770247155055e+01
-4.537317025152169059e+00 8.250345373721506004e-01 1.817041710982147151e+01
-5.683116812560030873e+00 7.290458786334177432e-01 1.792686392846102450e+01
-5.776240865449187467e+00 4.391711169015202754e-01 1.788962952381322680e+01
-6.781473705907445471e+00 7.800696132174782527e-01 1.747436280268832576e+01
-6.765785265690896111e+00 5.912078260965358822e-01 1.747225470774252898e+01
-6.636087130027062742e+00 -5.018421320359980342e+00 1.565824587944939594e+01
-7.365105110678976885e+00 1.357289292469551656e+00 1.729193463877749792e+01
-8.346916431235417377e+00 1.369201588959281235e+00 1.666342241951274872e+01
-3.043905129142610022e-01 -1.105942353296062386e+00 1.681829507892504694e+01
-3.081565860776819488e+00 -1.355212864588120292e+00 1.810439469704269300e+01
-8.356492913257120847e+00 1.183596359335706838e+00 1.666913893063675545e+01
-6.268683120928772112e+00 1.617380683465848179e+00 1.195875588113548105e+01
-7.171407093988976023e+00 -1.766342938221997505e+00 1.702040031797771036e+01
-3.425300609565047338e+00 2.239549873449388495e-01 1.347420462473924374e+01
-8.925430290785648424e+00 -2.552297893148127717e+00 1.546815008820797743e+01
-2.524239902690521120e+00 6.692580529955840518e-01 1.334496378519002491e+01
-1.524973122125660385e+00 1.088774104912391349e+00 1.354843479688518215e+01
-3.242071959006894932e+00 2.195516308449555254e+00 1.246651427498790099e+01
-1.363881195633543042e+00 1.076052697558533611e+00 1.362262917475243995e+01
-3.904744399538241595e+00 -4.253618685944011157e-01 1.815119746046549665e+01
-9.592630702678333066e-01 3.736752367077357806e-01 1.780037501197098493e+01
-2.252124726705811764e+00 1.775672130449170938e+00 1.346245843981336776e+01
-1.426708780446233504e+00 5.746212299466829654e-02 1.813976754010533199e+01
-2.304473126222281731e+00 -2.011146775527564157e-01 1.832712232611282843e+01
-2.574848410082872796e+00 -2.583402405671558766e-02 1.832315642773190945e+01
-2.913250634394518812e+00 -1.826985560376933881e-01 1.829347222742877932e+01
-2.516276902096374002e+00 -2.058539830138107207e-01 1.831893253782441633e+01
-3.318488456990252189e+00 1.786383919072223603e-01 1.827304089778768059e+01
-4.103238229973131368e+00 4.052251473309313456e-01 1.820280658885866387e+01
-4.507437737898174923e+00 3.946593752809716693e-01 1.816841412680341250e+01
-4.291616320882076785e+00 2.002796766164388065e-01 1.817395748587683357e+01
-4.113918359087032961e+00 -4.359439040025736567e-02 1.817000817228693421e+01
-6.342278029434871733e+00 -4.404504806258979777e-02 1.762358404366384690e+01
-6.236948472140841027e+00 3.179066845917193906e-01 1.768197058553717937e+01
-6.770967713377296526e+00 1.679426727202543712e-01 1.745617199356818361e+01
-3.515555403460062234e+00 -1.710107438005591951e-01 1.388198707057869541e+01
-3.177802062284317941e+00 -1.484118775432412829e-01 1.395430432976333179e+01
-1.342767661845061244e+00 -5.800233989115616273e-01 1.814305706845177468e+01
-2.385754726814386828e+00 -4.223401701732092395e-01 1.831448293069430377e+01
-2.855055235764385468e+00 -5.794526692205821394e-01 1.825352811658164853e+01
-2.869039155748630776e+00 -9.781929759058489715e-01 1.819989297477506085e+01
-2.675421432519719200e+00 -7.768836468645996529e-01 1.824752228607252391e+01
-3.862152876205770191e+00 -2.334069054981502689e-01 1.817730681186108654e+01
-3.727531327767222180e+00 -6.052718110658507067e-01 1.814881078758531174e+01
-4.114688844155338643e+00 -4.782321026540876652e-01 1.812312921064789606e+01
-4.446688800193208557e+00 -3.564658815098645794e-01 1.808928608694179019e+01
-5.258565096119838245e+00 -2.175243414683893373e-01 1.796357257793301443e+01
-5.072850034375361084e+00 -6.013077121219084775e-01 1.793853382654860695e+01
-5.153078825319931333e+00 -3.775380282283065103e-01 1.795889119849577042e+01
-6.525660580535332045e+00 -2.013728968962798238e-01 1.753232648453577269e+01
-8.120783927273357961e+00 -2.220006910644643838e+00 1.655479788775325289e+01
-6.099866129009337001e+00 -3.925911102504774930e-01 1.768904205165128474e+01
-6.776282227921225143e+00 -3.337056693007441899e-01 1.742404801328451924e+01
-6.622200530791547024e+00 -4.097752064566675956e-01 1.747428640693727431e+01
-8.307957053332973629e+00 1.348304809170638663e+00 1.352190834046936629e+01
-6.749167831538711582e+00 -1.226369222490417132e-01 1.745157636207332530e+01
-7.292812197460824208e+00 -4.390215327809067203e-01 1.720746831725065107e+01
-6.879570464289014531e+00 -6.154508601860174677e-01 1.735128415743093910e+01
-6.662594154967207416e+00 1.981685271963475214e+00 1.278986709833281310e+01
-7.353741146586856736e+00 -2.442900949496774610e-01 1.720505842472138625e+01
-1.515872657854469230e+00 1.854311095357976003e+00 1.650345798366289074e+01
-7.457201764152247669e+00 -6.136680922629941248e-01 1.713066346991102051e+01
-7.509077304694414146e+00 -2.277904486751334556e-01 1.714531158576584602e+01
-7.679542925532182984e+00 1.663488199606261708e-01 1.710038639269661331e+01
-5.642857455792553267e+00 -8.391969380041421900e-01 1.776639155683312765e+01
-3.803878753313788330e+00 -3.201086847953049652e-01 1.392150580677807881e+01
-6.252477195316905600e-01 -3.761531182266570905e-01 1.774304501834085102e+01
-9.710412446072100856e-01 -6.135658829593875208e-01 1.795459951747777438e+01
-2.681024062827757071e+00 -1.188924516995855107e+00 1.819227571440442404e+01
-2.463699687669949956e+00 -1.416694019004749450e+00 1.818516683213155716e+01
-4.006713533039069297e+00 -3.065953142271896414e+00 1.478087973119768606e+01
-2.875790644794129047e+00 -1.568887706274544547e+00 1.808373831448800217e+01
-3.698442340283520480e+00 -1.028625893838691407e+00 1.809355648745135170e+01
-4.249837869329561535e+00 -5.950156038338186848e-01 1.808552269297115345e+01
-4.057344084067405099e+00 2.813757803739264762e+00 1.423823328411553746e+01
-4.304568317667029298e+00 -9.904276931367685943e-01 1.801958731449638407e+01
-4.140840473287105361e+00 -8.798063970857137317e-01 1.806153798341673422e+01
-4.937457624435645620e+00 -1.022033738251970192e+00 1.789579327506219641e+01
-4.179509870285139650e-01 5.052081888885155969e-01 1.627612217794176530e+01
-4.649560063576927860e+00 -1.029674706495772307e+00 1.795240280068703242e+01
-4.881564480779280402e+00 -1.250037571102823097e+00 1.786924892786616681e+01
-5.497376999832562561e+00 -6.113606910431998998e-01 1.784152511068324287e+01
-1.236860671044577309e-01 -1.878458123331938845e+00 1.595494586413778393e+01
-6.108300246338612460e+00 -6.043105943266350311e-01 1.765281403806645955e+01
-6.245444902523053621e+00 -6.473727471718608850e-01 1.759499653061183011e+01
-7.101144179549836011e+00 -1.019749147503824727e+00 1.720198031183301879e+01
-6.881251369539603147e+00 -1.018063018656314211e+00 1.728680751235789614e+01
-6.405262626835122930e+00 -1.284603838204851911e+00 1.743208714694776518e+01
-7.756595646858355231e+00 -4.016232632206881981e-01 1.702543785271743104e+01
-7.864676271841754662e+00 -6.205858584298441505e-01 1.695999938341766011e+01
-8.082607310169532155e+00 -2.281317727823373720e-01 1.687956298768157382e+01
-8.188181876886638122e+00 -3.315652174077352021e-01 1.682676131607810532e+01
-3.931824528284715292e+00 3.610641535602954644e+00 1.734440133126881278e+01
-8.179595135017635243e+00 -1.615674140489938848e-01 1.683816909748956903e+01
-7.201613712886738128e+00 -4.324283854918112624e+00 1.593974450264051512e+01
-5.403319884334410794e+00 7.373650817964394477e-02 1.333412542134080780e+01
-3.764066657550832140e+00 -7.517098646454192235e-01 1.435350982378277962e+01
-7.749957466779696880e+00 1.619842793533714964e+00 1.339112215503239867e+01
-1.113464573946549185e+00 4.345345060818480154e-01 1.375727448420387589e+01
-1.301692583386673707e+00 2.777399356481366488e-01 1.372565042357119580e+01
-6.320376713567925631e-01 -6.107150842280775205e-01 1.772075218182964562e+01
-1.228665135987825119e+00 -1.192527659689750497e+00 1.809977685831591288e+01
-4.076484096226825393e+00 -1.208625600474523054e+00 1.802421434199624173e+01
-7.917276207811270616e+00 2.270320129635942763e+00 1.536955004509708544e+01
-4.962374768487959997e+00 -1.508547758165845298e+00 1.781130385434058638e+01
-5.962393596802627371e+00 -1.252258737908811259e+00 1.760775482276801540e+01
-6.815731612634096770e+00 -1.431884429045644724e+00 1.723030073843399634e+01
-7.452591294056129634e+00 -1.810119093878170826e+00 1.690413538922112480e+01
-7.043032907498867345e+00 -1.795271575528370800e+00 1.706075848329986400e+01
-7.650270301974440024e+00 -1.789462651829857309e+00 1.683700725378095342e+01
-7.024108634585071620e+00 -1.985203272297130228e+00 1.701720406656274065e+01
-7.852074691129069528e+00 -2.393849333299912008e+00 1.660675406108835972e+01
-8.035231265944908330e+00 -1.067903003174340393e+00 1.682934409097880746e+01
-7.930684866342192940e+00 2.118991135815954330e+00 1.494859320710236261e+01
-7.769721046026591971e+00 1.094338420144502777e+00 1.226784238402501614e+01
-7.766581852561498245e+00 1.248176276921634686e+00 1.245709277162139728e+01
-7.171802469853104434e+00 6.393842661628748036e-01 1.205732187455821247e+01
-5.761336056419378515e+00 -1.430673436074115512e-01 1.350968681446020980e+01
-5.646367969123170738e+00 -2.085166236638157644e-01 1.364134322609079675e+01
-3.913129981509883004e-01 1.424920365873571515e-01 1.713533261277513020e+01
-3.786874553603953864e-01 -1.007293822330035393e-02 1.727030664225444667e+01
-8.614061624790816385e-01 -1.138277418986486378e+00 1.789789001435022442e+01
-9.178767877569218303e-01 -1.353129751826636307e+00 1.794708242442965229e+01
-7.839210480877087939e-01 -1.378464773721329140e+00 1.787456347312544835e+01
-1.192526981620143811e+00 -1.398471850040466036e+00 1.807933818031802531e+01
-1.235447379500776766e+00 -1.583138003592816645e+00 1.809183879256642058e+01
-2.242086530716313586e+00 -2.112447034400087631e+00 1.806291888207811525e+01
-2.259018205247877109e+00 -2.383445007305590835e+00 1.798866020286699552e+01
-1.815994110832412467e+00 -2.581282348855206354e+00 1.799825621457273428e+01
-8.799139612916199837e+00 -2.826076447722608576e-02 1.627715692125173774e+01
-2.810425268529662457e+00 -2.527814530025430440e+00 1.785357199814942675e+01
-6.486365766268461286e+00 -1.832036523137060779e+00 1.726337374655302170e+01
-4.062580290142806305e+00 -3.841130291592266488e+00 1.712873832482561198e+01
-7.368940432793394280e+00 -2.344372533336547271e+00 1.678823710821641413e+01
-7.300443642837551650e+00 -2.496221351496719087e+00 1.675969264351839172e+01
-7.578204710112454556e+00 -2.738960226065660919e+00 1.658287530878951088e+01
-8.177003005646501066e+00 -2.015448707511523718e+00 1.658769206376567240e+01
-8.094159253268141896e+00 -1.192049191898395977e+00 1.677392980969371195e+01
-7.668415940147714771e+00 2.074392840743605415e+00 1.441120938066457313e+01
-7.112199320201301411e+00 2.358652834111855778e+00 1.422419725920853040e+01
-3.391888353339115980e+00 -1.150430016225997720e+00 1.469499384064364023e+01
-2.446696370621431083e+00 -2.739819554760296150e+00 1.785663623951980128e+01
-4.333282116178604149e+00 -2.064262386111759717e+00 1.782545928124042689e+01
-4.507954878676749821e+00 -2.016432243907562594e+00 1.780769510929381738e+01
-5.333044042821575736e+00 -2.019419350440658345e+00 1.761058856339163725e+01
-6.913266605819266886e+00 -2.288141217915201864e+00 1.696690408283454587e+01
-7.233689997973649533e+00 -2.997704352437917663e+00 1.659813255578596625e+01
-7.359340618548134039e+00 -3.002141703527102301e+00 1.655312576987055451e+01
-7.784512458016494385e+00 -3.136335121561484751e+00 1.635396593616337668e+01
-7.826157017871998356e+00 -3.251158910747763198e+00 1.628966119374054244e+01
-7.776966640412537046e-01 1.018217310794025776e+00 1.671262135069773080e+01
-8.602095023641481930e+00 -1.433850240686469046e+00 1.641742351241933306e+01
-8.329978222294901258e+00 7.060968058184800000e-01 1.264483799181510904e+01
-8.339825727594945448e+00 3.212333657290936118e-01 1.262401949855073013e+01
-6.468573503352321730e+00 -6.539442756560845948e-01 1.262495994792405440e+01
-4.424554239322914029e+00 -1.192605400961512574e+00 1.443748326786680991e+01
-4.096115280454659668e+00 -1.419447225569721027e+00 1.463555680923878555e+01
-9.874096694146430320e-01 -2.954014124780108830e-01 1.394949577527353313e+01
-6.551138540089995743e-01 -3.027323555837324598e-01 1.413873703625950640e+01
-3.539049168792030908e+00 -2.282831012970822471e+00 1.782864526682804041e+01
-3.661022989865530874e+00 -2.264906731049807220e+00 1.783100074892964670e+01
-4.959187220495890003e+00 -2.318173167633414078e+00 1.761587734618827028e+01
-5.482561464180890631e+00 -2.645705040908588490e+00 1.737447324469687260e+01
-6.644460539195160109e+00 -2.690167546620462868e+00 1.693650290203420639e+01
-6.961244668835824712e+00 -2.731356802808738049e+00 1.679864357836963507e+01
-6.822567782463585750e+00 1.689870291052557816e+00 1.245860729644090981e+01
-6.844987945045629907e+00 -3.039958083538518263e+00 1.672047404830277628e+01
-7.247207519935649600e+00 -3.534664705242434479e+00 1.635660079127617195e+01
-6.956201912584744740e+00 -3.721687172190959458e+00 1.636165661011021655e+01
-7.409274550729400666e+00 -3.566030430032713916e+00 1.628479370065838339e+01
-7.041894250908439901e+00 -3.765958267847224761e+00 1.631097353856672783e+01
-8.731046103338670150e+00 -2.085848723286829465e+00 1.615083175940263516e+01
-8.713157709831659048e+00 -2.230096974977239022e+00 1.611673142892340138e+01
-8.322714057254252396e+00 -1.321727781780718536e-01 1.260935773873785593e+01
-8.303572376899701624e+00 -3.838491719167378413e-01 1.260621381567106880e+01
-7.393409069293976899e+00 -4.450039706367483472e-01 1.219306151862294740e+01
-4.271396959478236610e+00 -1.569356762830957264e+00 1.465205211822911480e+01
-2.585828089998198021e+00 -3.320082442993196103e+00 1.761859184518987576e+01
-4.900857803187043338e+00 -3.089992979911087012e+00 1.736035914339860398e+01
-5.451633660918845159e+00 -3.223908026222078949e+00 1.716704509071985996e+01
-5.612777326865576732e+00 -3.004552914623727755e+00 1.720191155491590962e+01
-5.899070624394574303e+00 3.330229158249467858e+00 1.544417687881087176e+01
-6.073507647061182624e+00 -3.227195086511819078e+00 1.693953869717374516e+01
-6.460602574155664080e+00 -3.399978883307844146e+00 1.670180386497366953e+01
-6.452942637490697741e+00 -3.838227618756592907e+00 1.648907857515685293e+01
-6.794115244450608770e+00 -3.985707540938177917e+00 1.627477552294173080e+01
-6.992605153286921116e+00 -4.113756234261267686e+00 1.614233194949758143e+01
-7.460104482923674674e+00 -4.268063229443068707e+00 1.587732101876967761e+01
-8.694415507343425276e+00 -2.798605448625568481e+00 1.591368212719736164e+01
-8.711652995476359962e+00 -3.023113078524868325e+00 1.571039611576495076e+01
-8.759853908696662472e+00 -2.991963443244600285e+00 1.560732081564808738e+01
-8.926185598967116164e+00 -2.307121386531116425e+00 1.562159855701175104e+01
-6.876763162835923815e+00 2.662441931839911291e+00 1.465211829673840782e+01
-1.212812447629550983e+00 1.359033859481701079e+00 1.528706098927901991e+01
-8.512695797627078065e+00 9.803498117100375442e-01 1.311195134239260085e+01
-8.790932214254607580e-01 -4.655044819818959567e+00 1.664575658362880972e+01
-8.897210633639723198e+00 3.184593302659985414e-01 1.344940457053905192e+01
-8.945930612317209096e+00 4.431520295947361521e-01 1.358507643644090024e+01
-7.900368246273752781e+00 -8.379060223082002157e-01 1.239225883799112893e+01
-3.425990799309068358e+00 -2.486539623217443484e+00 1.496932094873273655e+01
-3.815642725985636474e+00 -2.546711171763956116e+00 1.487494319098881590e+01
-3.003045207692169871e+00 -5.244916555571240480e+00 1.634313045491419558e+01
-5.032803381481398830e-01 -1.208957251944970723e+00 1.427877539406619434e+01
-5.351190286737508295e-01 -2.292192364567972263e+00 1.729428512534709483e+01
-1.525332205710164812e+00 -3.714393366154578935e+00 1.763579624279244484e+01
-2.216250080084102070e+00 -3.590822095278288106e+00 1.756814082885452422e+01
-2.051126437102394284e+00 -3.780001939616552953e+00 1.751014326397571352e+01
-2.461973171868304000e+00 -3.424718443502475562e+00 1.759788346773261480e+01
-4.826759884061633699e+00 -3.192324168482902458e+00 1.733175230056328786e+01
-5.194162034818201157e+00 -3.362600085535727867e+00 1.718683493412557084e+01
-5.995686741380442442e+00 -3.349653751549468428e+00 1.691235071117144173e+01
-6.228675189613722907e+00 -3.615843894125744029e+00 1.668657475833497728e+01
-6.297566112158393459e+00 -3.877521906197529677e+00 1.652670662825816095e+01
-6.189584656859076439e+00 -4.177817177772291224e+00 1.640534142806610873e+01
-2.466618582252764647e+00 2.709500726545380545e+00 1.713192593074506931e+01
-6.377721512706804319e+00 -4.510436026692844713e+00 1.612476874766097268e+01
-7.288405849548942328e+00 2.495511777417209309e+00 1.480945829967699012e+01
-6.292855447037745797e+00 -4.590484154546063955e+00 1.610660029772127189e+01
-6.018444690924511065e+00 -4.558921647609236238e+00 1.623664851773124695e+01
-5.817690748233403042e+00 -4.511832483501884816e+00 1.633843617199812570e+01
-5.718285403852425119e+00 3.581038922557283843e+00 1.609700143493382285e+01
-8.268378604694209599e+00 -4.251416500589934699e+00 1.524568455469226080e+01
-6.389211864334094493e+00 -4.753898427242378766e+00 1.595790828148975748e+01
-5.272538216748388074e+00 2.773485001381445159e+00 1.385170755426388212e+01
-4.022988346935928661e+00 -3.973388209101529345e+00 1.706189293271341967e+01
-6.155707931638751518e+00 -4.938895004121950372e+00 1.593259181197219476e+01
-5.987077503893888597e+00 -4.723751963544110311e+00 1.614126140632052397e+01
-5.969304808519402705e+00 -4.957450678489765394e+00 1.599310975211145092e+01
-7.007626625700024370e+00 -4.804316891740012530e+00 1.567893759750293725e+01
-3.965825521975196111e+00 3.199830828123821913e+00 1.574664274218607574e+01
-7.406236403421103454e+00 -4.620588592184049048e+00 1.563470334675465523e+01
-7.345645872064988424e+00 2.689624989089427931e+00 1.540931934715275275e+01
-7.701597552776486388e+00 -4.286874013748070311e+00 1.574440180544342383e+01
-7.622723644584966429e+00 -4.444424889684055913e+00 1.565583314125736081e+01
-7.748822111219246800e+00 -4.502032428956550092e+00 1.552346903429942415e+01
-8.487080218405118615e+00 -3.491491440206719421e+00 1.570936550218673489e+01
-8.736540936110220201e+00 -3.333831604060392362e+00 1.535500107264019221e+01
-9.067874848792012443e+00 -2.007632808719569617e+00 1.502356349785745238e+01
-5.267437429844715524e+00 2.604573751855317365e+00 1.343385728101274168e+01
-9.113452220126504244e+00 -1.400899348554567103e+00 1.529125376963267513e+01
-9.132664485664939491e+00 -1.486163651918518180e+00 1.502107786451770721e+01
-9.191928782780220075e+00 -7.666491704010340857e-01 1.510279417648584399e+01
-9.163289970138361440e+00 -1.127038751110547299e+00 1.505257708507688363e+01
-8.766236931677429567e+00 9.968969572852577343e-01 1.362863141374633358e+01
-8.918272482597568995e+00 -5.183440377963538515e-02 1.342195099455994267e+01
-8.656666603940152527e+00 -9.114098696478929451e-01 1.302338162230368823e+01
-8.539057812008742587e+00 -1.094478898138777634e+00 1.289918724938279837e+01
-7.742880767761451288e+00 -1.273790690301267015e+00 1.236695339083470913e+01
-6.673284400059865007e+00 -1.632504550094403317e+00 1.293503074025384336e+01
-6.509370944534142112e+00 -1.367745914899847204e+00 1.306856781158427339e+01
-5.235890647267783748e+00 -1.765162728208465204e+00 1.462969870607098954e+01
-1.477418272452145409e+00 1.351371707023450774e+00 1.449682177389191651e+01
-3.962076897193577807e+00 -2.658152705569474250e+00 1.483001946354905698e+01
-3.904092131085934447e+00 -3.073880295095336113e+00 1.480365577407429356e+01
-3.369252997369728941e+00 -3.050680284356409366e+00 1.493602541235357961e+01
-3.131909285957205746e+00 -2.763600639330554998e+00 1.503137928472837359e+01
-2.994562778529562763e+00 -3.113369309656673689e+00 1.502065549569870484e+01
-3.010974456937028254e+00 -2.486718972229615687e+00 1.506009242809255255e+01
-2.613443659550064080e+00 -2.900901195229343088e+00 1.511328234852369690e+01
-1.624732340004287900e-01 -1.039754055310572634e+00 1.502830641440253601e+01
-1.468863116331090568e-01 -9.768832531778122164e-01 1.535681699675324552e+01
-1.379406123144605312e-01 -9.538989820809768982e-01 1.561679216751699784e+01
-2.000185622443006128e+00 -4.013517986071947874e+00 1.739689526591441648e+01
-2.105494845616515676e+00 2.098523587665623857e+00 1.511210928267029630e+01
-2.208854421725559902e+00 -4.160865495923418145e+00 1.725610510358561100e+01
-4.842634046709048512e+00 -3.634435439962497405e+00 1.714954396515049950e+01
-5.833241505926968884e+00 -3.837524992952543901e+00 1.673296053667118599e+01
-5.781086397370772900e+00 -4.118637815299126537e+00 1.658721488216223605e+01
-5.482433007484675436e+00 -4.399225875569127808e+00 1.652035831656265685e+01
-2.565939071170188601e+00 1.881845188151016979e+00 1.285036600014486652e+01
-5.768082220719558784e+00 -4.405148497502296756e+00 1.641864014906760616e+01
-5.405174570138418844e+00 -4.705772193735574760e+00 1.634686037344090437e+01
-5.584968951123447489e+00 -4.574504846268725444e+00 1.637515029497739505e+01
-5.443803788811547584e+00 -4.552499034652350396e+00 1.643360934500178416e+01
-5.791100544429332864e+00 -4.994296956020476408e+00 1.603300564972532527e+01
-5.875901542898661845e+00 -4.856754701337238522e+00 1.609478253225513811e+01
-5.973605942095107757e+00 -5.076569794407648217e+00 1.591138492077470801e+01
-3.099971653556238493e+00 -5.442977775016557551e+00 1.614927299233172420e+01
-5.590420799936706153e+00 -4.908940556680082778e+00 1.615579636288356369e+01
-5.969593635701945011e+00 -5.323234187871169532e+00 1.571649866207175705e+01
-7.468520541153186088e+00 -1.608380725982823112e+00 1.694729591572563976e+01
-7.486816667263645364e+00 -4.883531270781376499e+00 1.535083338250795038e+01
-7.879519979296312648e+00 -4.665914122352630145e+00 1.523542217839150936e+01
-7.756689953861559239e+00 -4.700349334931755330e+00 1.531433396406908543e+01
-7.942897215859908933e+00 -4.512697446125025103e+00 1.534792842055016848e+01
-8.327197137447974740e+00 -3.934754931598766881e+00 1.552686167864317213e+01
-8.310155260414905598e+00 -4.125990267251027355e+00 1.534201771439943229e+01
-9.040906278367309312e+00 -2.195348920459793352e+00 1.482411421082787939e+01
-9.128028470508482428e+00 2.978864706367839732e-02 1.536474680885056188e+01
-8.814774918746834942e+00 3.574128088997535202e-01 1.613394379256681788e+01
-9.096637233805410006e+00 -1.320760606743662802e-01 1.392125935581047003e+01
-8.871350767837789419e+00 -9.717952515702152905e-01 1.341064889123433090e+01
-8.536146686332262590e+00 -1.472089370767371674e+00 1.295148823858576037e+01
-6.442901396231284217e+00 2.438802483287662692e+00 1.367771363138123064e+01
-6.677834040521988257e+00 -1.824039434204582477e+00 1.310747172827655049e+01
-6.526799106576584464e+00 -1.583896532172520244e+00 1.349366909061243547e+01
-5.892640430910698335e+00 -1.665853107316483728e+00 1.439326651443808203e+01
-5.672896296524767124e+00 -1.423187483134774833e+00 1.442442691297315349e+01
-4.815756446606539676e+00 -2.709378308373356692e+00 1.468281535419627915e+01
-4.197322481138854755e+00 -3.319520485167888779e+00 1.470483150242378656e+01
-1.452205017837425727e-01 -1.834127724934549786e+00 1.605434006122876411e+01
-1.915012077779435717e+00 2.261983301499953303e+00 1.710677739505255346e+01
-4.182803829693045650e+00 -3.497518125219456042e+00 1.468156070871077645e+01
-3.708441302122182037e+00 -3.448953135989544450e+00 1.480476362529544332e+01
-4.218506248417893012e+00 -3.713368018248192737e+00 1.464404070284553683e+01
-3.904075995435342783e+00 3.496268210011169053e+00 1.669853356085582874e+01
-3.777310680163498802e+00 -3.718123105408972506e+00 1.474437563128797279e+01
-3.602472352781562748e+00 -4.062863973750115321e+00 1.473786492954315008e+01
-3.362964673471388277e+00 -4.059621763768785918e+00 1.480449037530981826e+01
-3.025499796663757568e+00 -2.709777013723082106e+00 1.504461275768224482e+01
-3.161025566296765454e+00 -3.232404228650016531e+00 1.497200159380486895e+01
-3.004373131987756906e+00 -3.513712809459688557e+00 1.497977762586162953e+01
-2.808780354108701527e+00 -3.489035353860926225e+00 1.502499658387115034e+01
-2.399731760774157951e+00 -2.701788242126352824e+00 1.514237323060313400e+01
-1.889892941806987192e+00 -2.468912437252962722e+00 1.489349021498357928e+01
-1.511636879212110651e+00 -2.367830148219978614e+00 1.443488634050223141e+01
-3.018839439471397768e+00 -3.885508785528100972e+00 1.723273570882595607e+01
-3.203136015952263715e+00 -3.871253253216918822e+00 1.720943412748175660e+01
-3.471199239073122556e+00 -3.850523973843610115e+00 1.718202855107183780e+01
-8.305627383658900076e-01 1.103344972847710492e+00 1.548792130077301010e+01
-3.600278170022256141e+00 -3.840443442551585207e+00 1.717265156082440569e+01
-1.331055861494909509e+00 1.633326814067647570e+00 1.610407883109716209e+01
-3.406512071981410816e+00 -4.016103538262143502e+00 1.710592562568337627e+01
-3.981670367057397186e+00 -3.732449889526624265e+00 1.719467904494813126e+01
-3.817223632634456187e+00 -3.936829132436067358e+00 1.710247529110669973e+01
-4.267980121845869945e+00 -3.929221703190117321e+00 1.706095917752107027e+01
-3.843317977578884381e+00 -4.113635948804857279e+00 1.700579998637036994e+01
-4.429550320900468741e+00 -3.773075921734141414e+00 1.713406538608608543e+01
-5.201004390520887810e+00 -4.349791715449404350e+00 1.662944411223373464e+01
-4.422583745092072860e+00 -4.191013160980066488e+00 1.689296713339876987e+01
-4.612719042606340913e+00 -4.077338544522163488e+00 1.693495650891406967e+01
-4.834122059854030873e+00 -4.567398723287929840e+00 1.656710345283978114e+01
-4.981395034025547730e+00 -4.356905505771034193e+00 1.667963666208670048e+01
-4.608263037872665002e+00 -4.764143763592552538e+00 1.647860474235764627e+01
-8.049283795042533995e+00 -4.659703704588754825e+00 1.503569173058170350e+01
-9.031998901939587654e+00 -1.691087103494933075e+00 1.426015862168910786e+01
-9.130756525411086955e+00 -1.287165191693909305e+00 1.453552899307864266e+01
-9.118795149760817509e+00 -5.593562438675836468e-01 1.402125982405146232e+01
-8.731021897738660442e+00 1.325016643162377550e+00 1.448721815796499612e+01
-4.851575641414315854e+00 2.285475285287044578e+00 1.232553427103790966e+01
-9.154534206953417907e+00 1.415262733692175812e-01 1.525196740217820945e+01
-8.764756503464607107e+00 4.773669903500991629e-01 1.621837143705014483e+01
-2.403053798454008128e+00 -5.048442546977998546e+00 1.658855592898946441e+01
-8.951689989596761876e+00 4.301121444717980746e-01 1.582298107168183066e+01
-9.052242007244526434e+00 3.948378882337561513e-01 1.553268869780789174e+01
-9.061000673248784665e+00 8.037149876615738986e-01 1.511552667324976795e+01
-9.051276359012767614e+00 -9.351002346086523254e-01 1.390497358029530517e+01
-9.025185826372968734e+00 -1.523139506848706803e+00 1.409479122438172283e+01
-9.066451239848138499e+00 -1.174030378041605260e+00 1.408044510882979949e+01
-4.944078753281568872e+00 3.775066024150530719e+00 1.731327937456703125e+01
-9.005338110012417019e+00 -1.325042668143983748e+00 1.388169680552123708e+01
-8.914921447140994104e+00 -1.332970465915526592e+00 1.357589403705929954e+01
-8.236087004919045995e+00 -2.137547079749533729e+00 1.281682947261523964e+01
-5.510380012226593571e+00 -2.425175925453420867e+00 1.461256856575242580e+01
-4.808011562066584865e+00 -2.916937908993169071e+00 1.466314657855614456e+01
-1.065380062956309937e+00 1.148327679759076902e+00 1.488766102984666873e+01
-4.720664005186439027e+00 -3.640673642549141498e+00 1.457568663870804215e+01
-5.582182640113454219e+00 3.702880314658602234e+00 1.643724959369214389e+01
-4.457908342073541696e+00 -3.910823374145263376e+00 1.456145789663235490e+01
-4.551056227387037190e+00 -4.068056203661716275e+00 1.452407210382178704e+01
-3.471189046591172556e+00 -4.380613543464325410e+00 1.473552546812523190e+01
-1.215364089324901808e-01 -1.601851060779669211e+00 1.496320468148315541e+01
-1.224244092234152426e-01 -1.525068517418413094e+00 1.496317215592691241e+01
-4.702876904308257444e+00 3.121344880414429923e+00 1.488380556654487918e+01
-2.379146583081872990e+00 -4.507377128989690895e+00 1.699171640522975935e+01
-2.619026157172882119e+00 -4.703241103059095707e+00 1.680821471822466151e+01
-3.683468594455598932e+00 -4.234629160152238114e+00 1.695094508904919905e+01
-4.296892371490852902e+00 3.087970605535855562e+00 1.508679650459458799e+01
-1.919249610227162783e+00 2.097439251653683279e+00 1.590164537966420255e+01
-4.052990560826314592e+00 -4.184275663129247924e+00 1.694082641672938649e+01
-4.661324419151790188e+00 -5.634374397993232364e+00 1.528857469145838621e+01
-4.367952462888889720e+00 -4.459115880453963676e+00 1.673712631383198612e+01
-1.396223421309422230e+00 1.234836846911098185e+00 1.426638678314442643e+01
-4.370241937877733740e+00 -4.708060856910259773e+00 1.656281664857682046e+01
-4.045661455508721360e+00 -4.496911235268894913e+00 1.675182478925243856e+01
-4.661591121986853103e+00 -5.037640228737245707e+00 1.627059433484661355e+01
-4.345604575544535386e+00 -5.038169790793611824e+00 1.632355006780942119e+01
-4.588590974240822185e+00 -5.347472440809943883e+00 1.603299325001594156e+01
-4.832862977229264168e+00 -5.235703595209985295e+00 1.608868402128659625e+01
-8.497719392990216392e+00 -4.091992600614439368e+00 1.495569347147306871e+01
-8.910726728930114859e+00 -2.697273499507406580e+00 1.427296006358272251e+01
-8.908710653886462438e+00 -2.345633137388331235e+00 1.407661872614743004e+01
-1.111013272311167421e+00 1.475907828591423998e+00 1.649120238517378567e+01
-8.861904632602850995e+00 -2.548355859190555517e+00 1.403457508860825698e+01
-8.884967603785600687e+00 -1.950611655243749576e+00 1.380493613754550353e+01
-4.808570255397651927e+00 -4.296573944624923591e+00 1.446093548910945970e+01
-8.087265315710979507e+00 -2.206275682979212505e+00 1.272112820094179142e+01
-7.453087958860370676e+00 -2.180888464628997436e+00 1.255485842313095901e+01
-5.447388148889571013e+00 -2.766089605844481270e+00 1.458472462623017663e+01
-5.332752841317726755e+00 -2.897128751713681005e+00 1.458605389282245568e+01
-1.173148706741133029e+00 -4.395204091016717385e+00 1.718558691427549689e+01
-2.984385707542533073e+00 -4.680382905888717637e+00 1.676296381027111693e+01
-3.410060506336326291e+00 -4.622526150940388767e+00 1.674624686868774859e+01
-3.041400645178993223e+00 -4.928947591793465755e+00 1.658348680418448140e+01
-4.020473048837384766e+00 -4.841565381702436888e+00 1.652436717541917943e+01
-4.087210192384277185e+00 -5.061238915697222396e+00 1.634715131384874098e+01
-4.904866649772277043e+00 -5.457318114919107011e+00 1.590970509959198864e+01
-8.672683008221142131e+00 -3.635239562761961363e+00 1.416892192411160778e+01
-7.095549954425409922e+00 -2.532092654215341465e+00 1.302889685146723053e+01
-6.872221353802972388e+00 -2.907538357051412614e+00 1.373795984477704479e+01
-6.681003205902818820e+00 -2.742600998842601445e+00 1.396531173111800683e+01
-5.812065645534747027e+00 -3.475964992661538577e+00 1.438729757726743230e+01
-5.895717979694841127e+00 -3.517736885746953757e+00 1.435968730461914333e+01
-5.703915579714259110e+00 -4.098791217104107432e+00 1.435055476337376490e+01
-1.159700040990283565e+00 -2.737676102784919241e+00 1.445949649032936435e+01
-4.899965376940945916e+00 3.229989414880851228e+00 1.510019399537098650e+01
-5.552720301421749660e-01 -2.866035617885313691e+00 1.468108015695372615e+01
-5.820256277746203022e-01 8.360869678202986766e-01 1.532508322102921738e+01
-2.277657700830842957e-02 -2.639348127212618245e+00 1.539601188207387850e+01
-3.384181150032539165e-01 -3.924345246711513191e+00 1.614223237585751747e+01
-8.794523111862959652e-01 -4.465223962365068466e+00 1.684254648008089816e+01
-3.459845953364853788e+00 2.559444457514585380e+00 1.370195152994571686e+01
-7.650686802092168115e+00 1.911373557637592979e+00 1.398576226889402108e+01
-2.749012808751686521e+00 -5.033351805222523012e+00 1.654631042734180824e+01
-3.580155153078250940e+00 -5.220957773755019460e+00 1.629761389134849026e+01
-5.328308693247744365e+00 -5.617928786345007808e+00 1.511339111742574914e+01
-1.662307296719811589e-01 -1.077973077931700940e+00 1.600849616071472070e+01
-5.970894190704499671e+00 -5.454273356802392669e+00 1.461984046799387471e+01
-8.505333815524043217e+00 -3.349223700917594027e+00 1.370814908043107039e+01
-1.735849287426092680e+00 1.670454685634838787e+00 1.485731959789431045e+01
-1.182588870551575022e+00 1.055625225139043666e+00 1.386213004602584675e+01
-8.458267213357334668e+00 -2.791813164931280511e+00 1.334952190541832096e+01
-7.349993487499403066e+00 -2.953771377544567311e+00 1.315299992040723254e+01
-7.262970259431396514e+00 -2.822365674385646894e+00 1.313295134611387027e+01
-6.045997873365754671e+00 -3.135749818061125183e+00 1.433494076669106221e+01
