-6.444310867802749421e+00 4.301736433089115685e+00 1.653011883764840917e+01
-6.574038736221631041e+00 3.852591196004411689e+00 1.662799631437788861e+01
-8.421114116649210501e+00 -1.656456609540363889e+00 1.317843007909346653e+01
-6.876699103801714230e+00 -9.605166224510974793e-01 1.266280592605104971e+01
-8.104483741310010814e+00 -4.831032901169440841e-01 1.265513783101131651e+01
-7.886862382542609851e+00 1.377808639111258504e+00 1.414508308250731972e+01
-3.571326583857751924e+00 2.136926075495148680e+00 9.648517310498938571e+00
-5.893364974963263059e+00 -4.417967615252448965e+00 1.531175687845346545e+01
-6.140817414147089259e+00 -4.421161173110473186e+00 1.530943350901164735e+01
-2.897503918288313329e+00 4.646653436323203934e+00 1.657324487674816993e+01
-6.560881377180713514e+00 -3.693331929179163087e+00 1.637803524123361854e+01
-6.004171332581530685e+00 -8.386470464001267722e-01 1.297602147275702578e+01
-8.165969725446493577e-01 1.756177271145265006e+00 1.348490914440977662e+01
-1.037307841843618128e+00 2.593386520884110702e+00 1.529337313698848533e+01
-5.205063145707390371e-01 -2.858415257292994394e+00 1.400222997458035934e+01
-6.159835784854260865e+00 8.343649270409212448e-01 1.696431368515732174e+01
-8.422821266137663798e+00 -2.416598256473446060e+00 1.337359754807253864e+01
-3.833780966378447896e+00 4.046294173004214123e+00 1.743038062367337915e+01
-3.957361405445509739e+00 1.691558592429126318e+00 1.003658777001508184e+01
-5.970571849433063072e+00 2.883065047507971101e-01 1.193776625169813599e+01
-8.177111883994241381e+00 -1.831376544151650521e-01 1.609811808629294205e+01
-7.764753850292894555e+00 7.960060073114076928e-01 1.636453465942099683e+01
-7.579744220712537839e+00 1.541812646330682934e+00 1.644857278062217176e+01
-2.397289644170049971e+00 -3.335233235418299191e+00 1.456150799402495721e+01
-2.217055827147063951e+00 4.236441757610991843e+00 1.693794034528792025e+01
-1.506638743026356808e+00 1.185124847772466516e+00 1.114043184867887959e+01
-6.256893885687705215e+00 -3.998665530766936538e+00 1.635557869072898995e+01
-2.275088487208675403e+00 -1.661412871460208773e+00 1.698465930373383515e+01
-4.655784775677913601e+00 -4.721272760365502918e+00 1.626660163549720295e+01
-4.176643150515356950e+00 5.244398339418885335e-01 1.144778715592191531e+01
-4.160779650380868055e+00 3.302359114213162528e-01 1.173127082413243727e+01
-3.985306785056745849e+00 3.236886679927164501e-01 1.172503009698347398e+01
-3.603841246520975705e+00 5.308653135065322104e-01 1.142220470940237931e+01
-3.515078343723167187e+00 2.660833178885870787e-01 1.179632560746625103e+01
-1.409309143975350231e+00 7.223757722602224263e-01 1.145923666710735489e+01
-1.790682462279961085e-01 -1.447708752208813898e-01 1.700938531398399789e+01
-6.147925778343814152e+00 -2.370024281374223385e-01 1.687107539476688345e+01
-3.455925368262529496e+00 4.132968364856271393e+00 1.366156736099636504e+01
-7.434816096257499396e+00 -2.419976551542517118e+00 1.630679795222713580e+01
-6.124312395792475883e+00 -4.734330418976395727e-01 1.685741621623078856e+01
1.628784978449038801e-01 -2.437240439395886860e-01 1.671098792066408834e+01
9.801092161102459288e-02 -2.884448041391016293e+00 1.439197627673874536e+01
-3.885648668341147527e+00 -3.965103317061647648e+00 1.493255176819489805e+01
-1.494724417083062695e+00 2.627922316734919939e+00 1.375265507178302471e+01
-5.637804547596070748e+00 4.043979169728337375e+00 1.706176933232221415e+01
-5.726433762251209814e+00 4.016845614638221207e+00 1.703305640992710579e+01
-5.287764614558406961e+00 -2.886443822270548853e+00 1.671861078764736419e+01
-5.479446870817227477e+00 -2.667690503841771754e+00 1.671973248171951099e+01
-2.618254771142175752e+00 1.812198911171309934e+00 1.016693557396607162e+01
-1.909175719887654221e+00 9.755741932426200691e-01 1.110220716430307419e+01
-2.228403924022084759e+00 1.798197145909083750e+00 1.034120071937550733e+01
-5.657289783053501608e+00 3.114599591991285443e+00 1.718765273847679964e+01
-5.480192235197560713e+00 1.538488880600020092e+00 1.716477211891391619e+01
5.270485706870602360e-01 -1.927630368340205180e-01 1.385174214801940451e+01
-5.830774442340485031e+00 1.943223415811744736e+00 1.710828288840303202e+01
-8.166556816484153714e-02 1.036032905841108853e+00 1.379451824224884859e+01
-5.726901725864079751e+00 -3.023579954499602263e+00 1.662112308637453850e+01
-5.200228088173828311e+00 -7.692042694784184675e-03 1.709024597885041175e+01
-6.484948421356513393e+00 2.317895397209261077e+00 1.693207591963599157e+01
-5.715642002217920847e+00 -4.555091024527793131e-01 1.694076524809645434e+01
-6.168016699939130376e+00 1.511721084579438212e-01 1.690684009968848756e+01
-9.119090355208819831e-01 -4.931991825449828504e-01 1.239204795866506004e+01
-6.114900287255419897e+00 4.487831077326013940e+00 1.539264733003386709e+01
-1.903942857517649800e+00 -1.045854670139377607e+00 1.703562793411098397e+01
-1.668735935994666963e+00 -8.429903296491345621e-01 1.704161422190952635e+01
4.086710192244821238e-01 -2.031046615361269847e+00 1.414229787962237594e+01
-1.741696889252922764e+00 3.648382050953598910e+00 1.718146567912285150e+01
-8.314627899058450566e+00 4.223356901729267143e-01 1.405508999354348276e+01
-1.760626045395716543e+00 -1.615829742437217664e+00 1.315990033503987888e+01
-2.744719239395178700e+00 -3.792448124480312099e+00 1.490788630472464149e+01
-4.567049976422858037e+00 4.374550179017663076e+00 1.359618884196061828e+01
-2.218627747826849461e+00 -3.574327859991455636e+00 1.471655024529212596e+01
-4.741055566379214214e-01 -7.771848161468586369e-02 1.706793639626854286e+01
-6.736557061021745119e-01 9.195108636700641824e-01 1.711302876899948444e+01
-6.083344234251783611e+00 9.393338792100420775e-01 1.131102408284673544e+01
-1.791725571175802445e+00 -3.157389210879268937e-01 1.220259272980120357e+01
-1.556666285972687414e+00 -7.852365109806886956e-01 1.251308303154493018e+01
-6.130556733538886860e+00 1.934182492503954354e+00 1.702939256253989697e+01
-7.947975130396042198e-01 2.396040608101515090e+00 1.554874189582651667e+01
3.356942152932695933e-01 -2.079313492226480431e+00 1.401897507671510112e+01
4.725328570432403286e-01 -2.285066338705929123e+00 1.451302863195487447e+01
-4.961003998243826985e+00 4.829306001048041530e-01 1.164969206069831387e+01
-2.524866286462675191e+00 3.229153690589290804e+00 1.198782973724257062e+01
-4.812670055230745536e-01 -3.676938489245851205e+00 1.671028764937847910e+01
-2.815147363245891765e-01 -3.477095739281955478e+00 1.674912908759993257e+01
-3.986446413087283980e-01 1.975392384011475100e+00 1.600297172821689173e+01
-7.096360377952248832e+00 -3.807789335085747684e+00 1.449516410571926173e+01
-7.213038133329829016e+00 -3.512081733000297579e+00 1.419784141088048557e+01
-1.670049712286567178e+00 1.735120902669172516e+00 1.728473119742028530e+01
-8.910885426763289763e-01 -2.656254129272797027e+00 1.378910146953101190e+01
-8.169753749075324423e-02 3.036616980062039062e-01 1.269797086066869696e+01
-7.989888241419754955e+00 1.009167787532245786e+00 1.618814488708951416e+01
-9.629265903797084025e-01 1.719142545772843089e+00 1.286922202650795555e+01
-7.995761415192602861e+00 8.847885334849041605e-01 1.619789291430150513e+01
-7.303934951815002741e+00 -1.142429150109018909e+00 1.261493011417525878e+01
-7.064222161861304805e+00 2.949058340959725744e+00 1.412403762983593936e+01
-4.892222915500112457e+00 2.737248632685126637e+00 1.732189326640289551e+01
-1.460515318802500406e+00 3.395713815544606273e+00 1.683629066873749025e+01
-4.625177509075453219e-01 3.371586230223817537e-01 1.227634146780268765e+01
-3.351937305229934605e+00 3.889763217806898599e+00 1.269705988201533131e+01
-6.227374919295456390e-01 1.728452648115745838e-01 1.219077226736641251e+01
-6.463490704525912456e+00 1.460902025823409556e+00 1.107145238796398701e+01
-6.635602857249254249e+00 1.475745985501113466e+00 1.130347484519096923e+01
-6.635553741745476852e-01 -4.513223293483616949e-01 1.706540396449002372e+01
-4.312362778769948113e-01 -1.908846636981501366e+00 1.697123360235466549e+01
-2.031378512754900889e+00 3.616438518236823274e+00 1.500273852662049023e+01
-6.116471340489952446e+00 1.947027884704806588e+00 1.058612691083792612e+01
-1.901908475155264622e+00 1.403859723872152188e+00 1.077777929863421491e+01
-3.762582141119415802e+00 1.513767776197656456e+00 1.023468208776144905e+01
-2.951702326670384569e+00 1.177659148054896132e+00 1.069553706620308731e+01
-3.169649142066769176e+00 1.161473356664328715e+00 1.068019026396643767e+01
-7.216154164443169705e+00 2.125807602101350557e+00 1.332879402360821786e+01
-3.186981193323173756e+00 1.254209723690534961e+00 1.058045344618348338e+01
5.694255134855126244e-01 -6.172845408805467393e-01 1.465963484243049209e+01
-6.494680008654132308e+00 -2.446038201413097912e+00 1.655681177443283048e+01
1.151561067769047986e-01 -1.189411135943031272e+00 1.329967235048150087e+01
1.270015384793238278e-03 -4.744262950098128151e-01 1.293086076385608862e+01
-2.446164844915424741e+00 2.992468961223278434e+00 1.121634987424412344e+01
-8.043830924496351287e+00 1.343629870649625246e-01 1.257096300309873982e+01
-7.536505748757542200e+00 -2.413983557206832220e+00 1.626904638955066673e+01
-7.685721069967295982e+00 -1.202335858877562114e+00 1.631705840420973175e+01
-8.369815411912476577e+00 -2.750989542857800618e+00 1.565248135205860791e+01
-2.434934512332414425e+00 3.546673664342030019e+00 1.370403057463425256e+01
-4.338714293599266192e+00 -5.902208292083210850e-02 1.233552324373255971e+01
-1.030667104634181097e+00 -3.595787641529111678e+00 1.671006757665865905e+01
-6.218156463576221427e+00 2.288561055214767492e+00 1.118006703181475814e+01
-2.699690516179253041e+00 -1.246715075060503164e+00 1.705281013220753294e+01
-4.774046377217081805e+00 9.697070775334126758e-01 1.091819612232836079e+01
-6.016994775912952065e+00 4.247693783669485690e+00 1.469255067429799766e+01
-4.579406228804199230e+00 9.412771099144587872e-01 1.091253240617758991e+01
-2.497767668668165797e+00 -3.320062398253244229e+00 1.456443893455767835e+01
-8.803832448479140815e-01 1.735355817048353622e+00 1.320430566846438580e+01
-2.918343445221310617e+00 -3.050817076429102048e+00 1.443464983424961190e+01
-2.647600515660800458e+00 -2.988737145288005603e+00 1.435802515450457406e+01
-3.337099224164375322e+00 4.151372222780676857e+00 1.409885874435479991e+01
-8.249883989896577674e+00 -1.512640646175504866e+00 1.296581427285950383e+01
-8.411918450014574944e+00 5.784112549771909251e-01 1.541156499289292015e+01
-3.588551100173038133e+00 3.524464527276595316e+00 1.085990603122329645e+01
-5.614835805097014187e+00 3.091459254765496212e-01 1.193545945230112437e+01
-5.420893997562998834e+00 4.953718077414581700e-02 1.224739559361316310e+01
-7.793941387799638854e+00 1.800998362126642993e+00 1.450430227924955062e+01
-3.541415497213575847e+00 -8.285560769835309536e-01 1.320215189897815833e+01
3.865698679118435566e-01 7.568449433920982905e-01 1.543572252948663959e+01
-1.901281187145600793e+00 2.317171017819436241e+00 1.734354116789624811e+01
-2.036697155692209549e+00 2.536635582509670250e+00 1.737106481165378113e+01
-9.958086885600726523e-01 1.211713160609526607e+00 1.158346208189356474e+01
-8.630224697157249381e+00 -6.892699989063086896e-01 1.400868893559093920e+01
-8.509676652002099217e+00 1.317229669111719126e-01 1.463762137681754183e+01
-2.319792636430953348e+00 3.059238120355106894e+00 1.198422337555894757e+01
-3.571428555760056245e+00 4.335704560255725148e+00 1.434993332377263187e+01
-4.523892394356723301e+00 4.909932814070838702e-01 1.155194355868614764e+01
-7.543012621486244740e+00 -1.577819655135252130e+00 1.278058291257201518e+01
-4.465496033880095972e+00 1.909357939433496076e+00 1.733695448665246630e+01
-7.805553524594964543e+00 -3.094348458173654226e+00 1.605210168743439425e+01
-3.420286558542021460e+00 4.013289790855543160e+00 1.313954917333235528e+01
-7.218525762399358392e+00 2.272491411252846927e+00 1.354981484433176320e+01
-6.699214313686960409e+00 5.431430600480942061e-01 1.678792647532133486e+01
-1.284249590729073853e+00 -1.810658295295287434e+00 1.325928047381334807e+01
-4.959468289524386009e+00 5.277050924836752088e+00 1.673343697285699960e+01
-6.744681305406543537e+00 4.247005700832749753e+00 1.576665790708459980e+01
-6.538250569146073943e+00 4.513401411976312616e+00 1.595249157425960362e+01
-6.673860630466905697e+00 4.352291662257390392e+00 1.588145360761581770e+01
-6.814492464969400309e+00 4.216064062563735781e+00 1.585436509632438629e+01
-4.421452163428694071e+00 -4.552908496991928899e+00 1.647402624369053825e+01
-6.052127725548640313e+00 -1.633792330731485887e+00 1.676104989911066667e+01
-8.805981206940693085e+00 -2.948236427084454103e+00 1.458546792088373678e+01
-4.920431697010868355e+00 4.388583219447526496e+00 1.397209978643328299e+01
-5.004107063216924445e+00 -8.740212345084557022e-01 1.701479443572949179e+01
-5.277917551779126804e+00 -1.110891388444648076e+00 1.694641152388273042e+01
-5.248090920808026638e+00 -5.046011954918658837e-01 1.702079970137572218e+01
-6.240808850299523591e+00 3.908262598067222982e+00 1.421280586607613117e+01
-5.435106422601895027e+00 -6.597784592714712737e-01 1.697388016929166810e+01
-4.453869103687006614e+00 1.561969437834713315e+00 1.732284881643056451e+01
1.995226148952951584e-01 -7.814944495706659389e-01 1.666613460013716974e+01
2.474696711209729005e-01 -4.247108619973958277e-01 1.649419694622999089e+01
-5.173100695198464827e+00 1.358322526866159841e+00 1.053999324615174515e+01
-7.483797108885863025e+00 8.810569622328623396e-01 1.233140730511839678e+01
-5.003175603068850563e+00 1.445821070547793408e+00 1.038830655874622266e+01
-2.111907953445563368e+00 -4.049400992542516065e+00 1.519838855939020306e+01
-4.612899646752724792e+00 3.825019849746130518e+00 1.225241842324462027e+01
-6.070933039546178911e+00 -4.165735739249116776e+00 1.633553190715220893e+01
-6.307346461471013299e+00 -4.427559761863394172e+00 1.530709186282520307e+01
-1.784958824062986782e+00 3.578613262265109007e-01 1.165241890026194937e+01
-2.299853951894764492e+00 5.259779926541710005e-01 1.150320209236504354e+01
-1.788502159500818145e+00 5.714183695400363305e-01 1.147261330269748925e+01
-5.233371630306538513e+00 3.850871214822142896e+00 1.723057344848270134e+01
-5.137330678640186221e+00 3.974086661193640513e+00 1.723700284532315408e+01
5.837286137002647424e-01 -1.180696442193160056e+00 1.422146172804334441e+01
-4.745138623194338656e+00 4.669413572169140103e+00 1.452006702406853123e+01
1.780952380245893196e-01 -4.343561085717975168e-01 1.307877882046649631e+01
-4.509588294678243514e+00 2.939334712169044295e+00 9.221981312057721425e+00
-8.761982575796388062e+00 -1.269441268763439101e+00 1.434443179431788451e+01
-7.046767094113761232e+00 3.358289791280073544e+00 1.643104248784148069e+01
-1.666921719790363188e+00 -3.201992251321291949e+00 1.676535422261405017e+01
-2.069756997397381948e+00 -3.278196015172520017e+00 1.673894620647472209e+01
-1.579729751220509293e+00 3.497242820703055255e+00 1.652812289287469838e+01
-1.889192676276264526e+00 -3.297089688932722584e+00 1.673779842554741037e+01
-1.615266638279533096e+00 3.505463474039579808e+00 1.629706999022071301e+01
-1.304147363522584202e+00 -3.413591125475389010e+00 1.673258963948879341e+01
-1.880549413073233422e+00 -3.470124897812921549e+00 1.669785725041757729e+01
-8.375849896203421685e-02 -1.138843373230056688e+00 1.313948569032444169e+01
-3.752864399121842442e+00 -9.520114077970776023e-02 1.231244808128828794e+01
-1.677142175649396272e+00 2.516075925960449489e+00 1.731993641294546649e+01
-4.225492597426720565e+00 -2.712628150712804942e+00 1.442602624145486345e+01
-4.293055701229249621e+00 -2.857320479961618975e+00 1.685744758164547363e+01
-4.443236208281398980e+00 -3.025287621484424871e+00 1.681529346157363847e+01
-7.021473175655772891e+00 2.489706150928233885e+00 1.335912429487095210e+01
-7.812803280413948670e+00 9.524457131128860610e-02 1.233217551794031408e+01
5.565301377832246876e-01 -4.820918135389828940e-01 1.355946900503194996e+01
-3.094282816175783601e+00 -1.425413527512187084e+00 1.703567526293867473e+01
-4.339585114146514933e+00 1.387214505641581663e+00 1.035104523907459395e+01
-6.020831194662786601e+00 2.702319620001148337e+00 1.138672995813875133e+01
-3.987720344449291243e+00 1.596701078878937974e+00 1.013420961353644856e+01
-4.122259494035237282e+00 4.644655746121097550e+00 1.455616900642459655e+01
-2.861851124478841601e+00 -4.011577504684632700e+00 1.507671098403428545e+01
-4.015463736463859235e+00 3.555226629739121957e+00 1.100157727203832536e+01
-1.270244103498817667e+00 1.318384520503043333e+00 1.721059752418619837e+01
-2.703088841646206220e+00 2.306764906633918422e+00 1.741394186554139623e+01
-2.881458392685893877e-01 1.273830539831016129e+00 1.382342011956776417e+01
-8.059514107675621375e+00 -2.932617102516462904e+00 1.363640893279941224e+01
-7.719867094927697515e+00 -3.106993878482928739e+00 1.380290312639955630e+01
-7.911878115518579335e+00 -3.128037771345903995e+00 1.380864236311169435e+01
-2.489687997043608547e+00 4.376497659782119243e+00 1.718349760185512309e+01
-6.751722076425446417e+00 9.754556443438637814e-01 1.679217473372909097e+01
-7.321359389386252303e+00 2.762548021219268790e-02 1.209002156778667114e+01
-4.302797355533804491e-01 1.375918853929919194e+00 1.365393279016789307e+01
-7.205714203147299379e+00 3.232935092985664838e-01 1.193486573169779774e+01
-1.804332245763562215e+00 -3.588433792714110115e+00 1.469538424738055227e+01
-1.920986431792752747e+00 -2.810349034291501180e+00 1.410587305392702717e+01
-2.297999368128147424e+00 -2.744818461596257197e+00 1.413341514692164935e+01
-2.739667794484530905e+00 4.667716686139716131e+00 1.711030018629962512e+01
-2.032266727629522762e+00 5.363245833893919290e-01 1.149250477877131260e+01
-2.671455083451400814e+00 2.731278512766149191e+00 1.743305359372689622e+01
-2.075349236625408267e+00 2.912269952658352867e+00 1.739138586376120799e+01
-4.988356163518574249e+00 3.128154041585020195e+00 1.102620859601824321e+01
-2.761209885334219294e+00 2.586161441070484734e-01 1.182468250880047833e+01
-2.910460866843545880e+00 2.389897528433477802e-01 1.185156685096352192e+01
-4.407534414612635842e+00 1.673877819057577820e+00 1.004625185175369495e+01
-4.798417892147957886e+00 1.707277775031862177e+00 1.005795934452996221e+01
-4.746362307498165123e+00 4.610270655481558677e+00 1.436900076001297322e+01
-4.770835033393884927e+00 1.591067400086317196e+00 1.017879840741976949e+01
-1.073553564091334511e+00 -1.629990802719613274e+00 1.697454850155494910e+01
-5.364863760157190242e+00 1.652627004991841897e+00 1.027032971597303401e+01
-8.952944875881939657e-01 -1.217663431141293717e+00 1.700970972138149762e+01
-6.678433842402782261e-01 -7.073568382661288290e-01 1.704862401702146002e+01
-6.669988731570550833e-01 -1.042785687393744443e+00 1.702641797180337591e+01
-5.563465871793189521e+00 -4.621829923300864174e-01 1.277496812778842639e+01
-5.735498175843626534e+00 -1.743010944760574610e-01 1.244575863590529252e+01
-6.472246049289709369e+00 3.383500256273953344e+00 1.353270013049717591e+01
-8.816151628326583278e+00 -1.754379950579020520e+00 1.464667253858999629e+01
-4.746216995081021572e+00 4.122331967454605284e+00 1.312890708958947528e+01
-4.294495257299145052e+00 -4.713556286652003990e+00 1.624330432720475414e+01
-2.394997511924689793e+00 3.851870511993382706e+00 1.475009852120459897e+01
-6.460410335025993156e+00 1.653855149881102271e+00 1.107725053875763876e+01
-5.078498040435824201e+00 2.684328020131065973e+00 9.598337906963053001e+00
-2.074327650035570958e+00 3.151899042164329590e+00 1.321289033076072172e+01
-4.811598920046456840e+00 2.794585165770183899e+00 9.562183475803436750e+00
-3.668265117120331764e-01 -2.950114157573155982e+00 1.413204448356258780e+01
-7.687886571432566818e+00 -4.255506382176865721e-01 1.637809602083049043e+01
-7.838886101522303917e+00 -4.090000110672851186e-01 1.631384294630075260e+01
-1.912567418759522075e+00 -1.857636489265103830e+00 1.338399321685874810e+01
-6.287919196192967242e+00 1.342351310349202631e+00 1.097462946995697308e+01
-3.257886999576790732e+00 3.967928858933644776e+00 1.341213129979222884e+01
-3.815423049234818453e-01 1.326822239958839855e+00 1.693620673128322096e+01
-5.388686274723895053e+00 1.392220681557033490e+00 1.057158765355637797e+01
-5.891817719348347637e+00 1.372958798165583083e+00 1.078158595168827105e+01
-2.019631252311154590e+00 -3.359502968899397590e+00 1.453079559960700351e+01
-3.084525864009655116e-01 -2.283901881200596673e+00 1.693527493340649670e+01
-8.434859987424413674e+00 -7.800793272987918137e-01 1.305405740085303279e+01
-5.395859091262916962e+00 -2.143570266490779641e+00 1.408610766900550004e+01
-8.504896840926459589e+00 -3.836298374797117994e-01 1.359523001676776488e+01
-2.105469053343544061e+00 -4.373262306309445790e+00 1.645947110450037343e+01
-1.432647918706936530e+00 2.988186565839926701e+00 1.515777242936393066e+01
5.210123442643173064e-01 -1.115360916775597122e+00 1.519755185504151029e+01
-2.673021829790442894e+00 -4.463645128463785028e+00 1.643007385170302115e+01
-3.347858408021018306e+00 4.202874493865484062e+00 1.431524361805187340e+01
-6.540038417145736638e+00 2.357402472921202197e+00 1.691187487588873495e+01
-6.302264754250641587e+00 2.125863548767600086e+00 1.698538196251020338e+01
-3.073554620103994495e+00 -2.348056371094388250e+00 1.399041157731026175e+01
-2.756956417434816231e+00 4.683351349865417568e+00 1.695169285762243305e+01
-3.172246599211294704e+00 4.426306832950352543e+00 1.535262896823917345e+01
-1.519416146546103574e+00 1.674281603068227042e+00 1.102916357466560981e+01
-1.859954662351923416e+00 2.036500928204516558e+00 1.076377266964627211e+01
-3.364683470364121298e+00 3.515231386018871529e+00 1.103505585724735027e+01
-6.157857398981894548e+00 -3.296229176011400419e-01 1.248661161918094820e+01
-4.458095481126099102e+00 -1.863112896512176153e+00 1.699508774911089404e+01
-8.217345599754469987e+00 -1.391238877694449538e+00 1.601648283068500689e+01
-8.206241965399772909e+00 -1.048838628487392288e+00 1.604686691445702706e+01
-2.010179821937097433e+00 3.199815044007536358e+00 1.362890848692886436e+01
-3.149849039873779954e+00 3.878623369494700324e+00 1.327950446848556254e+01
-7.128038640231346701e-01 3.230417259189972690e-01 1.206710731098503686e+01
-7.263837379188249344e+00 2.962611090349748011e+00 1.466870319062974204e+01
-7.292917007968913623e+00 -2.640659575481764332e+00 1.348755832899318818e+01
-6.991149027333055654e-01 1.810283033500688976e+00 1.406031117334742930e+01
-7.011634612631333141e+00 -1.847080447986770846e+00 1.310504568243651136e+01
-3.208862031639286627e+00 -2.939533986637956620e+00 1.441746119843563889e+01
-4.992782814355866350e+00 -2.362592863551913336e+00 1.424802577760457467e+01
4.860522613951248072e-01 -2.708328125377661433e+00 1.523094896928142816e+01
-1.225876984325731112e+00 2.201611881208151100e+00 1.338728737636644439e+01
2.196908000918815218e-01 -3.031686519141178149e+00 1.672912984478155352e+01
-3.344094045869794307e+00 4.076522591681941421e+00 1.370794023706118026e+01
-6.010038439504103991e+00 1.608804663084607345e+00 1.062066924807047030e+01
-5.608411580602389535e+00 1.435225855086468716e+00 1.060242456374405151e+01
-6.022290440891191032e+00 -6.506625038434434849e-01 1.280376187670174204e+01
-5.673566330298993599e-01 2.164411453702901333e+00 1.645046406555253782e+01
-1.536438947800726096e+00 -2.272298854687064829e+00 1.360896997250268470e+01
-2.422567245383303813e+00 7.111979624182525050e-01 1.128483382988942907e+01
-4.730090077581603047e+00 -4.457210958707850779e+00 1.544451774516461739e+01
-5.603109289169115215e+00 1.146185728218122701e+00 1.093233586449998285e+01
-5.396398411627893132e+00 1.196198120938512854e+00 1.080480039811178727e+01
-5.595233788308307865e+00 1.235911920860469415e+00 1.082563963687854169e+01
-7.097404880050800280e+00 -1.225984332318806214e+00 1.651191674851492053e+01
-7.242426621964624722e+00 -1.040171869924988446e+00 1.648322581544522336e+01
-7.301608715680050210e+00 -8.560103170664983274e-01 1.648072461399760869e+01
-7.268116733308383814e+00 -1.414469592264552045e+00 1.644191475254442736e+01
-4.542563320626626044e+00 3.396326468524655251e+00 1.113497457224046627e+01
-7.409911244709259215e+00 -1.244815734051020417e+00 1.641026132885715327e+01
-6.497809129925602001e+00 2.162387594664097357e+00 1.160894701239946869e+01
-2.547466730227474940e+00 -1.587779652177088163e+00 1.334991031792126392e+01
-1.447404799291909017e+00 1.770896692752436108e+00 1.132041678523010120e+01
-1.675656018095962096e+00 3.025399820214559998e+00 1.437706344916241363e+01
-8.384676775335499599e+00 -2.531765070620114688e+00 1.568301293371645500e+01
-6.678557398774242593e+00 4.221548549582251120e+00 1.563078981094234621e+01
-6.303948226609195515e+00 4.467783859642189270e+00 1.561369241136344499e+01
-4.037639236546658461e-01 1.692214862968174582e+00 1.470882451671162272e+01
-6.400617802220391894e+00 4.493967946026637961e+00 1.575793836697027928e+01
-6.965640243542122079e+00 2.581908937651418157e+00 1.671662118792379204e+01
-6.766575235956891810e+00 3.040901712758759423e+00 1.675818311373728875e+01
-4.983662959686441241e+00 1.632381976970290527e+00 1.017043704330676945e+01
-7.262317768419686459e+00 1.837601628000792298e+00 1.302793439222701011e+01
-6.135916979251362591e+00 1.226948257161456279e+00 1.699212337429285213e+01
-5.104979468282311750e+00 4.836249876870777342e+00 1.559134407947792766e+01
-7.552089566825874734e+00 2.853768430939283451e+00 1.543176369259794001e+01
-1.067857970007208390e+00 -2.639344634410467183e+00 1.687909276172045026e+01
-1.461430323505550133e+00 -2.836111227642351462e+00 1.683847100860788260e+01
-7.621546358630315154e+00 1.454367014634068589e+00 1.348667068558638960e+01
-3.224556345770718480e+00 2.999842921798348883e+00 9.757663911474544705e+00
-3.377823089149528002e+00 3.003821391825404419e+00 9.558184334093013490e+00
-2.712909831034148844e+00 4.394337114052948579e+00 1.593015569378799512e+01
-3.143643471997432659e+00 3.047983813842101597e+00 9.991700469065513346e+00
-3.809814238840560474e+00 3.073103263601300039e+00 9.447085583866041247e+00
-3.805537361556399212e+00 3.114977051964037180e+00 9.791813655926098647e+00
-3.683526257143477700e+00 3.104041977899496541e+00 1.745123015373770414e+01
-6.838004357788932452e+00 3.084963075316357273e+00 1.381082776606206153e+01
-6.412227429159726100e+00 3.154306120787420120e+00 1.304557997176300432e+01
-6.353753914787930057e+00 -3.987452985452723642e+00 1.471332169225048148e+01
-7.516162555143594659e+00 -4.209838088367991560e+00 1.492225317855461242e+01
-4.579409397293709993e+00 2.874562268818499966e+00 9.732686667716933471e+00
-1.965167428790540516e+00 -2.438156193926500404e+00 1.383856385911762743e+01
-1.824156272698077785e+00 -2.449390329366508023e+00 1.381208106666719004e+01
-1.561585752283575212e+00 3.628246473330154487e-01 1.167320252114154044e+01
-4.083347060837072107e+00 1.207372200680365548e+00 1.054144094348266947e+01
-7.437945469898052053e+00 1.338102664251485052e+00 1.288284806756794865e+01
-6.726976422155681590e+00 3.908375600681441409e+00 1.517218923069241754e+01
-1.549377263117067693e+00 2.884060161349012219e+00 1.729479773536571230e+01
-4.146388404168799835e-01 6.172937984762567609e-01 1.219787669517133821e+01
-5.313263095156266047e+00 5.227691070952067420e+00 1.628448714502590633e+01
-2.903628974996027345e+00 3.102840250003067180e+00 1.746296118374051787e+01
-5.142351478297538137e+00 -8.245832203891372281e-01 1.323463544290328286e+01
-2.228731432087046382e+00 4.231270489189927986e+00 1.667599343407560752e+01
-1.801603086561240019e+00 2.707473660352907707e+00 1.277866464961508797e+01
-2.357601997244700875e+00 4.323547837017431839e+00 1.656570934447983490e+01
4.068441045795995192e-01 -3.145046840989509374e+00 1.573959663646494533e+01
-6.120379656199648188e+00 4.301460981607778677e+00 1.497151311114273398e+01
4.003133460070302796e-01 -2.596983334205645644e+00 1.624717793181032732e+01
4.206797253040441831e-01 -2.962884401885291563e+00 1.581379931562018015e+01
2.829747757624430093e-01 9.210974732962800005e-01 1.498488671409366191e+01
-4.688208538261974034e+00 -5.967081719083942026e-01 1.304209676593578848e+01
-4.902541461405272472e+00 -4.062764819044271114e-01 1.282042788057066218e+01
3.424223878032748303e-01 -6.011633787136649865e-01 1.621784154095858099e+01
-8.597589676154758109e+00 -1.951076300874636793e-01 1.455403785909195591e+01
-8.258631817847092549e+00 1.034947740471460875e+00 1.529932554465862893e+01
-8.144887231404442929e+00 1.326980757894951513e+00 1.513221227709590977e+01
-3.117585268540777665e+00 4.599325952664386818e+00 1.598023787819256114e+01
-8.210812159094110996e+00 1.200626242322813120e+00 1.537350040017736319e+01
4.227013181731784641e-01 -1.969635532409639733e+00 1.593900367863631828e+01
5.267673848249058155e-01 -2.199729286892765590e+00 1.530774662393151431e+01
4.593927109368997064e-01 -2.201538272733463142e+00 1.570502912176694821e+01
5.190007106914218404e-01 -1.643149445288452970e+00 1.529685634585356979e+01
4.570406494557119892e-01 -1.967936249883678546e+00 1.572316607901400687e+01
4.946209590419182733e-01 -1.924380457464704097e+00 1.548623440648184157e+01
4.866121857148832941e-01 2.792833319798631031e-01 1.510996095656847871e+01
-1.515065603569913932e-01 1.361631894949554944e+00 1.640233096607661878e+01
-3.074042736910975737e+00 4.671344692616468564e+00 1.634019187765249370e+01
-1.007235681778301917e+00 2.837930305601476633e+00 1.654278780027386375e+01
-2.237829339739250134e+00 2.936506044420506001e+00 1.177686372773147383e+01
-8.636896470259302072e-01 2.630986180439282229e+00 1.615660698387636529e+01
-4.834182094991946066e+00 2.898916327384943870e+00 1.018769829662808490e+01
-7.142732329986403172e+00 2.601543219742078250e+00 1.382480320163427479e+01
-5.024381928492611671e+00 2.891139177950288630e+00 1.041967778138462819e+01
-4.774428143628013821e+00 3.067541946027591226e+00 1.063518114808512394e+01
-5.331046990529208607e+00 3.329378640591023508e+00 1.188310951143760974e+01
-4.194755537847576043e+00 3.129151245401264880e+00 1.021740988694721608e+01
-7.427345189275828652e+00 1.899393911692080161e+00 1.354357240872433721e+01
-4.935316474861376479e-01 1.987912706416501418e+00 1.648824319498670121e+01
-4.418072630767414744e+00 3.324495697457842347e+00 1.083653785537745051e+01
-4.292026469535205280e+00 3.405705930378964741e+00 1.089152526214432015e+01
-4.180115797963273039e+00 3.446159568408080354e+00 1.087444879274995913e+01
-3.951834163064824157e+00 3.436796337485736874e+00 1.066006942950742342e+01
-7.542013676172368619e+00 1.820188136103867427e+00 1.375362137014585784e+01
-1.071613007267702145e+00 2.826501173933693600e+00 1.597991051403751328e+01
-3.077384388253630476e+00 4.056920155338116452e+00 1.431755788590757561e+01
-3.790881026046486024e+00 3.612151725695620819e+00 1.108911301383260906e+01
3.394914540038953543e-01 4.290502529501583062e-01 1.376845090252575687e+01
-5.700079733927845282e+00 4.801894446312500619e+00 1.586676566803841837e+01
-4.403634245540811065e+00 3.848253955480114730e+00 1.208251853340902926e+01
1.884341037839838418e-01 4.449046741282711714e-01 1.327795500512331728e+01
2.672808744475382858e-02 6.574570525750274008e-01 1.318506671000871222e+01
-2.987223830031125349e+00 3.133624074452253438e+00 1.041569287862980531e+01
1.145977208275875125e-02 7.903160847183925419e-01 1.342736980970236971e+01
9.244844765203624748e-02 7.073670924328325782e-01 1.349607167065767754e+01
-1.232440519749486985e+00 1.716213964779420120e+00 1.190575888920906777e+01
-1.263009055891069377e+00 1.807977980676032992e+00 1.203650005255217081e+01
-1.435165627176977488e+00 1.967114620379643908e+00 1.188072143347004328e+01
-1.595236276858481572e+00 2.183972536355697436e+00 1.191672222370499412e+01
-1.413695695203039948e+00 2.103376663980096595e+00 1.234528443547396392e+01
-1.728757218589589861e+00 3.455135801231259407e+00 1.564812685099990830e+01
-1.882764354266562856e+00 3.668765019680281014e+00 1.585081403499548713e+01
-1.888420421251359338e+00 3.512789078184488378e+00 1.522964256304806696e+01
-1.011163517239717091e+00 2.275972290377521023e+00 1.441040111035638205e+01
-8.275839653834278664e+00 5.836565606409753748e-01 1.425134156066495450e+01
-3.073381764737811661e+00 4.815708144737832264e+00 1.679449240357008932e+01
-7.629710016764607694e+00 1.294086753634904774e+00 1.327108206144787061e+01
-7.475016568355998814e+00 1.853543056454786564e+00 1.360242954235777546e+01
-6.744485600005502235e+00 1.817513041300350629e+00 1.175621087156984146e+01
5.047646982857526554e-01 -7.085193018819135879e-01 1.526351565055185944e+01
2.988219082787934577e-01 8.572071124926066155e-01 1.559848422014204772e+01
-1.032934882993700842e+00 2.378336464265824457e+00 1.464963763473260627e+01
-7.081641869737088868e+00 2.439689850575533114e+00 1.343757793776306642e+01
-6.819990314416212840e+00 2.165059753777330176e+00 1.237712283147340031e+01
3.053485124192164557e-01 9.170064141598186502e-01 1.517700044905014067e+01
-6.823944082966151292e+00 2.551580722798188816e+00 1.295930740836760720e+01
-7.125234011587473049e+00 3.328241055598511799e+00 1.490705678730491002e+01
-6.785467034683184906e+00 3.603063661773531656e+00 1.471139793748641011e+01
-6.773590869252779534e+00 3.077530103087443791e+00 1.365407239414257390e+01
-6.538639873549189296e+00 3.796885189962961871e+00 1.452658636402837544e+01
-6.134991156912039223e+00 2.625445858581802128e+00 1.143174268378471226e+01
-6.282607341861697670e+00 2.888148332745998470e+00 1.228950150025572441e+01
-5.768324372028544644e+00 2.809451197919893062e+00 1.123233655505077877e+01
-6.148822898299728834e+00 3.832436474880914545e+00 1.390827682003529731e+01
-3.676409099886966958e-01 1.704183882178489373e+00 1.487074506650358785e+01
-5.864355936900863320e+00 3.449147837938823180e+00 1.277042967865309464e+01
-5.382456748380004541e+00 3.192916844439537716e+00 1.164402945636281572e+01
-5.938476863609713163e+00 4.322061847576642357e+00 1.476573722975470560e+01
-5.955439289040727502e+00 3.847417420728714177e+00 1.373018730927242359e+01
-5.514420779790414784e+00 4.673658221877033725e+00 1.522453939932903921e+01
-1.400443691102833066e+00 2.263295951795626593e+00 1.291884312374463661e+01
-5.588989618996669684e+00 3.732470122540102686e+00 1.309648458333975185e+01
-4.771285395507043781e+00 3.245402829791233401e+00 1.103769515299537574e+01
-4.977696567226785440e+00 3.585441667658193055e+00 1.206983606190737390e+01
-5.216339710901053195e+00 3.960749240807107885e+00 1.323372450570006720e+01
-5.129089401970650108e+00 4.453198133943901738e+00 1.434683307735052438e+01
-6.487386936957564743e+00 1.992672520874914088e+00 1.137565224203846270e+01
-4.777115584791974179e+00 3.664684883287121497e+00 1.203924699790217545e+01
-4.957432301931160801e+00 4.110664096460103778e+00 1.332596561769383214e+01
-1.603002385258185392e+00 2.761593937588198600e+00 1.377769084668528166e+01
-4.917171561280348158e+00 4.870789235734220846e+00 1.520965833974486969e+01
-4.936828738100602187e+00 4.450421047031103861e+00 1.414189678458501476e+01
-3.520557008558077294e-01 1.868867432619663704e+00 1.549042493611826643e+01
-4.178209084464901579e+00 3.610759984427627245e+00 1.126010898041687369e+01
-1.634236882620568654e+00 3.335322328821807236e+00 1.559104811371665988e+01
-4.725396844742559388e+00 4.221257798402636041e+00 1.335082491730806709e+01
-4.855485466387405857e+00 4.866659165935587339e+00 1.508589151879618839e+01
-4.757271133540328378e+00 4.448025445843219572e+00 1.395326106297203239e+01
-4.591822402881327037e+00 4.168956441160687199e+00 1.307780348951685312e+01
-4.518175673402606840e+00 4.677289238057285914e+00 1.446870178375763771e+01
-6.368665236308143629e-02 1.476711790393207213e+00 1.563837860589045903e+01
-4.665798261842113881e+00 5.004390623634400903e+00 1.543639817392264746e+01
-3.964558572980871443e+00 4.015683400754664234e+00 1.248385145884927994e+01
-1.997262260148741642e-01 1.320712535030980739e+00 1.426215039280776153e+01
-7.629911075499833384e-01 1.331558580392269597e+00 1.243593343650489658e+01
-4.685808351666849725e-01 1.606857818237358071e+00 1.422144374965448321e+01
-8.869444101395782543e-01 2.371198223863475452e+00 1.512999057041188422e+01
-3.195915432606440731e+00 3.425768431188482399e+00 1.105049402530794822e+01
1.543204230704944835e-01 1.039297648033337129e+00 1.582282354422881809e+01
-9.995604644808184780e-01 1.831752413402717217e+00 1.307402734992593452e+01
-1.725219830432173529e+00 3.615851049444212872e+00 1.625753810523826814e+01
-1.416972575949240865e+00 2.423485878930867088e+00 1.337703012377776446e+01
-4.552251062696424100e+00 3.450494179587159760e+00 1.127523999607555538e+01
-1.492537543290795243e+00 2.810202289684498478e+00 1.435986994012243656e+01
-2.101810434376150560e+00 2.697803451499853900e+00 1.152031739084354456e+01
-2.003742514349093895e+00 2.903154073646812439e+00 1.258360862077390863e+01
-2.298032996677369155e+00 4.066528808294616049e+00 1.568893312864420864e+01
-5.121759252174587829e+00 2.702880282630624631e+00 9.791004119550272833e+00
-2.186224006596190428e+00 2.819606710741464184e+00 1.157684358058519081e+01
-2.139737947807892837e+00 3.099482711640849431e+00 1.279914531428705970e+01
-2.318574553752703604e+00 3.906066838704828292e+00 1.508901711430976178e+01
-2.502505085497195303e+00 3.819610391350224621e+00 1.446917475341550841e+01
-2.364246098272427155e+00 3.150272347239515547e+00 1.220302790806277216e+01
-2.935556953182711482e+00 4.163976145000098938e+00 1.489600485264654139e+01
4.698500145470476674e-01 -5.225846205251580834e-01 1.546042358788824345e+01
-3.580068650527573837e+00 4.770526811219103713e+00 1.584381266149363654e+01
-3.541719671746530906e+00 4.518212784805983873e+00 1.515874460340612018e+01
-2.929502242334411477e+00 3.973441152317604974e+00 1.428741543309251938e+01
-6.846804579585638706e+00 3.680479035684134814e+00 1.496118581227508315e+01
-2.738401361914087229e+00 3.668477945239951410e+00 1.346023571095805238e+01
-3.296703164385045515e+00 4.217317655395095954e+00 1.450089724629106769e+01
4.030619097709970955e-01 -2.385964353329657062e+00 1.610921298305349580e+01
-2.928556577328229604e+00 3.747166025967896275e+00 1.328483308889588699e+01
-3.910795682336234425e+00 4.709254907524103473e+00 1.536828767968526677e+01
-2.806918594508649445e+00 3.474004120970064946e+00 1.225300588166171423e+01
-2.782332078882734816e+00 3.233622491920519426e+00 1.121144880955413470e+01
-3.483977034667952832e+00 4.239240204569605375e+00 1.411986983128878137e+01
-2.971890003841759942e+00 3.574097589844365874e+00 1.224751800572913396e+01
-3.198890721637863255e+00 3.280421540077842479e+00 1.063693340512662644e+01
-2.553329332696971488e+00 -2.034416743034418662e+00 1.367303548590795259e+01
-3.254138342694804287e+00 3.409961475206820136e+00 1.090206495487878868e+01
-3.302278617365718816e+00 3.695020364867183549e+00 1.180800005238413775e+01
-2.115950727465173209e+00 2.968571209630103347e+00 1.237532054378135626e+01
-3.527516740340072232e+00 4.071402997482408637e+00 1.311777138192820047e+01
-5.566718238752177861e+00 3.183817397627541013e+00 1.186114181192183992e+01
-3.926972994567639041e+00 4.479058891545181886e+00 1.415246316539585791e+01
-4.385190865003596450e+00 4.848109418369130452e+00 1.503267540379548706e+01
-3.359734996932001838e+00 3.779195334251534089e+00 1.206826565335571644e+01
-2.743227497671785198e+00 3.144904262245472371e+00 1.099670530408393887e+01
-3.569851277787006172e+00 3.702938848923738480e+00 1.147128966323700894e+01
5.598416147512000896e-01 -6.899121548006141857e-01 1.481639293987657879e+01
-7.088160926653328531e+00 -2.363187287023511551e-01 1.660613374553589239e+01
-7.047455218891543360e+00 1.836383545257572081e+00 1.249609070877266248e+01
-7.090027771885506702e+00 1.182790078741799977e+00 1.667801885046819166e+01
-5.818208829905072044e+00 -2.475003783959057291e+00 1.668395233125185229e+01
-6.735945608473662638e+00 1.348134202674578397e+00 1.681447675701510036e+01
-2.433573604613761709e+00 2.527718487133192582e+00 1.015592836649729236e+01
-7.939901351041256383e+00 -1.992615837589750694e+00 1.612309909050706835e+01
-4.064734528802302904e+00 1.896867666878166991e+00 1.737906684244026678e+01
-8.626121795558115979e-01 2.589663028543492729e+00 1.674934368359851788e+01
-2.772161148827187116e+00 3.644885470606991085e+00 1.324811392825492362e+01
-1.078342136124299966e+00 2.759853042891197816e+00 1.698354153597139060e+01
-1.479926030885638344e+00 1.134698545533888048e+00 1.722780865523800742e+01
-7.241676459902051555e+00 7.776255124421918019e-01 1.660585312511465617e+01
-5.462798112648362014e+00 -2.459365470333129355e+00 1.675003206845993020e+01
-5.696717452409340687e+00 2.335278691949244756e+00 1.715668145126535649e+01
-5.532416473570470394e+00 3.856511962975558649e+00 1.332182819856117106e+01
-6.287507545428220546e+00 -4.065010941886137985e-02 1.685622361315095930e+01
-3.864686887571262552e-01 1.533954621851284728e+00 1.427765890470494980e+01
1.314323629825768780e-01 2.754986697209140800e-01 1.308354230526557416e+01
-3.636672653304943825e+00 3.885873255565972961e+00 1.213422954816567767e+01
-2.358212835652143013e+00 1.214050704004587367e+00 1.077183672908819290e+01
3.764946066850674011e-01 3.417555757385835058e-01 1.380093518269214314e+01
-1.483801896956721045e+00 1.718045338971280867e+00 1.725929010818396847e+01
-1.266878763782180561e+00 1.508871314411837083e+00 1.721903294653466787e+01
-5.372367648789261096e+00 2.528553204001825261e+00 9.781807758261770402e+00
-1.835091627182605656e-02 1.008345067543729989e+00 1.644295509961264656e+01
-5.924813435003348339e+00 4.879785331919173963e+00 1.598956555789043676e+01
-4.394021454656912518e+00 2.938528875499318183e+00 9.797550176392412880e+00
-8.451966330841493402e+00 -1.711674539209364632e-01 1.360740020346687373e+01
-8.553465130128827809e+00 -8.353289289277210372e-02 1.461923643827154251e+01
-8.448200745181232207e+00 -3.137760096750685790e-02 1.381302808398353932e+01
-8.411915630962504054e+00 4.140035392615453169e-01 1.459958068138659826e+01
-4.723139676686722410e+00 5.023945229247376076e+00 1.599153304455935398e+01
-8.374301359543547818e+00 2.152950180168171634e-01 1.382303801746233063e+01
-8.359555101300284008e+00 5.433525477300991113e-01 1.468452431432683625e+01
-8.080679847817831885e+00 1.494849700913726487e+00 1.515915749272136992e+01
-6.213946840052825493e+00 3.342473053325438315e+00 1.303845698672694908e+01
-8.241878165055229744e+00 8.494031453031691825e-01 1.459873444611956472e+01
-8.193580556199488996e+00 6.636965362416851200e-01 1.403328076778853983e+01
-7.798192441570484412e+00 2.170358031537990673e+00 1.522472884546977667e+01
-7.367469909065595068e+00 1.328636862751277903e+00 1.270873971738859609e+01
-7.708073352856339433e+00 1.077781081245376082e+00 1.309535198180589788e+01
-7.829688274882856902e+00 1.106248791902769923e+00 1.353134649051811778e+01
-7.676990358150562521e+00 2.335677172237706767e+00 1.502271588520029155e+01
-7.557640313013074262e+00 1.640740477064853042e+00 1.355091558656304329e+01
-7.291024576545221514e+00 1.716034485476022997e+00 1.296030360844650176e+01
-6.731256912548391647e+00 1.615457777074032375e+00 1.154590966063948088e+01
-6.605162365514640754e+00 1.643264510147185664e+00 1.133335850494881214e+01
-7.458985033166668721e+00 2.862855442069720979e+00 1.508556887853332285e+01
-7.526256295649906392e+00 2.711619062290434812e+00 1.505544001731490056e+01
3.930473094687935154e-01 3.562355172826974226e-01 1.394058210867535053e+01
-2.220847184596971058e+00 2.660098834120737887e+00 1.097775337334479673e+01
-7.575407739018438669e+00 2.358868309486253700e+00 1.464683603529282152e+01
4.182215920161514999e-01 -1.571823181046667184e+00 1.593948976155525799e+01
-4.530481527452486112e+00 4.630746310879854555e+00 1.435151475197979209e+01
5.389431895204889189e-01 -1.475197891836703246e+00 1.498796456279956857e+01
5.499249959648094821e-01 -1.278160356373658768e+00 1.498171762826694930e+01
4.705141031988202549e-01 -1.150269509225187559e+00 1.562595936389101325e+01
4.346567830208247774e-01 -3.470131154107352067e-01 1.566436873047516798e+01
5.653242627872799853e-01 -8.717048691732824928e-01 1.482403906789479464e+01
4.571220277688352596e-01 -7.520717111919119624e-01 1.565199563919507142e+01
-3.982952221446137475e+00 3.654154659588300991e+00 1.126041925652327080e+01
4.834086466858622533e-01 -2.669788760600866340e-05 1.428068921291903592e+01
-3.738977742297571183e+00 4.743524896464620610e+00 1.570443564312430595e+01
3.767736302180583197e-01 2.946224678410214182e-01 1.553081345273971436e+01
2.465659892857345881e-01 1.005460539372119655e+00 1.559968975163122451e+01
4.810070282329775848e-01 1.843212125116817646e-01 1.429083845410485054e+01
-4.103115605635484719e+00 4.187831256343344855e+00 1.302955113290748557e+01
-6.934328635629269044e+00 2.848448354746637268e+00 1.367149376274146277e+01
3.010929655071351574e-01 6.554052422371645648e-01 1.577025891357566678e+01
-3.728791783099741908e-01 1.704023001975575102e+00 1.662087267709215155e+01
4.121370993997697241e-01 6.718193819284139501e-01 1.535934240517458704e+01
8.741563329333001953e-02 1.217505019969209901e+00 1.582140084073837727e+01
-7.312110708182195218e+00 1.865148710884271477e+00 1.319980710454201756e+01
-7.391991199386027667e+00 2.407006436713452047e+00 1.420154027768909799e+01
-7.316256340659232471e+00 3.115098655104415304e+00 1.506041592500734083e+01
-6.933652789994304566e-01 2.369864746276991951e+00 1.653291580032337293e+01
-3.585182901973750225e-01 1.751333652487806924e+00 1.644681920199383995e+01
-2.500480822391234481e-01 1.634751840991863325e+00 1.628020821900034321e+01
-1.365553001720411608e+00 3.294440728844329591e+00 1.685408559108284265e+01
-7.169797698540322228e-01 2.426717603437365867e+00 1.630819966518713215e+01
-6.882246288506022047e+00 1.915489038077669903e+00 1.220285739087896815e+01
-7.185259444883604907e+00 2.070568726127558268e+00 1.316765050099754575e+01
-6.224440847395579013e+00 2.098864167749569631e+00 1.092108898590421262e+01
-6.289040429574890290e+00 2.017657598807452324e+00 1.098463887037168973e+01
-8.483524035652649786e+00 -4.059174873292503705e-02 1.421486650968188314e+01
-6.634836221315338456e+00 1.820997998815206298e+00 1.151811468838020147e+01
-6.741136102994825130e+00 1.990420282444666844e+00 1.196413420178763687e+01
-6.986905317862145637e+00 2.294316114307349164e+00 1.298538108819572301e+01
-6.549622871324156215e+00 2.200381194144950037e+00 1.178033278697042618e+01
-5.814491435169307110e+00 2.341381675531701845e+00 1.036133638406280255e+01
-6.146963412037669272e+00 2.269817608854273416e+00 1.099859513481530371e+01
-2.322138915623892075e+00 -2.410372077052999717e+00 1.389888304082082726e+01
-6.141880085983181026e+00 2.439364860622741382e+00 1.121481844329334621e+01
-4.405304585985537535e+00 3.503273548067347143e+00 1.123961006957127751e+01
-3.834449806217957057e+00 5.255198214009239699e+00 1.675993375896583615e+01
-2.151526281000987195e-03 1.390025926642056930e+00 1.555267294826925450e+01
-7.108624235571759264e+00 2.971160028823361277e+00 1.427636028219251330e+01
-6.991521530426862086e+00 2.701094466045329767e+00 1.358783685941579478e+01
-6.987348712787510685e+00 3.757262015213399309e+00 1.533522516023916893e+01
-7.075589823878006612e+00 3.154317237811958385e+00 1.450045194487741185e+01
-6.946582855284981761e+00 3.549002343894910982e+00 1.491957573740514675e+01
-6.793981762793807277e+00 2.893381775555613267e+00 1.341271138490966308e+01
-6.518211592070697336e+00 2.551511205769606327e+00 1.221251344965088492e+01
-6.400479975262919119e+00 4.155523645549906497e+00 1.509440193993651746e+01
-6.690110118633810998e+00 3.204381703890849309e+00 1.369066037124542845e+01
-6.587844974639911477e+00 2.942652732502260449e+00 1.301227248629306388e+01
-5.991548988156061739e+00 2.496645482473208943e+00 1.099539522276012349e+01
-6.338380725296574703e+00 2.425055222501587338e+00 1.160087816163895269e+01
-6.393712546356261406e+00 2.605932405992301248e+00 1.199459959382132013e+01
-6.407745238286254086e+00 2.807146569678089953e+00 1.240285720193140406e+01
-6.157260439217071557e+00 2.789020035941333298e+00 1.183334440203226023e+01
