-4.632428369999146867e+00 2.744236131374349519e+00 9.732216103957750164e+00
-2.797925382932325178e+00 -5.769960677368874080e+00 1.261618503793929946e+01
-4.214666620499169625e+00 -1.502486081574688992e+00 1.604543224054376083e+01
-9.726795281913580560e-01 -1.779435583802891241e+00 1.140547503694691400e+01
-8.219268753401284044e+00 5.086087214086787434e-01 1.599965382806838221e+01
-8.400061961156428225e+00 6.275356061430499288e-01 1.202138938554932324e+01
-1.795744339064511585e+00 6.804368774354856431e-01 1.477172543469702148e+01
-9.026734737587387869e+00 4.203188869184106835e-01 1.409953938147223695e+01
-4.624659391677786502e+00 -5.568216038932306766e+00 1.439285350108741923e+01
-7.698870460660220516e+00 3.955091705905153798e-01 1.167513007240856382e+01
-7.524527199687838674e+00 -4.196864053151328378e+00 1.327296472876780697e+01
-1.894443897467930071e-01 -1.440289695519794355e+00 1.433704819653233287e+01
-9.163046183915733778e+00 -2.048723067189720748e+00 1.479020955585421859e+01
-1.037782187432730430e+00 -5.185839873764768626e+00 1.371080143547562713e+01
-6.169654140583671342e-01 -4.792059587946297050e+00 1.262316355232771770e+01
-6.954608702293027633e+00 -3.167419600740712937e+00 1.318788308284490185e+01
-4.892397347700035759e+00 -9.568900500867729697e-01 1.242295428293331838e+01
-8.773537644850630812e+00 -4.238215816243227962e+00 1.475467778626560644e+01
-5.552369435630112982e+00 -5.176391317263413505e+00 1.297643756462458953e+01
-7.689488969468719404e+00 2.676037627163592170e-01 1.170932028343625575e+01
-2.023540515822558561e+00 9.099623988125216112e-01 1.060159971986581340e+01
-6.896078652763462102e+00 2.112296406977365315e+00 1.084420048768786415e+01
-2.161300248774591370e-01 -2.249961214170761448e+00 1.431547546902949009e+01
-5.487929589414586751e+00 -3.059416122013518535e-01 1.227905341284601803e+01
-1.494531239942492373e+00 -3.134775505449153954e+00 1.164397509033172895e+01
-5.446583332609413297e+00 -4.070519792591458241e+00 1.540977856750045305e+01
-8.679914647078822654e+00 6.574461220627103586e-02 1.233305084365508719e+01
-3.625341450974823410e+00 2.545940013535013868e+00 1.224581256445083000e+01
-6.749749711933544560e+00 -9.360650405531176776e-01 1.252859909017600160e+01
-7.866082255104155152e+00 1.672781085851261063e+00 1.203475582671395117e+01
-7.778192068890740885e+00 -5.456975883302150443e+00 1.390213268776708944e+01
-8.920698773785536773e+00 -3.237533112524687562e-01 1.269370986696332793e+01
-5.333551512465773747e+00 -5.322117160498898158e-01 1.240054382926523147e+01
-2.412569647851696697e-01 -3.065947962622995515e+00 1.383443475419854707e+01
-4.640030626727025265e+00 -3.484398328766209474e+00 1.559862675469478077e+01
-2.380085839722762220e+00 -1.480398206653653403e+00 1.587067036011708154e+01
-1.886789391587693210e+00 -2.320954419441518368e+00 1.159867654553379523e+01
-2.719067214290019852e+00 -1.521031780834680269e+00 1.187481172834648646e+01
-3.407630422085843769e+00 1.897420331422352335e+00 1.479249873380090818e+01
-5.063925403114605039e+00 -5.429650724666756911e-01 1.227799860968148593e+01
-7.759184904458711340e-01 -1.098622245500034511e+00 1.541839218308405535e+01
-3.249892027284249529e+00 -5.538718394558113101e-01 1.618906694088713749e+01
-9.281629326518613610e+00 -1.605542972943670321e+00 1.362741185292681578e+01
-7.789651256173813820e+00 -5.342271251395422915e+00 1.374749290048737649e+01
-6.467644039187582905e+00 -5.545058902332679729e+00 1.446828333183455939e+01
-5.097917835268632736e+00 2.833822997323243165e+00 1.159473646938281632e+01
-1.701624335116773690e+00 -1.940066187334536618e+00 1.145380843789682501e+01
-2.624675050810425958e+00 1.912854038086234665e+00 1.161125978369218359e+01
-4.841088054603674529e+00 8.635694272953187145e-01 1.103825178780843430e+01
-8.100294690120200869e+00 -4.959473826983871181e-01 1.196296215510999872e+01
-9.254371043320281487e+00 -3.916504058807684929e-01 1.412448536637114671e+01
-2.962100314106398624e+00 -4.756467120844211749e+00 1.254634651965214331e+01
-3.131264258828368341e+00 -3.746952473193340794e+00 1.259053289745952142e+01
-4.892032764147624668e+00 -6.885755383145144570e-01 1.227949168687780102e+01
-9.149842438830432911e+00 -1.829824258607780640e-01 1.372105669072962542e+01
-3.104484442865087512e+00 -2.499858058671918570e+00 1.246294354923411873e+01
-6.144445240034057676e+00 -1.980055863659587967e+00 1.300503293938781724e+01
-9.000501078301049063e+00 -1.533813555695762831e+00 1.258884603784483858e+01
-1.289828595631037800e+00 -2.130893048432097370e+00 1.144615535908931747e+01
-4.047480847377673996e+00 -4.711994620737847139e-01 1.188170316809735283e+01
-2.201962113765117302e+00 -3.348191702900418676e+00 1.520423621758744659e+01
-6.956268920614832929e+00 2.069356163705245777e+00 1.349286760863323309e+01
-8.867440294701186332e+00 1.015390246665940355e+00 1.501174904805363042e+01
-7.949464689670691087e+00 -4.155387422969345934e+00 1.331609317234943646e+01
-2.349803058708144210e+00 -3.341570445022612468e+00 1.214913746000811301e+01
-9.375860952599026632e+00 -2.596936488827378486e+00 1.378182086693153252e+01
-5.512771117090369266e-01 -1.926875710922280938e+00 1.179243895299104850e+01
-9.069749652936609507e+00 -1.263349501193942404e+00 1.492652677713278209e+01
-1.237070646464766277e+00 2.575018804164292963e-01 1.526943495912309245e+01
-8.398839771008693944e+00 -5.129840988722427220e+00 1.423028361764482597e+01
-2.615058297104468910e+00 -1.260118335215347773e-01 1.105608518897141579e+01
-5.459907867912394686e+00 1.635275415985812719e+00 1.674244051905545660e+01
-2.579323737863657762e+00 -2.772644395930951688e+00 1.220426615281200711e+01
-4.660145774568453803e+00 2.433780059628863235e+00 1.695984975132682848e+01
-8.745131401529855353e+00 -2.657634532193807964e+00 1.531952022473845787e+01
-1.351469347306062829e+00 -3.775446864903937438e+00 1.173501748229145036e+01
-5.656286473959781347e+00 -2.869798073570956731e+00 1.582825389575074837e+01
-5.381182572134695974e+00 -6.002204926167396870e+00 1.319763494737224718e+01
-8.230772806249810003e+00 1.374035108088560664e+00 1.542125032316660693e+01
-8.903262465153870764e+00 -8.969659824890117150e-01 1.528692420530418161e+01
-4.854288656704157212e+00 2.421992058591770025e+00 1.694740536722517987e+01
-2.117951028902220756e-01 -1.050253975390674555e+00 1.439879209846443686e+01
-3.761086978860130436e+00 -6.118858312029595403e+00 1.354637146699601757e+01
-5.216523235966854521e+00 -1.473725513995983949e+00 1.614350087764270114e+01
-5.944088477831557249e-01 -2.275520609287449147e+00 1.473690575000526337e+01
-1.204932267155822245e+00 -9.589959229153510734e-02 1.607209084271581645e+01
-3.614976494529337891e+00 -5.640669521840698586e+00 1.419953012736480247e+01
-5.508212164007646017e+00 -3.984700686635958000e+00 1.314386004031277011e+01
-5.456884855132500434e+00 2.004497701343412430e+00 1.682117286413524937e+01
-6.259211625897622255e+00 1.989287351380984559e+00 1.663928497801966699e+01
-5.237372451956057162e+00 -2.916287031934834850e+00 1.580267571874639287e+01
-8.312993178625930568e+00 6.971002561155208443e-01 1.192886692492026057e+01
-1.151945091576092484e+00 -7.329269546220817944e-03 1.280336102144659094e+01
-9.200317515770857213e+00 -2.431108074941993102e+00 1.476110736815320479e+01
-2.397030442986734400e+00 -5.453928522905828302e+00 1.411113807293830291e+01
-9.128051132150224234e+00 -6.372212909484133991e-01 1.487319054805701057e+01
-4.911319069221922184e+00 -1.377563625649530277e+00 1.263196812601947983e+01
-8.145366504898463589e+00 1.471089769309809947e+00 1.521322769907893502e+01
-1.218746769610309144e+00 -2.907121503945382823e+00 1.506730915974179297e+01
-3.290524935499111514e+00 -1.734759144643980289e-01 1.141945550414468613e+01
-8.454654243774529121e+00 -2.251372628082488614e+00 1.252380900702759803e+01
-6.140249047013046635e+00 -4.187608220729551078e+00 1.318713361753984259e+01
-8.099482999079731016e+00 4.851038394592674940e-01 1.179854655724233936e+01
-7.491048507283295521e+00 1.920308300556661019e+00 1.225512222178689470e+01
-4.205103010762511140e+00 2.295351071468338056e+00 9.927680008477512530e+00
-6.023790702124270702e+00 8.838141458606341150e-01 1.143960616090834392e+01
-6.740448232113233296e+00 -7.241785305149317509e-01 1.240737411320890615e+01
-4.248203389993387091e+00 1.828239583398308499e+00 1.675884425015324553e+01
-2.824105701096892407e+00 -3.108161863170054495e+00 1.540797529657016440e+01
-6.262331292828785756e+00 -5.245594228089728306e-01 1.632102943143634377e+01
-8.085384354402529894e+00 3.050240832647375111e-01 1.182345176895855232e+01
-7.109029633999270459e+00 -4.765244143335134019e+00 1.331074305199516061e+01
-9.235220762519210425e+00 -4.126156244577700027e-01 1.447172320556467184e+01
-1.213998080516616618e+00 2.944057889987021781e-01 1.614694452769934685e+01
-3.575366282981289334e-01 -2.125809581175520879e+00 1.216405395353295305e+01
-2.841869310855402286e+00 -4.517517507838145541e+00 1.479666039748542516e+01
-1.095339572531878192e+00 -2.269163889466980333e+00 1.522538380534774660e+01
-7.837339738851920146e+00 -3.275959706591687670e+00 1.557455376514936773e+01
-1.021945573493027171e+00 -1.368258590096628202e-01 1.598112125848971843e+01
-5.627802229964721015e+00 2.050313155247470043e+00 1.045639357655026558e+01
-4.661715109213405484e+00 7.134465153491273970e-01 1.110686939098781068e+01
-5.406031721401912904e+00 -4.360399718110800071e-01 1.236536927914174200e+01
-1.024401735050613382e+00 -2.675448847953837639e+00 1.502818339772580458e+01
-5.568728422016843815e+00 -5.330262537170675330e+00 1.467106975376679046e+01
-1.076876372537491466e+00 -2.313202279397208017e+00 1.153276692314330987e+01
-2.186699133584861787e-01 -1.693371795186052520e+00 1.452242396326357721e+01
-4.277044634532707335e+00 1.668822535269658625e+00 1.672548955016284111e+01
-1.422114868955768330e+00 3.134913982590101789e-01 1.235192387315846219e+01
-2.693082164411830348e+00 -4.579410623973111605e+00 1.247166763240985787e+01
-7.984384450685366730e+00 3.593346531504084673e-01 1.609606073201592835e+01
-5.070428715171622969e+00 8.851532819367624594e-01 1.660586164950413490e+01
-4.645662742222073760e+00 -1.250931588966234020e+00 1.612331189409355403e+01
-8.146433226225595625e-01 -2.885449293133885984e-01 1.400215880881496489e+01
-7.563620266866044162e+00 -1.244549948435247133e+00 1.220582405667905945e+01
-7.820769175155716013e+00 4.775731965184726313e-01 1.619910502768649252e+01
-1.698263316417261137e+00 -1.302044051899487576e+00 1.129753766827343853e+01
-4.773966683952673762e+00 -1.998863357309739630e+00 1.282940033143663427e+01
-1.465550031905320960e+00 -1.961088979370403607e+00 1.141415808855803604e+01
-4.741080720547579119e+00 -2.956398322146574387e+00 1.302109517156950602e+01
-5.152449720419772561e+00 -1.131735833876045483e+00 1.262223512834367511e+01
-1.608050638858059322e+00 5.129719270679136134e-01 1.378593459510917896e+01
-4.091391368043142407e+00 -1.341571692173003205e+00 1.237507200047332390e+01
-2.099876438300103398e+00 1.017451420970067355e+00 1.355987175946514611e+01
-2.843826960837583240e+00 -2.702893217129328285e+00 1.554317421703463609e+01
-1.084185292908848242e+00 -2.126678564255742199e+00 1.148902561360356955e+01
-4.679887433550115716e+00 -1.578140301965926584e+00 1.263063349997353768e+01
-5.077471771254058019e+00 1.079168378231283087e+00 1.664012255920589212e+01
-7.490301769469381199e+00 2.827879775521642269e-01 1.626757630649924380e+01
-8.283287613969237739e+00 4.980330755192694525e-01 1.191274363470177633e+01
-3.042617987134725421e+00 9.403357106916920838e-01 1.054339143809048807e+01
-3.303402541921070856e+00 -1.737734633302676190e+00 1.230690525357574572e+01
-3.919674818795033211e+00 -9.005153627167420405e-01 1.212523308206056072e+01
-7.454161836402443342e+00 -2.073012999146292668e+00 1.589093286576211383e+01
-8.486403729640400684e+00 -1.530195799736449924e+00 1.228386758383075872e+01
-1.417864047083048806e+00 -4.299344263029354352e+00 1.462559060413962442e+01
-4.237860761584840041e+00 2.228998422811032221e+00 1.683040703794571868e+01
-8.158617755801092386e+00 -4.200710314964494430e+00 1.336764026721565202e+01
-4.685255544882963363e+00 -1.706126692996253524e+00 1.604193247056042537e+01
-2.370008573892713688e+00 -5.960767908664895920e+00 1.361828943616912113e+01
-3.431234551095514895e+00 -1.331885424199469536e+00 1.602809462182668909e+01
-4.908828642265903319e-01 -2.140050196634957214e+00 1.193306857405705301e+01
-2.048582413779375333e+00 1.093977680822806997e+00 1.201257897141667996e+01
-7.830873250057534207e+00 -2.884305522232233354e+00 1.568309367180561154e+01
-4.441015340491324181e+00 2.228000371276755764e+00 1.678931056722266391e+01
-8.010351861866709555e+00 -2.713360636496255474e+00 1.568374732899919266e+01
-8.117275448089271705e+00 -3.326645955338078053e+00 1.307511339520209503e+01
-4.311105478333153940e+00 2.340268886087291555e+00 1.690011484425867394e+01
-6.719391852768615614e+00 -1.199203392893884779e+00 1.268423287406466571e+01
-5.913109535607819822e+00 2.579680291407570714e+00 1.273934201699354674e+01
-6.986653722164849256e+00 6.693831277008661651e-01 1.153270960062008399e+01
-1.158822797584582176e+00 -5.642310025846827060e+00 1.250466660239738914e+01
-4.502149380211740493e+00 -1.580554306274139620e+00 1.257389034327078292e+01
-6.436461684757245116e+00 2.363658390803539788e+00 1.052503883632259729e+01
-2.254637911695458019e+00 -1.047719180638577940e+00 1.138575888830935767e+01
-9.097186140449963432e+00 -8.076217715029396782e-01 1.493204563292650278e+01
-4.515904435503501624e+00 -1.740848049517270457e+00 1.265203548711904702e+01
-8.744141858589083327e+00 -4.159518340055108787e+00 1.485121180574921951e+01
-2.411777562809890085e+00 -5.145317751894399327e-01 1.120166846659710913e+01
-9.232416602082992085e+00 -1.012986942973445048e+00 1.427310140931760074e+01
-9.159886031148731789e+00 -3.855818269609900817e-01 1.348123868837113903e+01
-7.553577401523780210e+00 1.775111390668449252e+00 1.404228073140071942e+01
-7.803439129349420966e+00 -7.140826182275737954e-01 1.605419036295736390e+01
-6.470859363025789790e+00 1.108083801591289719e+00 1.130905379976244518e+01
-7.855259237908096992e+00 2.881132513606916579e-01 1.173950781539772237e+01
-7.250496182146262569e+00 -4.826153191854922753e-01 1.618843624216770394e+01
-1.295996167809117861e+00 -3.143888098345686721e+00 1.161802404011380219e+01
-9.167182249770922553e+00 -3.574415116571776352e+00 1.354706642259547422e+01
-7.549947162457838701e+00 -2.788069788018033179e+00 1.299240934836177885e+01
-6.930398090784346543e+00 -1.771315271067301023e+00 1.284687109509848568e+01
-3.454857697532668581e+00 2.064507042095057976e+00 9.956224607283843397e+00
-3.250302621149374183e+00 1.308371314035379207e-01 1.115142107081673828e+01
-1.844097703589708370e+00 -1.439201846880719948e+00 1.580599185391533723e+01
-8.667977890647311057e+00 1.173986690581191761e+00 1.337829029686711024e+01
-9.035716070440347192e-01 -2.108731718436853253e+00 1.156404625104194039e+01
-8.394840716100610223e+00 6.603573092408596690e-01 1.590206437987459154e+01
-3.669051485538081803e-01 -3.783293268714047031e+00 1.245315201237607639e+01
-7.141759961329290363e-01 -2.125618429707251344e+00 1.168986031165684025e+01
-4.746221151086935652e-01 -1.954522183177776373e+00 1.190771150438447634e+01
-2.577183269667713716e+00 1.968213521172773151e+00 1.084883685649126051e+01
-8.017263307076603951e+00 -5.373905559520204100e+00 1.409803683705573718e+01
-3.460781189964705629e-01 -1.990965417694421813e+00 1.212698638138495610e+01
-4.947152271058189221e+00 -1.768462653622943304e+00 1.280118893242363853e+01
-8.755370120809542911e+00 -3.357877723178701146e+00 1.313081363314297434e+01
-8.406991987548053658e+00 5.009572488851348204e-01 1.201866199920709022e+01
-9.038122808087235782e+00 -4.014151946896173051e+00 1.435097687631319019e+01
-6.553362365469714845e+00 -3.810909297080251612e+00 1.323306083538358990e+01
-8.231942053697829387e-01 -4.217348401006060676e+00 1.420221704110695882e+01
-8.325936760361361877e+00 2.849406219331662715e-01 1.196470507758176893e+01
-2.223595343822488246e+00 1.066764207823459598e+00 1.605220945496877505e+01
-4.551348951371554818e+00 -3.409150162230782932e+00 1.300364661405837197e+01
-8.528580389654172311e-01 3.027611378032002420e-02 1.583760319639307212e+01
-3.506527491649467976e+00 -1.340544859687252899e+00 1.224086984628189256e+01
-4.206228862432460858e+00 -5.486699106197679976e-01 1.623786685751170467e+01
-3.104175206226762018e+00 -3.374696042391633455e+00 1.256466837861085040e+01
-8.897582582428682940e+00 -4.146094655700126808e+00 1.358731252939291068e+01
-7.362579679104008790e+00 1.835323569059333471e+00 1.425793477835060230e+01
-9.182225689647183220e-01 -5.099305462896579044e+00 1.361534395193520908e+01
-6.734059178074854657e+00 -1.350319101444948267e+00 1.274334272144949765e+01
-1.847627226568033798e+00 -4.486213778119096496e+00 1.462817341430146101e+01
-8.999933961410397032e+00 4.185262577263300088e-01 1.369852540750932590e+01
-1.047522551723860440e+00 -7.245918539650516577e-01 1.577507959056069353e+01
-6.256355516776252124e+00 -3.316537178604711755e+00 1.567233690048054484e+01
-6.105357441747840674e+00 -1.190473425895293813e+00 1.275897293809439503e+01
-1.057252156206121008e+00 2.266218966588047223e-01 1.598736092586871393e+01
-7.196677215469536648e+00 1.209111968619480670e-01 1.630546639074382398e+01
-8.937761387645055677e+00 -8.224624198547250131e-01 1.524670934591568638e+01
-4.743708076192227896e-01 -3.775927610731224959e+00 1.225886240011064032e+01
-7.102476805379549951e+00 1.790765712289719813e+00 1.609343174988948277e+01
-3.373828429117704530e+00 -4.798623798721607159e+00 1.263740074815352443e+01
-5.911714575716894515e+00 -1.172354571341277074e+00 1.276190090742525740e+01
-4.706475763321072314e+00 -1.751382944278843556e+00 1.271727614489396174e+01
-8.457958701173433624e+00 -8.869568792972258864e-01 1.574447935224083750e+01
-2.079575863671800473e+00 -5.230426525324156639e-01 1.109033379308023726e+01
-8.038102281993339204e+00 1.116432014374328263e+00 1.621296345720343623e+01
-8.026313303595697946e+00 -4.477526517244474036e+00 1.500089544475736503e+01
-6.879268099355855703e+00 -9.348935210453235278e-02 1.632338191931098947e+01
-6.406138812026854090e+00 -4.963324125191523883e+00 1.491126256949491236e+01
-3.006409903935756134e-01 -3.452084245679760244e+00 1.366773027933583862e+01
-7.273143433960326476e+00 5.203220995821553618e-01 1.159737453499721838e+01
-6.875223411083029923e+00 5.015844899202952512e-01 1.163447837042093980e+01
-7.091025957507071098e+00 2.095533571215726809e+00 1.244880258984375487e+01
-1.827441586834682052e+00 -1.928504544732565273e+00 1.563762043580610595e+01
-9.126087390243998954e+00 -1.431241598895064859e+00 1.478404894282246573e+01
-5.884052967679602730e+00 -1.037867477735382904e+00 1.270814860162597171e+01
-4.044471843374902065e+00 5.031367011516030274e-01 1.112797597900407354e+01
-7.711538480657145200e+00 7.001704202713026071e-01 1.158959703729762580e+01
-1.406837062981918685e+00 -8.966752336713725846e-01 1.587699617496364368e+01
-4.257030874236702012e+00 -3.494060844846575975e+00 1.555571224750614334e+01
-1.076843542001246767e+00 -3.142144319437649713e+00 1.163913267306823940e+01
-8.536973742949987454e+00 -1.804501987663802653e+00 1.238016333011054826e+01
-8.032696067697198572e+00 -2.431071920844598999e+00 1.572815361116636979e+01
-7.281528180008031370e+00 -1.906442480034051812e+00 1.594314268805058177e+01
-3.314200123933925823e-01 -2.180785671903302969e+00 1.227633736264337116e+01
-5.983965230867553053e+00 2.344294121682764853e+00 1.038401449003806576e+01
-4.153938253614662734e+00 2.359019892960693809e+00 1.383692367597461370e+01
-7.893739122070764225e-01 -5.167397157608547786e+00 1.259642123818136739e+01
-8.519293397753392227e+00 2.977299187901558675e-01 1.212494407984770106e+01
-1.208114663467762195e+00 1.332110067490059890e-01 1.437866414385537794e+01
-1.130311986557891224e+00 -5.750514510720286410e+00 1.274418326960712378e+01
-7.357178127780336752e+00 -3.583667258857039073e+00 1.321406644107322492e+01
-2.125104468664912982e+00 -3.557375252201473437e+00 1.202713639709898530e+01
-8.123514102249189683e-01 -7.088789711561065410e-01 1.233879509200524893e+01
-4.328461946898700674e-01 -4.360590960545712491e+00 1.287827033612317251e+01
-2.603295155222006940e+00 1.356571188397998062e+00 1.032748444638309238e+01
-6.658641927504489466e+00 2.872602431757265151e-01 1.643188339832767042e+01
-3.736771482572605052e+00 1.974924754580852815e+00 1.559782501177445013e+01
-8.499991105982036999e+00 1.127777272655403618e-01 1.211159345977447899e+01
-6.094628678316409420e-01 -4.722685932171732937e-01 1.438504737713448023e+01
-5.954622475889549627e+00 -1.338073772685615559e+00 1.282122651070305608e+01
-5.130317814856819147e+00 2.375558071514396907e+00 1.434178556849877850e+01
-3.950797908514532608e+00 -4.988059874545837324e+00 1.271050881233658103e+01
-3.456928179840299542e+00 3.141369842519283750e-01 1.109197610994612759e+01
-5.435381683219505433e+00 -4.500290593367166636e+00 1.519467173009563155e+01
-4.997509417787546759e+00 2.271787473732482354e+00 1.536458441248040430e+01
-7.447286032301963843e+00 9.977774187812582518e-02 1.625017031744823015e+01
-4.866385685421332319e+00 2.501916451039523093e-01 1.151205173468176923e+01
-1.087686529186866258e+00 -4.554946160704004932e+00 1.190321131325946169e+01
-5.853697900128041809e+00 2.457447978377379272e+00 1.026461197913615564e+01
-7.147881415748408074e+00 -1.987524279033868968e+00 1.284177889510835868e+01
-2.523928632405485484e-01 -3.590407069800137130e+00 1.257347695900741869e+01
-8.736834992374136633e+00 -3.967019643491367376e+00 1.341720868985326476e+01
-4.094995916411551917e+00 -1.542914991094449073e+00 1.247354357254671342e+01
-8.758153320475262404e+00 -1.447706641935986083e+00 1.542964616750596107e+01
-9.742004179277434783e-01 -4.353801115824816215e+00 1.186628582186986236e+01
-5.854515067652948268e+00 -3.321753541650265262e+00 1.568450088303428558e+01
-3.591344227943593204e+00 1.913480689632489851e+00 1.661863643019948000e+01
-6.858010311838286022e+00 2.148848400918399904e+00 1.311743312831481134e+01
-2.992754387810672601e+00 1.665502092091896147e+00 1.581746066556176800e+01
-8.527092647256280245e-01 -3.189848493072795499e-01 1.578997626228649764e+01
-5.566904686480029341e+00 2.222444546467928106e+00 1.684269155417312192e+01
-3.855689488842644064e-01 -4.235446612542714817e+00 1.303671316785824530e+01
-8.218187254266391406e+00 -5.280097130767281044e+00 1.412159799301425878e+01
-4.217766158282424627e+00 -3.917786284030101207e+00 1.536438511169291843e+01
-1.201757274975026046e+00 4.413609340293578320e-02 1.611166879974746990e+01
-2.009119771881726635e+00 -3.853263532021943050e+00 1.495518142559128805e+01
-4.768166043101286888e+00 -2.743899773557519239e+00 1.582123457372529529e+01
-1.340931210397775519e+00 -4.538463982808926822e+00 1.193190606486820826e+01
-3.177148647122799652e+00 -5.428779784254644802e+00 1.428652012491000178e+01
-5.872209510640097108e+00 2.172610645081949343e+00 1.620304384115094365e+01
-9.258684516658748365e+00 -1.003847086070114081e+00 1.387821552190535357e+01
-3.471174543180616467e+00 -4.933202052384915159e-01 1.173330500322535386e+01
-2.365389680922933557e+00 -6.062775255081542802e+00 1.280243527161545103e+01
-2.646253522747877174e+00 -2.111112955787135093e+00 1.570870566606058105e+01
-5.046250222730578550e+00 1.956000848201889797e+00 1.034462541387208034e+01
-7.223438274327943276e+00 -4.628920900854741838e+00 1.330209602307233752e+01
-3.859972917964191730e+00 -1.137230673145139814e+00 1.609951813337109883e+01
-6.433344203643970083e+00 1.867973249040758121e+00 1.668169979108380829e+01
-1.798953910141956936e+00 7.448435276190197296e-01 1.287722949463450917e+01
-6.952900534791123022e+00 -4.378757135565369829e+00 1.323824989428892707e+01
-8.847441654384754273e+00 5.416809776417681466e-01 1.514922995839784647e+01
-4.373453511372710878e+00 -3.593872165078391134e+00 1.297347341188460845e+01
-3.217132014417630970e+00 2.232547566913408055e+00 9.882912703983549818e+00
-1.697083203393409789e+00 6.635641885941323537e-01 1.632465299805334524e+01
-2.459456292360273189e+00 -2.918334769294498088e+00 1.540877523318028608e+01
-4.820710123143907566e+00 1.629125030747904601e+00 1.674841745938748261e+01
-7.323184451124307159e+00 -4.774532856291520133e-01 1.201629688015528785e+01
-8.055495500092971994e+00 -9.191962609873916001e-02 1.602411759307248218e+01
-6.181804037123054485e+00 2.300217838989932595e+00 1.474085978725463519e+01
-2.826206172596152033e+00 1.494341580612642550e+00 1.641699063196519148e+01
-3.368615158545259725e+00 2.994497425492056664e+00 9.493793760095297074e+00
-2.224358235116276283e+00 -8.535681088797728577e-01 1.603722167219340378e+01
-8.977421526192349788e+00 -2.014709230006498375e-01 1.290091760216346728e+01
-7.253694100865679673e+00 1.822953059536202902e+00 1.507961885647081601e+01
-8.781330807787009363e+00 -4.037677866227310730e+00 1.488303144353016805e+01
-4.502161160777697013e+00 3.732554633289506540e-01 1.133291130535494773e+01
-1.858525181934579606e+00 4.662287511220559733e-01 1.632886092550141655e+01
-2.798238257638367976e-01 -1.210798630126997510e+00 1.393738541859506697e+01
-2.231617535851933454e+00 6.846208968361979785e-01 1.640264117233093799e+01
-2.626693097252930098e+00 4.528800226907108151e-01 1.638902532119929845e+01
-8.046781425903242635e+00 -1.276984853940448916e+00 1.592792059977208297e+01
-2.230958897134103669e+00 -2.863989033857846644e-01 1.102248525036959848e+01
-4.342873501788295343e+00 -4.583977259162029583e+00 1.284042081303148564e+01
-2.236358454424272502e+00 8.621999651437506351e-01 1.643434048684407855e+01
-1.741812956401037393e+00 6.209839152269258644e-01 1.103263001668640442e+01
-1.007928261898258127e+00 -5.595686323693888298e+00 1.276432537431604075e+01
-2.386884477024524998e+00 1.043116615803687752e+00 1.646180913500057841e+01
-7.015039045824073227e+00 4.795051616217076429e-01 1.640837964900137536e+01
-7.445889727851865203e+00 5.007691475418023508e-01 1.632123388450127521e+01
-1.804781814222117919e+00 6.975481966956402768e-01 1.519752242571113143e+01
-4.946548433539181389e+00 -5.724524112426115252e+00 1.288110133902674548e+01
-1.171550471428446816e+00 -5.308473405138045997e+00 1.222565224854475119e+01
-4.564216332809950316e+00 2.284863521184590240e+00 1.477480537899672086e+01
-2.450681011629457728e+00 -2.118712632256046557e+00 1.190174379123623183e+01
-4.214821046377410063e+00 -3.295705271860152052e+00 1.562363897556139847e+01
-6.736763727286385617e+00 -4.383630107346316862e+00 1.322302357741443757e+01
-7.453469475412806133e+00 1.469866205563627792e+00 1.659888683297035783e+01
-4.844856697993803252e+00 -6.124333452091225816e+00 1.357126011207654059e+01
-6.044455592961903712e-01 -3.098704930406394720e+00 1.441012701886878133e+01
-8.653940936929103600e+00 2.731141080689010181e-01 1.230759234303543792e+01
-9.312583899265241882e+00 -3.205354351851353201e+00 1.416287131022938084e+01
-3.965871942555571295e+00 -6.120107832479314780e+00 1.357099566551893943e+01
-9.303805293639348051e+00 -2.611343794955545139e+00 1.450938962935004994e+01
-4.423956482065012352e+00 -5.377315255891472745e-01 1.625381325033197299e+01
-7.330171461030630553e+00 -1.991572695949675786e+00 1.273130126333419199e+01
-3.026646116433593381e+00 -3.681989834838018005e+00 1.523061627539053475e+01
-4.342548330197979034e+00 -3.400994523470725284e+00 1.296806956262327759e+01
-4.699378160825743223e+00 -3.172670295140280317e+00 1.302336582095276185e+01
-6.471510544559849976e+00 2.387832185058731405e+00 1.250602928689566085e+01
-5.408760107633641567e+00 -2.490597599799584394e+00 1.592784281161113569e+01
-5.473412008841061827e+00 -6.637199716443306086e-01 1.250237514976276998e+01
-1.824350773539926696e+00 -3.693532182188494772e+00 1.188018408949443838e+01
-9.285312758356198515e+00 -1.588655962761679863e+00 1.386898073373746243e+01
-3.694465792883966593e+00 1.290547425106095547e+00 1.046677413429897641e+01
-1.116262958788734938e+00 -5.131187228379324061e+00 1.214037106058415461e+01
-1.396942731530262272e+00 -5.947267970629900979e+00 1.312925535916576436e+01
-9.420412348504301203e-01 -4.585859793258563855e+00 1.195178047094643148e+01
-3.699350236057701302e-01 -1.661003921825471075e+00 1.472798478408128631e+01
-7.370772382240364795e-01 -3.533136322520406658e+00 1.185069329572768382e+01
-7.003754930350849506e-01 -5.045269488226108656e+00 1.294403509060883195e+01
-2.002244601854778150e+00 8.851582927045511529e-01 1.581426074119656278e+01
-2.546181025606668591e-01 -3.343720470516450050e+00 1.260789525116558352e+01
-3.438990224235879190e+00 1.233273456868981155e+00 1.657869284649467545e+01
-8.004117513416987961e+00 -5.196185585884217417e+00 1.371383225205634915e+01
-9.335156918773822809e+00 -2.002782667105861059e+00 1.403246549420855160e+01
-2.511980564765250445e-01 -3.852814461487746200e+00 1.282977596254135833e+01
-9.291172216958822005e+00 -1.767658483807862835e+00 1.342923504289571568e+01
-2.311724499507035180e-01 -3.421701560334124537e+00 1.269953770553366468e+01
-8.358283211473034768e+00 -3.261837590010576715e-01 1.584109724196279601e+01
-7.986741226393787585e+00 -2.281491178924404561e+00 1.576624729030083572e+01
-1.730152982327263445e+00 -1.291207412020838108e+00 1.582812309575107435e+01
-5.121032023736765915e+00 -3.749242105700059113e-01 1.218684127977418541e+01
-5.580614021357590104e+00 -4.615917721576085597e+00 1.304918497977037717e+01
-2.962783134603615309e+00 2.160798710146191404e+00 1.202888802604678631e+01
-5.892936859969613472e+00 1.626877299823389356e+00 1.085995289095737348e+01
-2.851218844819343179e-01 -3.428986631867206647e+00 1.247635748847367765e+01
-1.655264394336608103e+00 4.924906052932835898e-01 1.631725180960770416e+01
-1.268227678556717919e+00 -4.765057260103183090e+00 1.428337707429433578e+01
-8.719041639007446776e+00 -2.932011449972974582e+00 1.529916014366108001e+01
-3.823434315707610942e+00 -3.478313588936662981e+00 1.548758011401598367e+01
-6.332195050414209270e+00 -5.323197895091718035e-01 1.236749436437518668e+01
-7.085720695054122942e+00 -2.314122720402920219e+00 1.588492737870445382e+01
-8.034151620318510822e+00 -2.892960958478408173e+00 1.564705914990781821e+01
-3.844006055254689969e+00 -5.434855237620733526e+00 1.441625090813100130e+01
-1.194191851680254768e+00 -4.476997827779098493e+00 1.441655929100360822e+01
-2.531513921454027205e+00 1.331933460068625452e+00 1.482383658122573067e+01
-3.828269614156443623e+00 -1.507130424392602475e+00 1.602220279737886699e+01
-8.793026946112508568e+00 1.360517133194389938e-01 1.530922909962286838e+01
-2.213780073851288943e+00 1.306708572908762855e+00 1.203532550524305833e+01
-6.515467784239677762e+00 -1.188331767456532351e+00 1.271780531794576774e+01
-4.217225183100782537e+00 -4.752908859298532462e+00 1.278552160778875546e+01
-8.939133360944378381e+00 -4.393057575225961742e+00 1.391613086952342471e+01
-3.432237181836908846e+00 1.480889178657884608e+00 1.029917969859047489e+01
-6.203760919065647528e+00 -5.939530597578977833e+00 1.377773615571185317e+01
-5.911403244453356187e+00 2.771446890899500026e+00 1.134843633355582426e+01
-1.842337193308593690e+00 -1.308656888924544681e+00 1.584746326926012827e+01
-7.970256885081917986e+00 -4.988072045261380261e+00 1.359531827405436744e+01
-2.410659567110458923e+00 8.383587761578557007e-01 1.644470112396052031e+01
-1.910765728176924583e+00 -5.262768948107305889e-01 1.105383887692520872e+01
-2.976472326846437255e+00 -5.770344440089740345e+00 1.264057327183190793e+01
-5.568487187464390864e+00 -2.767885219569244271e+00 1.313936492060457439e+01
-1.569345036412014949e+00 -6.049733778425739672e+00 1.308865694114133404e+01
-7.217662699122703529e+00 -4.051104764431260996e+00 1.533543575944407777e+01
-6.779195751821383009e-01 -3.602149204910197744e-01 1.453239053159359528e+01
-5.900507495539464742e+00 -1.574035929967949610e+00 1.289806332428014812e+01
-7.598264370227871822e+00 -3.572952449160353261e+00 1.319169780829180993e+01
-2.089101538912704115e+00 -3.739218965503619430e+00 1.204530180638099779e+01
-7.430665674372857410e+00 1.275525049471765149e+00 1.658625806243746581e+01
-5.707202711286538666e+00 -2.063384007717390389e+00 1.303975028801177061e+01
-2.381352268240485071e+00 1.533408045653590124e+00 1.079365027647368791e+01
-8.986152434130241673e+00 3.651940633632211330e-01 1.474287489711951338e+01
-2.030760608368143316e+00 -1.231758313759887535e-01 1.091286667885287187e+01
-2.161106501604983521e+00 -1.212637355003038930e+00 1.140798204452224240e+01
-7.625324004483582385e+00 1.274836445497996573e+00 1.655988818022974840e+01
-7.545461939055076783e+00 -5.222180108858396785e+00 1.359491482481758950e+01
-8.780724585225378576e+00 -1.590876559307592419e-01 1.245699066527473065e+01
-9.221838811322484730e+00 -5.668111381785657654e-01 1.365840541037941946e+01
-7.449425448337224864e+00 -5.361758722143989075e+00 1.445182990635486320e+01
-1.375289160840623470e+00 -5.848229379391256977e+00 1.332695536703388939e+01
-1.151640960252702239e+00 -4.152463567369450104e+00 1.178645449294094760e+01
-4.397013633988742232e-01 -4.193010979062711030e+00 1.339711533819095735e+01
-6.651765887999625093e+00 -2.951845895747023718e+00 1.576089207542486648e+01
-8.488400462878963992e+00 6.901698276563563716e-01 1.580442534811009025e+01
-8.990503555225224375e+00 -1.742918918449545940e+00 1.260710504835398282e+01
-6.074388766878286106e+00 2.653581426907146934e+00 1.173951386890350435e+01
-9.235049827663273092e+00 -1.380136640448578866e+00 1.341170331967832396e+01
-9.279709301780023623e+00 -7.815197019506379128e-01 1.407689612506837662e+01
-3.703582020265026031e+00 2.036101262654688604e+00 1.463381441888872203e+01
-7.428059922787310754e+00 -3.085029184731148177e+00 1.568568776889163630e+01
-8.956827535998911571e+00 -1.964025369999662596e+00 1.261462451005106900e+01
-3.296541847661130120e+00 2.259687082585052131e+00 1.261187287673853419e+01
-8.440422432435488176e+00 -4.014844997418713923e+00 1.512567075741913314e+01
-4.831206047110711665e+00 -1.125830744414478390e+00 1.616289687511233097e+01
-4.022854577650833541e+00 -3.199578366034784294e-01 1.628004473717770395e+01
-4.520676638280921367e+00 -3.622159143496243239e+00 1.299740724555996607e+01
-3.060151117799670306e+00 8.104691869625169076e-02 1.632846423231623589e+01
-8.729703764541099531e+00 -2.335265807184217390e+00 1.262258388584201541e+01
-4.391436098270869337e+00 -5.905047442804969293e+00 1.289417370893637482e+01
-1.157324487066472507e+00 -5.329643628371598663e-01 1.140079319680678438e+01
-3.802538758325721524e+00 -3.739247651664122429e+00 1.284057795921842526e+01
-6.961400967205512380e+00 -3.376670058095992744e+00 1.321201331152588665e+01
-7.723177361800534158e+00 -1.488920004602491520e+00 1.226478647775013897e+01
-8.127919021322167481e+00 -5.319039533214631632e+00 1.415020863556056341e+01
-2.338132641401319933e+00 -2.750044065506180413e+00 1.199772415135461046e+01
-4.624825894932774517e+00 7.469683618927414059e-02 1.160081190244241967e+01
-2.204575980569269955e+00 -1.535336342200656512e+00 1.583442541614883581e+01
-2.279984184174446593e+00 -5.388052538307137596e+00 1.240116170894330949e+01
-3.168243589970846763e+00 -5.987379352289085688e+00 1.281111673095374570e+01
-2.136988930246750851e+00 -5.376208452762831769e+00 1.236897922397303518e+01
-4.175279033948359420e+00 2.148810565893644942e+00 1.499182371670990932e+01
-1.358097387261812727e+00 -5.321584452415725863e+00 1.222599193934560446e+01
-7.673084056780966833e+00 1.143140360224843777e+00 1.654913003668858806e+01
-9.339716706403897728e-01 -5.124758098339051493e+00 1.220787054505385782e+01
-8.202308449539984281e+00 -5.039522101792849540e+00 1.450538520641659801e+01
-8.964170753206920139e+00 1.614138709737749089e-01 1.495417855974590537e+01
-7.407615689603301856e-01 -3.728232433759338882e+00 1.186719963103614717e+01
-6.261269000152750230e+00 2.970614790575478725e-01 1.648090026319476920e+01
-7.792196084929354782e+00 -2.490214831952787478e+00 1.273359935877824256e+01
-6.701279666864161655e+00 -2.848997387045145047e+00 1.578400678556623049e+01
-6.089719630020411500e+00 1.029251068209620090e-01 1.198541289935312903e+01
-6.828256757538708754e-01 -7.746843678481352136e-01 1.277851166558340168e+01
-9.014704222905814746e+00 -4.372532516913119061e-02 1.492388486938701675e+01
-5.268478984773711460e+00 -4.983207368879720711e+00 1.291074163084895332e+01
-2.800912158208952896e+00 1.502400578229930561e+00 1.600297862841848229e+01
-2.241914685993404710e-01 -3.629027839210299256e+00 1.308023243637996202e+01
-6.550819314227438461e-01 -3.767998367692698913e+00 1.197434477811090758e+01
-7.984336190982161963e-01 -9.979432276022159876e-02 1.540567988048586656e+01
-5.857892721120827595e+00 -3.724013197260815033e+00 1.554436193899394070e+01
-2.905221847626031639e+00 9.407183954342264176e-01 1.649443440614963663e+01
-2.568185283818096298e-01 -1.967999382592378277e+00 1.346683002256390083e+01
-3.650889801127066292e-01 -3.378107370137531262e+00 1.232189281976982187e+01
-2.821825722296096739e+00 -3.282309519053415059e+00 1.534717752130727320e+01
-8.924157871039891887e+00 9.541060675637129673e-01 1.475506735047752116e+01
-2.264361902826628192e-01 -3.592415914970801261e+00 1.271156951166057780e+01
-7.074870277672746788e+00 -7.687844830553514086e-03 1.189750694510380669e+01
-1.278899533424553425e+00 -2.621076531621422401e+00 1.519750103590419599e+01
-2.848374107745839101e-01 -3.800990659409424488e+00 1.265261133283098616e+01
-3.272340810774205799e+00 -4.862622274569898817e-01 1.620424624639504430e+01
-8.559356286827415339e-01 -3.305619773773820214e-01 1.337387218011262746e+01
-7.829220504799843994e+00 -4.869204811954367607e+00 1.478967119112812867e+01
-2.580845404590402126e+00 1.758746007067438777e+00 1.217580879007662276e+01
-2.623460467804550778e+00 1.164677604833101787e+00 1.037056186710155004e+01
-7.104539641551541607e-01 -3.131363782655319561e+00 1.183282379089552450e+01
-1.919413710552355212e+00 -9.278143471775930351e-01 1.122195871617466878e+01
-6.528549818754312284e+00 1.990966250986949015e+00 1.620168259254945298e+01
-1.018088276401914127e+00 9.415335156064208455e-02 1.602669744430424714e+01
-4.633192592476485849e+00 -6.130773473079601743e+00 1.356233446430924872e+01
-5.481623720233408825e+00 -7.019933115647614130e-02 1.205260535954669265e+01
-3.772212498028530092e+00 2.610119598604871527e+00 9.675544970612993012e+00
-1.986193665790426000e+00 -2.953485417768493271e+00 1.530918782270969558e+01
-4.569267335592869905e+00 -5.162754391112688523e+00 1.275895239723169539e+01
-9.304712762239455870e+00 -1.785128337089425532e+00 1.363177048642149813e+01
-5.075536732915377769e-01 -4.399819290215695844e+00 1.261363247509894947e+01
-1.649899331875244179e+00 -1.338680563889183439e+00 1.579272000275528853e+01
-7.837159816399749346e+00 -3.311495997625951482e+00 1.309038450068948833e+01
-1.393060462491393370e+00 -1.203858617165307621e-01 1.111418912727830843e+01
-1.556811425187113684e+00 -5.983057980041951218e+00 1.272778684276542194e+01
-7.421759919237754133e+00 1.010175463509692007e+00 1.650513976834040619e+01
-5.842344134552108770e+00 8.839650312514970576e-01 1.660399131740875589e+01
-7.460780140837357521e+00 1.126869002150686194e+00 1.654415342504531594e+01
-7.274215513141999878e+00 1.486193165309899422e+00 1.663355643484847946e+01
-5.679226409170786027e+00 1.567899625688282672e-01 1.190221959591011469e+01
-1.792684448032658029e+00 -5.713225029324887849e+00 1.375445964684248068e+01
-6.855252067047326037e+00 -5.287878106273818268e+00 1.464907749071305076e+01
-6.025869299338117990e+00 1.471122618092811640e+00 1.669575459825824026e+01
-7.833435468147131431e+00 1.125910189660799920e+00 1.644145181726630511e+01
-7.549895909568354213e+00 -5.299074351597653276e+00 1.363259466150853427e+01
-6.405767069418795145e-01 -2.660924875679322454e+00 1.464301718300097477e+01
-7.798564770293538118e+00 -2.077273495575439277e+00 1.252326821250395739e+01
-9.072033980795863428e+00 -1.532144058605023673e+00 1.268503917720742891e+01
-4.166131364037798157e+00 -4.546319377301246689e+00 1.282362200462442914e+01
-6.182245863984084266e+00 -5.915914115446355481e+00 1.362068269311387070e+01
-3.525761727373692977e+00 2.147261960677098180e+00 1.360451331822964249e+01
-8.936644549236902435e+00 -4.387311181150031381e+00 1.414974731180241463e+01
-3.503798976267927578e+00 9.483684103783596164e-02 1.129186110614540794e+01
-9.892028763108453582e-01 -3.663256769429831472e+00 1.462688063359621182e+01
-8.354335727812847168e+00 -9.008538557173010330e-01 1.581255510965290512e+01
-6.855906257858157105e+00 1.730399970979702884e+00 1.666510720133866386e+01
-2.679844956661718847e-01 -2.241648687597293410e+00 1.329821668438133742e+01
-6.649688119198009062e+00 1.694273662678483339e+00 1.670354302393023005e+01
-8.915464536949599506e+00 -2.136303759702707694e+00 1.263010015295415656e+01
-1.299298834052224461e+00 -3.944819565200043954e+00 1.175933499875059240e+01
-3.277928719875087271e-01 -1.504331973604078332e+00 1.474161169246550429e+01
-4.655639897320016374e+00 5.006034552670088900e-01 1.126606330849787341e+01
-7.726190804711507099e+00 -2.763250241819394049e+00 1.290314808131225277e+01
-7.721536588717617278e+00 -2.965719740597080545e+00 1.300148429092691771e+01
-9.297556675218087818e+00 -2.386742545288099926e+00 1.325506733048576891e+01
-4.047705472102638424e+00 -7.270468803206748820e-01 1.619132924235402982e+01
-4.861453310706308706e+00 -7.278982508744629154e-01 1.624161317284536210e+01
-6.342283003558836896e+00 -1.194883563164361506e+00 1.274028086572638685e+01
-7.256208336801185155e+00 -3.874197711302457492e+00 1.541051772928240737e+01
-8.620802266503275746e+00 -2.747600371398122299e-01 1.221497540134191695e+01
-9.194396212812980806e+00 -6.657136864810704324e-01 1.468494653632360070e+01
-6.564386267403943265e-01 -4.167014322103914203e+00 1.396580629236033033e+01
-7.547522181793468121e+00 -3.146716532199176797e+00 1.311011753667428437e+01
-6.262912248232024304e+00 -4.450788299060492115e+00 1.520252704093659091e+01
-3.080768188697087240e-01 -3.987972084219466140e+00 1.285420854753303743e+01
-3.814607466550445913e+00 1.734329444412794574e+00 1.020720180532218180e+01
-4.638187157536096450e+00 8.198948491140964911e-01 1.657673292735191239e+01
-5.638310345564288006e+00 -2.297828110951053215e+00 1.598073231577361142e+01
-2.154826124576048940e+00 -5.577951578266914012e+00 1.243330898819017349e+01
-1.598937092709473706e+00 5.244594546006575708e-01 1.279214955357186767e+01
-8.859114807054117691e+00 -1.433728826313664717e+00 1.530615846438528749e+01
-7.683469636128572589e+00 -1.396598494653970013e-01 1.182768100397566258e+01
-4.521767405551129215e+00 -1.988618879733808686e+00 1.275685971431045118e+01
-1.307368368403914793e+00 -5.430496196399353437e+00 1.227523678266177498e+01
-8.663007907782832362e+00 7.242863453364167814e-01 1.558138069037056539e+01
-2.999916679542528719e+00 -3.169840866575149185e+00 1.250557864800096297e+01
-4.833948213633201263e-01 -2.663616254966318486e+00 1.444034357187533857e+01
-6.992733790296150609e+00 -3.597938796692312202e+00 1.553570582876989548e+01
-8.952274079018067710e+00 7.877415440988742024e-01 1.435977357935252030e+01
-3.889020634028625523e+00 -1.377955103245757984e+00 1.236391777745336285e+01
-9.070489471495366551e-01 -4.992322817658996215e+00 1.214652252533310062e+01
-1.844885440979675995e+00 -9.099444309949351606e-01 1.596906805861521406e+01
-2.573333919823119764e+00 -6.183768562978485761e+00 1.307878928175335176e+01
-1.952366272446731887e+00 -5.990998084715015715e+00 1.268997278114661142e+01
-5.678507126645395253e+00 -2.984010564828060152e-01 1.229173223739557486e+01
-2.985617990020210666e-01 -1.810376541727155342e+00 1.331528565074767911e+01
-8.145041490555639641e+00 -5.325701267921585824e+00 1.400357758222470395e+01
-2.603168961038511142e-01 -3.892654473165213069e+00 1.305925629605771121e+01
-9.333104641010406155e+00 -1.976256380394564305e+00 1.383660451882131426e+01
-7.545790314268495891e+00 -2.532475854635326318e+00 1.287308265200416812e+01
-4.841665400441883094e+00 -3.095918681375545045e+00 1.573062629788721978e+01
-3.211098690820308743e-01 -3.557688946343115610e+00 1.240994264400977798e+01
-3.006338654661642629e+00 -4.137262132657719249e+00 1.501288851774194910e+01
-9.699405714260123101e-01 -3.446718134637420938e-01 1.586981007432288848e+01
-3.512107246854723641e+00 -9.420590953441294602e-01 1.203697529228617569e+01
-3.990598480930153791e+00 2.069563271889045097e+00 1.518225233265623331e+01
-5.891966869957518504e+00 2.829749911971354059e+00 1.031331918593100383e+01
-6.615052699902048694e+00 -4.974696085605635254e+00 1.323814970864581397e+01
-2.851435028893743340e+00 -3.810450252547619154e-01 1.620706669623513108e+01
-6.168992802832048206e+00 2.377005817866417736e+00 1.393013818209865562e+01
-5.916985087765289641e+00 -4.758837632401593076e+00 1.309300698775370009e+01
-5.848010339435425919e+00 -4.717516171013485859e+00 1.507508004258444601e+01
-4.616946315375143328e+00 8.268840957168488437e-01 1.101268003385275662e+01
-3.127341486481183264e-01 -2.862784345808328190e+00 1.411886996388244953e+01
-6.730785440015319310e+00 -4.947960120708149390e+00 1.325852393188461065e+01
-6.683255488725790450e+00 1.947086956056848228e+00 1.612230417383300107e+01
-1.050302699271727258e+00 -3.361494320049617235e-01 1.592202721166466972e+01
-2.974041794027543872e+00 -4.955878713279204817e+00 1.254488918091870531e+01
-2.720863821689410766e+00 -2.343953570613376058e+00 1.218830309548483726e+01
-2.791839733337754481e+00 -5.505398059770465480e+00 1.415334735213168926e+01
-6.448913215263976539e+00 3.215389977495486384e-02 1.641124351135343318e+01
-8.671043112711029011e+00 -4.853436073183829080e+00 1.411598281763257745e+01
-9.005032051277089167e+00 -3.063574173342108686e+00 1.497342659677757482e+01
-7.272226638128072906e+00 6.657085815330527900e-01 1.640059571274739625e+01
-3.161366307924430075e+00 2.163300620229641424e+00 1.261206817291346383e+01
-3.281918124674697346e+00 4.714950810728568698e-01 1.090778135159842677e+01
-4.052431761717412151e+00 1.665772282324402775e+00 1.671056187822222228e+01
-2.672844788250825943e+00 8.422847285043766341e-02 1.095131190413982836e+01
-1.316467603233241856e+00 2.022080158269641270e-01 1.339135790794438563e+01
-7.449499484340035949e+00 8.975441323612514122e-01 1.646364988830323028e+01
-7.007746408528722881e+00 1.035348480139292926e+00 1.653244248561227892e+01
-7.679398769521997181e+00 1.040428580383946811e+00 1.650324571192188472e+01
-6.929397802914269988e+00 -5.308195075362585058e-01 1.221742771399940253e+01
-7.029450921106302985e+00 -3.190595292142706096e-01 1.625647985986332600e+01
-8.802493105709533694e+00 -3.820721769584295657e+00 1.495370904767566245e+01
-8.963081672670059064e+00 9.930376944820229479e-01 1.436890603687482582e+01
-8.903518756803418199e+00 2.354001029051397964e-01 1.292277151607736840e+01
-2.648844857151382293e+00 -2.926155660456347007e+00 1.543838531430186478e+01
-2.257706597082811406e-01 -3.028121504808755748e+00 1.367860898991717278e+01
-6.762286056335205409e+00 -5.740360470460231568e+00 1.359876417314243469e+01
-3.715381777662329021e+00 -1.962834001062195410e+00 1.257339479524080161e+01
-8.975950844917301552e+00 6.376557897365855432e-01 1.415695943748051278e+01
-7.197520374336839666e+00 -3.781589636509099073e+00 1.323838592591368979e+01
-8.422908198476237729e+00 -4.387675751421875603e+00 1.491999666688614212e+01
-8.848722816871982033e+00 2.410862651632232900e-01 1.275474452043353324e+01
-5.027563223804061288e+00 2.392751948214970170e+00 1.693431126364622941e+01
-8.861987448907006737e+00 8.061870734918108461e-02 1.274392319130607021e+01
-9.033960431383624368e+00 2.326661241655159085e-01 1.369572446649272024e+01
-6.950490166104303924e+00 -4.745722904986830137e+00 1.326965342821577565e+01
-6.942721874004515570e+00 -5.746762139204069086e+00 1.406612894379486178e+01
-9.006635854945974629e+00 -1.266397117292737073e+00 1.507241974843450905e+01
-9.122519340696902290e+00 -1.932036407655715271e+00 1.279379771872668314e+01
-3.717671517204034437e+00 -4.585382084014805848e+00 1.274057807212724214e+01
-2.643742548557538097e+00 -1.160304735859141179e+00 1.598667529978123980e+01
