-7.679515880186949417e+00 -2.017978959159710151e+00 1.687662110917154479e+01
-2.192079983243974683e-01 -3.158210255369338526e+00 1.726510664776434112e+01
-1.258992398575609517e+00 2.704714168045895484e+00 1.703827101722936987e+01
-5.235493941130739515e+00 -2.764622217833613282e-01 1.364206260152131733e+01
-6.384994888610902919e+00 -1.136950628619884718e+00 1.450832181090827078e+01
-3.512585062818953219e+00 -6.408961770261801805e-01 1.842059741870453138e+01
-6.509496687873815191e+00 3.922054825169385417e-03 1.359796287541086457e+01
-5.078311562543007085e+00 -4.742525735383456009e-01 1.447504494391787944e+01
-4.596328333503116426e+00 7.112036161659673894e-03 1.340454668213030942e+01
-6.760301953857059232e+00 1.222548661420636229e+00 1.434283055974847088e+01
-3.345897137002685540e+00 -2.783150724411839860e+00 1.706028809099613852e+01
-6.411931872516341002e+00 -8.118189102321267114e-01 1.422165550973966219e+01
-4.431285086731612033e+00 5.320731218671165275e-02 1.345291429723818766e+01
-5.610955741076069092e-01 -1.766068389761327628e+00 1.550351988419117788e+01
-2.398898610485988847e+00 2.127946424006287862e-01 1.326032307065517557e+01
-2.160886157034465960e+00 1.392886485254427376e+00 1.790341980235663044e+01
-4.292714994555316466e+00 -3.593482752973422123e+00 1.759753795796978437e+01
-2.745691123082783403e+00 -3.547744274920801466e+00 1.743039794361192918e+01
-1.665088792905696224e-01 6.090521021222485842e-01 1.657837393852308594e+01
-4.454555231157960371e+00 1.298774605193188325e+00 1.203923955976112836e+01
-7.496818340613238263e+00 9.905847143730950322e-01 1.570547924033361653e+01
-4.562041492516860863e+00 5.760785822989540339e-01 1.187913739731288842e+01
-4.210896812007643319e+00 2.553772467657728917e+00 1.321346065335493591e+01
-4.091750720364768945e+00 -3.924724313149334343e+00 1.822919000306387716e+01
-3.251310559932139022e+00 7.433921648752418454e-01 1.162217302832182497e+01
-6.183327868193217114e+00 -1.782080761843961803e+00 1.542798878132506957e+01
-1.803453860413843701e+00 1.576945361593724559e-01 1.310462135466007538e+01
-1.582018937936736869e+00 2.328494296003189579e-01 1.314581752403157822e+01
-5.147905838306511939e+00 -3.122720129320193827e+00 1.726806427279547762e+01
-1.478893517478809816e+00 1.643665550951811660e-01 1.326515160713310593e+01
-4.133551962781091049e+00 3.755476126492627298e-01 1.234738303536841642e+01
-4.356029889803528121e+00 4.562407485847738364e+00 1.606896405761875002e+01
-2.034183262750975274e+00 -2.667827371532136560e+00 1.686965033189190422e+01
-1.934705484072746007e+00 -3.974308914611127896e+00 1.809405362017734120e+01
-1.285594452695684842e+00 8.925545336190365830e-02 1.345523688633532799e+01
-2.566588996811406620e+00 3.588082516149078138e+00 1.684592034693375240e+01
-1.189675646010635468e+00 7.264012523150809031e-02 1.355349113230391822e+01
-4.399317106164313707e+00 4.555831148331896507e+00 1.600120716018830080e+01
-1.650020364328327327e-01 1.595887475896157204e-02 1.660101570998633491e+01
-1.040794608172648905e+00 -8.714442728296581397e-02 1.378314425011284072e+01
-2.362925745758031937e+00 1.401949486791710608e+00 1.788988339758042656e+01
-2.460781016050112568e-01 -1.997925009823723119e+00 1.717251826983945762e+01
-7.652233943885827117e+00 -5.900975367103360458e-01 1.583772228052423969e+01
-5.598639429800956080e+00 -3.154598433944799218e+00 1.723561500558779613e+01
-4.334310221332339452e+00 9.766106463021468898e-01 1.789241787471092948e+01
-1.822467853288878281e+00 2.303582663272126574e+00 1.756700098365540441e+01
-7.155951003207743355e+00 1.815718176988986299e+00 1.592962043366800629e+01
-4.927482110717804176e+00 -3.590732082245852830e+00 1.775513448940995431e+01
-5.977041702075155172e+00 -9.092384217503867161e-01 1.431168561482343904e+01
-3.418675847511687849e+00 7.694903840512541393e-01 1.148364613435189341e+01
-7.167257784495667750e+00 1.774181349273121766e+00 1.575257194582302844e+01
-1.012374188205580339e+00 -1.319745887316926325e+00 1.499179010012328916e+01
-3.651599543993763741e-01 -3.357962033166995930e+00 1.712450366424710779e+01
-1.111255340088829424e+00 -4.094998757304174619e-01 1.824591609009188886e+01
-6.617548138985407391e+00 3.462452859136389005e-02 1.367915975263738204e+01
-5.170140611780281503e+00 -6.197704587801109444e-01 1.485259596376660340e+01
-6.158851955628895425e+00 3.605533308410398874e+00 1.558500620868907305e+01
-7.561010375007713336e+00 -1.827046372885670289e+00 1.726795315559950694e+01
-2.187003930134599372e+00 -1.414498567149843899e-02 1.824010778234310948e+01
-7.132254819316123928e+00 -2.442751195883756665e+00 1.779923791369385810e+01
-3.433955743194561094e+00 5.416777027292764002e-01 1.222807885473169165e+01
-4.907039441741460450e+00 -2.910441560743693756e+00 1.862223091606388437e+01
-3.774842211422166915e+00 -8.203461955950668294e-01 1.845449436823075473e+01
-6.735194474868835712e+00 2.229654718245366873e-01 1.373293928007445430e+01
-5.109372657287776676e+00 -2.849082376211581114e+00 1.859106041183284219e+01
-7.175674745288727507e+00 -2.209063949405828176e+00 1.603406268542018864e+01
-2.953221753397694993e+00 -3.867733039474710921e+00 1.771908348828235802e+01
-6.569093082036355113e+00 -1.049647853281891197e-01 1.372020625844213981e+01
-2.955391356189287944e+00 -2.189187754028665722e+00 1.672272957728849718e+01
-2.960129250977660220e+00 2.348620464844729305e+00 1.751349833703894632e+01
-6.956453869958663105e+00 -1.227440035493617909e+00 1.789856217657077764e+01
-2.991009847566365565e+00 2.888415649072870739e-01 1.343989980096920078e+01
-3.371732312759146755e+00 3.119622598304532701e+00 1.447389877652992141e+01
-6.581984054624548719e+00 -3.271082865948064189e+00 1.806679682946268883e+01
-5.945106100668565929e+00 -1.387881081208206302e+00 1.832760770053065613e+01
-2.285002564437353278e+00 8.636028309989181029e-01 1.204115075938408097e+01
-2.829190311982423101e+00 2.286064368966359561e-01 1.362099672806754569e+01
-4.184018617905177706e+00 -2.986929535704531347e+00 1.719024606820261170e+01
-6.004111707688384314e+00 -1.030848299593931650e+00 1.443210981713215801e+01
-3.492740805635288215e+00 -1.830819146932445518e+00 1.862432176153013330e+01
-2.774847521198315903e+00 -7.203877200593075680e-02 1.441290321414719955e+01
-6.119299869174124495e+00 -2.255946398582280743e+00 1.841448632888608472e+01
-2.391385155089796655e+00 1.510461620478220635e-01 1.341358204740775761e+01
-5.892965446621634129e+00 -1.220480294979264801e+00 1.829889332429045368e+01
-2.249129833049534177e+00 1.937884577676199371e-01 1.318616759968640650e+01
-1.420785036430811665e+00 5.700194435780503444e-02 1.337867467613868655e+01
-5.932922725465392233e+00 -3.174758737696458333e+00 1.723131599467674135e+01
-5.631224956992777475e-01 1.835327343689267865e+00 1.683621748078085290e+01
-3.472018921712363149e+00 1.111864031145797460e+00 1.128422631640598439e+01
-5.817784785165573069e+00 -7.849817901072453363e-01 1.423020447096725860e+01
-2.968438558826711482e+00 -4.348203423690055747e-01 1.517724360991153532e+01
-7.586689235864848557e-01 -6.335079807209929026e-01 1.447949451182424241e+01
-7.491751741744289150e-01 -1.425005820492941000e+00 1.828362196433776177e+01
-5.379160469227052488e+00 1.581772125772782811e+00 1.747854812852047246e+01
-3.244930932020246406e+00 4.909414308282742390e-01 1.244298871413813856e+01
-1.156426356478400530e+00 -1.431100422749518541e+00 1.842777215038218941e+01
-4.354860820690756862e-01 1.591376429944850290e+00 1.664499936884122633e+01
-2.771689623277072911e+00 2.147104603847690640e+00 1.341637333516760577e+01
-5.599317769297519121e+00 -1.209539837049804500e+00 1.524613268215228601e+01
-6.591835160951888817e-01 -1.179685736357983572e+00 1.819375703686205981e+01
-5.526499270753014725e-01 1.789810845194222511e+00 1.700815037256938211e+01
-3.777827489433149832e+00 -1.889515072193799772e-01 1.480578132698195049e+01
-5.137552323189796155e+00 -1.045891445666746522e+00 1.837443134973070613e+01
-2.890051852633502172e+00 -3.967026105437407857e+00 1.813627950568334057e+01
-4.799297960201775126e+00 -2.104913356263152124e+00 1.666316364588767840e+01
-7.481318855966488712e+00 -6.747750028533258115e-01 1.540209218111584732e+01
-1.200329006178108893e+00 3.069804734347978403e-01 1.810794747311334163e+01
-7.438704191581296143e+00 -2.642531814283342939e+00 1.725031588654281478e+01
-3.110882975403357786e+00 -2.806206167026243037e+00 1.869570204489894394e+01
-5.101886632170126390e+00 -3.208720717094530883e+00 1.853593553957313134e+01
-3.822572040271078997e+00 1.811505210204171101e+00 1.215109855808614014e+01
-4.145926258654874630e+00 -3.845908760488037537e+00 1.832384729531916889e+01
-3.214557740022947474e+00 7.897760395510067255e-01 1.146848890855437730e+01
-3.545112212694932374e+00 1.779640629655453887e+00 1.769840924345500355e+01
-7.247740479692362570e+00 1.593452754331470933e+00 1.591698719689772190e+01
-3.343617283820167874e+00 -3.502940140068504071e+00 1.864730017054664302e+01
-9.769984801018194442e-01 1.823349956133846428e+00 1.583334059110739389e+01
-1.610933623936058101e+00 3.174176823085272048e+00 1.665107423552304056e+01
-8.175904052952326362e-01 1.760846795879578375e+00 1.733642568115804750e+01
-6.982801130133397649e+00 2.500742466875023329e-01 1.408966963879599632e+01
-6.774116808046040106e+00 1.032912135267091691e-01 1.374988542708250350e+01
-1.547654926769551409e+00 -2.255374006628370065e-01 1.825139887570453823e+01
-3.403382122488617600e+00 -3.395640636313168592e+00 1.732079350328431389e+01
-3.587649295191170040e+00 3.905146138637620723e+00 1.544160134288414810e+01
-1.224286774389760524e+00 -1.218781799240888919e+00 1.490264205063856906e+01
-6.099994246550357602e+00 4.435564067765010998e-01 1.321288815078585799e+01
-3.423483403816475867e+00 2.647334611504047253e+00 1.370077723570973660e+01
-6.755769709203946150e+00 -1.007735958863243686e-01 1.386893311925709327e+01
-1.380968690702016888e+00 -5.867242985356716511e-01 1.416044913965730245e+01
-2.140579546248205789e-01 -2.595545559059820206e+00 1.690715733474732474e+01
-6.291022406635477182e+00 -2.813993440204062502e+00 1.833145196965745782e+01
-1.757972237628096512e-01 1.956364695658778796e-01 1.660855312988138621e+01
-2.675901868836568998e+00 1.867192539285594255e-01 1.364096727549625143e+01
-4.446464784631281475e+00 3.599087055399693647e+00 1.470642197941346296e+01
-6.714110400251069422e+00 -2.049201567149582237e-01 1.774202992080734731e+01
-4.544784759119881556e+00 2.235613892163090810e+00 1.296207211496206924e+01
-2.238967800834362087e+00 8.916783087233115523e-02 1.341382408763777079e+01
-1.401131992157630624e+00 -2.190072175762109108e+00 1.592170269296411078e+01
-2.532162366498283745e+00 -2.853896369945006839e+00 1.707308809682795214e+01
-1.804609042327652846e+00 -1.407113067211174240e-01 1.359227048599958465e+01
-1.746096462276785832e+00 -2.514245710406722623e+00 1.657927020188807177e+01
-2.924576570065440695e+00 -3.367482850608489287e+00 1.866557310920750012e+01
-2.981974437487278085e-01 -3.083650215071094713e+00 1.668697234837787846e+01
-5.846777797201426097e+00 -6.953626082485263593e-01 1.409769322913526679e+01
-2.133038068322414826e+00 1.569424286977923133e+00 1.334909903423771027e+01
-1.656362830246200124e+00 -5.489387535749865044e-02 1.345134777589883868e+01
-2.996138178771064364e+00 -5.960857884736858736e-01 1.543770715758590484e+01
-1.521266923832669038e+00 -3.872850449245460958e+00 1.770940509861659251e+01
-4.904041543903986167e+00 -1.481891842390858915e+00 1.618261739436962188e+01
-2.804515796178781439e-01 8.183805489410433953e-01 1.696197952008373022e+01
-7.221789657941561913e+00 1.576740068329103073e+00 1.610850415022729720e+01
-4.170078325592973201e+00 -7.186307517975405457e-01 1.563880096238007411e+01
-4.974867770915627929e+00 -7.887585494797576535e-01 1.543663087811172119e+01
-8.898477640966795388e-01 -2.025741785019768759e+00 1.842261729146896698e+01
-1.263979961127159157e+00 -1.002258255281049948e-01 1.363100959591240269e+01
-5.744268882979255864e+00 -1.626696734545737266e+00 1.583060627084125116e+01
-3.521685805835773841e+00 -3.810362516447818315e+00 1.837727535484453512e+01
-1.164663927329223636e+00 4.208250302276737020e-01 1.807253482477258189e+01
-2.812633250802791807e+00 4.197058148701349189e+00 1.634186058987317125e+01
-7.336246167449667510e+00 -1.769751170813794294e+00 1.566087828253805014e+01
-5.457699920593682918e+00 3.499504728809484710e+00 1.642650509693753946e+01
-6.521552482101585113e+00 2.358465777584346945e+00 1.479590021958049562e+01
-5.957390178908006817e+00 3.372282735749106308e+00 1.627799904771669048e+01
-6.352203197238978305e+00 -9.220939629416805561e-01 1.430357835870622552e+01
-4.372349173186858451e+00 6.962346693258487651e-01 1.798247985078943145e+01
-7.225580689434455195e+00 1.622149408719251840e+00 1.572716790717208823e+01
-5.518641131587420645e+00 -3.532683658692826079e+00 1.827157483475263433e+01
-4.462849412084476941e-01 7.535720678463422306e-01 1.738707780483466792e+01
-2.179320162981686071e-01 -3.148860199353036293e+00 1.707435704929066844e+01
-1.900276034409479342e-01 -9.746382497003824863e-01 1.594374920049590827e+01
-6.851035657431889803e+00 4.265208064540992883e-02 1.391126379408444791e+01
-2.154860463090895628e+00 3.670937267551812155e+00 1.676554926672841361e+01
-6.377382878075316341e+00 -7.139626236397289549e-01 1.412486878373012189e+01
-4.470575574810586872e+00 1.678346499754493348e-01 1.288925967537560524e+01
-6.273567491835009946e+00 -2.448544712028014381e+00 1.837503480016850688e+01
-6.199860895572557595e+00 -7.028347567616055613e-01 1.407769719054632418e+01
-4.070677501618577665e+00 -4.618897272663066711e-01 1.835011157143031824e+01
-6.162855065150701250e+00 -2.792489576252308758e+00 1.684314079837822220e+01
-4.840493469769224788e+00 1.679682386809100425e+00 1.270293043038043379e+01
-7.671312735816163908e+00 -1.733127915891660709e-01 1.585571668846510818e+01
-3.923768390559924102e-01 -3.487722600519823080e-01 1.477275973918599306e+01
-2.186735270469081005e+00 -1.277311325899318506e-01 1.381394279809287440e+01
-2.381798562973981848e-01 1.216864700008347899e+00 1.675564672232831498e+01
-2.644869404929943157e-01 -2.000259675994272790e+00 1.749060079242842392e+01
-2.715180084003979033e+00 5.397391853438121556e-01 1.811513355905440648e+01
-4.719364200570527856e+00 -3.221087172488671158e+00 1.862411784367708378e+01
-1.848590885768632175e+00 -2.051514972699691186e-01 1.370929358949879884e+01
-6.894625654558366179e+00 1.107391680253201116e+00 1.443218463327082191e+01
-5.746196031305323970e+00 -1.425859663201163086e+00 1.837077453738152855e+01
-4.143733943418065557e+00 3.219290938522782142e+00 1.686717856331789278e+01
-1.168830254862101459e+00 -1.607361560305609616e-01 1.375208008039318486e+01
-1.030337435298945614e+00 -3.420309693676830687e-01 1.402038055898807301e+01
-3.964084712962775203e+00 3.553584048051813049e+00 1.669832255068725857e+01
-6.753850011495874384e+00 -2.928225153502139744e-02 1.766465988336432247e+01
-4.311075734622979994e+00 -8.177486308565071749e-01 1.841327204782540150e+01
-7.503114669598658359e-01 -1.444861095357167780e-01 1.414489747714554824e+01
-4.428257599933397293e-01 1.543910274740962763e+00 1.699433042602657196e+01
-3.941104608322121727e+00 -2.846458724983876643e+00 1.872575149372562464e+01
-7.612617322652052820e+00 -3.758120184161946042e-01 1.669502679940843137e+01
-3.207673304451201246e-01 -1.161322962639066647e+00 1.548148867674311191e+01
-9.250035361126156541e-01 8.087461014412415938e-01 1.786238406785787447e+01
-4.603519409079268598e+00 1.047372012548215103e+00 1.191129571945331378e+01
-3.251958071940047601e-01 1.412388050328770905e+00 1.657471897111642534e+01
-1.119668653314005002e+00 8.187604833170014640e-01 1.795436826477136094e+01
-1.583000819219829491e+00 1.218438864494370444e+00 1.793785855502674309e+01
-3.584872916536643306e+00 4.246783755954583128e+00 1.589226127032467417e+01
-3.316942544605148147e+00 -3.618279611951690455e+00 1.856545917410223723e+01
-4.565632959787446765e+00 -1.187266691064951640e+00 1.603643180326741913e+01
-9.451433215599811533e-01 6.856684710985755382e-01 1.791816759984592267e+01
-3.293272116735015409e+00 3.154430731621795658e+00 1.456455244357228196e+01
-9.517844452736958782e-01 -1.954296839288646725e-02 1.812720019602438271e+01
-1.327500162686203966e+00 2.668050968185894156e+00 1.712752250555786304e+01
-9.641835895912794774e-01 -1.748674993812427969e+00 1.539298755911543282e+01
-6.843856533720833468e+00 2.686670293598753645e+00 1.576520345116453825e+01
-3.436992061949672550e+00 3.352602934939143964e+00 1.477912398991483656e+01
-9.187024283771463296e-01 5.363468031942366654e-01 1.431417660351631582e+01
-9.485870256961954627e-01 -2.020793642138063728e-01 1.817402295913488075e+01
-2.118531863399299553e+00 -2.853419785790950236e+00 1.862459303928414300e+01
-9.494627581167216501e-01 -4.409459704030113114e-01 1.822364548607336587e+01
-5.288562303805937059e-01 6.609439452934128267e-01 1.513484307126334016e+01
-4.893097130140196427e+00 2.741285979783158133e+00 1.701457288345212504e+01
-9.244766383034734858e-01 -1.243248711799490813e+00 1.834266505510024814e+01
-6.355344091215972213e+00 -8.270154371661664339e-02 1.353838096269210212e+01
-7.069929904416060396e+00 -2.822404615940896200e+00 1.778513571528669956e+01
-2.160934390884039047e+00 -2.410908041711296690e+00 1.861713348314354732e+01
-3.553834588265855743e+00 -1.601084984773869513e+00 1.639173328355375503e+01
-6.828461834588086532e-01 -1.023458475462896144e-03 1.425210572774928153e+01
-3.388154570752658579e+00 -1.579256670896533876e+00 1.637837606258384682e+01
-7.260058582502402658e+00 -1.222363919222437811e+00 1.520075609228332780e+01
-6.908956008383626113e+00 4.620707680299446229e-02 1.400949570333440874e+01
-7.625599705652559734e+00 -1.375770793233243472e+00 1.713013122606849947e+01
-1.396007926796798193e+00 2.631387768325894605e+00 1.721677399388635621e+01
-6.772019019294816644e+00 -7.008171132499554368e-01 1.434281888071918587e+01
-7.174319042091331866e+00 -2.045977786713860880e+00 1.578129123375743603e+01
-6.597684294308036712e+00 -7.756210893131717521e-01 1.427091069102816334e+01
-5.428982643923653484e+00 -3.731932521861045515e+00 1.808345480443599484e+01
-3.997896444879773803e+00 -7.173364460501072681e-01 1.564959995023529160e+01
-7.336941588156710381e+00 -1.834487927483713809e+00 1.764551757768303020e+01
-6.219164345692879792e+00 -8.338836866442899121e-01 1.420545980391637642e+01
-7.069087177959996637e+00 1.820847734289174680e+00 1.532157277070209744e+01
-2.601998334290829273e+00 -4.095373878267001833e-01 1.500746716897804589e+01
-2.843152854435950339e+00 -2.636314054776208060e+00 1.866959344093260142e+01
-7.697125140124323472e-01 -1.498640210610014512e+00 1.521658136445690701e+01
-6.102741895171389430e+00 -8.474528482684215991e-01 1.422076858669650790e+01
-4.957098889793559948e+00 -3.062401823641859089e+00 1.860380651351542269e+01
-2.543025091794492987e+00 4.072986532197924170e+00 1.650480195510738213e+01
-9.779623623841720015e-01 2.411167746191763328e+00 1.682320964058444446e+01
-6.013204734284515851e+00 -7.188576178030520181e-01 1.409928303767469515e+01
-5.156560889863822439e+00 -1.966010031379654466e+00 1.647650813238389844e+01
-5.974353058127393368e+00 -1.962586245640207672e+00 1.606696826789547572e+01
-7.215487192800766891e-01 2.050583355897614979e+00 1.682132109748234683e+01
-1.170062060412885518e+00 2.137789802775717618e+00 1.737911511302548462e+01
-1.558507380023634870e-01 -5.912908325399655052e-01 1.596980342263932329e+01
-4.443931021369325052e+00 1.332415833625920087e-01 1.306284068340438864e+01
-7.042206586626837961e+00 1.438120228004081458e+00 1.491742935328568365e+01
-5.401547555672589596e+00 -7.577063073506602464e-01 1.466614413380879967e+01
-4.203547417107397877e+00 3.050531900547012398e+00 1.695870426001780373e+01
-5.205733251914729465e+00 -6.007748597322717377e-01 1.466366481348745765e+01
-1.957192190948388255e+00 -2.020739404825215857e+00 1.633391034853157464e+01
-1.383432977237899708e+00 -1.565877379511256384e+00 1.536197212634753839e+01
-1.864027374903689305e+00 -2.053471145732443937e+00 1.627855649439388230e+01
-1.387840084521614337e+00 -1.393299099500461713e+00 1.846266044703295250e+01
-2.927302555219152058e+00 -1.416251351723446295e+00 1.855488403947004628e+01
-2.106203754830856534e-01 -1.555038060276439760e+00 1.699342005993005245e+01
-5.956815674197986077e-01 -1.568028733209192449e+00 1.536296498638176899e+01
-5.669917973122471366e-01 1.616426005280263478e+00 1.641333697560230576e+01
-1.573920068891065061e+00 -1.298897610303450634e+00 1.521827832891899845e+01
-6.720969828355178421e+00 -2.034683274268421105e+00 1.817951095070865364e+01
-5.728449836919942584e+00 -3.670394865533122442e+00 1.799771115164887192e+01
-2.793562538501800585e+00 1.145214936780453163e-02 1.420595036041327575e+01
-2.265865956640268353e-01 -2.956093388208685724e+00 1.743730091253182479e+01
-1.854803374990920073e+00 -1.038277858672860932e+00 1.519488852292295888e+01
-1.601432542263517833e+00 -2.014076249775250904e+00 1.597382696205123409e+01
-2.132411042197548956e-01 -5.871260997470323373e-01 1.736538379852962777e+01
-7.079042377547247966e+00 1.156822641896824821e+00 1.684653620630136572e+01
-1.776020724729824307e+00 -3.752054373685250077e+00 1.757863942081744568e+01
-4.120498788873090845e+00 -1.432671083094103626e+00 1.855113671065906544e+01
-2.213376116489253143e+00 -1.935199303376216040e-01 1.398501258224817434e+01
-2.474923833898526215e+00 -3.247309957798373503e+00 1.864734169482567694e+01
-4.985669705099207150e+00 8.859238661827382177e-01 1.215098107776986325e+01
-5.334256393358405290e+00 2.168717748253845556e+00 1.355267352008804238e+01
-2.583569633584872349e+00 -1.184334677514526923e+00 1.601486185638334803e+01
-4.031555327207891892e+00 2.147797812283842589e+00 1.263580305200418508e+01
-2.042739873313413668e+00 -2.051915773350220518e-01 1.382557211973313116e+01
-2.979785553366141593e-01 -6.289513557287169654e-01 1.757677936913841421e+01
-3.717741779232920596e+00 -3.053820377019747845e+00 1.873516739962941813e+01
-1.638804685283574925e+00 -4.151349789696172632e-01 1.395766250577992906e+01
-7.105499803002730985e+00 -1.522893405069816186e+00 1.515576896195771894e+01
-1.591375739182456339e+00 -4.933570513201577246e-01 1.404991947519332740e+01
-2.612919398229438972e+00 3.057056260517176938e+00 1.715567169676237569e+01
-6.576168672237715285e+00 -9.560888464576228207e-01 1.441560942827240410e+01
-7.111291823533465006e+00 5.293082808400066952e-01 1.721745945588897797e+01
-2.205854331571856619e+00 8.926863555270383443e-01 1.220654875058543354e+01
-2.549237893453191184e+00 2.897976404026589847e+00 1.483465554166229339e+01
-5.988652057098763137e+00 -2.521256099381098958e-01 1.353407072669013189e+01
-9.481855819762043946e-01 -4.124357950830003228e-01 1.414435559053210767e+01
-5.240540845506428624e+00 2.442973714157942844e+00 1.371820981313994281e+01
-5.060745910487986166e+00 2.503945014399392655e+00 1.362378212118262155e+01
-1.009966182630858578e+00 -5.065657633874961485e-01 1.419357440829369210e+01
-3.620759724677472757e+00 3.589614729781533953e-01 1.284634034481118903e+01
-8.279853027702136492e-01 -3.486254737496565226e-01 1.419700709331259247e+01
-4.428815405299705077e+00 2.410516627611908880e-01 1.264852241454737936e+01
-8.058693203248501469e-01 -2.481706902006697579e-01 1.812165636155059190e+01
-2.431232748580089087e+00 2.037167718384713666e+00 1.366137593498380909e+01
-7.377493184261516568e-01 -7.965310522164313900e-01 1.819708826414944269e+01
-7.614471788687569020e-01 -3.170782937957719483e+00 1.823334106067284210e+01
-3.629247639056867314e+00 1.402106651813741500e-01 1.387175425276953433e+01
-7.389849571118378702e-01 -1.824707144592546681e+00 1.547154421310261085e+01
-6.839106012755944874e+00 -1.614883030066975034e-01 1.405080585528771309e+01
-2.949136640243980700e+00 -3.651022113661062996e+00 1.853024166163460507e+01
-1.963509607263737022e-01 -9.580603902142200701e-01 1.713472961769704028e+01
-1.495248109801871728e+00 -1.724851897021592695e+00 1.560512485734142984e+01
-4.205056540429763956e+00 -8.372316284395363573e-01 1.576597612557362282e+01
-6.563573697590474154e+00 -3.476867695215476672e+00 1.782508978239148689e+01
-1.445855849063956811e+00 2.954263315444513260e+00 1.663950379477971353e+01
-9.277845973452183426e-01 -2.899288511590463635e+00 1.639894448203632038e+01
-9.207096606026545782e-01 -8.524354667463717172e-01 1.828759922580666597e+01
-6.834024710979903716e+00 -2.244525279966894438e+00 1.810368379023060470e+01
-7.464766538930668105e+00 8.665694481825674256e-01 1.607436220103866020e+01
-1.906660819382742122e+00 -3.694089883548340225e+00 1.841610502315839426e+01
-2.117200203586338425e+00 -3.201227326590612599e+00 1.720878744435225371e+01
-3.788308115701745638e-01 3.789422265871087436e-01 1.741352604363548551e+01
-7.451001088970640396e+00 9.776964944940769175e-01 1.589857805263282842e+01
-2.772185084434852342e+00 1.704035375152529452e+00 1.776704002431981877e+01
-1.158513109290486121e+00 -1.711486454665052781e+00 1.539422944018761541e+01
-1.213406737795447832e+00 -1.428120457312594516e+00 1.513490083795884544e+01
-5.946031942634803613e+00 -2.843626679371424437e+00 1.843047420416573345e+01
-2.758881037167795203e+00 2.786721942503714189e+00 1.730803559176854378e+01
-4.974034814032771479e+00 -1.840819154839343330e+00 1.643584079954841570e+01
-1.575212425647481762e+00 2.828976468750926010e+00 1.609048516081892188e+01
-4.569732229019066949e+00 3.358627187772666112e+00 1.671198844228317881e+01
-7.558938701866149135e-01 -1.379101479526084972e+00 1.512045239639938643e+01
-6.102239985185427429e+00 -3.612749993167148510e+00 1.784143609530523378e+01
-6.214052401703577644e+00 -9.422432348115876710e-01 1.431048245273275654e+01
-2.468327543994326412e+00 1.934445365148924068e-01 1.338146269290709967e+01
-5.703002907869597848e+00 -2.827349278927858478e+00 1.848334948582620285e+01
-6.781398691111688137e+00 7.713807196284108159e-01 1.735952409823379128e+01
-1.339301552451980015e+00 2.630054826175872940e+00 1.625743775571429950e+01
-5.356547323681105865e+00 -7.708857115414479155e-01 1.484837318316835564e+01
-4.959255453648937717e+00 -3.454836329519332061e+00 1.757986636582221252e+01
-1.819353616878929270e-01 -5.976907358871581533e-01 1.701525161785800577e+01
-4.163443114361284891e+00 1.960672225781163958e+00 1.753871026562220692e+01
-5.516111129014369396e+00 2.536803730848231631e+00 1.403374378111900000e+01
-5.361716697346295746e+00 -1.077849604806321082e+00 1.835196225431774053e+01
-6.607506705347010012e+00 -1.744075237173403847e+00 1.512188888784046981e+01
-6.917650419444903775e+00 -1.629490379207762407e+00 1.799889958950478075e+01
-3.561284451893615977e+00 -2.072852684722974181e-01 1.831027755556763736e+01
-1.412371632063032845e+00 -6.694837045238786200e-01 1.425867789329554824e+01
-5.037940377515038648e+00 -5.465815316479163410e-01 1.486470651321539549e+01
-6.403233402500758231e+00 -3.023626666243564576e-01 1.375623032530177881e+01
-6.840777665891483394e+00 2.765994776411107026e-01 1.389379195903158148e+01
-4.016696693046176492e+00 -1.860908342825942363e-01 1.481029177158460897e+01
-3.730400314940718332e+00 2.938796671207072997e+00 1.400183491357527288e+01
-6.150480282820982580e+00 3.261090606148724369e+00 1.621038595646565739e+01
-2.625322554056261914e+00 -1.188849722988921109e-01 1.442042862027278005e+01
-6.447250106637038014e-01 -5.719136980487347088e-01 1.456245331703549084e+01
-6.368793748723975412e+00 6.325016378517513971e-01 1.356369495601631314e+01
-1.610709933604353772e+00 -5.916516873501320717e-01 1.419948612160192880e+01
-3.356458983283817421e+00 -2.398046082578730420e+00 1.686998765536475275e+01
-2.223330999034601962e+00 -3.682148498492780475e-01 1.444391887621419812e+01
-4.774930464331138324e+00 4.462473477487307605e+00 1.590520503950104114e+01
-1.403750885424744466e+00 -7.694269921943991397e-01 1.438996951979979855e+01
-3.355996273415690734e+00 3.777847418872323892e+00 1.665876095052540506e+01
-2.620691257040848932e+00 2.461309860889384082e-01 1.339315541554970679e+01
-3.068332070569716574e+00 7.541278401367059736e-01 1.163229343618919387e+01
-3.705784287768048912e+00 2.201236940407503617e+00 1.273820361088788644e+01
-5.166377005492989838e+00 4.355204172610885216e+00 1.596262017420145440e+01
-3.154590329998619769e+00 1.798946585246730345e+00 1.771469141501366096e+01
-5.949591046845899012e-01 -7.569994932861719983e-01 1.475082542112107120e+01
-4.827812446951748271e+00 5.166338215950661006e-01 1.209570741199726029e+01
-7.311191515875636426e+00 -4.813085851180859409e-01 1.740776316374881105e+01
-1.166457280568679034e+00 -5.531933957536021573e-01 1.416886377062599678e+01
-3.108396512474088880e+00 -3.479396345385295852e+00 1.864096864319720481e+01
-8.039495871781735525e-01 -5.566276967499710349e-01 1.439512727448722273e+01
-3.682031644889721678e-01 -1.224640788438426386e-01 1.471282726363956073e+01
-4.065469026561365773e+00 4.280950497998508020e-01 1.220468761543374825e+01
-2.802617161776276289e-01 -1.372270827727020415e-01 1.480867252898156039e+01
-1.085811689384823975e+00 -2.520006906419965276e+00 1.603374185825912690e+01
-6.934274097069846876e-01 -3.712457705830879418e-01 1.806509529299800931e+01
-2.575361349278496803e+00 -3.065351838080210278e-01 1.479801491729100604e+01
-2.971581825935976973e+00 3.803659251555467691e+00 1.568136696079221082e+01
-6.001237026746295555e+00 -9.422461692317837811e-02 1.336716529393515884e+01
-5.609158385363675947e+00 3.244218561924657074e+00 1.474078336443817250e+01
-4.340889797282822649e+00 1.831954908924630532e+00 1.756169875739604436e+01
-6.080758727409211417e+00 2.099047570116051808e+00 1.706195108442123143e+01
-2.003618360152824573e-01 2.292764534844363156e-01 1.676468182219963410e+01
-2.564857780629288264e-01 -1.724577643510770031e+00 1.578358974351344557e+01
-7.254074685727760041e+00 -9.204578533951520702e-01 1.760835112292776472e+01
-8.206174338753127184e-01 -1.042235299135075621e+00 1.828593504941583348e+01
-5.901486631880731082e+00 -1.481576153460980150e+00 1.836270566567500850e+01
-3.444262486523832489e+00 3.484597007750209752e-01 1.302390970563796913e+01
-6.466236051273444474e+00 2.870757205244619747e+00 1.619884265289718428e+01
-3.943833023559006001e+00 -1.616865178757920685e+00 1.640279803786314972e+01
-3.459194174795527932e+00 6.591592782344477541e-01 1.184243899776026154e+01
-4.120002641837846369e+00 3.715466382976571502e+00 1.503216512289662177e+01
-2.301530596781618421e+00 1.412240388824181681e+00 1.286057749204042722e+01
-7.036003286297985326e+00 2.071486054636840102e+00 1.592089754389756706e+01
-4.143215513165573460e-01 2.581760066304987777e-01 1.497695536016142626e+01
-7.151925824808085252e+00 -1.784150314020138905e+00 1.545731193694987127e+01
-5.365688178231968308e+00 2.398186253297266646e+00 1.378328342668083195e+01
-7.123762809227578430e+00 -2.217950541514965568e-01 1.749990585550828825e+01
-3.538757209082549871e+00 -1.987461588726277428e+00 1.663529970434396432e+01
-1.913474285120438712e+00 -2.612060294503373292e+00 1.860815224878374607e+01
-6.332277823407236994e+00 -2.606237434384381380e-02 1.782811037030730716e+01
-7.542150169108216673e+00 8.195980876581663299e-01 1.573115682803973669e+01
-2.701538104198275003e-01 -2.630659487594311230e+00 1.752424690941169416e+01
-4.189141996146290126e+00 -3.900766022427068158e+00 1.791888791839111406e+01
-6.191854570771852195e+00 -1.137482356382523374e+00 1.449874240621178956e+01
-1.792031680273449834e-01 -1.967857693174498435e-01 1.661414140351629953e+01
-4.048828392919072705e-01 -1.014375935123038142e+00 1.788756640099560258e+01
-4.721901323844811316e+00 -3.662767592351254820e+00 1.839059792185081221e+01
-2.916039942581116207e-01 -2.408927097593803524e+00 1.614765892992990359e+01
-6.756970548483929306e+00 -3.077824450564031977e+00 1.714063683512495118e+01
-5.815092149488879869e+00 -1.124304704224266871e+00 1.468092239256188236e+01
-3.787159997373541920e+00 2.570720082606471557e+00 1.732249193773321139e+01
-4.431009733958842567e+00 5.439759425175370033e-01 1.186957469298400980e+01
-3.400850951308770131e+00 4.393092237969885794e+00 1.614918094323591191e+01
-7.754603409377526901e+00 -1.228095177582114284e+00 1.647072064990108231e+01
-5.662537380843808421e+00 -1.116447652413975700e+00 1.488709597718192867e+01
-2.601899962269449862e+00 -2.136672428212658958e-01 1.462387152336414431e+01
-5.588335058669782640e+00 2.837308008647402957e+00 1.679936173890161655e+01
-5.621548574819285049e-01 -1.240143441302390404e+00 1.810864528576919241e+01
-4.696626248760763289e+00 -3.725248719974377787e-02 1.816638241695786604e+01
-7.981829017749948463e-01 -1.736956633775935677e+00 1.539733122259973896e+01
-1.691385057056002061e+00 1.187329399520175244e+00 1.795835132050813598e+01
-4.966256705035217323e+00 3.804346693134220025e+00 1.637301046862759790e+01
-2.903239153260920857e-01 -2.388117582824766494e+00 1.754149433257082080e+01
-6.002568170405011116e+00 -1.381367402413839596e+00 1.487905840878748620e+01
-5.753574993113135250e+00 -1.032674888066576369e+00 1.461462804718897956e+01
-2.552954030489757109e+00 -1.997172393331763329e+00 1.860818629005048308e+01
-5.321563506962633028e+00 -7.907070429741481776e-01 1.502855579370300632e+01
-4.217659435388096512e+00 2.742345785782908107e-01 1.265964851907161659e+01
-6.145546598794407345e+00 1.031483046949528193e+00 1.753133957419279909e+01
-1.709472558964069577e+00 3.215549164309808639e+00 1.647509915722189078e+01
-2.732550421177554423e+00 -5.105757174183334079e-01 1.525352022138428509e+01
-1.537137515190802439e+00 -2.803820522742820565e+00 1.856334314055156653e+01
-2.177418052112379598e+00 -1.441904524561220757e+00 1.853263834880916505e+01
-1.971138641877397291e+00 -2.124733848064681130e+00 1.642113280818260534e+01
-3.514733270988990022e+00 5.825281894779916758e-01 1.208411139403109047e+01
-6.404320678690769597e+00 8.516561097366506239e-01 1.372086577872745039e+01
-4.836695281613970110e+00 3.161209390623923587e-01 1.243689608242867450e+01
-2.147981291586464447e+00 1.860166167328600739e-01 1.819318682669658926e+01
-2.971340253202961801e+00 2.518740017790253916e+00 1.381552021435904010e+01
-3.042446131997449843e+00 1.866680279032863377e+00 1.266290999275885554e+01
-2.001936817891561304e+00 2.656594403414887395e+00 1.524649349169574464e+01
-2.472201540916597384e+00 -2.462352935703978618e-01 1.455488849646945937e+01
-1.237189773311911933e+00 -9.095814777408629537e-01 1.454426999942316456e+01
-3.978045654553096888e+00 -3.061893775934378503e+00 1.720325314224947988e+01
-2.174379335821977399e+00 -1.716409493087744931e+00 1.623972265418059635e+01
-5.793107228746185999e-01 -2.628719867811067701e+00 1.815671744384718522e+01
-6.345673545711481012e+00 -2.308537164124007113e+00 1.630715173364394133e+01
-3.109582040247634183e+00 7.668521071583795923e-01 1.804413977524237822e+01
-1.138910105301831788e+00 -8.476838333100420453e-01 1.448786025500156427e+01
-9.712102967347105986e-01 -7.890340421825180472e-01 1.448818652691481645e+01
-6.062303661680916278e+00 3.463141939598004093e+00 1.534547772813267841e+01
-5.178200780682249871e+00 3.382826584269518211e-01 1.797268440925343924e+01
-2.269833012256186611e-01 -1.553865105654189116e-01 1.497355417493371021e+01
-6.931488844233586022e+00 -2.347888565091928115e+00 1.622872690926198658e+01
-6.585710247334775502e+00 6.179623652196557515e-01 1.752565864197134005e+01
-5.962821494198003336e+00 -6.164182594522286118e-01 1.398181104319027668e+01
-2.434138556199587633e-01 -2.811521393233899602e+00 1.749048503442723757e+01
-1.137427676085699613e+00 -3.035580999248504774e+00 1.846993880323697113e+01
-4.121957575285927433e+00 -2.807156926627305538e+00 1.871347671924223732e+01
-6.240426806581430563e-01 1.568478244360519192e+00 1.724146597260542535e+01
-5.672583347745058902e+00 -1.493104686951031157e+00 1.570857442514694213e+01
-2.140469576566372822e+00 1.588914852045024029e+00 1.784668517295106227e+01
-3.675696734154750844e-01 -8.028616272675713761e-01 1.778009013700901164e+01
-2.258761709598468226e+00 2.966432383890896141e+00 1.534925267389393611e+01
-1.518661255841753377e+00 -3.043868623424516251e+00 1.855361135910775516e+01
-5.180933194672637798e-01 -9.872389115226744005e-01 1.802355533956941969e+01
-3.986564704881067733e+00 -3.918775418009982303e+00 1.824242142576324710e+01
-2.408506774685676977e+00 3.811111989491475782e+00 1.629384988692042668e+01
-7.067910952330701546e-01 -1.040891748729019461e+00 1.821623634028844663e+01
-7.478364832786423833e+00 -2.523596550617340561e+00 1.668501602083005508e+01
-2.146776914078819321e+00 6.028799243503097927e-01 1.810196068851168860e+01
-7.103272083337653697e+00 -1.448761915391714172e+00 1.784844239783804909e+01
-6.882188780102419301e+00 1.964433949771398735e+00 1.643574378804536451e+01
-5.993488669387817325e+00 -3.732844016002607734e-01 1.368113135836670580e+01
-2.161738004953439152e+00 9.690599417460408205e-01 1.236871576638387893e+01
-7.638486574707255006e-01 -1.612038212663051695e+00 1.831016532795455731e+01
-4.582745891149425654e-01 -1.122492466167985148e+00 1.518288394653937701e+01
-1.001156033174289028e+00 -2.035144870429525632e+00 1.846599418121182623e+01
-6.221495987105596370e+00 4.441554590977010442e-01 1.332826077594956615e+01
-6.510222823666483194e+00 -2.810156170236444595e+00 1.825610450392495920e+01
-2.479005260073122052e+00 1.060471224886698538e+00 1.203822410130622700e+01
-4.608447768478372453e+00 -3.562595583007364675e-01 1.483175574418047660e+01
-4.697809759708742039e-01 1.706012725088982718e+00 1.681459564538450735e+01
-7.184255134193829662e+00 -3.796323984417911412e-01 1.749946229362663530e+01
-7.604648112980759933e+00 1.261255085431500778e-02 1.645240513928618498e+01
-4.729789749500552531e+00 -3.821317176015021744e+00 1.818457425017285800e+01
-9.934876331266992988e-01 2.311197673289673737e+00 1.713988376579940365e+01
-4.171066683170407963e+00 -2.147016283025305894e-01 1.482733420799603863e+01
-2.747284207469808059e+00 -3.845514265998589920e+00 1.831957772357694125e+01
-4.250530722784656490e+00 7.697680155975344940e-02 1.366297541420822625e+01
-4.805845579702664239e+00 2.651012395668285393e+00 1.355770080573616809e+01
-3.675881860026220860e+00 5.611847833395142704e-01 1.203814424520535198e+01
-7.533626820763959842e+00 6.032281545536488654e-01 1.610411365513419213e+01
-6.333819972632758422e+00 -1.830897688150138425e+00 1.829228934630893377e+01
-5.022261244836274230e+00 -4.962435177742952619e-01 1.470222491905413875e+01
-6.981343131956958104e+00 -1.597551975288292292e+00 1.795709941628280859e+01
-1.857037154269422841e+00 -1.821601824495555855e+00 1.610165984412612517e+01
-3.829258671819496529e-01 -2.175617277873781674e+00 1.589984696471184833e+01
-1.166015446360758601e+00 -2.355718892854462843e-01 1.821806117929762792e+01
-5.870555835798244360e+00 1.332644892589684993e-02 1.320828081877769478e+01
-6.333271991865451866e+00 -3.046429739267070502e+00 1.826925858863878460e+01
-7.613626429092606784e+00 4.061978029911722521e-01 1.549398992050215185e+01
-7.428152831654296406e+00 2.309484503592494908e-01 1.689423325037765267e+01
-6.541866145881360950e+00 1.010427901772856796e+00 1.396272141588579530e+01
-8.415069352912287748e-01 1.785105591462624153e+00 1.604406248101643229e+01
-3.421055428195566850e-01 -1.794974132590708704e+00 1.571567816494726344e+01
-7.214631522110469319e+00 -7.652875052992330618e-01 1.491881902739035581e+01
-3.419127244646329444e+00 2.508382302617186532e+00 1.346967837327668605e+01
-2.394439738060675893e+00 -1.766069961513274111e-01 1.422513725483560876e+01
-2.161086302019982197e-01 -3.813538251595519624e-01 1.518982159393608811e+01
-2.490909492167701522e+00 8.401994812771791388e-01 1.162702850806729771e+01
-1.396274315654327802e+00 1.432979228759436952e+00 1.443145192419830636e+01
-5.958962211087062144e+00 -1.804532998385954601e+00 1.582635160213693126e+01
-5.273994467302771660e-01 -3.446435572749855680e+00 1.711576611358348998e+01
-5.007179488076822338e+00 7.231618482962427485e-01 1.211932336068988292e+01
-6.200282116235365848e+00 -1.316881068920859654e+00 1.467804567016268180e+01
-4.461396485755684260e+00 4.168013824256967759e+00 1.555735694487744070e+01
-4.348346683849422689e+00 -3.902335545438654130e+00 1.815506671439588615e+01
-5.011704775516404808e+00 2.233429435539060037e+00 1.334136869552533966e+01
-5.999654878806744307e+00 -1.215425602731531551e+00 1.464568557144687588e+01
-5.630373795596840480e+00 -3.712775835342354558e-01 1.366367110624086223e+01
-7.740448849850997348e+00 -1.569215840348936242e+00 1.649364382978369292e+01
-5.069728301294693651e+00 -2.655071890272280855e-01 1.373180825088801527e+01
-2.598251184947124148e+00 -6.075878533954479632e-01 1.535299680541034917e+01
-5.182972193450671838e+00 -9.165029828434653192e-01 1.548247747843635125e+01
-7.729290860424113063e+00 -1.461488443476575805e+00 1.663133074744332873e+01
-3.806302140224005814e+00 2.157566908630972335e+00 1.262715970195922921e+01
-6.688914631760567886e+00 -2.245578524541949061e+00 1.822116278026490477e+01
-3.727547843388054893e+00 7.878299761801887957e-01 1.801706491802948307e+01
-4.656631455536272668e+00 3.558948064293698810e-01 1.226260312863025348e+01
-6.938903708569799988e+00 -3.023532183864968914e+00 1.785024554685436726e+01
-4.370695096742391428e+00 4.009250648497491021e+00 1.637278940257215254e+01
-2.554119214494972478e+00 -3.721616208702468676e+00 1.843985918643818422e+01
-1.832350764281234889e+00 -2.183043055678812294e+00 1.636159799167599260e+01
-2.824818385531442377e-01 -1.034583047584529014e+00 1.759453029178406780e+01
-2.580694695543834349e+00 -5.374853539840731553e-01 1.523009423450848487e+01
-2.202308257107125300e+00 1.942211639352977803e+00 1.383743691411184074e+01
-7.515623067281984149e+00 -2.376940908188154289e+00 1.654659785245073067e+01
-7.322532778035853340e+00 -2.229481772305899945e+00 1.763742528964900913e+01
-2.416564042536699652e+00 -3.078975389855496680e-01 1.462418597047431490e+01
-1.660963060454029749e+00 1.842197901807115512e+00 1.773939359422340800e+01
-5.206166542457806301e+00 4.276517487135254036e+00 1.567462214997436121e+01
-3.194178355258412427e+00 3.066054760372674437e+00 1.449505431504226038e+01
-6.921610477205975442e+00 8.896415948457767620e-01 1.721246551147726933e+01
-5.866930207123625118e-01 -1.454683898966487643e+00 1.816140031272088606e+01
-1.542999856356644717e+00 -8.698491424528711491e-01 1.458609815672267018e+01
-7.123178667664156194e+00 1.307108119903104937e+00 1.664479825224288589e+01
-2.871845395126884082e-01 -1.446053538724899834e+00 1.569012808941131709e+01
-7.174688809562992375e+00 -2.823813650721993973e+00 1.764083246267815497e+01
-6.598887582654020534e+00 4.596349844604172841e-01 1.370313780269972170e+01
-1.387213537392261609e+00 -9.241303347531283352e-01 1.458570343115364665e+01
-1.014089573095929175e+00 -9.187081219287678291e-01 1.459582002918251931e+01
-2.466860144815189670e+00 2.207691858217276426e+00 1.387968130700869551e+01
-3.809643356050327334e+00 -2.087154613378895185e+00 1.670297067812234815e+01
-7.840860372187776761e-01 -7.504229133469216828e-01 1.456016411092330287e+01
-6.531374895705280181e+00 -2.264339809755979260e+00 1.829867523473288315e+01
-2.827886133482924724e-01 -2.683649567873189201e-01 1.485921244822232978e+01
-5.059963220008684814e+00 1.241565148691888165e+00 1.249241395921097819e+01
-1.926646777140743061e-01 -1.854711565784115668e-01 1.515032316730633255e+01
-6.891347822700831571e+00 -3.210769073371628757e+00 1.779124999231093085e+01
-7.494046789965402855e-01 -2.032056082298417277e+00 1.833439673426429550e+01
-5.424061855444032076e+00 3.595953205543726661e+00 1.637840589726879870e+01
-3.317161031334406651e+00 -4.012983362972902590e+00 1.791189816950628000e+01
-3.450496384133166394e+00 2.421164509803386267e+00 1.329933689821585574e+01
-6.816068553035332656e+00 -1.012655039584211991e+00 1.793112741886415051e+01
-6.201142927813615202e+00 -1.502542935544562086e+00 1.490269122466724383e+01
-9.058071096165769553e-01 -2.228280629628647702e+00 1.844193583986261586e+01
-7.097053424500749941e+00 -2.643851905091437082e+00 1.779955335964341856e+01
-5.560690912835832833e+00 3.593361558019904756e+00 1.632652685694798578e+01
-4.606214052117136859e+00 3.269141255465700446e+00 1.675635782845156996e+01
-3.930462039763240156e+00 -3.029831814541268820e+00 1.873374888214811307e+01
-4.753835685277920220e+00 -1.210368947715124488e+00 1.599366477884685622e+01
-5.942740263740530438e+00 -2.434831547226362858e+00 1.847484737040784353e+01
-2.954536986590772685e+00 -1.604444899469731067e-01 1.829482291160113760e+01
-3.557306203542542011e+00 3.392352192953903334e+00 1.685516084171460705e+01
-1.353436484605007983e+00 -3.848228175141880314e+00 1.765325796755062981e+01
-6.361973434586285947e+00 3.016863452167970472e+00 1.518870763406818725e+01
-2.807763017853984522e+00 3.497869438483314219e+00 1.541805727931505743e+01
-6.301025616623752157e+00 -2.239581907056654941e+00 1.836398394533234324e+01
-3.239996673914118386e-01 -1.591070720188914267e+00 1.773930320342743983e+01
-2.743843292209137807e+00 -3.973760501701086412e+00 1.811407176211407233e+01
-5.343498508083861509e+00 -6.591029157987503551e-01 1.825519906330060849e+01
-3.555709891919346610e+00 2.375046254924383149e+00 1.745946927827395712e+01
-7.646237384537544202e+00 -1.687303670282585544e-01 1.632213453872478226e+01
-5.589202366694227209e+00 2.815258245835093653e+00 1.434296199468323607e+01
-9.695002477050660428e-01 -1.121320132990595742e+00 1.480365165482817957e+01
-6.162898724553366847e+00 3.201428580390141221e+00 1.516375111165225320e+01
-2.165930227610169290e+00 2.829275309424009066e+00 1.527484696032659883e+01
-2.538136066951929060e+00 2.183828545409497224e+00 1.760955600027553203e+01
-7.630149955091326319e+00 -9.299622486830083634e-03 1.628504833670024254e+01
-4.528183251362676742e+00 9.608506868084052410e-01 1.786401302809893821e+01
-7.240499794748236795e+00 -5.596113843739241034e-01 1.489172221539121921e+01
-6.853439360653439394e+00 2.642636783780107024e+00 1.548714302851150393e+01
-7.637257217981025192e+00 4.409616322293408164e-01 1.569620031644771529e+01
-7.014013322253150662e+00 -2.252597324835831749e+00 1.793430776337503119e+01
-2.573703099666916350e-01 -6.168424223663326877e-01 1.746035351562126436e+01
-7.272798267672291317e+00 -7.736764457678453333e-01 1.499042686628634158e+01
-2.216571474368548067e+00 3.283486388923602117e-01 1.283262533087698642e+01
-3.788200908963378133e+00 1.522029744702396492e+00 1.777307797716615312e+01
-2.984745026929005007e+00 -2.617081762450587767e+00 1.698460397803583533e+01
-4.906991018813361194e+00 -3.608281527513296894e+00 1.839075771156140604e+01
-1.421993687621289526e+00 2.949519907984696765e+00 1.685871556764906387e+01
-1.993999189247263715e+00 3.045210834704021430e+00 1.715599538119672474e+01
-3.602990903910231690e+00 3.390831468355772316e+00 1.476175466116879420e+01
-5.929197877884494261e+00 -2.638973803583997579e+00 1.847177618910435370e+01
-4.523831413532947820e+00 -3.867559762044603389e+00 1.818234801222962460e+01
-7.481833381749505296e-01 -1.169381552280452263e+00 1.494382371732628911e+01
-2.438057654855687040e-01 -1.584535309188564778e+00 1.738721567165866588e+01
-3.395315426804312420e+00 -3.166584275039167617e-01 1.502193398744940822e+01
-7.189203520028701888e+00 -9.572956443376094970e-01 1.494148035830227883e+01
-4.131221693214021107e-01 -2.009662904070362188e+00 1.795362821284744825e+01
-7.283847383673158760e+00 6.571802798715180582e-01 1.483609368004827900e+01
-4.515515487008238793e+00 -3.557413055311989147e+00 1.850357984469951589e+01
-6.173072011887676069e+00 -1.406207839839036078e+00 1.478837802555781877e+01
-5.997082740333711470e+00 2.632824858262754475e+00 1.676361702382045138e+01
-2.619675258321806588e+00 3.284697471822436432e-01 1.306930816052665989e+01
-4.745298325583441112e+00 -6.276503289941062214e-01 1.534594548145416582e+01
-1.793126262817170691e-01 -8.134631433862835603e-01 1.677714855827395724e+01
-7.355650961876538219e+00 -1.533537152806571990e+00 1.553854626224413238e+01
-6.010663318000792898e+00 -1.509760533540323246e+00 1.506664764502949794e+01
-5.523108324039757377e+00 -1.209962243276505811e+00 1.547444943167136699e+01
-5.337473727162349135e+00 -3.362044693060148859e+00 1.747403409161823618e+01
