-7.196278590677390063e+00 -3.087129215740581412e+00 1.937923595030769519e+01
-8.557983663006194064e+00 1.384569071080129499e+00 1.615190919449658224e+01
-3.079728197385029898e+00 -3.493687694774727959e+00 1.935034230675428546e+01
3.679272484525138442e-01 -8.144115788446482096e-01 1.736915905294688400e+01
-4.970822433754110925e+00 5.102757052647411973e-01 1.508381558722921056e+01
-7.818756797357119481e+00 1.262060607287502911e+00 1.469583694599157297e+01
-1.738420221635025964e+00 1.480331482663709064e+00 1.878094870217759649e+01
-1.605937542777601257e+00 2.114639150780915688e+00 1.327024073812521010e+01
-4.815685097476553267e+00 2.330509522425662894e+00 1.089275378668181560e+01
2.932833079872450635e-02 6.733343780249012589e-01 1.538058966091529101e+01
-7.061824089501906876e-01 2.603920683481275145e+00 1.786096232370636727e+01
-1.625431982056738889e+00 1.545207814194401230e+00 1.269345415346267458e+01
-7.141504363066658589e-01 4.406439966102957406e-01 1.435356481996333144e+01
-5.003210900547935935e+00 2.207083781110565468e+00 1.094429292882223592e+01
-8.191905027960757479e+00 2.415422419375887308e+00 1.714026038092647042e+01
-4.623218687226358981e+00 2.195797659557903181e+00 1.071261919354874692e+01
-2.646542808981922068e+00 -1.861515043839918615e+00 1.979453468559039209e+01
-1.661366252018640521e+00 -8.709987504071585729e-01 1.950379303756380267e+01
-8.577681377259128936e+00 -6.686113307573642306e-01 1.788707857498725673e+01
-5.325167506822984897e+00 2.199668909171069053e+00 1.133527113559364352e+01
-4.267564245001739032e+00 2.430207603462237742e+00 1.035293160407798752e+01
-4.752332180632615533e+00 2.660251800649967358e+00 1.274729745716051355e+01
-3.875746829821094863e+00 -3.687294464590288312e-01 1.647092095675504453e+01
-8.665842536389547490e+00 5.784830271470040586e-01 1.689749348587670852e+01
-7.986360535563833629e+00 8.739058636360208521e-01 1.489071453276970658e+01
-8.046667828743277795e+00 -2.223522252993150428e+00 1.903702456074273641e+01
-8.477002893808524675e+00 -1.445822476396783518e+00 1.767641361473459938e+01
-4.184657071321967514e+00 2.505816309070008074e+00 1.035520563472449140e+01
-2.405947205748662387e+00 3.982779628916699899e+00 1.652121510452429476e+01
2.255552686022627984e-01 1.702535408046200183e-01 1.829948176049288122e+01
-4.455064250430822881e+00 1.200352902370729113e+00 1.330006065843975449e+01
3.229333472345302658e-01 4.008813819944792023e-01 1.795754548002115314e+01
-4.494604546651363997e+00 1.121813965256309498e+00 1.905064557646554135e+01
-8.105242579138757009e+00 1.087689226937833542e+00 1.513906767642429685e+01
-1.246434595631645159e+00 1.776488059850980017e+00 1.862709841730510618e+01
-2.737220726076518229e+00 3.711638600494545859e+00 1.513182099154349913e+01
-1.885569604659094844e+00 -2.823050747857341891e-01 1.543382680434966403e+01
-3.826473168013988957e+00 2.557834333007684702e+00 1.027379916740001420e+01
-2.176250852175400929e+00 3.791632293872854387e+00 1.652686378382289689e+01
-3.410937543191187693e+00 2.562504556568904412e+00 1.028161813823515303e+01
-5.260699403248074724e-01 -3.201552087280606695e+00 1.732715343719165446e+01
-2.422230588851990163e+00 2.298769087751652229e+00 1.129235001091479518e+01
-6.457500256947862560e+00 -2.071904574529833454e+00 1.738045770216217534e+01
-4.130157557549850367e+00 3.790020430740363544e+00 1.795632096164916192e+01
-3.853104070970222672e+00 -4.537945823751146079e-01 1.955910428223221231e+01
-1.104249119054040662e+00 3.040654300668633514e+00 1.787000774738672249e+01
-5.297479968957487628e+00 -2.996738243856983175e+00 1.990838176752917121e+01
-8.973148861124831122e-01 2.841716883627216639e+00 1.786482140726699441e+01
-9.203181175359194111e-01 4.358702114634434577e-01 1.418164029691468642e+01
-7.422998985203530076e+00 -2.444106106933941813e+00 1.964639877886045127e+01
-5.981439854459839722e+00 3.100322147560808261e+00 1.453756851282801676e+01
-2.440960263226044979e+00 1.191938688493833221e+00 1.892222556969671388e+01
-1.299732734072918117e+00 3.203525481340782299e+00 1.789407017005371614e+01
-5.474258422695271520e+00 1.143788457966788297e+00 1.904103089505603918e+01
3.238310466232529605e-01 8.379468397442947358e-01 1.758637382791683734e+01
-1.911940990336831403e+00 3.538135544636053620e+00 1.791588418291379980e+01
-8.078785647567926276e+00 -2.555970306731232267e-01 1.890756116495077777e+01
-7.044495879756128787e+00 5.787237079201626999e-01 1.907471204111113394e+01
-1.888242485143594163e+00 -7.710001734840976617e-02 1.501878059615860650e+01
-6.312366846956805944e+00 2.553071533118825176e+00 1.834023924032093333e+01
-6.651303241714306758e+00 2.528513568732235761e+00 1.828539351107510669e+01
-4.046426197925971024e+00 -1.856841674256784369e+00 1.994444852065890217e+01
-5.499626967267663424e+00 4.378275820797081774e-01 1.446247935151156128e+01
-4.426243121310486472e+00 -2.822116566227213408e+00 1.838229045723905841e+01
-4.979139193416516340e-01 -2.165491058326733054e+00 1.613778859790638620e+01
-8.016756738571128693e+00 -3.011116839555286973e+00 1.805732984877923286e+01
-4.488570931681737264e+00 -5.428551336044531439e-01 1.668095430913354704e+01
-7.085057742462117503e+00 2.403788837628014541e+00 1.821768625256250118e+01
-7.518452585032293634e+00 2.161663698587857674e+00 1.813197124594968557e+01
-7.122448036386085590e+00 1.094945347681039571e+00 1.357262763143437923e+01
-2.508656515832007550e+00 -2.483480546568191727e+00 1.786915759086519273e+01
-4.577218837505066418e+00 1.757087471028535575e+00 1.149035182293505386e+01
-9.733340365674816863e-02 -1.607217384730401655e+00 1.913538976561738991e+01
-5.494977150568955970e+00 -2.642804971046008422e+00 1.800131162533067197e+01
-8.125874330891228681e+00 2.162319370970031240e+00 1.755706083681489815e+01
-7.591409818158642686e+00 -1.499947922369281983e+00 1.958066783044105819e+01
-7.810312622342283184e+00 -2.252729783407706465e-01 1.500665559150733941e+01
-2.386125193744194739e+00 4.342728015927587171e-01 1.465974857143032040e+01
-3.674835151333187611e+00 -4.903460378227819660e-01 1.955976886632406320e+01
-8.132333406926814945e+00 2.364066310086322176e+00 1.735879669508088341e+01
-4.448597120795224846e+00 -2.853161861598626281e+00 1.992220338582906436e+01
-8.111665846164978433e+00 2.570082960237587422e+00 1.714442510767700867e+01
-1.742280651795705904e+00 -1.577267700334283429e+00 1.689599494242601452e+01
-7.484333744578583136e+00 1.491706115183270676e+00 1.849680163381264464e+01
-4.045469145114297227e+00 -2.957130859551041713e+00 1.901358863675544342e+01
-2.920917551401386980e+00 -1.190425257781948742e+00 1.716006940209772580e+01
-7.216471598253538566e+00 1.070250061323790414e+00 1.369283054668737520e+01
-7.163879215829996205e+00 -2.313295278184618553e+00 1.663816411278990159e+01
-8.286088573978556582e+00 2.196034980367360223e+00 1.714474242873672694e+01
-2.064639071059883868e+00 -3.122422108075997293e-01 1.582388995138092724e+01
-8.688851334423599582e+00 9.963166833046293025e-01 1.652963580128675147e+01
-5.392055058157873226e+00 1.811655397946406509e+00 1.154954305166365458e+01
-2.266266568831686534e+00 -1.725533995055561931e+00 1.742615355673089539e+01
3.431276543540534019e-01 -1.190410034855150956e+00 1.750419929552970899e+01
-2.617382218658681925e+00 4.144953354686325753e+00 1.653107308427114930e+01
-4.672646907724328003e+00 2.081237771299027539e+00 1.084892936956848075e+01
-7.851316597559096166e+00 -5.119449565613278796e-01 1.920604989715675970e+01
-4.053906506478275773e+00 1.747550191752037518e+00 1.881264072921282349e+01
-7.371904449592539876e+00 2.665614845554858281e+00 1.532931718124148546e+01
-2.770096280871219729e+00 2.126227111292363858e+00 1.099940849318713276e+01
-4.054281235809487072e+00 -2.927188175583564700e+00 1.871781218781124778e+01
-4.235301328583891411e+00 2.258544523769543844e+00 1.055391279439004393e+01
-3.698873429453965134e+00 5.708537319718295366e-01 1.518578691807628900e+01
-2.925045227104609236e+00 4.101988206344926446e+00 1.592158065697146441e+01
-2.028182706152769299e+00 -3.954133305110145713e+00 1.910884556795143396e+01
-3.194560093481062513e+00 1.260980842780826894e+00 1.283026209672564022e+01
-8.109085256993004975e+00 1.779395975432347399e+00 1.575040840583309887e+01
-5.450947794678504543e+00 -1.166390530114899571e+00 1.973298720213408330e+01
-4.334436429490867049e+00 2.372269014491797279e+00 1.038674216760806246e+01
-6.309623232282977945e+00 3.354784079616276227e+00 1.539996772841609385e+01
-8.406363258224008206e+00 1.815412628431345876e+00 1.649494749343394773e+01
-2.307875452576851227e+00 9.754723492514627559e-01 1.899406936493651443e+01
-1.100520476240208767e+00 2.163980735083522955e+00 1.459977144579748654e+01
-9.271180656015864940e-01 2.766777448027683661e+00 1.805512720032987772e+01
-3.700955960118315513e+00 2.401011175584600643e+00 1.857202327000024411e+01
-5.556211152174400425e+00 -1.780661488245729451e-01 1.588034255718464038e+01
-6.491086655135307026e+00 2.168847282072243310e+00 1.848324983394596899e+01
-3.662318348630667075e-01 7.259546625034274392e-02 1.498662276417808670e+01
-8.385774342265918335e+00 1.395297551829896232e+00 1.738080354727762256e+01
-5.681656165265637881e+00 3.565210194817586054e+00 1.522605050204410304e+01
-7.426483450708911249e+00 1.879056960817985011e+00 1.452960634893678815e+01
-2.072401553240745375e+00 -2.810516418395887506e+00 1.788007939301104443e+01
-4.860300430894205270e+00 -2.283796952746257158e+00 1.998849394175167049e+01
-3.008955834692051745e+00 1.389119299615754421e+00 1.240600840214844425e+01
-8.709241169611011912e+00 8.058839915849294044e-01 1.651398539346753580e+01
-7.687583126567060887e+00 3.347827770373360767e+00 1.677115951261795601e+01
-3.051515774264971004e+00 -1.972160581008807423e+00 1.765306406633332870e+01
-7.049165408991860282e+00 -1.714668942651325079e+00 1.980099459239659154e+01
-3.313232506185009307e-01 2.041604837765528480e+00 1.685472182948782915e+01
-7.263285914569761914e+00 2.095634793541533369e+00 1.443266360621849032e+01
-6.750194799579850802e+00 2.292707013889854650e+00 1.836375475507587396e+01
-7.553004706500767718e+00 -1.400328591880569240e+00 1.559849383225958519e+01
-3.691240773341819992e+00 5.403541334378445526e-01 1.922291017041501249e+01
-1.706078141284500527e+00 1.983487970706827586e+00 1.859007110386863815e+01
-7.888351821491329297e+00 -2.654290732368036032e+00 1.902656269620027985e+01
-8.252403873612720986e+00 5.400211101297147653e-01 1.834026692165818417e+01
-7.241939587108148224e-01 9.144879033010400171e-01 1.397305593977311133e+01
-1.258410125064232998e+00 2.349652238801462012e+00 1.842872632594691140e+01
-2.076361191185656985e+00 1.508497663756772078e-01 1.926233408841859784e+01
-5.008482725086659926e+00 3.258109722345187698e-01 1.547109301232219281e+01
-5.123759270236448060e+00 4.471606629517523857e+00 1.746678816787292021e+01
-5.200741833069280062e+00 1.475676992903158347e+00 1.204896001703639996e+01
-8.344154743723525058e+00 9.859955151786881089e-01 1.795817349438966914e+01
-5.947750314651480075e+00 3.212849459635802152e+00 1.475988770729058785e+01
-8.242309116282754644e+00 1.338102002079216701e+00 1.791712013397462044e+01
-7.952415106344054685e+00 1.245207770812692072e+00 1.492587756237951879e+01
5.573178124756833496e-02 -1.813303178523026471e+00 1.869184344334628634e+01
2.246732965294302720e-01 2.028205220359535765e-02 1.834532334203375115e+01
-6.232397220832383011e-01 2.018783858919852570e+00 1.550370841876761574e+01
-4.116896722255889429e+00 4.179326792953727221e+00 1.775538927179360371e+01
-8.391804667889456226e+00 1.777911856442138561e+00 1.720472453862524276e+01
-6.929649863177981928e+00 1.481275452427827544e+00 1.332348804639767792e+01
-3.908642354712734246e+00 1.534497975563948735e+00 1.888685562580766231e+01
3.783286532232671973e-01 8.280163442490546810e-01 1.676810785118053104e+01
-6.879313553426992911e+00 -5.212668274299250282e-01 1.948773686878806188e+01
-4.023220611997564866e+00 2.188425530556547205e+00 1.069102295384819712e+01
-6.513844672240039380e+00 1.363644779017954001e+00 1.276611190724432277e+01
-6.648415294612737281e-01 1.412331710675996943e+00 1.865037291228087213e+01
-8.576326542457010760e+00 7.964968785245898353e-01 1.715197917256583793e+01
-4.444183731637386003e+00 2.034989630048184672e+00 1.092388347196136067e+01
-6.470069692477058432e-01 -3.973657295160266223e+00 1.927468681324406674e+01
2.093880223969630250e-01 -2.999564509428150672e+00 1.766876777266041643e+01
-8.090711203327696666e+00 -1.086975836716391530e+00 1.908979309032045535e+01
-5.186413126435277299e+00 7.111627014187495988e-01 1.407603989780802323e+01
-6.828429302596124018e+00 -2.303377390238698919e+00 1.993102697096242082e+01
-3.200606833571321808e+00 2.355735834745929402e+00 1.047470407833645822e+01
-7.583881061274539093e+00 3.033994405246752013e+00 1.615517229264567334e+01
-6.329644914599525940e+00 2.203937561143686774e-01 1.383302158025417583e+01
-8.323872062043857767e+00 -1.823052506115204974e+00 1.729545288161213534e+01
-7.323652736135428221e+00 -1.134105003915347964e+00 1.528133524380868380e+01
-2.850672652506562432e+00 7.960417206250910427e-01 1.406621586153438841e+01
-5.424574074868036000e+00 -5.163649986732730124e-01 1.956848634122711417e+01
-2.607384020472639730e+00 -2.260092901479187510e+00 1.984738577767855361e+01
2.358162013093797471e-01 -2.963865184441875744e+00 1.775880256622887288e+01
-1.091233646091191778e+00 2.037939921177497560e+00 1.852506230489772321e+01
-2.233073095089047388e+00 2.135514942207229705e+00 1.858228221322413987e+01
-3.635070407457729469e-01 2.196829570194354098e+00 1.760975731242591991e+01
3.913417548687995184e-01 6.509673154671546946e-03 1.755733459701196608e+01
-8.001506380503141003e+00 -1.255289102075957341e+00 1.921588975517235554e+01
6.271644086812785956e-02 1.224437824976142508e+00 1.802654760698811742e+01
-1.292241768772086630e+00 3.018173821465563123e+00 1.805864831343451726e+01
-1.706626879141856401e+00 2.792935150228353702e+00 1.830195147403711076e+01
-2.066529201651380987e+00 2.790113976249275929e+00 1.833543356996401030e+01
-4.544799742580564406e+00 1.295130288084219927e+00 1.284504325723099072e+01
-8.061409550791150735e+00 -1.827262001846153838e-01 1.536373769917657484e+01
-7.556464889801866924e+00 1.068872477645247621e+00 1.413333202540096778e+01
-1.785955043072696147e-01 1.913613790451753394e+00 1.778915701854423048e+01
3.996143198093405347e-01 2.832265510019849053e-02 1.719218812136531938e+01
-6.811757825410932554e+00 -2.919822214285038964e+00 1.770625320418295701e+01
2.925116077664429715e-01 -1.608898646843157643e+00 1.711211609230205255e+01
-3.333749955037461188e+00 3.193343718889090521e+00 1.824623816507535423e+01
-2.326810881043531065e+00 1.661940008265241353e+00 1.195854207917403045e+01
-8.433665677145594231e+00 3.462151704161436916e-01 1.811805929432545526e+01
-1.030579880803628168e+00 9.679618435132909537e-01 1.362512774743670718e+01
-3.115755450040413876e-01 -8.370361043050769112e-01 1.930163066192959320e+01
-6.336703659320779281e+00 -3.658960210857596929e-01 1.465549432091508208e+01
-3.956745651853397661e+00 1.134980944719258034e+00 1.366575036170080892e+01
-7.167445140727553898e+00 3.651709624125588860e+00 1.657024221933846064e+01
2.085663801994043220e-01 -8.399351917825446101e-01 1.835462280014831293e+01
-8.473321721850073374e+00 7.868584576426285171e-01 1.775730159926272478e+01
-2.422981762173747722e+00 6.325533877945268557e-01 1.912102484532545787e+01
-3.555486117081389175e+00 4.099490299390613934e+00 1.575800215214977129e+01
-7.733067496991349543e+00 1.445965517057496097e+00 1.473876663036984525e+01
-2.196422807814893741e+00 3.603177757516891511e+00 1.591470527942205138e+01
-1.445202009360774476e+00 -4.003408049354648668e+00 1.905603846062891193e+01
-7.289480395106149757e+00 -2.666515976784807229e+00 1.960590215173064621e+01
-2.218575704168133989e+00 3.041949102225660617e+00 1.410576796599162464e+01
-7.978319282982261562e+00 2.233563415462215040e+00 1.594596299260756922e+01
-2.176490712440788844e+00 2.159578977357677232e+00 1.165224120925388718e+01
-2.526144343716445917e+00 -4.635951681957939385e-01 1.653636936375343680e+01
-4.183600648545384715e+00 1.170910764463292786e+00 1.368074038432840922e+01
-3.518416246768818478e-01 -9.611174310892920403e-01 1.559404536803959473e+01
-4.254906728463037524e+00 -8.360628397608873552e-01 1.968299435539202591e+01
-8.357991986860536571e+00 1.154949623397165670e+00 1.773910040265035093e+01
-1.362914929903541683e+00 2.849327526874809724e+00 1.587085531837671937e+01
-5.945546482614584960e+00 -1.763678472749262482e+00 1.745229785452180238e+01
-8.488053596702851422e+00 -1.043145652633686638e+00 1.826934735490258532e+01
-6.341020106572464954e+00 -9.657754255155688305e-01 1.585472311739155771e+01
-4.572599963261655631e+00 9.626217045857705656e-01 1.410265666339914503e+01
-3.691594654734200009e+00 2.844629071751171523e+00 1.839707961157366611e+01
-8.292220118206238055e+00 1.357044431590868072e+00 1.773101571387896769e+01
-1.497469845276278910e+00 2.058091108810010894e+00 1.854427528160153571e+01
-3.678554552666079669e+00 -3.063179479885465906e+00 1.897778256876774350e+01
-6.323655240650842835e+00 3.340659382510255959e-01 1.369010817311497874e+01
-4.789674289145535724e-01 1.062692837616291630e+00 1.418988143264711965e+01
-8.292035560911894976e+00 1.551414790381542730e+00 1.755231154979724550e+01
-2.865770153046602320e-01 -3.089862853384670149e+00 1.716851051173115650e+01
-8.500461358695439174e+00 1.391461620043186187e+00 1.712098498953643855e+01
-8.595951452506731982e+00 -8.390004800520700634e-02 1.787711359932725941e+01
-8.590588540299719966e+00 1.397670491611979759e+00 1.675151015786137521e+01
-8.407766837345487687e+00 -1.259471646389806354e+00 1.848636966544172111e+01
-6.414332490518368957e+00 -3.567021325812136379e-02 1.413259788007736262e+01
-8.600325095566375921e+00 1.383735464800229575e+00 1.654981949270440822e+01
-6.783950664035841349e+00 1.262219599272976556e+00 1.309712311576628707e+01
-6.902866555177377350e+00 -2.598004809188808828e+00 1.742369358034953564e+01
-5.611783836435868089e+00 1.179389591269666582e+00 1.255577668807048042e+01
-1.562419211844962019e+00 -1.847215010569473570e+00 1.695409044077721461e+01
-2.804637413354332587e+00 1.590746337119862686e+00 1.191003848849722857e+01
-6.142520298575410820e+00 2.023083835836135158e+00 1.256307555560460543e+01
-6.035239260540660844e+00 -2.886526497358112398e+00 1.998179600481915941e+01
-4.162822425039957253e+00 4.653140945352891578e+00 1.695917286510830735e+01
1.773856488467007719e-01 2.190863155097986237e-01 1.839784920846100391e+01
-1.877764364571621325e+00 2.196501332209527035e+00 1.853176320559031609e+01
-5.411486259021454082e+00 1.474008732240989605e+00 1.208250541865093197e+01
-5.197815655808268431e+00 1.559765095671354906e+00 1.189686337263911042e+01
-2.999562627496489942e+00 2.160837708906986787e+00 1.084971766528043702e+01
-5.575736217908923820e+00 3.590982773276656825e+00 1.517008073654400846e+01
-5.255293415663820689e+00 -2.645594391009389312e+00 1.801584790309127726e+01
-6.776948970382896675e+00 2.867710474632031992e-01 1.382895533808665078e+01
-7.268437491912503212e+00 -1.622244021573902906e+00 1.973375227461869486e+01
-2.473138017918820708e+00 -4.380207494571340954e-01 1.945831147819822604e+01
-2.309996145907389220e+00 3.538999819638755540e+00 1.803353326867568995e+01
-6.568444194118163715e+00 1.290219873930608774e+00 1.286071770834521288e+01
-2.632253483281398410e+00 2.233737101719145635e+00 1.093021856710524276e+01
-7.121595513780298425e+00 -1.375750123810036918e+00 1.544601827138452421e+01
-1.444865521777059847e+00 -3.402952529791344549e+00 1.793615749315706154e+01
-4.725790867561333819e+00 3.976262672554029098e+00 1.779922082786438864e+01
-2.811042500397478161e+00 2.374424431510457012e+00 1.067468129439805580e+01
-2.401806744796129767e+00 1.567830561375960219e+00 1.206592970377370477e+01
-8.477629165916070519e+00 -1.458571737789252865e+00 1.825666316921479648e+01
-4.750693984818431304e+00 3.209987566852336993e+00 1.419108245398700063e+01
-5.476374479733351563e+00 5.994713777640010566e-01 1.380528666739626686e+01
-2.612826266324330682e-01 -3.021635417329087581e+00 1.708694968387283097e+01
-1.099236848283670298e+00 -1.767980202515045729e+00 1.609811916383710440e+01
-7.326466194707794699e+00 -2.508504455874411398e+00 1.967857429049927731e+01
-2.785581936259749369e+00 2.397164032158401348e+00 1.085031278757785600e+01
-8.310675287230985475e+00 -2.224583197014024183e+00 1.763232924410621649e+01
-2.391546616298955374e+00 2.198358296603610817e+00 1.128336301156381438e+01
-1.858816417706812718e+00 -6.462783638724722834e-01 1.945721492815803089e+01
-2.335831337830952759e+00 2.162386439457154808e+00 1.138496529975027727e+01
-4.598800292861120020e+00 2.424979705592432921e+00 1.111274835694971586e+01
-2.299825339959999493e+00 -1.148644732984863248e+00 1.703954812743805292e+01
-8.674088039474217027e+00 3.811066887034793016e-01 1.631284525355592052e+01
-3.098123747843200881e+00 1.563489722182902719e+00 1.883195214284198471e+01
-2.619855387824528759e+00 2.359712351372949879e+00 1.106078359867112937e+01
-2.175054493455811144e+00 -5.642624096900936692e-01 1.634573774645858180e+01
-6.487515726684315531e+00 7.410212787040029170e-01 1.911337126981707968e+01
-4.769309050202064082e-01 2.206386656369701882e+00 1.803569059144686548e+01
-4.876096149248903444e+00 -4.501978061202964732e-01 1.956045676531932287e+01
-2.596028343566136876e+00 -2.804566970392376124e+00 1.803806587194805644e+01
-3.733687778921799705e+00 4.394731256393210828e+00 1.634285243738403892e+01
-2.913597343645944471e-01 2.025310710461185160e+00 1.787879590916119810e+01
-2.781070895394754494e+00 8.557248288833774197e-01 1.362730522639357389e+01
-5.100389885200249829e+00 5.975443800224256030e-02 1.586232804136167118e+01
-7.123950508690541028e+00 -3.271410515613991654e-01 1.450845518758011110e+01
-4.598121401060111246e+00 3.281463679498201724e+00 1.430789474573840891e+01
-5.004173212411608063e+00 2.301052374897482711e+00 1.093458495130833086e+01
-2.348169786084811417e+00 4.001810706929092909e+00 1.671860623864456841e+01
-9.212312242853115674e-01 2.532307825953170610e+00 1.822723233963407807e+01
-3.131879348765224336e+00 3.997883513394369093e+00 1.557406496361181070e+01
-4.685815718161689958e+00 -1.217449296665552572e+00 1.725870994008327131e+01
-3.984990704455630528e+00 1.587473318799575317e+00 1.226478668066188504e+01
-2.519935289286654001e+00 -9.626505980069886004e-01 1.696169173206585157e+01
-5.076324849811812534e+00 -4.856241193189250183e-01 1.956477475767658802e+01
-1.910157988885668567e+00 2.389569177963452695e+00 1.846961171596662865e+01
-3.494138474644623127e+00 2.163129054458599043e+00 1.864719714084998969e+01
-3.705623929741470146e+00 1.947871328113338407e+00 1.873079642883165974e+01
-3.267248207986438668e+00 -2.325453523587206917e+00 1.994372396899131417e+01
-8.124658174623142770e+00 1.545344428339203269e+00 1.795035018512067637e+01
-1.303359630160136007e+00 8.178247203646749064e-01 1.353582716116613227e+01
-8.197852562889806904e+00 8.692121005446702409e-01 1.823944526532998367e+01
-1.711208329620520718e+00 1.733035822935878212e+00 1.262945501220038835e+01
-4.911616344893319663e+00 9.559417281673847633e-01 1.911716752782714224e+01
-1.119706275225925030e+00 -2.575302244622232006e+00 1.693016470850934496e+01
-5.969742465297604106e+00 2.931855664665093952e-01 1.387585823075665559e+01
-6.283679740448622209e-01 2.503420265328504701e+00 1.736848404822213610e+01
-2.018293624833777500e+00 -2.170709326302068920e+00 1.762485594328915539e+01
-8.027540334330353744e+00 -4.384476877802393480e-01 1.904203399775622074e+01
-7.055259858665728245e+00 -2.505421705237664387e+00 1.985713860905031680e+01
-2.859142549028960367e+00 -2.633148027739370622e+00 1.800149010873929711e+01
-8.469243589772005310e-01 -3.306554640987470428e+00 1.754970317613827291e+01
-4.462090207083125648e+00 -6.012987018233617587e-02 1.944842441978320124e+01
-8.209931201149522906e+00 -1.650480269909666564e+00 1.887143759355330985e+01
-1.248700325764390051e+00 -2.166213649045348522e+00 1.660729626254619973e+01
-7.481321867704281203e+00 -5.419464114737668758e-01 1.491445450697220565e+01
-5.576815717845945208e+00 1.089316859503851820e+00 1.269977436522013647e+01
-8.505108731432461155e+00 8.088167896438338555e-01 1.751842510173032963e+01
-5.792674644301261999e+00 7.883315156906907095e-01 1.316385714374872151e+01
-8.433095598861104492e+00 9.388391157532640641e-01 1.773366947932420601e+01
-7.872028263872946852e+00 -3.097954626460186933e+00 1.800076719830993000e+01
-7.655728722547547882e+00 -1.882626696436206615e+00 1.958062510694414016e+01
-8.661990173976828800e+00 1.187290157605027208e+00 1.634795126798368869e+01
-1.880712332647665352e+00 1.743917549381755139e+00 1.869300052793087019e+01
-6.984986769766605263e+00 8.871288561768890801e-01 1.349813413212294222e+01
-4.420382735955703524e+00 1.774651832143742336e+00 1.149632849572893889e+01
-7.725406509973596236e+00 3.150458018388331283e+00 1.733913057847952643e+01
-3.094023373234591201e+00 2.375337194567846311e+00 1.855164555852879715e+01
-4.217604218173676145e+00 1.820676243707788133e+00 1.148800222762947953e+01
-3.856588743987670043e+00 -2.909964306498915132e+00 1.837014587321602477e+01
-1.345940140052164891e+00 1.767515812228163785e+00 1.323021755678276179e+01
-3.765383160797880269e+00 1.818330364792707154e+00 1.153259948945628111e+01
-4.024065868635907428e+00 2.094431007244342169e+00 1.085807810518062411e+01
-3.016149162091761315e+00 1.711393836651720068e+00 1.166562389325731175e+01
-8.496938922907531833e+00 1.223170556431866451e+00 1.574775933122289473e+01
-4.369705642997115724e+00 4.721891849688090836e+00 1.715143039346111919e+01
-7.922391667481469391e+00 2.350355942986799285e-01 1.487421598226355002e+01
-4.314524360188043417e+00 1.732934111861687443e+00 1.882424805633105791e+01
-4.935136038440685269e+00 4.192272655346705790e+00 1.765765030999599361e+01
-6.083163617813958091e+00 6.446663458575091488e-02 1.939333014509685427e+01
-2.390703147169321863e+00 1.963399244923496711e+00 1.147073204706843796e+01
-2.657653275546886018e+00 -3.272910035834547759e+00 1.986565831019289163e+01
-2.261169781736091622e+00 2.173975058205960487e+00 1.148306331967398108e+01
-7.543047642060006552e+00 6.644361615141505251e-01 1.412666665518268161e+01
-7.240943565559255113e+00 -1.891304034304372994e+00 1.978884228143052582e+01
-2.327350848365669078e-01 1.792767679970931116e+00 1.806032450865694727e+01
-1.914959979977790105e+00 -1.258198388690084490e+00 1.959548436036501329e+01
-6.816387942238407049e+00 -1.652867743724583116e-01 1.940038538629521980e+01
-2.450539732239743973e+00 3.580316355994035860e+00 1.520028785804505844e+01
-8.964559660263349272e-01 2.164175268771225902e+00 1.842397585837194640e+01
-1.192911250031653880e+00 1.015619994502690915e+00 1.889927643865527074e+01
-3.232444118847543457e+00 1.098423025881543946e+00 1.321142539290507756e+01
-1.389743388893169840e+00 2.802936517761882129e+00 1.565565710583974379e+01
2.828158561965540274e-01 -1.155889555396448776e+00 1.671706307240495448e+01
-5.074627399680212037e+00 -3.030575771232189020e+00 1.975505983460447368e+01
-1.101824613504546635e+00 2.337718910771679148e+00 1.840418751689971799e+01
-5.204327247651516331e+00 1.080823379895567093e+00 1.287261565688954335e+01
-6.422519795311332658e+00 -3.238491554919442628e+00 1.983317311559987672e+01
-1.548685830167736199e+00 2.397126260906965456e+00 1.843411062857511240e+01
-6.788953897389593539e-01 -2.812706923084039801e+00 1.686286547878598441e+01
-2.918769146711477358e+00 1.684370708718899046e+00 1.877707131408335073e+01
-4.676551844846304817e+00 9.281409154624998825e-01 1.913049099040977552e+01
-1.808079669379154986e+00 3.545512244439787963e+00 1.678955014722200900e+01
-5.215948014816734535e+00 5.361921163695170245e-01 1.475038640797829714e+01
-7.813239234585842574e+00 9.802089707574818123e-02 1.901174426046173949e+01
-7.326263795288908476e+00 1.654968911776346641e-01 1.917739997510129513e+01
-3.668459028936447375e+00 -6.783025833239009206e-01 1.962361823408846817e+01
-5.881087544680053902e+00 -1.636532685054636449e+00 1.738770241642757952e+01
-8.319320733318338768e+00 -1.844401467994026600e+00 1.862672391438943009e+01
-6.686087627827373758e+00 1.272903648612212502e-01 1.931627726932691047e+01
-2.217147134628878469e+00 -6.464276400663222510e-01 1.948518766863082874e+01
-7.841304058023588652e+00 -3.207384147184753953e+00 1.860920943894505797e+01
-7.057530788550172574e+00 1.264872252583970069e-01 1.925677518034303404e+01
-5.136188940218074706e+00 3.860739040542272349e+00 1.782125689574822047e+01
-4.851954950119715448e+00 -1.537510695929207749e+00 1.748028012814739895e+01
-7.692362536748015067e+00 -8.995977135558648197e-01 1.939722824734083417e+01
-8.317407081933914981e+00 -7.995159081459610739e-01 1.627531745822835063e+01
1.513030293171074847e-01 -2.972310517385015061e+00 1.749160801521551889e+01
-2.740906038733683658e+00 4.378036173895710981e+00 1.690728436978798754e+01
-2.348792365694580830e+00 -4.244648476099939227e-01 1.637047918900943699e+01
-8.535736068647896246e+00 7.808658275679078997e-01 1.735086373567873608e+01
-8.454988776792166760e+00 9.698492703008871896e-01 1.750802756642540459e+01
-2.957855794428712493e+00 1.419469398112305214e+00 1.231462952387953180e+01
-1.017456851026865339e+00 2.034774413277834260e+00 1.447649867594348194e+01
-7.510876099909665093e+00 3.155198638999865857e+00 1.621180236244670425e+01
-3.847512687468160331e-01 1.995759317358364093e+00 1.621289745552449091e+01
-5.575316633477709338e+00 4.058094993280436213e+00 1.618029750035003644e+01
-1.518450053825889157e+00 1.329877414464443408e+00 1.293567482544931835e+01
-8.710278483937077709e+00 8.125632860105345134e-01 1.633063146474599137e+01
-4.941394748074813492e+00 -1.471374115673288463e-01 1.623938706320602421e+01
-8.658125461237055731e+00 8.055446164652855234e-01 1.595114002216081417e+01
-7.404577874680170702e+00 8.550822161369431296e-01 1.390054089896236178e+01
-2.453287184431356849e+00 1.395455709073720296e+00 1.227139315353786486e+01
-7.049746501505152807e+00 -9.284908019244055843e-01 1.958018677521673112e+01
-6.396002807926380207e+00 4.078116700577920639e+00 1.746858322067647862e+01
-3.166183168559961736e+00 7.405347163641412545e-01 1.464018431850587376e+01
-4.802526832964484349e-01 -3.334970893617525523e+00 1.749876985044768674e+01
-7.303015323849982643e+00 8.773933089228720394e-01 1.376706065532369649e+01
-7.213214181676320669e-01 1.493096738410131241e+00 1.406597773904346127e+01
-5.877285900711063604e+00 -2.880088567151051215e-02 1.486460798521711979e+01
6.301360402171569952e-02 -2.471610339591830963e-01 1.873851558934669015e+01
-1.640816744361691892e+00 -4.636111054385014807e-01 1.940165533589578217e+01
-2.396606297703981259e+00 4.187620361554747817e+00 1.730442581415987036e+01
-3.398393270993228299e+00 2.608112278073508428e+00 1.130014007931563924e+01
-7.338899415785903990e+00 6.862047633721262141e-01 1.390635057938306574e+01
-3.574548263185084895e+00 1.110720478664688038e+00 1.345799045985492626e+01
-6.826148591045792635e+00 -3.056689541080422234e+00 1.977751984060675738e+01
-5.607940417084146034e+00 3.707303148102933932e+00 1.547887625884575158e+01
-3.667702556321514873e+00 -1.875657509157176328e+00 1.992522420589678234e+01
-6.344022233230983687e+00 4.972115053510073324e-02 1.404792001586139349e+01
-6.945732312523274388e+00 -1.470746644593149410e-01 1.428688591234902105e+01
-4.264901402548833431e+00 -9.759570143303972767e-01 1.706622993711472702e+01
-4.034482143248514063e+00 -2.364233894081289034e+00 1.786825195707839242e+01
-4.091329547591845639e+00 3.272852492980471428e+00 1.820530661142704076e+01
-6.213056099927442011e-01 -2.149635835156229469e-01 1.926111886316685684e+01
-7.539938013349242851e+00 2.963075712070418533e+00 1.763540324543794213e+01
-5.863929691210962858e+00 -2.426401989145654525e-01 1.560366640289424822e+01
-6.146138454911549864e+00 4.136326373485230690e-01 1.361052911816052102e+01
-3.999246706346391456e+00 1.727050213986855098e+00 1.185139965513534577e+01
-4.566317837350595710e+00 1.470622544460505887e+00 1.229121972166461774e+01
-4.053972340734807722e-01 -8.578495903193261718e-02 1.503023987518196947e+01
-3.898312497357795170e+00 -2.456838925650770555e+00 1.792426086165579591e+01
-6.465119550180771668e+00 1.857990492707323416e+00 1.863163858182829102e+01
-3.819272601934241340e+00 1.700171708743094090e+00 1.188512302089596062e+01
-6.854222207474324868e+00 -2.846094220496399707e+00 1.986173665525725340e+01
-1.506185765669611820e+00 -8.919673141230937130e-01 1.577836459444724682e+01
-3.612833308801254084e+00 1.742033591622836441e+00 1.168765148868389048e+01
-6.655362198309668909e-01 2.133901776618753465e-01 1.456390555426775535e+01
-1.270151260848033870e+00 -1.475230100809195921e+00 1.960925268970328972e+01
-8.175956946802429570e+00 1.833285067783585465e+00 1.592773290867553726e+01
-2.762089774841589129e+00 1.509757354660824724e+00 1.206156541841203733e+01
-8.314332920264384086e+00 3.446645993919084106e-02 1.569231711692775377e+01
1.935725157494421755e-01 1.349679885050735439e+00 1.680683472218105834e+01
-1.999643802220875344e+00 1.942668402797794736e+00 1.184719286269673688e+01
-5.135295524475267381e-01 1.782439863835175720e+00 1.840773605915750721e+01
-2.383166767573446254e+00 2.346719747024221814e+00 1.164600993815871277e+01
-1.869499019678616092e+00 -3.388883379396465223e+00 1.814749398640309153e+01
-4.079136804095830349e-01 1.064948143416702742e+00 1.870483430081976906e+01
-3.223326563035199488e+00 2.452040139926793483e+00 1.033480420612810491e+01
-6.280832658944057734e+00 5.066052637672777692e-01 1.923118540780085794e+01
1.242272519866264857e-01 -3.207968987071146749e+00 1.766697788147414627e+01
3.316076272673395553e-01 1.024243020738932142e+00 1.657005148829414054e+01
-3.846121677955974150e+00 -1.672415486985459054e+00 1.990295706661373742e+01
-4.690796010503261115e+00 -2.061823969142325019e+00 1.774092391803511504e+01
-2.542719425686392309e+00 -3.605580028259425251e-01 1.642433732736190422e+01
-2.698859093663888764e+00 -2.443247328637512705e+00 1.788600535313491235e+01
-6.845386237997177936e+00 -2.464301218647557690e+00 1.734302029191456995e+01
2.158644401032897564e-01 1.180447728132447249e+00 1.761575291998386916e+01
-1.131239370679863188e-01 1.599621450641458553e+00 1.802709817933737924e+01
-9.649801152786370295e-01 -3.349139434868861009e+00 1.978466262714706403e+01
-3.015159445274142036e-01 1.863196797581570419e+00 1.604436503430608241e+01
-1.709027185991720099e+00 2.376229318501903442e+00 1.845563555859568794e+01
-2.887653065174034528e-01 1.406387820479995110e+00 1.842479674460257399e+01
-7.685258754652127600e+00 1.458691102675982454e-01 1.905796330683058670e+01
-3.462443447609101277e+00 -2.698477987454586113e+00 1.999016688617879822e+01
-4.956806517944952084e+00 3.536464897325361179e+00 1.490640638875636625e+01
1.413307069909029989e-01 4.198390537343508755e-01 1.572908013049449494e+01
-8.271015163620472066e+00 -1.573067023815319931e-01 1.573219638014978727e+01
-5.317951297070099059e+00 4.190334814183607648e+00 1.760838220137891597e+01
-4.638827298346576145e-01 1.625836719954321108e+00 1.846563271036310283e+01
-3.551584610949682475e+00 6.287533249314194439e-01 1.505120589858194080e+01
-1.299817116887413970e+00 1.937771820921716737e+00 1.857375490045907895e+01
-6.240383631577246071e+00 -1.080994204667555358e+00 1.968250462108992593e+01
-3.316226972897534875e+00 -1.452588869208232047e+00 1.734407094561301221e+01
-1.530952389038086281e+00 1.729906514305821208e+00 1.867416712286004099e+01
-1.561064454921251565e+00 -1.597404948551690129e+00 1.659985784166791234e+01
2.822641253545521978e-01 8.485112275283076544e-01 1.775852773944376395e+01
-2.890681530266141941e+00 9.699633031641631264e-01 1.903804326541416714e+01
-2.118573419912284983e+00 3.134350098841729437e+00 1.467158509209100714e+01
-4.091114056288430945e+00 3.239074801964345607e-01 1.931910075558300122e+01
-2.570871552635064283e+00 3.308449884573771094e+00 1.431051427936621678e+01
-7.641348369344777680e+00 -1.105996607722564251e+00 1.948175643136793411e+01
-1.470101696373635969e+00 -2.645373498698543546e+00 1.977444801439146005e+01
-7.813154251559766728e+00 -1.300241969418459487e+00 1.941969149002160577e+01
-2.444980753101240745e-01 2.035154103020009764e+00 1.765679116646902003e+01
-1.569612121018421735e+00 4.998731253470621305e-01 1.380938934399826223e+01
-2.288386076281101467e+00 3.633059222539422262e+00 1.797342930760999025e+01
-7.896092805886149257e+00 -1.072341595349136423e+00 1.930084640887567815e+01
-7.812010801414219330e+00 4.757883060710994538e-01 1.464537034296855467e+01
-8.704480027999188962e+00 3.761698050931593929e-01 1.673756815569574741e+01
-6.976467475585166333e-01 -3.149847050160275330e+00 1.730656655241524078e+01
-6.509401520056392165e+00 3.333009883831548503e+00 1.789884453078079929e+01
-5.989000827887240419e+00 1.505823658515173857e+00 1.226508594207739122e+01
-8.289495753658929544e+00 9.891211354138547129e-01 1.540327102033565865e+01
-2.904319894395681168e+00 -3.047547151803239540e+00 1.833075168419264855e+01
-6.872130324730586715e+00 -3.502387596793601787e+00 1.943221581989769930e+01
-8.702962013117122808e+00 5.604730605766048424e-01 1.631190689715985798e+01
-4.934692122026668848e+00 -2.351807789011139960e+00 1.787113887620983377e+01
-5.777708600549160245e+00 2.995654088908161206e-01 1.407878763011539291e+01
-4.731469333624561457e+00 4.707191812277515375e+00 1.731207854755109565e+01
-4.705007833494699199e+00 2.268652611785089590e+00 1.861143457305177407e+01
-1.553638109333401296e+00 -2.035392418754969679e+00 1.714631297741977534e+01
-5.769390934722969710e+00 4.804437375055891080e-01 1.370245451171111739e+01
-8.688628674257085294e+00 6.680843606583661831e-01 1.615298826775209307e+01
-2.553826564616084482e+00 1.929229256712423179e+00 1.143171262667983257e+01
-8.603236606256043473e+00 3.766164360920400966e-01 1.605933302821624409e+01
-3.823559501908345926e+00 3.937095176877342340e+00 1.547123047264291529e+01
3.169701975531331178e-02 -1.709794132369018893e+00 1.879572545189891741e+01
-4.681415706782505737e+00 -2.765882695344764386e+00 1.817853002966700871e+01
-8.399635168962678478e+00 -4.836609015650752408e-01 1.620287544605623964e+01
-8.545345310477699741e+00 6.375177651448796778e-01 1.573538846282630033e+01
-3.604817349779747548e+00 2.626766026296326384e+00 1.144378444552830842e+01
-3.828799255313477978e+00 -3.006447156109596008e+00 1.989530000329233417e+01
-8.520431772419453154e+00 8.182191212658631585e-01 1.555375865443918570e+01
3.713410468299808698e-01 -5.979509143198076249e-01 1.753738797234780833e+01
-4.130799651838396258e+00 4.268680744138469763e+00 1.610570036977618003e+01
-6.647271710053825444e+00 -2.135344603663699825e+00 1.992694234532034869e+01
-8.379437164448180653e+00 1.987963745378039659e+00 1.674414726063970704e+01
-1.375877053952534457e+00 1.475312960583676780e+00 1.875120565764910907e+01
-6.949705925191433487e+00 -3.596828388631732043e-01 1.447825267841255226e+01
4.090140032120529595e-02 -3.575258342127717093e+00 1.825325137917916152e+01
-6.163443882604108914e+00 1.039975544130898877e-01 1.405639275349641792e+01
-7.130136809098703843e-01 7.315482589178065043e-01 1.893578096208033656e+01
-7.452710524838283668e+00 -8.528089259974713787e-02 1.923227875514042040e+01
-5.390238135933832275e+00 6.991078371828820526e-01 1.365904311939569027e+01
-3.791524051784376681e+00 1.501031250171352527e+00 1.245269536327627691e+01
-2.776137090516535455e+00 9.475160438452854272e-01 1.323906072131842393e+01
-3.128622559552539872e+00 1.390387760881572232e+00 1.247291154414992320e+01
-3.208301572261182510e+00 -1.675335576242880986e+00 1.747996393196385867e+01
2.810103286772507314e-01 -2.206862921132422439e+00 1.769177000582598680e+01
-2.862828222814152390e+00 1.454458542506968044e+00 1.219182678186446367e+01
-2.378930473645580967e+00 1.483385327488785377e+00 1.218847021070067171e+01
-3.445092644324666775e+00 -3.218922649243185941e+00 1.974475450657148912e+01
1.496513540731734399e-02 -2.498589932429162719e+00 1.875753646536563934e+01
-2.318135488148855394e+00 1.202003014310309759e+00 1.891428805499049304e+01
-2.185067465865999203e+00 1.521763534031466136e+00 1.221958292339051866e+01
-2.678345804977613209e+00 1.773431700484058071e+00 1.873377750260262076e+01
-4.611176275376735134e+00 1.197393738100134719e+00 1.311264304585179019e+01
-1.436528050664757972e+00 1.732639084787733541e+00 1.309508754965855815e+01
-2.469903915970739217e+00 1.357793936980398186e-01 1.560115406936773752e+01
-1.881974455016109049e+00 -1.056894794773397317e+00 1.955343119950904907e+01
2.152650559053573276e-01 1.083101866109121847e+00 1.617602507855046667e+01
-3.139949790890558035e+00 3.670174646925246975e+00 1.489931385996480628e+01
1.606523315345404490e-01 1.298674848343450261e+00 1.637275001966884247e+01
-7.358193509217866080e+00 -1.701989754532700516e+00 1.571459139940063920e+01
-3.143969970369250522e+00 6.728974551599237186e-01 1.483752402325318087e+01
-1.527638811894228121e+00 3.066403497165049785e+00 1.607684267370313336e+01
2.720169280509446841e-01 1.062600649518075535e+00 1.637539365974698313e+01
3.514898345787028089e-01 8.108377696509719845e-01 1.643337846106249600e+01
3.764517928833331917e-01 8.204551104248786197e-01 1.699994149668402343e+01
-4.388605145373761118e+00 1.516162504268435685e+00 1.228337943436216051e+01
-2.396782772559945263e-02 4.274183993977653251e-01 1.864013838102000165e+01
-2.532405819026058769e+00 1.001187680498619059e+00 1.291466073674308745e+01
-1.452667276367755056e+00 -3.958103060454799760e+00 1.960484970936729354e+01
3.794981389742477229e-01 6.540874339659836778e-01 1.737160705320857090e+01
-4.999991058793763488e-01 1.332988917041480814e+00 1.861354747659609643e+01
-2.947719846228154417e+00 1.218271220473841066e+00 1.272620530574067743e+01
-4.864225745966679781e+00 -1.647098403695532287e+00 1.753539367374864355e+01
-1.039400267318832505e+00 1.457022432996270211e+00 1.871769072524908495e+01
-8.370279115245640611e+00 -8.297411853214184951e-01 1.650491150432382170e+01
-2.861377889939764607e-02 -2.658545315054889002e+00 1.889037661670280954e+01
1.763232193870150344e-01 -1.181263468772900005e+00 1.834546029398662625e+01
2.480726204668851076e-01 -1.945357801933376596e+00 1.709159144916442585e+01
-1.030990551164337576e+00 1.746430407578527078e+00 1.861659932108522497e+01
-8.653448819046893448e+00 -2.021674114783229559e-01 1.728965873368370154e+01
-1.846097034481652077e+00 -1.650633814545992895e+00 1.708117566302144041e+01
-7.381392459112708915e-01 2.397655430415037259e+00 1.628427842219389277e+01
-5.576008101122412741e-01 2.419200316614483981e+00 1.784118975295132969e+01
-2.639822309417310997e+00 1.130599237726649164e+00 1.896162800186600350e+01
-5.304925325683242932e+00 3.806012803882254047e+00 1.783066164323726355e+01
-3.333110515555005371e+00 -2.698314421858718948e+00 1.805973234607984779e+01
-6.549477500628260174e+00 3.713097437860883421e+00 1.769297178854673547e+01
-7.723633010993338210e+00 -1.182707421939870995e+00 1.561398446139941854e+01
-1.368249973511236894e-01 -1.431857891241662406e-01 1.537848195542142093e+01
2.456723502543263771e-01 -1.603696701459816687e+00 1.795269742459859685e+01
-7.340864771252510579e+00 -9.917857071747804287e-01 1.955077941867219948e+01
-4.061431330684195373e+00 1.572243506459465312e-01 1.937282790679881117e+01
-4.474623868754383338e+00 -2.054239167373064223e+00 1.997933116415165244e+01
-3.172173694981379910e+00 6.904557857163897694e-01 1.914594157597300494e+01
-5.062551738484803998e+00 -3.061325435794116645e-01 1.951591120112541944e+01
3.331720584773701366e-01 -4.066530465368187741e-01 1.794213714151172212e+01
-1.218147426927961297e+00 9.539977172201701272e-01 1.347542545326766827e+01
2.014176817770877703e-01 -2.403914297458598082e+00 1.815790357250099163e+01
-7.062318162703801860e+00 -1.557043408490552228e+00 1.976111933614926386e+01
-8.575224640754935734e+00 2.174065799510531694e-01 1.612444319134670678e+01
-7.846038474612507585e+00 -1.497256210752405448e+00 1.942413458972593787e+01
-7.846286828476467079e+00 -1.673976152875094936e+00 1.942410155388915882e+01
-1.214199541869849908e+00 -3.764175936722391924e+00 1.834630593119573660e+01
-8.337768183460426030e+00 -2.253629454627442907e+00 1.843277318248042462e+01
6.137889470127863567e-02 -3.229162364751772429e+00 1.870763808956943564e+01
-8.394744430626065679e+00 -1.874027452820069328e+00 1.846204874720485378e+01
-1.459988435093898973e+00 -1.018140266810693806e+00 1.952332270783499979e+01
2.791396402168389024e-01 -6.231882658990217649e-01 1.814154737139784146e+01
-2.230122231309782599e+00 -3.206229470281486638e+00 1.816403612989548577e+01
-8.481405765010492814e+00 -1.675820959264095578e+00 1.790017344422178525e+01
-8.317309586711974845e+00 7.993413637843255204e-01 1.534565034843575404e+01
-3.650114621882114108e+00 2.295369637602217239e+00 1.860799273893182004e+01
-4.075400291646731787e+00 -8.755587840490162144e-01 1.697257439869699169e+01
-8.526265664636156316e+00 -1.033341219091382657e+00 1.766334683396625849e+01
-7.484952671912711075e+00 -2.299930038773413621e+00 1.964091319620521148e+01
2.144529100279953526e-01 -2.010115768933103952e-01 1.839266683002037439e+01
1.506932810718393800e-01 7.947070745957691695e-01 1.819502238593030086e+01
-4.939914945659456436e+00 4.398502841830444154e+00 1.657145131319300901e+01
-7.085505041549612137e+00 -1.910891126817388042e+00 1.984005954773759584e+01
-2.089021758191453859e+00 3.615251515174013885e-01 1.919572543265968534e+01
8.484800878078112285e-02 1.739496864642374740e-01 1.857523523686695910e+01
-6.725416485098126174e+00 1.821606607950794876e+00 1.321428425899731707e+01
-1.929643544246613551e+00 2.114080768882688588e+00 1.856542391829966476e+01
-8.568469611482548487e+00 -8.580704795318989664e-01 1.753112370787213337e+01
-1.937147180495376153e+00 3.759981410139844993e+00 1.749393460070078987e+01
-2.630125228481597688e+00 -3.593535911904089275e+00 1.893020775134420575e+01
-5.457888620964480575e-01 -1.926467060250345753e+00 1.597457539367573531e+01
-6.330706000211905327e+00 -2.811224855236657660e+00 1.786141083803214968e+01
-8.296373560647371193e+00 -1.230668223340591894e+00 1.667138441618305933e+01
-8.375352880159610436e+00 -2.304854418291064189e+00 1.802025438875789831e+01
-4.373204189548837717e-01 -8.294103898772910988e-01 1.937692776018029406e+01
-8.703840427741376118e+00 3.826700613332342793e-01 1.651999898514363707e+01
2.090546705432820562e-01 -3.665240775680623786e-01 1.843609926317875392e+01
-8.395746291420007168e+00 2.281652768347174343e-01 1.571095909685790559e+01
-8.034056246155603986e+00 1.693912278756860568e+00 1.552330448192651602e+01
-1.662735444323407252e+00 -1.942845113256353340e+00 1.717338066383243955e+01
-5.965878572989666395e+00 4.257977433953295865e+00 1.675449740762052642e+01
-3.698857395444778540e+00 -1.835375151314755371e-01 1.623071704324654974e+01
-8.326121165499507981e+00 1.217835074446212751e+00 1.554579919910631958e+01
-7.684376441110067013e+00 -2.784765503179599921e+00 1.743504512571172427e+01
-1.693424732637610841e+00 3.466737067585726972e+00 1.688142926944720301e+01
-7.711377555906246961e+00 3.401965677288354417e-02 1.471410306537065793e+01
-4.414471552672702970e+00 1.933034361831838410e+00 1.113505879703294710e+01
-6.513361771131783051e+00 -2.031286648930367367e+00 1.992247065611385182e+01
-7.873530736423885124e+00 -8.778573889170959710e-01 1.927843491675572096e+01
-4.623431675317899447e+00 -1.068048671339881572e+00 1.974430067529804944e+01
-5.919702532249391247e+00 2.249315591542581094e-01 1.404800232582922348e+01
-5.602120246618072841e+00 4.455731672591298764e-01 1.405849680281550462e+01
-5.728723826206809200e+00 3.767859555192263343e+00 1.779303929520348504e+01
-7.160289782946525072e+00 1.458480075926617214e+00 1.372837063904614041e+01
-5.204770110350476209e+00 7.485041014588538211e-01 1.386324848123278031e+01
-6.931365971506889601e+00 -2.249100689969156353e+00 1.991769823591553745e+01
-7.344997293638641622e+00 -7.074953609500718166e-01 1.493867428554150223e+01
-1.231352516281026377e+00 -2.216555537026253742e+00 1.971515655040919768e+01
-6.309328729721714879e+00 2.242476539575467331e+00 1.315807203368954248e+01
