-5.351744842321919382e-01 -2.754069462326068418e+00 1.717838228444703574e+01
-5.245847884588919818e+00 -1.489934350995691048e+00 1.839897441468525230e+01
-9.247687926438548089e+00 -2.038550951950730550e+00 1.459583295754193344e+01
-8.385334435103327877e+00 9.849711523342186137e-01 1.721352499034616201e+01
-4.376402841042432712e+00 6.718923831107330713e-01 1.329003697152542074e+01
-5.993423652960302661e+00 6.593150677679924243e-01 1.242167129606218978e+01
-2.153068610670295868e+00 1.852121384141714566e+00 1.778234598470428907e+01
-2.029844893973800968e+00 1.711078809244903853e+00 1.838788379104691373e+01
-4.319915379983287451e+00 6.177490723755070245e-01 1.343824746000587922e+01
-6.040118322740026358e+00 -3.138731352414771969e-01 1.328503002559586221e+01
-3.811660307489368460e+00 -1.737431053259109959e+00 1.863568754442621511e+01
-3.972166528636616789e+00 4.678439382487713516e-01 1.385205047813093771e+01
-8.743605523810892066e+00 7.167080531899208129e-01 1.368813785235069602e+01
-5.123022459922742300e+00 2.549464662227177048e+00 1.440707879093029575e+01
-3.551494900604259541e+00 5.092276845607486280e-01 1.382219921796073336e+01
-4.275560835842878049e+00 2.146399704761571048e+00 1.356972335065489332e+01
-6.045588570709356624e+00 3.633572057924173926e+00 1.774931638881539797e+01
-6.725629665320813189e+00 2.737419811102071776e+00 1.453164997309996309e+01
-8.388499328258617993e+00 -3.692350163424086951e+00 1.621030973812051101e+01
-3.542355722261028017e+00 3.760935805450891234e-01 1.401568718929518909e+01
-2.945020579981657338e+00 2.749687974098280474e-01 1.396575019146817098e+01
-1.587704834898371775e+00 -4.163057096530062395e+00 1.790818434705216688e+01
-2.759089059547737310e+00 3.308317501419253404e-01 1.383403936910305632e+01
-5.866147768032056398e+00 5.681751110921307024e-01 1.255120783637226722e+01
-4.635941720230547958e+00 -1.979364395005433153e+00 1.841658916492938758e+01
-2.501492092791663069e+00 2.516475796509693996e-01 1.384817725548838396e+01
-1.224212595901710943e+00 -1.742101396168070249e+00 1.861139647888728987e+01
-6.588266740562347401e+00 -1.327062141168631637e+00 1.328587038068413406e+01
-1.849483296183124903e+00 -9.105914893094979590e-02 1.404743481799740223e+01
-4.223392038710239049e+00 2.971625749458743027e+00 1.667229813272942707e+01
-8.088986644759906142e+00 2.574152704853746698e+00 1.492650559615699635e+01
-1.466688147584117141e+00 -1.750258943328768524e-01 1.414596643217128857e+01
-3.916174973784357416e+00 -2.128365836944272615e-01 1.473765741342747404e+01
-5.941102224236900042e+00 2.624514302463210491e+00 1.425603324197295407e+01
-6.782361327230514547e+00 -4.554648947928576774e+00 1.600461505668970474e+01
-5.987606125519570277e+00 -4.643026172054736556e+00 1.635103620668921920e+01
-8.343358466294117370e-01 -9.171559428548192727e-02 1.456473182286164203e+01
-2.562508058088472485e+00 1.642557603811627409e-01 1.395381224066372639e+01
-1.650567161662770843e+00 1.019150924706561545e+00 1.892379393528989695e+01
-3.402238175056020886e+00 -3.877042419590805089e+00 1.590090123299510694e+01
-2.349081198454887165e+00 1.991738370191966645e+00 1.878370459671181791e+01
-5.463177052145987034e+00 -3.419127463848333548e+00 1.529239594935353708e+01
-1.753380542151411703e+00 -2.267119866919128590e+00 1.499953245260558177e+01
-6.249982895785726633e+00 3.209689942978479760e-01 1.832125046075420371e+01
-9.190738020029584732e+00 2.805706708794692972e-01 1.561669007033254175e+01
-4.057324701423212332e+00 1.382577335783460759e+00 1.887519320059642425e+01
-1.852201999501460472e+00 1.207724066192152002e+00 1.891234912172492599e+01
-3.051157017589717135e+00 1.758263448703847986e+00 1.906628995746347854e+01
-7.595294655053155708e+00 -4.244573756197146608e+00 1.516494311992212474e+01
-7.576744269276147747e+00 2.934817566963214830e-01 1.277029646123414963e+01
-8.946343407228035005e+00 -2.762882627279214631e+00 1.615526743676307930e+01
-2.674663012645896121e+00 1.320417427170363700e+00 1.912800318917247111e+01
-5.044280348295826499e+00 1.370176849776299832e+00 1.213863726450974312e+01
-8.431502515002481601e+00 -1.414457918167888462e+00 1.304180876241504095e+01
-6.547541861565626675e+00 4.086468010397550366e-01 1.228257954635815352e+01
-3.318630037945883071e+00 2.059278145436559182e+00 1.439140533212208695e+01
-1.129303225937785982e+00 -2.891626596391599691e+00 1.831443234528795116e+01
-3.544022613176539327e+00 2.113738322914913148e+00 1.893956575922645058e+01
-3.957693274689282337e+00 2.247812377158695085e+00 1.882088570088000168e+01
-1.047257926948363949e+00 -2.651001891924620324e+00 1.510894253535876786e+01
-6.383249097321948007e+00 6.113349489953814331e-01 1.226401894636048340e+01
-7.019866590328712519e+00 -1.730129098743215188e+00 1.306025572061994566e+01
-2.049470583161864479e+00 -3.714773008412327826e+00 1.820036406083280767e+01
-6.188867453177524958e+00 7.030850674643249754e-01 1.231013907976990041e+01
-3.169567506645676325e+00 -4.484838646106120486e+00 1.661687676235494493e+01
-7.929137354407656879e+00 -2.139834082131593540e+00 1.717354817542877399e+01
-5.560617621007692968e+00 4.552269084666116239e-01 1.285009276074501727e+01
-1.508284435419560809e+00 8.167846548053163680e-01 1.564065743991630697e+01
-6.944344162052239255e+00 2.484896054061562332e+00 1.417344150413686421e+01
-4.955411018796139544e+00 2.866010793370321608e-01 1.366841308867349269e+01
-8.863375448666033662e+00 1.798772579238159253e+00 1.520046163567517894e+01
-8.314208857226235594e+00 3.220017599549183096e+00 1.631286235666641815e+01
-9.866104765653427311e-01 -2.286152508670816097e+00 1.836082905484506611e+01
-4.568987849892590880e+00 4.607093890763873656e-01 1.362177510345647491e+01
-4.889620183167258993e+00 -2.353917531915091566e+00 1.549892169334820480e+01
-1.466680651781777422e+00 8.139504931735046522e-01 1.887247395484622459e+01
-1.404319964752916317e+00 4.707321371927146725e-01 1.887739559438118775e+01
-4.549812325017177805e+00 2.726872421261805624e-01 1.399126918739307612e+01
-4.346969542637930672e+00 3.127150555399595966e-01 1.400799668333529624e+01
-3.902111916051483664e+00 3.499806961728826327e-01 1.405310381679958098e+01
-9.087844512616673143e+00 9.413588422097838304e-01 1.524430391067831536e+01
-8.689248337908512809e+00 -3.717909180953048676e+00 1.587475895550685934e+01
-1.660799400201720344e+00 9.029575383929930865e-01 1.532665219793100064e+01
-3.776185584908473114e+00 2.240389645586973177e-01 1.425294170005711081e+01
-1.364376927361961922e+00 5.899631715269926246e-02 1.886961640946995189e+01
-8.632735195683569174e+00 1.871531405756154953e+00 1.436150555206070933e+01
-8.693853685036052603e-01 2.260480445797248272e-01 1.598704796611493961e+01
-4.791108439676465824e-01 -1.487306759803346257e+00 1.686226917817567639e+01
-3.520173939037541722e+00 1.836063584204687960e-01 1.429838101913466986e+01
-7.266150039483561862e+00 -2.448186353313284158e+00 1.354182665466354152e+01
-6.414286893423029490e+00 -1.747122878836201654e+00 1.442102326270681445e+01
-1.754647467065998168e+00 -2.578975896826769976e+00 1.864370365216208469e+01
-3.322874223660192250e+00 7.041433444652889229e-02 1.438355466065521071e+01
-8.180758855516341299e+00 -1.821341241040869807e+00 1.301442171706293394e+01
-6.214745126119101570e+00 -1.092794024397447661e+00 1.407697313773777736e+01
-7.375880880558676189e+00 -4.275010429535744727e+00 1.526285072874905424e+01
-8.110160826443017612e+00 1.296217108642092164e+00 1.740614860816453202e+01
-4.733375431511932518e+00 2.038273991787494133e+00 1.293387742175544375e+01
-2.122123971073222926e+00 9.033568061935182136e-01 1.365204092981496231e+01
-3.499964880448107607e+00 -2.465785645081231436e+00 1.585189652855271802e+01
-2.720549989654865719e+00 1.768422322049607587e-01 1.399109822164016848e+01
-1.898216305176526397e+00 -2.115536840906200311e-01 1.412209749847643181e+01
-8.881513822195270080e+00 -1.207455161126447241e+00 1.671793342623496770e+01
-8.890491606794700630e+00 -3.007927257245685659e+00 1.410343071521815617e+01
-1.482352113084643319e+00 1.073407333955898935e+00 1.829813756981287654e+01
-2.283717218263915605e+00 -6.987028787936568897e-01 1.908663221980139824e+01
-3.395197676706505518e+00 -4.304514785123811471e+00 1.767811921841449774e+01
-2.441697780914676486e+00 9.069867483432647592e-01 1.332961652881666126e+01
-1.673515324829348616e+00 -3.494544450180820938e-01 1.419881438422737929e+01
-7.085549034753244158e+00 -7.348127159855826207e-01 1.790044926537648351e+01
-8.252823218206014388e+00 -3.406367792076174794e+00 1.399944909104112511e+01
-1.267992286240030353e+00 -5.588612672261583647e-01 1.437709215818147257e+01
-4.990935458956036186e+00 -4.101512871437173580e+00 1.756250412749648504e+01
-7.307975769352914597e-01 -1.345711216220193407e-01 1.479122905943782840e+01
-3.498669063067285645e+00 -7.517846961940204409e-01 1.892359815824765334e+01
-6.607869450766787445e+00 -3.678458179694102270e+00 1.484159641420700737e+01
-6.446351089296870285e+00 -6.245302161923271811e-01 1.293599929587170649e+01
-5.704307514265840595e-01 -3.561244206088929332e-01 1.502582116258298939e+01
-7.802793187629556648e+00 3.486282443990592839e+00 1.689689888701138543e+01
-4.761192847333692413e+00 -2.219591362604199425e+00 1.833054457211110488e+01
-7.189573580966402311e+00 -2.295456669986020160e+00 1.343415814729923241e+01
-8.666024319322083613e+00 -2.711224497494427510e+00 1.648728712860246404e+01
-2.349421522409523178e+00 2.062428843444094273e+00 1.799288084264202681e+01
-7.008180819031036179e+00 -2.095861060710423551e+00 1.762082496369670892e+01
-1.247712477034065071e+00 6.491935247186773061e-01 1.867610305289818839e+01
-3.788386277505898736e+00 -4.389659765978977113e+00 1.755299631591668330e+01
-2.194912084981885059e+00 5.847848608055652431e-01 1.916639614031367600e+01
-6.257458588137430944e+00 3.517615614491762965e+00 1.784919851961835136e+01
-9.132831908816747557e+00 -1.803149065312993571e+00 1.420610570362972780e+01
-2.340847429908909039e+00 7.187888246465150566e-01 1.917627688329826086e+01
-4.597958891612805132e+00 -4.259711221979067375e+00 1.753675981659888450e+01
-2.656461378005121166e+00 7.081010336023445539e-01 1.916824355287600312e+01
-8.046681114424693249e+00 3.912158497919213662e-01 1.751031535638147929e+01
-5.656168188086436288e+00 1.715501885887640521e+00 1.235611257922996131e+01
-2.140355633049107809e+00 -2.334379660034469062e-01 1.911777150866346275e+01
-4.398603422412641351e+00 5.847528547022673440e-01 1.345868766981757503e+01
-6.433500750929505685e+00 3.521663286304564267e+00 1.667570347465347780e+01
-4.074111730351971383e-01 -2.205055642523206849e+00 1.578518685244175046e+01
-8.732951594788694649e+00 -3.453847604183514441e+00 1.418987548800459209e+01
-2.836577274837787765e+00 9.546696157847618380e-01 1.914500336173525241e+01
-1.157999837986549263e+00 -1.763854030416513119e+00 1.480884112374279837e+01
-3.010547532242224378e+00 1.073842960962422710e+00 1.911816557040801356e+01
-1.411455157835391772e+00 -3.988077674349817414e+00 1.624366012529824488e+01
-7.239005821323846845e+00 -1.553979383763273603e+00 1.766304911667134903e+01
-3.444792871722363259e+00 -7.147217780595331860e-01 1.519341973570648108e+01
-7.774683496371755709e+00 -2.358172247078231365e+00 1.718135444952233470e+01
-4.766271259153059603e+00 2.505986011383411149e+00 1.449667017370471100e+01
-3.311776034467754481e+00 1.297269569788171317e+00 1.905049991447480906e+01
-3.503112203831507454e+00 1.873135451858821465e+00 1.897110481525449543e+01
-2.679129600514717158e+00 -1.085721620677340127e+00 1.900041897871757257e+01
-6.529056670298838405e+00 2.465086193338887455e+00 1.401814054164064416e+01
-3.693106070900617599e+00 2.008293656381561210e+00 1.891471495570545969e+01
-7.620420043974005964e+00 3.383255175413558469e+00 1.612016992079062661e+01
-3.737715110714279643e+00 1.835973106470639049e+00 1.891492570130622042e+01
-6.486314139170987758e-01 -3.932688673030525273e+00 1.727127303775590761e+01
-7.789412101059098426e+00 2.260818457965398043e+00 1.747104170708227500e+01
-8.349992716676666760e+00 -6.131497244853316708e-01 1.304209312544568533e+01
-5.881077284441618147e+00 -2.466709071402982900e+00 1.510868553015091109e+01
-1.846926681325010700e+00 1.403170408529694768e+00 1.695719818422967151e+01
-2.765423968468309734e+00 -4.538869097999349123e+00 1.680185217702635825e+01
-8.127516510236844738e+00 2.212450766089762766e+00 1.719048024848826728e+01
-6.046739332478932027e+00 3.401182154929466961e+00 1.792053124725519453e+01
-6.036946019593545820e+00 -1.685070388458274060e+00 1.810074556450696193e+01
-2.704374813277043543e+00 -2.674277836440646539e+00 1.857969871317099475e+01
-8.826369767290387358e+00 1.448497799565348965e+00 1.631425506722264984e+01
-6.584645233217895743e+00 -2.097327121861153998e+00 1.780061822027950669e+01
-6.001334765956311657e+00 6.995859633866479133e-01 1.840483717664806207e+01
-2.509704475019253866e+00 -3.003070695531889100e+00 1.849321843719421210e+01
-8.792298571774033178e+00 1.942859684227518535e+00 1.596515614384261639e+01
-3.122042400975470144e+00 2.636072858454779233e+00 1.825437422600052528e+01
-2.568540215739335775e+00 -2.886775727322237195e-01 1.914796110675965579e+01
-8.055623288536299498e+00 -3.299858497593175954e+00 1.665880490701824712e+01
-6.224822150400214582e+00 -4.243252334349474353e+00 1.706767202686952700e+01
-2.765348196086126809e+00 2.385461849467812812e+00 1.883451263686844968e+01
-8.724137653981859586e+00 2.178624105414858736e+00 1.518902454222950027e+01
-5.428939629878595241e+00 1.596205562617496687e+00 1.206193226530985996e+01
-2.083049794938048205e+00 1.432652979786064984e+00 1.594952181426608817e+01
-4.226225420627473639e+00 1.399849406826329634e+00 1.230878309036620166e+01
-7.976021127949785239e+00 3.451530424284137144e+00 1.665978924134566697e+01
-6.408439818123116138e-01 -1.822803115994511280e-01 1.596235708519452956e+01
-8.659944108260003048e+00 2.132639015593088772e+00 1.484881321462920667e+01
-2.739424879661504608e+00 1.671388997867367054e+00 1.445081068216403608e+01
-9.097176472370502864e+00 -3.425625767229834473e+00 1.469580405434426851e+01
-9.277095162613761659e+00 -7.437830132068898870e-01 1.595767578889612182e+01
-7.178075972229873258e+00 1.557599379704786013e-01 1.252240166929871990e+01
-6.330923614556818180e+00 4.511985320288627310e-01 1.237794710997082248e+01
-6.546952168123452154e+00 -2.719406305480872810e+00 1.762992801709070179e+01
-2.378448705910595429e+00 -2.366891180713525777e+00 1.552691222075920408e+01
-7.477457868741560487e-01 -4.337066955667081558e-01 1.832542523076987706e+01
-2.965067285883736581e+00 2.247779671758234343e-01 1.914852733190034328e+01
-6.136769745925114705e+00 2.273300972929799268e-01 1.264161260734853798e+01
-5.899439459133113850e+00 -2.035881398183758684e-01 1.336061564799694068e+01
-5.748602534487009308e+00 2.081364032373951289e-01 1.299138210741154253e+01
-5.542305614027859484e+00 2.055405849110165661e-01 1.321907016265123858e+01
-2.852739460220852230e+00 1.925911861788016433e+00 1.516539138160334588e+01
-5.541244252712219875e+00 -7.064786349533225263e-03 1.358033298425670310e+01
-7.010387004087570872e+00 2.675410200715339748e+00 1.780704196988748933e+01
-6.431740468525619647e+00 -8.528867044649066642e-01 1.313740626837565273e+01
-9.332486054228326111e+00 -1.739363665117927837e+00 1.545024509660489898e+01
-8.643280604021128966e+00 2.383225145111121268e+00 1.606566932392685843e+01
-5.366165767225655081e+00 -4.301286344703929565e+00 1.578344439110641062e+01
-5.318675267614245250e+00 -7.778656775630965470e-02 1.398189848248309275e+01
-7.783793468976976104e-01 -2.062074026547036532e+00 1.825326566819680707e+01
-5.113826928497237745e+00 1.448223156558237079e-01 1.380068675195170513e+01
-2.665663460175510924e+00 5.736694518277074550e-02 1.409623339814401888e+01
-1.680395038930766916e+00 7.188391826931779249e-01 1.437262913770325312e+01
-8.326427092030986188e+00 2.110504659359156765e+00 1.439482614458544063e+01
-9.065727098428148167e+00 9.583441294567276447e-01 1.508322584119646947e+01
-1.584481276994636589e+00 -1.819281067837620114e+00 1.481173775167269824e+01
-4.785332822264505737e+00 2.730391974295560686e-01 1.385391857396696835e+01
-5.165458126843547326e+00 -1.612356563178840130e+00 1.839903352965563599e+01
-4.486894574245918754e+00 1.499108276939240536e-01 1.419568008916938950e+01
-1.814136656379021106e+00 -3.705977927074320277e+00 1.587889803759791718e+01
-3.876812821969464640e+00 1.775175118550286202e+00 1.277751403315508227e+01
-5.783777880091097501e+00 -3.974332302040158638e+00 1.742118811874498263e+01
-1.474839288855305020e+00 1.081779216475161398e+00 1.812694834284848255e+01
-3.714268515973827789e+00 -1.828583857620502684e-02 1.456144451699777065e+01
-2.993094256134969378e+00 -1.451273241681070303e+00 1.886241985743861349e+01
-8.434655620906902129e+00 -3.686454824094654192e+00 1.429174508028688351e+01
-3.315768808688623448e+00 -1.086966441359948909e-01 1.460944793620460658e+01
-1.214413187184691933e+00 -2.616857477617591243e-01 1.876387937317055687e+01
-6.237124517067193175e+00 2.615247458396150915e+00 1.812376381199114306e+01
-2.925411474516954158e+00 -1.807650899290183411e+00 1.571708311369728861e+01
-3.102807499967779492e+00 -1.627589371224780201e-01 1.457436489995773243e+01
-2.980673767935055007e+00 6.406772703347447528e-01 1.354341873821920572e+01
-6.856606054828200847e+00 -8.623616828320854744e-01 1.271610554793284464e+01
-2.474327606488612830e+00 -1.365449877893716746e+00 1.518268583147562012e+01
-7.447269197928036100e+00 -1.780061339929196684e+00 1.750819849119565319e+01
-2.914289617535696930e+00 -9.460013911461251368e-02 1.439380816362623605e+01
-6.084052203554055183e+00 -1.290713084154011092e+00 1.452027134413031817e+01
-5.772968832956935969e+00 -4.684988422224846794e+00 1.658329392131836144e+01
-2.677046614593143303e+00 -2.391373875369766644e-01 1.440285388161175817e+01
-6.337976969293103835e+00 -3.439995703281377715e-01 1.285514163553815692e+01
-4.472289496530810204e+00 1.218943078921565837e+00 1.878723287701474121e+01
-4.950151993673350681e-01 -1.959017199528569009e+00 1.723015074632519017e+01
-5.243797562305212878e+00 -3.393289082686471225e+00 1.535809539417909875e+01
-2.273758846731519512e+00 -3.950821088400493508e-01 1.432891722028709225e+01
-5.934859253584070515e+00 -3.607286128188476049e-01 1.355479238856925051e+01
-6.466372192865474489e+00 3.329273507443583746e+00 1.604846633349241714e+01
-4.272876699319239080e+00 -2.701992945858235906e-01 1.471165197175337980e+01
-4.987781809267026745e+00 1.990721838741736027e+00 1.288059798325437910e+01
-8.533511543473014882e+00 -3.164045082175885426e+00 1.638701219363388262e+01
-2.954254349251083323e+00 -4.621185262095224289e+00 1.693071364287734681e+01
-5.373269289604758470e+00 -4.203366948990235663e+00 1.563900547657518203e+01
-9.324941897141414415e+00 -1.503937547523123364e+00 1.546168012599985886e+01
-9.250060935134261086e+00 -3.395266746645870803e-01 1.596874360264800785e+01
-4.079977251495049195e+00 2.984557013014851545e+00 1.846688365596606829e+01
-1.232325835444349371e+00 -9.585047803997848170e-01 1.453302300947067138e+01
-2.239745179410234321e+00 1.489355235868897509e+00 1.553619199649924454e+01
-6.091110229389075092e-01 -6.286247499590582599e-01 1.822863435105212560e+01
-9.120396358459295527e+00 -1.924678596006366149e-01 1.438135879711833454e+01
-8.506928895907537314e-01 -3.201528747479533976e-01 1.456032234467118869e+01
-9.143842135338655197e+00 -5.839060017614485787e-01 1.433504462636762966e+01
-3.829352667243184793e+00 -2.176067510641780167e+00 1.850332323340265717e+01
-6.090124719467360226e-01 -5.175746180095064375e-01 1.495469334205084877e+01
-8.155672002047609226e+00 2.317408732351537992e-01 1.742706012871456167e+01
-8.225423680398858295e+00 1.194104820795623523e+00 1.732911117656515287e+01
-5.109567509936648655e+00 -2.570819304240939296e+00 1.543058643863494339e+01
-6.846555365121411718e-01 -2.314545066969837528e-01 1.801203668172596295e+01
-9.213498828953877506e+00 4.723656290048827699e-02 1.581941919892657822e+01
-4.909924053625604579e+00 2.761355528897799783e+00 1.522263771525402021e+01
-2.027359580229214586e+00 -2.828906268755205566e+00 1.538706336160968746e+01
-1.164345994520068039e+00 4.921713950894763823e-01 1.866382733858725018e+01
-4.132550435459565463e+00 -3.439909594772583290e-03 1.888717375204494786e+01
-4.098064756140123777e+00 -3.319595936847910878e+00 1.806107215243241981e+01
-8.954885455923745630e-01 -2.755346080197982772e+00 1.520272532426461609e+01
-1.599347546958127753e+00 4.544163351737500189e-01 1.899928150997465437e+01
-6.727425882701810522e+00 2.254489060726904803e+00 1.800397857732896156e+01
-1.611439854939433314e+00 -1.126442095504215590e+00 1.456875364228506342e+01
-6.917025085690153396e+00 1.877887579082012648e+00 1.799043172766802812e+01
-7.411907110627653950e+00 -3.970303041293244739e+00 1.478595532289105208e+01
-2.101373266796290551e+00 6.636494992221233513e-01 1.356298168404310545e+01
-6.902450707367700389e+00 2.041150674044511337e+00 1.797215313540140968e+01
-6.576705759088209646e+00 3.045006366092958494e+00 1.523027699159463921e+01
-2.399267402466886523e+00 -6.550789622027428649e-01 1.459510060389556330e+01
-7.957419788787675863e+00 1.846377982744963120e+00 1.742563703852352930e+01
-3.365905789158484041e+00 2.493029929197863925e+00 1.642894008365128045e+01
-5.535935588067659729e+00 -4.616575679731511173e+00 1.640343187272172898e+01
-3.114676834898112201e+00 2.657452759273844833e+00 1.785851004591748037e+01
-8.082020278326897511e+00 1.836774380332615753e+00 1.732240204103578307e+01
-7.041810609830733370e+00 3.545871302808445424e+00 1.655658045901970254e+01
-7.623169099288001682e+00 -3.896424574215128445e+00 1.463763669480330165e+01
-1.308400576082652034e+00 -3.018137455044525019e+00 1.527310981461913642e+01
-8.350022395752594306e+00 1.298873763394813086e+00 1.720283333892534827e+01
-9.286855643789067472e+00 -1.518700586863106938e+00 1.586293913743642392e+01
-8.978871503840096580e+00 1.094548433480295291e+00 1.606965004396003494e+01
-8.898218261783586769e+00 1.696068575527791777e+00 1.574671653033916741e+01
-8.956810261605280488e+00 1.538106777676099046e+00 1.551734718513625566e+01
-2.419349134169140658e+00 1.244851310056605875e+00 1.371115438587625235e+01
-7.394722971719972726e+00 2.486234691936902053e+00 1.766097776523649898e+01
-6.696648552296420753e+00 -2.276481877202973791e-01 1.253700229441820468e+01
-8.793070518722601037e+00 2.018410377980831338e+00 1.515392185272689929e+01
-6.610720082842206580e+00 -1.519205473177705379e+00 1.345521632207149665e+01
-2.363993476367042490e+00 1.935370008567582678e+00 1.700442662183980858e+01
-1.525490326273345687e+00 6.442768189365304377e-01 1.894929012842348115e+01
-9.021565729090756491e+00 3.439998517419473600e-02 1.414452637126713697e+01
-5.069781893248468396e-01 -1.354401755876545099e+00 1.750251408168048428e+01
-8.840814443076947526e+00 1.799142842782760709e+00 1.499093577681620459e+01
-5.197076666445572535e+00 -5.958375620513081117e-01 1.469993806792519209e+01
-7.438672136248329458e+00 3.364181874376816594e+00 1.738490192606283458e+01
-6.729749266996619461e+00 -2.192176155949685956e+00 1.417783573970804056e+01
-1.629464197135584103e+00 -1.957600895513380124e+00 1.876369581718379109e+01
-7.662724559001384605e+00 -2.578550094710458929e+00 1.340592102248603013e+01
-9.337435016012062050e+00 -2.097156999414838019e+00 1.539689960100215060e+01
-7.607041430344408717e+00 1.111530016577626956e+00 1.286871175839833725e+01
-4.321309402654737397e+00 -3.895054163600923935e-01 1.880300041113023823e+01
-1.710910258381240778e+00 -9.579898333291274604e-01 1.894057146164989192e+01
-8.060477370488637661e+00 -7.971968843757633039e-01 1.285934130475031978e+01
-2.149185430378728334e+00 1.864747104990821303e+00 1.835640277831853595e+01
-8.696553795434763146e+00 1.890565238204313436e+00 1.452763297889724114e+01
-2.484405017436447149e+00 -8.727519404848997908e-01 1.906023654355938746e+01
-4.946699454042222222e+00 7.124842718118218343e-02 1.408165444753351281e+01
-7.054612106968299656e+00 -2.424864435554248132e-01 1.249851204613809230e+01
-3.683690250354889617e+00 -3.299123301095059801e+00 1.813420125282361184e+01
-7.102917627312066884e+00 -2.577003101845897426e+00 1.396401381076489301e+01
-1.006465946209599283e+00 -2.944573306022931547e+00 1.822188102585801417e+01
-9.160636581202687978e+00 4.721683252179285084e-01 1.560266574054664446e+01
-3.352459842794418776e+00 -4.211386467290552105e+00 1.774697088623690533e+01
-6.914092110804476832e+00 -4.337069098013146551e-01 1.252756474812145981e+01
-1.816756442025812879e+00 -3.517721198975469754e+00 1.571774085596749515e+01
-6.494927871850014967e+00 -1.563198891626895737e-01 1.262146170276399815e+01
-7.542448558565847172e+00 -4.294146359891928277e+00 1.526751406614160445e+01
-6.284883391299792343e+00 1.592969553871030897e-01 1.258241277115894619e+01
-1.375144032354779666e+00 -1.349137786742070855e+00 1.464771047413226412e+01
-3.699534441763387083e+00 -2.686100425138874925e+00 1.836374658478399269e+01
-8.823009357104734107e+00 1.233630471689569630e+00 1.432273467657767796e+01
-6.035656284085312961e+00 1.749516439327767348e-01 1.275972966640557971e+01
-5.797161775878722167e+00 8.442726410478051946e-02 1.309195276658904916e+01
-9.299727239088234398e+00 -6.690872830873715316e-01 1.532875885814305761e+01
-5.680302784166817887e+00 2.193121629715744092e-03 1.336917069650592893e+01
-2.542722880504922678e+00 -1.746419986773946054e+00 1.545354085289641333e+01
-8.643375068003674500e+00 1.707801914020819378e+00 1.413624896540497744e+01
-9.076943113424952969e+00 -2.797868488414211541e+00 1.430742813616150855e+01
-9.075732427842194028e+00 2.529539422117199621e-01 1.625003301268920453e+01
-5.435788347801288722e+00 -3.648119566154787385e+00 1.768642300796157585e+01
-1.830199824856263646e+00 -3.829561326709003843e+00 1.599287372077393243e+01
-5.461479081116793921e+00 -2.811034645111742947e-01 1.416620790854456757e+01
-8.512365726790278586e+00 -3.146819444056607296e+00 1.387142922914405929e+01
-5.303549825366778769e+00 -3.107283754790746144e-01 1.435265790067353109e+01
-3.221555047347946843e+00 1.312234247243648122e+00 1.278334963264235924e+01
-3.534900891155091873e+00 2.887076441425710627e+00 1.780970063430720884e+01
-4.500883327446324245e+00 3.212739522541561143e+00 1.806650301146601478e+01
-1.986557661654694940e+00 1.327473745412937056e+00 1.590108619247557087e+01
-5.121225021571149227e+00 -1.493538140040526763e-01 1.428634413034114559e+01
-1.757394981835317838e+00 -1.845779479611901586e+00 1.485618435496332168e+01
-7.027626406505880219e-01 -2.182810734889343962e+00 1.516046153905341853e+01
-3.868354452759133366e+00 2.623363782517282417e+00 1.581919609233579038e+01
-6.474776131836703641e+00 -1.475629639720471786e+00 1.387139486501135011e+01
-7.998725645282402041e+00 -1.818962117946791857e+00 1.295805127090618569e+01
-4.919332175934363782e+00 -1.739785570399141612e-01 1.442989977342122287e+01
-3.516062303956731583e+00 -2.122432521314547849e-01 1.475970874157334478e+01
-8.984446413377462193e+00 -3.508103472355558416e+00 1.545050280578061219e+01
-3.293394687484515693e+00 -4.740340279032739801e-01 1.496676276624733859e+01
-3.084039907049018314e+00 -5.015519550516467362e-01 1.493066924482927149e+01
-7.250436488280270986e+00 9.325611719980371195e-01 1.259512262540183158e+01
-5.848283897575480950e+00 -3.469011339543937034e-01 1.369319444858065182e+01
-1.912709258807860246e+00 -2.760746385352593535e+00 1.860080217944422643e+01
-2.894756431794637042e+00 -2.840016740780035853e-01 1.459255870609225170e+01
-7.319301226905460922e+00 -3.955644335029603553e+00 1.672921220559311806e+01
-3.393308333086412887e+00 2.703285302487192787e+00 1.863472817382467994e+01
-3.436002329209302264e+00 -4.031833371389637044e+00 1.783283555851833668e+01
-2.257983444985159238e+00 -6.863119619920903247e-01 1.453675726906361731e+01
-4.410514361826718854e+00 -1.714845778370747809e+00 1.551241311758647257e+01
-3.984028516369117590e+00 -4.212508649761019797e+00 1.598273114510852722e+01
-9.335283268089053621e+00 -1.934350763135908480e+00 1.520500870803300231e+01
-2.045050939274846158e+00 -8.405399673180666831e-01 1.454163902160179944e+01
-4.626507531132342699e+00 3.126002662009665922e+00 1.657144983980201047e+01
-6.155445971196398247e+00 3.527421015283449535e+00 1.691396414586411723e+01
-5.950808127825741423e+00 -2.982864100692657061e+00 1.509628458622895053e+01
-1.189926762500103985e+00 -1.379831804702249975e+00 1.468975183401903095e+01
-8.792543720431378773e+00 2.188278222766755210e-01 1.682189575631240430e+01
-4.783582108503567021e+00 -4.231794365724600659e+00 1.581727135125542461e+01
-3.583728673791726216e+00 -2.079021808649155645e+00 1.580955615176040041e+01
-8.058065958360933756e-01 -2.726678227886381478e+00 1.814334482596227716e+01
-6.950633424151230422e+00 -4.559692025431466789e+00 1.637654543167480981e+01
-1.032452033386790813e+00 -1.011517214503808937e+00 1.464600495064808783e+01
-5.014538907639944476e+00 -3.156812908241326987e+00 1.543604062734950944e+01
-3.629539744002415969e+00 -7.411505931834621030e-01 1.520488532076101151e+01
-8.327779163825763220e+00 2.862935453328169899e+00 1.663362009592929169e+01
-4.651223130400788719e+00 1.805826198280508166e+00 1.254819914012297133e+01
-6.512956080339831200e-01 -7.478257572346622695e-01 1.493864283325094178e+01
-1.356932697378419483e+00 9.514295270754593581e-01 1.810930799040538730e+01
-5.459941843045996279e+00 7.816816166512068342e-01 1.255133921256854634e+01
-9.646235665877005427e-01 -1.906226497150922405e-01 1.852800923874970707e+01
-1.215707473985707221e+00 1.975343539574032636e-01 1.875373311316105074e+01
-8.580086809593904462e+00 -1.656701045879765299e+00 1.325079655609560447e+01
-9.306969460288666340e+00 -7.301339776416848615e-01 1.553777929164161620e+01
-1.375014007831356411e+00 2.241882215359722874e-01 1.887040211766334963e+01
-4.091784878075756637e+00 1.928825625271843647e+00 1.290874526475054651e+01
-2.058672911964228636e+00 -1.335545551292072641e+00 1.478912541479518339e+01
-8.754436475686862451e+00 -1.487328730563136414e+00 1.342339382616113497e+01
-1.942972831343194651e+00 -2.017238179497558015e-01 1.908672056968095276e+01
-2.621339852268413928e+00 -3.991929762949190774e+00 1.798222980730328757e+01
-6.331514204229715670e-01 -1.686629323285584903e+00 1.514034600058660729e+01
-2.335580865456198474e+00 -2.545563207586489796e-01 1.914662687690203668e+01
-2.356415807879680191e+00 -4.682314326490111256e-02 1.916815514178079027e+01
-2.565005735726801461e+00 1.217558997981869062e-01 1.918231354682448497e+01
-5.491252769045253501e+00 -3.479425653339117908e+00 1.774768307993357652e+01
-1.839026233926402520e+00 -3.709164231093831532e+00 1.821049083194430906e+01
-7.672029424979435852e+00 3.838273495056205853e-01 1.772909777412531085e+01
-8.622310260594620246e+00 -3.579881894482790372e-01 1.704516564844541548e+01
-7.542774005464194076e+00 4.111013665462430744e-01 1.780026498983380279e+01
-8.001877136654506728e+00 8.138910211814902596e-01 1.753286266342635358e+01
-2.515901255200461595e+00 6.542875631175215645e-02 1.403423528577053148e+01
-5.430697841342306376e+00 -1.941351526279054163e+00 1.527660463210949970e+01
-8.689623856188564588e+00 6.290974910679871801e-01 1.690619302907810706e+01
-9.308920482562275112e+00 -2.519781631533773769e+00 1.533649505455835893e+01
-8.850515321687783654e+00 4.391164069730029151e-01 1.669089396136448400e+01
-5.550401917111902339e-01 -4.466258555313395995e-01 1.613371875174985703e+01
-4.197727283776456098e+00 3.004941937814298747e+00 1.688662468959737950e+01
-4.674492720359293862e+00 -3.151608416097968934e+00 1.553605127918882900e+01
-9.136667454002811439e+00 4.664069232722862779e-01 1.581825184543905394e+01
-3.768041288161260383e+00 -4.432569825994550072e+00 1.638818545772750568e+01
-9.254590793799074788e+00 -1.403989723806505108e+00 1.467501767076006658e+01
-5.248102035894434358e+00 9.903424823408490951e-02 1.374405343524959378e+01
-9.049998878528317192e+00 1.088793203059477577e+00 1.571031064552947853e+01
-6.688838345164786148e+00 -1.609442336810795737e+00 1.337357010067995233e+01
-4.494551480843417046e+00 2.152528533200511074e+00 1.339934894106055552e+01
-8.993884570499140807e+00 1.319178033700594721e+00 1.576942654775262653e+01
-5.173748042244278977e+00 -1.026119030646424068e+00 1.501536858263006380e+01
-4.996856221827028488e-01 -1.340737279447722585e+00 1.730802851137380216e+01
-9.060456327080093075e+00 1.121295881829693641e+00 1.550471814246518321e+01
-1.428875088131764892e+00 -3.475856537438826166e+00 1.568115887061385294e+01
-4.441037736477306375e+00 -3.749423637555924671e+00 1.782063787215055939e+01
-2.854726126405858544e+00 -3.768205783674945408e+00 1.595012020332890401e+01
-8.897105030172202333e+00 1.592216377021238305e+00 1.496235222285708133e+01
-7.008670839156243559e-01 -4.890603411851746074e-02 1.642961736431113096e+01
-3.262309182430890075e+00 -3.905351443049644544e+00 1.793355989065787881e+01
-9.259501079176871485e+00 -2.844787816516456402e+00 1.474647727407549880e+01
-4.026836578663376187e+00 -1.533564378167358910e+00 1.865708124404192247e+01
-5.560988621924072284e+00 2.834998458917934894e+00 1.507135218829918344e+01
-2.176042661291818447e+00 -2.010049560386482526e+00 1.881669673121396258e+01
-8.619642631875027661e+00 1.796152250631273040e+00 1.421549274302144639e+01
-7.309716297501464233e+00 -2.908317178395583014e-01 1.256701736714105166e+01
-2.052260463848975647e+00 1.018902620944474702e+00 1.411655987767370490e+01
-5.305733320813842191e+00 8.196664971495397634e-01 1.257214054428817818e+01
-5.884082658034664348e+00 -5.306518020518113943e-02 1.314949077955634138e+01
-7.558756253500119371e+00 2.071017156635100775e+00 1.764528151747728302e+01
-5.506143634383325214e+00 -4.618889426232644091e-01 1.434052787471945223e+01
-2.982213307560369842e+00 -4.409599096920551631e+00 1.765868389475154387e+01
-7.944124982294787252e+00 -2.227298678263395004e+00 1.314292824523441894e+01
-2.022531514160623267e+00 1.686175580829076370e+00 1.855695073623465063e+01
-5.135210462506808682e+00 -4.487359929844751960e-01 1.459768229498338954e+01
-9.101058644323082092e+00 4.880849532306246186e-01 1.470723472119230379e+01
-9.123248001607983326e+00 -2.572411021601940462e+00 1.593841651222916411e+01
-4.889946949254431630e+00 -2.764418142355973274e-01 1.455121465706752915e+01
-5.055670172958656394e+00 -2.011362219393977746e+00 1.832473938097800570e+01
-5.965805683506698820e+00 -2.204837255637589699e+00 1.502682650869940417e+01
-4.713529875923462953e+00 -4.572922370845189377e-01 1.475206838604977477e+01
-4.097733631315170655e+00 -3.439415634002149780e-01 1.481285773787973525e+01
-3.392516584230293120e+00 -2.331389940392456062e+00 1.854266673479915184e+01
-9.016229688104722584e+00 1.978544590049300389e-01 1.420322563227957957e+01
-3.679721435610683766e+00 -4.262780219094910450e-01 1.494795487806419843e+01
-6.221517174900800917e+00 3.435391748975318293e+00 1.651688497883067086e+01
-1.647152157760094271e+00 -1.368789871225020160e+00 1.886025831685576648e+01
-7.675388603462308446e+00 1.819887324468412393e+00 1.761525537861881574e+01
-3.707263390186333663e+00 2.588066481391234852e+00 1.604693445486022441e+01
-4.791373640307660331e+00 1.192028017084821867e+00 1.235642930364240399e+01
-8.303533817100074543e+00 -3.200438557617189872e+00 1.385180895196677753e+01
-8.164967888516990513e+00 -4.215167230199805992e+00 1.597239991235000289e+01
-8.826011353127057646e+00 1.920553589114710968e+00 1.573508260982895379e+01
-3.078198466505183362e+00 -7.498065325517528912e-01 1.515086759965427277e+01
-6.735452033105514325e+00 -9.389865252402440632e-01 1.801540439835775587e+01
-4.911480453211363617e+00 -4.718231869247873078e-01 1.471482741504085467e+01
-3.382031507040999863e+00 1.108592127450707787e+00 1.293568170089262637e+01
-2.909488164525824594e+00 -5.731081588237159075e-01 1.490743788213814369e+01
-7.971483690272035183e+00 -3.901090533889779444e+00 1.638052742296667574e+01
-3.585653166046388840e+00 -2.126026476310386215e+00 1.856739259767230621e+01
-2.745581254547878824e+00 -4.769286722357306552e-01 1.468524724290110939e+01
-1.652303752929910274e+00 -3.339312807784408754e+00 1.836839838446919160e+01
-5.782716733211096027e+00 -4.618105871850349153e+00 1.636329740491198592e+01
-8.341870042075241187e+00 -3.436785619995564645e+00 1.638894101111862156e+01
-3.283319183257944918e+00 -2.875199623587000097e+00 1.587601022551971042e+01
-8.288563040000228810e+00 1.552675126495546287e+00 1.354840705494202879e+01
-1.774302689327153848e+00 -1.120276576893348697e+00 1.459501507675664911e+01
-8.315558853731243261e+00 -1.160566647094092296e+00 1.718209185038072562e+01
-2.121486308344364247e+00 4.367830673244501583e-01 1.915966691444090841e+01
-1.348833040187558785e+00 -1.789466408232624151e+00 1.478942060578819806e+01
-6.327100844837957538e+00 -1.424704273835851520e+00 1.427539336477549270e+01
-6.760513940091599672e+00 -1.055438954865310475e+00 1.286538551178188428e+01
-6.234287839823049460e+00 3.272446937217991625e+00 1.596587816254119829e+01
-5.388645045347993934e-01 -5.855403045681599750e-01 1.815124168185609577e+01
-5.653028003233518284e+00 -5.401758287321625218e-01 1.427913914977090215e+01
-6.514471427896812994e-01 -4.466117031264253967e-01 1.825418897886608605e+01
-8.280549614569212125e+00 -3.866132819288101707e-01 1.730823834219897961e+01
-8.385020334570515432e-01 -5.144981140168773948e-01 1.840712807240000259e+01
-4.633625407729356382e+00 -1.316145932247958061e+00 1.530269464294422121e+01
-6.073830770178772376e+00 -2.195026220159735253e+00 1.495059128416062677e+01
-1.180386389257859658e+00 -1.855149804342541842e-01 1.873659175841639168e+01
-1.342874002252602672e+00 -1.640608931147351512e-01 1.885621537859492136e+01
-1.534062856152390131e+00 -1.713614659678737162e-01 1.896028597631787349e+01
-2.129162025489758747e+00 -6.401661172066122063e-01 1.907789363384147308e+01
-5.640356565283027201e+00 -1.719267114607207603e+00 1.511489378335809519e+01
-4.642133267327922530e-01 -1.683604312291838045e+00 1.554202961949230044e+01
-7.105125559872907282e+00 -1.357675091768219211e+00 1.776901949771590594e+01
-2.486224777631992566e+00 -6.817864167978098244e-01 1.909313850334571683e+01
-4.561916182128343600e+00 6.978904591908308142e-02 1.427270607205936770e+01
-9.013116671297090932e+00 2.391768831363447756e-01 1.641559239271056825e+01
-7.359046534110879279e+00 2.567513939213370566e-01 1.789004508469991706e+01
-8.881493485027579737e+00 -3.888354844434781299e+00 1.503569423300193719e+01
-7.564040896852220364e+00 2.123450478517068252e-01 1.777809837916506908e+01
-6.744059561861546648e+00 -1.542554957678728744e+00 1.320734208831430223e+01
-8.127986682289243703e+00 2.759780337104324133e+00 1.528016495749853121e+01
-8.252190604642439808e+00 1.013889754105077534e+00 1.732757585337713024e+01
-3.782330259111937210e+00 -3.716085428012608105e+00 1.578485564884466541e+01
-2.393589935804333546e+00 -1.984072803324085754e+00 1.540161766534548704e+01
-8.175267567477737529e+00 4.471586092797252832e-01 1.742621506548011823e+01
-6.243046341647924713e+00 1.634977765639972880e+00 1.231957381237144133e+01
-5.974844774389342916e+00 5.218621163056793577e-01 1.253300677105336902e+01
-5.504446905251412225e+00 -9.013037541672819231e-02 1.377540528611735837e+01
-8.399529678755207840e+00 3.404729323310817790e-02 1.724483906661057020e+01
-8.709158648143979775e+00 3.495192909346434007e-02 1.694950016513827862e+01
-9.313597473425112128e+00 -2.670083555886192173e+00 1.497344663665066022e+01
-5.640134433447900442e+00 3.218302894459005081e+00 1.812317637821696437e+01
-4.401354091675601765e+00 1.836604759947046972e-02 1.882166550488672030e+01
-8.968970604332568541e+00 -1.718800301659668683e-01 1.661073980144567130e+01
-6.207847088626968102e+00 -2.348269938981082383e+00 1.787770433802237946e+01
-4.701481462536215794e+00 1.832069045726260503e+00 1.866619515274105723e+01
-7.889618896743881393e+00 -2.931234932269561888e+00 1.366185751188300301e+01
-8.671418949932736098e+00 -3.107409067653703616e+00 1.394029804539770012e+01
-9.073353829144537031e+00 -1.737367201789630222e-01 1.641895435055844743e+01
-6.779175485357053610e+00 -2.342473294204079792e+00 1.422785738979258596e+01
-7.232596914578112823e+00 3.208081252036704800e+00 1.553945439603331025e+01
-9.173510109768134413e+00 9.164894723475325300e-02 1.600549308944859561e+01
-3.102770017721016238e+00 -3.441889408265028649e-01 1.477175267954619997e+01
-9.107488961905339409e+00 7.728024328895706230e-01 1.565666740415671754e+01
-3.166620059552542887e+00 -4.529662802874553584e+00 1.751716968502970317e+01
-3.536754452470658894e+00 6.208296243911808343e-01 1.364909957495414616e+01
-7.223164104930088314e+00 -1.086484982984910364e+00 1.265910374398789529e+01
-2.340039369921202539e+00 1.768315846109820288e+00 1.638345550206556922e+01
-9.130107056876767047e+00 7.237271418534110268e-01 1.544288376423597597e+01
-8.886939724095462623e+00 1.400969345442295122e+00 1.471849921748009038e+01
-6.600220625854287704e+00 -1.073632420505728824e+00 1.304273484475579536e+01
-4.755946543687928241e+00 -4.609448582057058097e+00 1.657545907617858560e+01
-2.469851442162362076e+00 1.207063290991946536e+00 1.352049630713286987e+01
-8.822327444946740371e+00 1.444661441127583323e+00 1.451653804746056764e+01
-5.223309091126962400e+00 -1.136468627259024089e+00 1.505366175865163214e+01
-2.570089507541013507e+00 1.049837061380248127e+00 1.324252624178167892e+01
-6.070554989968584003e+00 -6.596866955900604346e-01 1.373858843441466249e+01
-8.403109648856503355e+00 -4.064530809385471954e+00 1.479647189938490115e+01
-5.869983418147186605e+00 -5.207413762308794603e-01 1.394134795136926286e+01
-5.788593064114767373e+00 -5.230649031317748943e-01 1.408412122891052931e+01
-8.786079509630013717e+00 -1.991496443856155985e+00 1.663186240348309397e+01
-5.642948262911523294e+00 1.588338807921280793e+00 1.205091547086813009e+01
-5.706862651918195084e+00 -6.639273292059071352e-01 1.435001633051946257e+01
-6.271000142590104076e+00 1.828844896739203918e+00 1.273518158770309938e+01
-8.520763039344618761e+00 -3.605276584926775385e+00 1.614698437756556970e+01
-8.732023358880486086e+00 -3.779056506891575573e+00 1.575467785384215702e+01
-5.639724881985309857e+00 -9.607147871344690060e-01 1.469958325610045691e+01
-6.284989395557925462e+00 -2.061116215773162175e-01 1.281672762245515074e+01
-1.236521984959953802e+00 8.172377145401164000e-01 1.728122366649381902e+01
-6.802410347579790351e-01 -1.772082088662711996e-01 1.760403104243462380e+01
-6.504734777917246191e+00 2.064814650032019472e+00 1.811902178407583008e+01
-6.532668003480736729e+00 -4.572758020266026513e+00 1.658889834580127243e+01
-4.442790470576667872e+00 -8.493512680174775120e-01 1.508255756098313682e+01
-8.419635659308511322e+00 -2.258918802490327060e+00 1.329770278866979893e+01
-3.361580557338871511e+00 2.052515210104199461e+00 1.422123421705267177e+01
-4.256839683236215421e+00 -8.588049524153973380e-01 1.513206601914135163e+01
-3.879142079812842425e+00 2.746041237768655829e+00 1.640098777272164554e+01
-3.512905230749563401e+00 -6.380745207962492671e-01 1.513526586518944228e+01
-7.350968089465715671e+00 -2.151905808576010770e+00 1.313923473086920879e+01
-6.861641917739333074e+00 1.463016910182830310e+00 1.805913437795379295e+01
-3.432476082364556369e+00 -9.741883908905579759e-01 1.538238026787628954e+01
-5.746982777844319656e+00 1.293847677348942682e-01 1.846126244567478736e+01
-3.023569777612129528e+00 -9.717600206755161452e-01 1.530318022596733485e+01
-1.894274194790267041e+00 1.368899945018348330e+00 1.655307724129578517e+01
-6.703355057618668233e+00 -3.435216604396966744e-01 1.811056058760369680e+01
-2.874775499765067632e+00 -8.062635465921448308e-01 1.509977064670666280e+01
-3.024519700105402276e+00 3.130116805916587364e-01 1.913742354765451026e+01
-1.375752321789896815e+00 4.340635938149797202e-01 1.444981774892285031e+01
-8.890693000586239236e+00 8.651150867574239900e-01 1.424483057007124032e+01
-3.779581668125041372e+00 2.365513584654270751e+00 1.485911546562851626e+01
-2.690096062591154968e+00 -7.637727729637004970e-01 1.491923286340641042e+01
-5.762247191722898343e+00 -2.023040142358083493e-01 1.358956006988508491e+01
-5.024560193922004814e+00 -9.799630228792866049e-01 1.502403990089404928e+01
-8.743277492857089328e+00 -3.848738110837482296e+00 1.565978771183802465e+01
-2.793903698332796726e+00 -4.055601694367910959e+00 1.792235793268634225e+01
-7.469033214402409637e-01 -1.742651426825769789e-02 1.560179304443840564e+01
-1.932753011377449370e+00 -1.377059086904997454e+00 1.474892064949228754e+01
-4.082159947999990379e+00 -9.628570010550059344e-01 1.876506039990119135e+01
-1.816619182776806340e+00 -1.273817320739444092e+00 1.466957862361889298e+01
-6.012018407549339472e+00 -1.350001479142288296e+00 1.465046562024835097e+01
-2.597697513198117036e+00 -4.462242651535500926e+00 1.767707806572667906e+01
-8.501176814801070236e+00 -3.881707828209163047e+00 1.454898986025888163e+01
-1.793968662046221851e+00 -1.638965849179127243e+00 1.479701296319824522e+01
-1.559698892684196814e+00 -1.548635714579688294e+00 1.472161571404213376e+01
-9.259532571503783061e+00 -1.191619450902416943e-01 1.556634134993326413e+01
-8.914689263839456146e+00 7.798601533592610657e-01 1.426391702804309247e+01
-1.290289907980061157e+00 -2.128043681284952804e+00 1.489340348886092968e+01
-8.250334237909970891e-01 -1.355740600686213160e+00 1.487719850719357240e+01
-8.075637559742762761e+00 1.010319109894244782e+00 1.318992042369088225e+01
-7.470801506858787411e-01 -1.760183257658835654e+00 1.503560860295700863e+01
-3.966684260180540544e+00 -2.018204923192251421e+00 1.571515906948792107e+01
-5.438977321858826652e-01 -8.332995133263656484e-01 1.807996148070590792e+01
-1.649191894043012363e+00 9.272249650561577017e-01 1.551690739326957313e+01
-2.540043388037574346e+00 -1.488738099049783159e+00 1.533946951559911653e+01
-6.606458438757434326e-01 -1.034106855824444171e+00 1.824633088075234255e+01
-7.255347751839401615e-01 -8.596921905427419297e-01 1.830227547737703375e+01
-1.306109090058842570e+00 -5.672301166439122078e-01 1.880008552184980530e+01
-1.302547481017571451e+00 -3.842127212469317321e-01 1.882169332247752536e+01
-7.433152549008708476e+00 -3.477496514404982086e+00 1.429541925439948002e+01
-3.185415504482217219e+00 2.315677000677245800e+00 1.603409143873654230e+01
-1.865927915160368267e+00 -8.212900455708571634e-01 1.900355609105986687e+01
-7.473247202489530672e+00 1.863397379589537550e+00 1.771971982588702232e+01
-2.078749942655444549e+00 -1.015799646857134864e+00 1.901369238695104613e+01
-8.193719765167623237e+00 1.381142878674619823e+00 1.339378108797599154e+01
-7.518209756613376094e+00 -3.089760603349320789e+00 1.706103229675926869e+01
-1.363652323997344595e+00 -1.365624676893432365e+00 1.873956039722090239e+01
-8.163332752163285022e+00 -2.014634471250715819e-01 1.739793791987856864e+01
-6.229673818121461260e+00 -6.452683667845091620e-01 1.333658410405750416e+01
-8.602585496917882324e+00 -2.006762842250076062e-01 1.707446440137097809e+01
-8.720195583479750212e+00 -3.821214339114544778e-01 1.694597359094798961e+01
-2.262390200395151041e+00 -5.442779108644053565e-01 1.443046080291177091e+01
-4.877599932584309350e+00 -2.977492950101991553e+00 1.548577334389949200e+01
-2.776749032575561937e+00 2.431184564507896440e+00 1.864475567244965859e+01
-4.715472425126215339e-01 -1.969665624132246329e+00 1.687485580867949508e+01
-5.474682804327497543e+00 2.033386425467553771e+00 1.297611388416587985e+01
-2.055013496186194999e+00 1.445252975211391622e+00 1.614353303213424695e+01
-9.042408971270109674e+00 -5.843169663187577356e-01 1.652020837186417523e+01
-7.519814606493557818e-01 -2.779593119772041376e-01 1.463472857952848116e+01
-4.505072636503975603e-01 -2.416264750906660375e+00 1.559370299554613482e+01
-9.120828937236016287e+00 -3.952500603496917897e-01 1.637134868097705365e+01
-8.779876648909500148e+00 1.865841470621903753e+00 1.472984798938385964e+01
-9.187241068510246578e+00 -3.431867218352935289e-01 1.619581871627148573e+01
-9.163974758765430551e+00 -1.745081674464898924e-01 1.619903873559143292e+01
-8.736163243828112712e+00 -2.023659009728098646e+00 1.349311903473190100e+01
