-5.705164907986228329e+00 2.557964155453631871e+00 1.390730819924503692e+01
-7.412297268478637235e+00 -2.599214804154045932e+00 1.658274978008898515e+01
-5.241932920538403984e+00 8.674157833776712234e-01 1.861748242843931322e+01
-5.961768117567397773e+00 -2.734580935463329254e+00 1.562521022705595541e+01
-7.583697907639798785e+00 -2.184100322012668016e+00 1.640738717488607179e+01
-7.724993405512590172e+00 -1.987309560013127641e+00 1.601916728071612894e+01
-6.182448810752417145e+00 1.641130570721139215e+00 1.318940699590458721e+01
-3.295926033819076562e+00 -3.191777492991209719e+00 1.955783526991063681e+01
-3.300387585258266032e+00 6.439330531428149040e-01 1.456657713894855632e+01
-7.761555510086149745e+00 -1.790038656469830736e+00 1.581237864635831514e+01
-4.620326362761222327e+00 -2.718872027859152052e+00 1.691645920175335149e+01
-5.434193190693432207e+00 5.715956458116118188e-01 1.312007314745763509e+01
-7.552245036390860200e+00 -1.747755886059089603e+00 1.651372785688122136e+01
-7.748524785345259680e+00 -5.657163325744989368e-01 1.521696466498661593e+01
-3.075295995656686099e+00 -3.768756549891257857e-01 1.662219784086623164e+01
-7.260347694282051734e+00 8.128916880419212454e-02 1.443998486845836382e+01
-4.680967592259783316e+00 -4.012355882093214809e-01 1.491041551974719326e+01
-7.143505681500662341e+00 7.366321431729472291e-02 1.430449662075475104e+01
-7.215312733789251531e+00 2.941728161018845600e-01 1.434104207626904426e+01
-2.030688013007896142e+00 9.213846532699503378e-01 1.553696327655556431e+01
-2.526981723291677362e+00 4.341085627275202419e-01 1.579127348751801563e+01
-7.220025728308645974e+00 6.767591526825695869e-01 1.431138349670162668e+01
-4.922998721892217766e+00 -2.372852049126567664e+00 1.868841220153730731e+01
-6.194962030566298239e+00 1.113256256910986064e+00 1.311289727097231861e+01
-1.919422302913174283e+00 -1.683096182291537568e+00 2.004825582747631429e+01
-4.635274265093990209e+00 -1.515765424383449078e+00 1.627026154840136130e+01
-1.417755136578100039e+00 -5.027660335062150709e-02 1.757434820511030082e+01
-5.407716115552825720e+00 8.332776181364196511e-01 1.297913514308201854e+01
-5.212311828454682328e+00 1.131038479320396695e+00 1.283041824100973471e+01
-7.570239937045646350e+00 1.254306386252518557e+00 1.568438951887190669e+01
-4.190311353396327654e+00 -7.320700137131030960e-01 1.604866111778892801e+01
-4.981190138386694777e+00 7.254460449741102490e-01 1.309345442217405875e+01
-4.053746969932770838e+00 6.198546644647517923e-01 1.376222653097816107e+01
-5.858053951302453655e+00 4.312855856300520152e+00 1.700143827432639299e+01
-3.257866524664086327e+00 9.765609447497189954e-01 1.392020083046585555e+01
-3.309698850028536032e+00 1.044465734866300455e+00 1.372972486725939945e+01
-7.673895811179715309e+00 -2.393432982957000021e+00 1.602040946716914149e+01
-2.454203005175798147e+00 1.408882129088226742e+00 1.412234228886046949e+01
-2.267380377006782410e+00 1.595787305112822851e+00 1.926498621175119652e+01
-1.433708332090758875e+00 -1.893921812421108575e+00 1.872115250712566237e+01
-1.931954597795420003e+00 -1.098163036620643629e+00 1.990213542501141930e+01
-5.976012904304177198e+00 7.732429348662357427e-01 1.312254931489011867e+01
-3.903687858982486603e+00 3.004626057163989561e+00 1.455406291591294732e+01
-2.888611653953188085e+00 -2.522501090032420734e+00 2.004923590688440882e+01
-5.719298415367351396e+00 3.045391081637422115e+00 1.766691685377917409e+01
-3.577863813953809480e+00 2.281770389746197836e+00 1.935830881300691786e+01
-3.057143370408024641e+00 -2.734426308471817890e+00 1.990086340249571251e+01
-6.259800240962620776e+00 -2.480842487550439568e+00 1.510576489963198199e+01
-2.796898975422858147e+00 -8.449959799984261277e-01 1.728706861197330724e+01
-5.761363198960611776e+00 -3.164103203151472421e+00 1.800481699528830504e+01
-7.742796735485228510e+00 -1.546052446607479425e+00 1.612787543990411976e+01
-7.088847652445265268e+00 1.428670836967235402e+00 1.666510790807537390e+01
-6.462266208359497277e+00 -3.169451553379271314e+00 1.746068067190666895e+01
-6.997771372021154512e+00 -2.977379685106932961e+00 1.702919600190130822e+01
-7.210665541739564866e+00 -2.790659379257678818e+00 1.680880842935008346e+01
-7.649337292336759297e+00 -2.367905910650272450e+00 1.617914624352546937e+01
-7.330736072432963546e+00 -1.997686743038320945e+00 1.480683713959804848e+01
-7.710053705882909725e+00 -2.160978935603283357e+00 1.599324016614538024e+01
-7.707530420122523651e+00 -2.173717717918699499e+00 1.580009556528239401e+01
-7.735226966910476953e+00 -1.955983454130145072e+00 1.562668476154275865e+01
-2.831800661838112632e+00 3.298943684678826482e+00 1.855663256687489238e+01
-7.773117439321643118e+00 -1.602664456598630993e+00 1.561321318803603830e+01
-1.901840719264120017e+00 -2.469753989193363086e+00 1.893784578448115141e+01
-7.793906051366917609e+00 -1.358776019461204410e+00 1.558859772744808581e+01
-7.738478908106738885e+00 -1.544731155006181744e+00 1.540513053896652096e+01
-5.663227063347537893e+00 2.720689501341670979e+00 1.782033054856302456e+01
-7.548694208064300248e+00 -9.450240445527660071e-01 1.483840863440326174e+01
-4.536183133779232435e+00 -1.546545838527961125e+00 1.638441693890228024e+01
-7.675741876428162414e+00 -5.802420150164120383e-01 1.504645911062941721e+01
-7.408242773614242438e+00 -5.174360459710742877e-01 1.463166243209794359e+01
-7.390465863761402687e+00 -3.401834726594159530e-01 1.459308154167144167e+01
-7.201373488395796940e+00 -1.297528602598927994e-01 1.440243076975235326e+01
-7.022436587763697169e+00 -1.331158126187056145e-01 1.426636919087588140e+01
-6.143960261124750133e+00 9.502248441911755883e-01 1.312807093812181591e+01
-5.433750626245457127e+00 9.920566171128950561e-01 1.289186376681730906e+01
-7.721637855191429978e+00 2.219462839978758595e-02 1.524499995766850091e+01
-5.230901709692389545e+00 5.739614047107841621e-01 1.314626356078778358e+01
-6.400011471239394290e+00 -3.219759985647511868e+00 1.600288989360256053e+01
-5.191628811924843490e+00 3.545326958531349049e-01 1.330426626655143707e+01
-2.522696536746209084e+00 -7.149618851669305997e-01 2.009443305831495863e+01
-4.771730924282575614e+00 -9.205350503451330546e-01 1.565773141490567255e+01
-5.204819212438710707e+00 4.036859018779731301e+00 1.619473962960145386e+01
-4.436190655113266601e+00 6.206888734802948893e-01 1.340138352680742884e+01
-2.586633145327519756e+00 1.886113332545287458e+00 1.369576503665404843e+01
-6.910907372287422135e+00 -1.943155216179820677e+00 1.449181631883747556e+01
-2.926813172466760982e+00 2.778875265320464472e+00 1.519000209167544213e+01
-4.414256102407386528e+00 5.400661580287855479e-01 1.354509467996805583e+01
-4.848660232245342705e+00 -6.239377554646550195e-01 1.508774574446809069e+01
-1.446442836715908342e+00 1.182860964396663217e+00 1.846144006683275407e+01
-4.804863608000150776e+00 -1.780211446665883601e+00 1.879671901882577956e+01
-4.045229578165283613e+00 5.515657374599916007e-01 1.391008566513590239e+01
-3.628358008955121061e+00 5.755700568545447648e-01 1.435601189154753499e+01
-1.579643888725621004e+00 -6.978439352740430923e-01 1.947526863048364376e+01
-2.269686167399515675e+00 1.598274014656386077e+00 1.415656524393287796e+01
-1.749420746885123057e+00 -2.188819189475594396e+00 1.877300152936905064e+01
-6.183586897111383429e+00 -1.552778056905938842e+00 1.777361795709781589e+01
-3.749448059236430097e+00 3.950542220273395078e+00 1.677931027676780573e+01
-4.800068723352863387e+00 -3.459921943866997029e+00 1.748677125462561932e+01
-1.632233293964408194e+00 -2.269183518455262671e+00 1.894464146325627141e+01
-2.262619951511414484e+00 -1.883491316418775541e-01 1.700041254093565968e+01
-3.077992893298644894e+00 -6.535863144649916023e-01 1.689993618682676768e+01
-5.756006382772134167e+00 -3.343469130452878524e+00 1.794583708698053570e+01
-3.838855901173570562e+00 -1.486236834266293494e+00 1.688125071031807423e+01
-6.215869236812798349e+00 -3.361977279660730566e+00 1.759612287703263789e+01
-7.001589633879778063e+00 -3.164194446208461908e+00 1.697211579740792686e+01
-7.403932646883317759e+00 -3.017362423606036792e+00 1.640017341114705474e+01
-2.431918242834555155e+00 -3.035150061174544778e+00 1.950292225027828508e+01
-5.201830384060086132e+00 -6.993059161060588558e-01 1.444776409785685800e+01
-7.557452681985868281e+00 -2.763008072120624270e+00 1.616482992611282654e+01
-7.623939772604434673e+00 -2.573591612220580416e+00 1.577823965452403243e+01
-7.677523036813353130e+00 -2.242573838434702260e+00 1.559361799930229964e+01
-4.391501635749001764e+00 3.463519045808458596e+00 1.525439595707934259e+01
-4.423675733037486069e+00 -3.433495503658587911e+00 1.766294248862373095e+01
-7.710070513299760009e+00 -1.893521404255013696e+00 1.542290286094071305e+01
-7.641307155650685523e+00 -1.776148260354203146e+00 1.519924074618486642e+01
-7.608783544254436038e+00 -2.580091098845764819e+00 1.614264440428119585e+01
-6.449955476860772308e+00 2.433921968817152615e-01 1.758118342868379713e+01
-7.565860983525565686e+00 -1.571819992692175649e+00 1.500086400464066472e+01
-1.533604362038748281e+00 3.560702111843147555e-01 1.716917279145682684e+01
-7.599341986736898313e+00 -1.327937030414869879e+00 1.500684363413063593e+01
-7.523430843678286628e+00 -1.401596899744598890e+00 1.488721492340015473e+01
-7.487616428478119701e+00 1.639456530557322989e+00 1.572355580225809391e+01
-6.041889710621439313e+00 2.458264934876380092e+00 1.396143295742547608e+01
-7.402783832734327163e+00 -9.387900354197391550e-01 1.466346212444885211e+01
-1.612523989889463216e+00 -2.516455155829745660e+00 1.929967892408276597e+01
-7.277188707543416513e+00 -9.101943492021433713e-01 1.458145614981697591e+01
-4.520717954158978813e+00 -3.451498958654125371e+00 1.854875339381970534e+01
-2.876185132312445880e+00 -4.611208920495684649e-01 1.690225897669486343e+01
-1.747810969409175019e+00 1.953272264535347302e+00 1.738931029454871791e+01
-5.626749856109436898e+00 9.760794920980433442e-01 1.286967439711956729e+01
-5.848707378006380075e+00 -2.586113905241541389e+00 1.797135894184766514e+01
-7.684400603641766914e+00 -1.332202898242929257e+00 1.518937207583484295e+01
-5.593205831356299562e+00 7.230544619227032843e-01 1.303198471697807292e+01
-5.400494335258606782e+00 3.299809044355437870e-01 1.328945064865857262e+01
-5.548875645442556070e+00 8.105938060332902317e-01 1.837009968996023090e+01
-7.290783911595464239e+00 1.099680102122696512e+00 1.442180765482314442e+01
-7.511754730985555462e+00 -4.994699319070405874e-01 1.651274632842038059e+01
-5.033669240144694079e+00 1.935009488747000406e-01 1.347587981122260459e+01
-6.914293170590605442e+00 -1.721913200918579578e+00 1.448309819059809556e+01
-4.817118817497717309e+00 3.369005345785198169e-01 1.347226178797328444e+01
-4.614227285568769155e+00 3.351473525881072946e-01 1.365340256809422925e+01
-4.621205797423126427e+00 1.559004579832100057e-01 1.390300040059785047e+01
-5.189006833482930681e+00 4.531295507177360626e+00 1.714921613830057012e+01
-4.425788317206409417e+00 1.829749274292147287e-01 1.414245104142532128e+01
-5.883398518775936559e+00 -1.566222791184276319e+00 1.801446420475550880e+01
-6.975218127040303528e+00 6.828835156886767788e-01 1.410544046744623259e+01
-4.230621922919119982e+00 -2.624663008776520368e+00 1.711934026724446412e+01
-4.175455611153511271e+00 2.907353421221172685e-01 1.428871553614287038e+01
-6.036073148294391011e+00 2.864089991569433113e+00 1.740567448884427293e+01
-3.447190316565377000e+00 5.125488946150431602e-01 1.467582592950703813e+01
-5.144802324867007393e+00 6.530058291387981217e-01 1.868886416523355720e+01
-5.442349044321717066e+00 -1.305469325498422872e+00 1.507639824985180255e+01
-3.032925382217809496e+00 -2.663234381993929034e+00 1.809803274026524988e+01
-5.521616366416358446e+00 -2.207289406609326932e+00 1.580351264549871715e+01
-2.864541954787827915e+00 7.918461248320407542e-01 1.475840579355199722e+01
-5.298054276262510243e+00 2.437929900456156318e+00 1.825779717734072349e+01
-2.479268007273596197e+00 9.291782377411603733e-01 1.493326386544485374e+01
-4.452490912624357478e+00 -2.935116086930484425e+00 1.897274164976235866e+01
-2.065544291107800134e+00 1.188177639163382482e+00 1.495583850380215907e+01
-5.558003199084389223e+00 3.990781891184833174e+00 1.753264266512259795e+01
-1.927832552898834706e+00 1.409139523061810895e+00 1.483088987764211808e+01
-2.433012172184630728e+00 2.259254209178183981e+00 1.496340466418997650e+01
-4.807499748412262797e+00 3.253714398020407739e+00 1.840056752855180733e+01
-3.658436551934219683e+00 -6.729331929247793498e-02 1.549129886662927547e+01
-3.964687737835746351e+00 3.967715461004449384e+00 1.658670011328917226e+01
-4.424863820761174793e+00 2.187338720562442163e+00 1.296608029049200184e+01
-2.014562488392657613e+00 1.420994790782944106e+00 1.476756335225087113e+01
-1.864353321918446493e+00 1.433022663669077268e+00 1.497795772590992058e+01
-6.770336590132532528e+00 1.291857112261393103e+00 1.377651147958776789e+01
-7.246446466510948703e+00 2.207290822810136000e+00 1.606658894200129950e+01
-2.034148920173901143e+00 -2.304320523338472704e+00 1.869631360119233321e+01
-6.677744100661517024e+00 1.304402749093491076e+00 1.366898134461396452e+01
-7.714829090135848944e+00 -1.824165345146796735e+00 1.614750244453451344e+01
-2.891285693064337803e+00 -3.238122856494781932e+00 1.919346581210043823e+01
-7.507757853732210940e+00 -2.918184936827584952e+00 1.581474507708274402e+01
-2.980981453260438396e+00 3.951100333211525761e+00 1.800435622194295959e+01
-7.611196063286624458e+00 -2.377728409895884631e+00 1.540602239277846408e+01
-4.696651772367367528e+00 2.940448128357626700e+00 1.414863351940476477e+01
-2.296401526349753031e+00 -2.666826232852624212e+00 1.878436999874655911e+01
-4.317119479950198624e+00 -1.182545204500792035e+00 1.916453355051966057e+01
-3.590424108591645069e+00 -3.627155890473188204e-01 1.604971913837492892e+01
-7.662584309104021330e+00 -2.149684176329269114e+00 1.541491649627577587e+01
-7.475555230081218916e+00 -1.837743075848444541e+00 1.493697498251104960e+01
-4.403102742362528410e+00 -3.159660734378137992e+00 1.896262036184876720e+01
-7.548345941332019748e+00 -1.767900278425662552e+00 1.502446902135220697e+01
-4.569152375725861859e+00 3.072969572108861236e+00 1.863181781788680880e+01
-1.355149402810177595e+00 -4.217073400622582957e-01 1.781665087673325942e+01
-7.211102802483519092e+00 -1.341273508177533547e+00 1.459862352993689782e+01
-7.017483396758859016e+00 -9.403970972748485480e-01 1.440947589532204987e+01
-3.315969809304964322e+00 -7.432191769280316329e-01 1.987643285852739083e+01
-4.989176022168955171e+00 4.478623957401950406e+00 1.715540367564774371e+01
-3.485764058164370738e+00 -2.555316091878169882e+00 1.964069337185494035e+01
-7.358419233813626725e+00 6.571483008891285671e-01 1.450786372398593116e+01
-3.813102009963867278e+00 8.661483156375138215e-02 1.508584952621292175e+01
-1.764269323266105527e+00 1.398570371421316461e+00 1.522754323683661326e+01
-4.534926718720894812e+00 -3.370684557692639194e-01 1.500778703222425392e+01
-5.605118366641765881e+00 5.763070509315217915e-01 1.311551355393713791e+01
-5.254049102404750649e+00 -7.154113955162966221e-03 1.351881054929237180e+01
-4.816415344356856920e+00 1.381048234241061268e-01 1.369832615955481003e+01
-6.467203830884492355e+00 1.446639567944279392e+00 1.740095674259661607e+01
-1.747500002678770592e+00 6.019546005865710203e-01 1.638712066682576207e+01
-1.839777701903869911e+00 -2.672314988637734423e+00 1.930586692940560667e+01
-2.557336973709134043e+00 2.323621800834718254e+00 1.480539175822199738e+01
-4.921667103231531115e+00 -9.456361699700577272e-02 1.386700104428109270e+01
-6.629883276151038451e+00 -1.978783984409462127e+00 1.739644700162054747e+01
-4.596274252732174048e+00 -2.701057782614135760e-02 1.426494380920896887e+01
-4.254810830536079891e+00 1.173383295287098171e-01 1.451183549414483664e+01
-3.484263194015012388e+00 3.229405665820420435e+00 1.535409431926521151e+01
-7.658897183330402925e+00 -1.787716772608328286e+00 1.630172307335720561e+01
-3.994822094864922235e+00 1.930560573482936748e-01 1.470641299376717015e+01
-3.412067762495593293e+00 -8.417272298501516925e-01 1.677995989310280933e+01
-3.828884403505610656e+00 1.874884166350210268e-01 1.489321150549463013e+01
-3.413711077444545605e+00 3.476917201205480534e+00 1.875369742269122142e+01
-1.154239881013646052e+00 -1.668485116434131443e+00 1.897567737821481515e+01
-7.719702892644862757e+00 -1.362045412853317039e+00 1.528131367917946548e+01
-3.405428633094750523e+00 3.912133318451593400e+00 1.720224378624066119e+01
-4.945704692324328633e+00 -7.720601279073153744e-01 1.875834215465487276e+01
-2.839400023235346460e+00 5.936325287362356207e-01 1.514608946257255084e+01
-3.179275483061708929e+00 -1.910303276312416587e+00 1.763121594987591223e+01
-6.928251698130738490e+00 1.661484018182856071e+00 1.401994692922487573e+01
-2.641351021703004065e+00 7.256087601464331627e-01 1.512605691602187008e+01
-4.823340360093728130e+00 -2.827817198511126118e-02 1.390674425513293500e+01
-5.198204775635265840e+00 1.246667497183205353e-01 1.345797723821157632e+01
-6.362653469361177372e+00 2.644787082600933203e+00 1.713621923076087583e+01
-2.237839828692099076e+00 9.726796633665046876e-01 1.514605795549849532e+01
-2.419204010946463423e+00 -2.966047256483913763e+00 1.906411770375314418e+01
-1.870736548871708482e+00 1.195289444421887781e+00 1.519614842837156132e+01
-1.710703598291786642e+00 1.414082544667932151e+00 1.539518599359728412e+01
-3.776231770392153742e+00 5.422920733087337464e-01 1.962986161604797886e+01
-2.283847990987075249e+00 -1.236814830653905517e+00 1.792276294692039684e+01
-3.378501360528683328e+00 3.702395086206742736e+00 1.679810978208556449e+01
-2.244529623420953524e+00 -1.978495762608193598e+00 1.838181270900176756e+01
-3.331258112781364300e+00 -1.240968789728754018e+00 1.715274666267983505e+01
-4.764193296055987403e+00 -5.315893624984825427e-01 1.504542501053544257e+01
-1.635671553405575684e+00 -7.096377022190711870e-01 1.766542987820400512e+01
-2.257625388344909556e+00 -2.241071935641856694e+00 1.852063506016071770e+01
-4.697061026742839651e+00 2.606799227534406516e+00 1.356067974971612244e+01
-2.069649863743999063e+00 -2.515714714737363966e+00 1.883865381669246730e+01
-3.547227717742098108e+00 3.527995162752730174e+00 1.600709436058805224e+01
-2.876023240717235918e+00 -3.192456043369967578e+00 1.951456438500191481e+01
-2.543965458411816982e+00 1.786711204899085859e+00 1.365155116271014890e+01
-4.432747431774528124e+00 4.628328959731479841e+00 1.761733379800951482e+01
-3.077630362389597085e+00 -3.242945559544808898e+00 1.948281415870908617e+01
-6.900119197995693732e+00 9.346792768308709309e-02 1.715023155124157839e+01
-3.019116535485536268e+00 2.258859966714056089e+00 1.931650033006542699e+01
-6.833465319236013968e+00 3.332951915314663061e-01 1.400876479256912077e+01
-4.494569971839315059e+00 -1.836174573200610172e-01 1.476258121722583994e+01
-4.199938123832652970e+00 -3.430796566963814520e+00 1.845395996236524283e+01
-7.488795752900855085e+00 -2.491909322101375945e+00 1.521817099755740443e+01
-4.601730348799694781e+00 4.437170440418889861e+00 1.720785548610011872e+01
-5.463195482162870320e+00 -1.058103965731261864e+00 1.464945568695199185e+01
-7.168549016228360493e+00 -1.739871722311687074e+00 1.461016898289953403e+01
-5.251805910758691631e+00 -2.152851775172576865e+00 1.845934697159307447e+01
-5.151109651201901229e+00 3.695181362356596999e+00 1.558174600168301893e+01
-7.224662491095505068e+00 -1.553703406959233035e+00 1.462977294076380375e+01
-2.487375348035651079e+00 -2.387482350045858348e-01 1.694097806309514098e+01
-3.258000954710338348e+00 -3.091122972515137679e+00 1.807534056882115081e+01
-5.590185880895160331e+00 4.392781123742315330e+00 1.678317220216310446e+01
-6.983058284480630817e+00 -1.319114166478586814e+00 1.446693338951584806e+01
-7.000469740225729431e+00 -1.134603222711793258e+00 1.444282696519929132e+01
-4.969292843593512643e+00 -3.737364393152957098e-01 1.876535733823207508e+01
-6.238832003705698348e+00 1.507222730934341670e-01 1.354670619543803767e+01
-6.228583168987722019e+00 3.198138738945624504e-01 1.347246320678796394e+01
-6.028809782823137731e+00 5.279349300889222274e-01 1.327531958072875895e+01
-4.463129404858560356e+00 1.687638105138475453e+00 1.260527343927367028e+01
-5.418267160768840185e+00 3.488792148312356289e+00 1.783497925497357883e+01
-4.765973925828134838e+00 1.053465084894219528e+00 1.898324348800775496e+01
-5.629211461347147782e+00 -4.440170919988752907e-01 1.370985376768826569e+01
-5.012036059666897359e+00 -4.998773057731994984e-02 1.371585637661340584e+01
-2.858725352988059409e+00 1.196876018239137585e+00 1.395951791352883120e+01
-5.172577995468245149e+00 -3.261833870905838095e-01 1.384651672190655347e+01
-4.664425984655920843e+00 -2.124050720521464264e-01 1.451601121085314716e+01
-4.251720319616272725e+00 -9.274190645852779802e-02 1.494105337508829834e+01
-4.085338850047651960e+00 1.570739673737203690e-02 1.493894849759528753e+01
-5.955174627061805559e+00 2.588089423871760442e+00 1.406670891852931149e+01
-3.368587234205815850e+00 2.111911647144995463e+00 1.943223971042721487e+01
-3.974612662225646353e+00 2.038885396187615218e+00 1.936144709661126839e+01
-1.506064856875219293e+00 1.120809483586452160e+00 1.860218022721484843e+01
-3.839955164866670767e+00 1.662797915152400274e-02 1.518343361029932126e+01
-1.651909369743329581e+00 1.730675152032890685e+00 1.754067406694274567e+01
-2.236532869649111355e+00 -2.934116935173867624e+00 1.948836430394001340e+01
-3.599794634897155010e+00 1.003794111736413530e-01 1.524674599252779572e+01
-2.137994000503668168e+00 1.108628289081140972e+00 1.937475979148336691e+01
-4.149854492103173698e+00 1.873764609739875242e+00 1.931754109321883917e+01
-2.682914365184411398e+00 6.402612394859490408e-01 1.523272974221618981e+01
-5.995898198197104456e+00 3.648064806228475399e-01 1.333957484079362388e+01
-1.800105896165870689e+00 1.129889575854241546e+00 1.540641855316360065e+01
-1.687360603578657470e+00 1.413085633348126313e+00 1.557144359415562818e+01
-2.424143308733991198e+00 -2.891837194962702196e+00 1.887705540702995322e+01
-3.430534498608490246e+00 3.453904641855855662e+00 1.601814548643798375e+01
-4.276119940255081353e+00 4.595332733142561743e+00 1.765692340291192508e+01
-3.320734148909615158e+00 -1.624492216121019794e+00 1.738502516958716981e+01
-5.027923347761558581e+00 2.094715866072424770e+00 1.861083032868994636e+01
-2.107320346907854969e+00 -2.791439359021243405e+00 1.914598355604395508e+01
-1.635532798732674431e+00 -1.469019053636185124e+00 1.978964571423945173e+01
-1.980675975118332266e+00 -2.763906682149991578e+00 1.932571141452313768e+01
-1.833278095900669369e+00 -2.726924152638912080e+00 1.949347019058394537e+01
-5.464765832092421505e+00 8.470801558923986008e-01 1.843907619926705266e+01
-2.257681521097033794e+00 -2.943846686737584761e+00 1.969037277693695742e+01
-2.456024245128036299e+00 -3.036980763627543212e+00 1.967493451133475801e+01
-4.801075456068184977e+00 4.022951908664804677e+00 1.621903070035061134e+01
-2.594826849500045718e+00 -3.106915941919280222e+00 1.927068176184747372e+01
-2.859308160509469676e+00 1.454408166497084043e+00 1.357545757943273657e+01
-3.672764745766417427e+00 -3.396386496730819715e+00 1.864614224057707403e+01
-5.338859901884772441e+00 3.462676619738175976e+00 1.514684856662743684e+01
-5.147191918011565726e+00 -1.594819470990251231e+00 1.578434086977000206e+01
-3.820456599446496515e+00 -3.406944285583901610e+00 1.827321652824447895e+01
-4.157063261716167801e+00 -3.426727061275782305e+00 1.831698379627191642e+01
-6.152693686714750143e+00 3.355565807553089197e+00 1.506694388685106745e+01
-5.553372189734129272e+00 -1.600242822923555741e-01 1.834273095868516279e+01
-5.966518509798993009e+00 3.435982364561330549e+00 1.733227462751828440e+01
-5.935859978050246788e+00 3.633735884810470385e+00 1.730339673543674550e+01
-5.011282606028020226e+00 -3.465172531620427598e+00 1.801304740699027818e+01
-5.362953428585480076e+00 6.046335243859997099e-01 1.851959188746282692e+01
-4.148346785555420801e+00 -2.164052961818689003e+00 1.698622312782409338e+01
-6.548330589549504310e+00 -3.483417245645307858e+00 1.701609530487077748e+01
-7.362965503022277147e+00 -2.337902309124451516e+00 1.498841212597116268e+01
-6.718923915647376788e+00 -4.343260592124513764e-01 1.412693888093410166e+01
-5.999079129005238542e+00 -2.964740605075744107e-01 1.366905103309582614e+01
-6.204317395303595717e+00 -2.617691650536492221e-01 1.370835375706075610e+01
-1.939985110091495102e+00 -2.796094473126387037e+00 1.957872911388908577e+01
-6.213010989256295247e+00 -8.914776125993649492e-02 1.363430633757134203e+01
-6.182918748871647274e+00 -4.874591255059594896e-01 1.381384118624551860e+01
-5.049188041019816886e+00 6.074696375573882534e-01 1.315552977079505226e+01
-5.225363034281567565e+00 -4.438783787371488043e-01 1.392570950249200834e+01
-4.916860729565761368e+00 3.213668033651358780e+00 1.468216233911685364e+01
-5.012083008379456750e+00 -4.681058565012062300e-01 1.432241588948916089e+01
-5.022890606637748334e+00 -6.953011491151894763e-01 1.486782185217533581e+01
-3.510073572788289464e+00 -2.924976738292714984e+00 1.955136384766637647e+01
-4.689519696149861083e+00 2.733630568194872712e+00 1.377499941670673778e+01
-7.676997161158171323e+00 -2.019249360231980095e+00 1.621025747358048008e+01
-4.183904015207124516e+00 -1.343183944528396623e-01 1.510791191155697888e+01
-4.567832869655504169e+00 8.385403932956485562e-01 1.913228926846500499e+01
-4.070914941874121951e+00 -1.876770708874192228e-01 1.533804566736997899e+01
-3.712173231752513125e+00 -2.036488827180823746e-01 1.568321626836695160e+01
-3.067432309293673054e+00 2.228401507447325125e-01 1.553412195121045514e+01
-1.576382679130050146e+00 -1.314452573533959390e+00 1.968900519421475437e+01
-1.724811753306298101e+00 1.248423735704064619e+00 1.535776591829358395e+01
-2.501977550216043511e+00 -1.461340908635617941e+00 1.794438712346650178e+01
-1.683870643516309551e+00 1.183215123097683508e+00 1.579031023828344260e+01
-2.622238876889140702e+00 -2.550202184521815685e+00 1.840997601063353883e+01
-2.610548358083014886e+00 -1.364030245106613026e-01 1.671248645491385432e+01
-4.437799076095462425e+00 -2.757240765804354066e+00 1.900300103808712393e+01
-2.369476526565246211e+00 -2.985791493591252177e+00 1.926644692669104941e+01
-6.654468704977453797e+00 1.815446314680730255e+00 1.708176920397805176e+01
-2.905791126002549962e+00 -2.128484766241534487e+00 2.009482836715632814e+01
-3.607246905640874246e+00 -3.378957368570307374e+00 1.824691091490346295e+01
-6.660300329508113570e+00 -2.161855652730229949e+00 1.736039442156495127e+01
-6.727247403629514011e+00 1.615167048087488899e+00 1.705752709130269196e+01
-3.992193908646462841e+00 -3.422554620995973629e+00 1.810162296337790977e+01
-4.363922347138845304e+00 1.021992500305117124e+00 1.928092090614434184e+01
-7.477834067643414073e+00 -9.478010745690392813e-01 1.476479364186143428e+01
-4.780422320259203772e+00 -3.472964002293748020e+00 1.765054323291363758e+01
-4.802263993376218565e+00 -1.918613608910807011e+00 1.879290603748964017e+01
-7.327554343997636721e+00 -1.726634191469640922e-01 1.671379341688162512e+01
-7.013550121749987376e+00 -3.266331453433625853e+00 1.605321729264154484e+01
-6.215851845015847310e+00 -6.595114990214513417e-01 1.390281259996413965e+01
-5.163429968860918429e+00 -7.346396148711555885e-01 1.463126289889183695e+01
-6.236112577424045789e+00 -8.818232014171925037e-01 1.399699335559381197e+01
-7.418196340600670347e+00 1.339268294104996038e+00 1.620836829388039391e+01
-6.626309935707995535e+00 3.260531935020218319e-01 1.382581049049186461e+01
-2.779095168698169083e+00 -2.073608663824912490e+00 1.804560361822546000e+01
-5.528572722542627105e+00 2.410679452317133098e+00 1.805474995953312956e+01
-5.248140168694735763e+00 -6.328359432259182960e-01 1.417402147948279278e+01
-4.246013532067676621e+00 1.651901514134848092e+00 1.263363090391725763e+01
-5.410906651136277112e+00 -9.004843846799603924e-01 1.443857352481423462e+01
-5.234156868348530445e+00 -8.354459983381903321e-01 1.470685083259290238e+01
-5.488243876404352406e+00 3.785318721416250032e+00 1.570692753758124027e+01
-4.554257870307272249e+00 4.209266356699045697e-01 1.911494304455325377e+01
-5.094489381560561192e+00 -8.755812276906176361e-01 1.509445878909749794e+01
-4.867374653651277860e+00 2.853145916374542068e+00 1.401914355662981748e+01
-3.553036686987875559e+00 1.092282501847631759e-01 1.975301994689886342e+01
-7.094298611459601389e+00 1.448528813006785709e+00 1.421302368325929066e+01
-3.246288085640865795e+00 -2.492602510323342457e+00 1.782124501522967464e+01
-4.616672227877665513e+00 -5.029241177540917374e-01 1.524929865375660043e+01
-2.036139964248603995e+00 -2.415727833823938797e-01 1.712453959333548781e+01
-4.640720275428488861e+00 1.789284276861932810e+00 1.269383412796363331e+01
-4.217150845179997276e+00 -3.370534705109143325e-01 1.547957233411291966e+01
-4.005810363115796413e+00 -3.183375163730212121e-01 1.564654877697948976e+01
-1.663536004750123531e+00 5.662461708630366353e-01 1.672041096402804428e+01
-3.685017750706154782e+00 -4.278681029930474500e-01 1.606757321768433044e+01
-3.060425581317442578e+00 -8.095510002523220727e-02 1.614435979258027842e+01
-1.637350889557873446e+00 9.471525378014840069e-01 1.652482344212534926e+01
-3.636122588131559308e+00 -2.140083968117157731e+00 1.959610211484315911e+01
-3.836813805375675734e+00 2.474397128779627142e+00 1.923915917729913971e+01
-2.060512566857610750e+00 -1.704740419524662376e-01 1.703617376233523473e+01
-3.171686926150231400e+00 3.144185488997821132e+00 1.885447142577259783e+01
-2.462509483499621066e+00 1.823174603218594703e-01 1.633451860825046609e+01
-6.766162908546969668e+00 3.442707008479000574e+00 1.634580793068211690e+01
-4.877772475690994369e+00 2.398240267422218075e+00 1.333482457494782736e+01
-2.103550581209126857e+00 4.420079095577234551e-01 1.620550639544032734e+01
-6.026693734963490812e+00 1.324824110400816268e+00 1.293709361624629395e+01
-5.078999239052985004e+00 3.704130983527425425e+00 1.805692439307773256e+01
-1.707978802571377130e+00 7.612095188319611960e-01 1.636164172067271849e+01
-4.386266081362093061e+00 4.177841869400155339e+00 1.830857841410977116e+01
-5.219016652530915401e+00 -2.103998482374493495e+00 1.608309311404475395e+01
-1.701986422520100684e+00 1.218713517889100872e+00 1.557781775479891806e+01
-4.104398823178768474e+00 1.173092671729168757e+00 1.945168686483726006e+01
-1.668136013423344055e+00 1.401400368612768510e+00 1.596362777980161596e+01
-5.784488196025260542e+00 -1.463670782513906143e+00 1.466443833101714844e+01
-6.034870066640236175e+00 9.335833694343815825e-01 1.306154888580676143e+01
-2.268739155567520704e+00 -4.845174158096222650e-01 1.733937497694249785e+01
-6.136362054107399544e+00 3.539250347161515542e+00 1.532026339789671354e+01
-3.013447342547956875e+00 -1.071443847678009043e+00 1.730672241769981312e+01
-5.267039998994404115e+00 -1.667665453644427531e+00 1.569471268015017174e+01
-4.205404398786317444e+00 2.015460092291436300e+00 1.924779814521755483e+01
-2.821197204436257877e+00 -1.329442985115638853e+00 1.763599798705046240e+01
-2.867287143407695638e+00 -2.459640300392501810e+00 1.814804481308870621e+01
-6.784563765879019215e+00 -5.274089251725837535e-01 1.419360130136208298e+01
-7.344607535554164457e+00 -2.626863299773490867e-03 1.452947965627008031e+01
-2.806316647950095167e+00 -2.897183310408976364e+00 1.845026478405489812e+01
-3.999099021592730008e+00 -3.396407284295927198e+00 1.784329431893443640e+01
-5.416630354420200355e+00 -1.696051308809815916e+00 1.836092747297633210e+01
-6.732777431525287959e+00 -3.275818409072576376e+00 1.617726596460815713e+01
-7.006477675227935187e+00 -3.195010584178980206e+00 1.579858539065641665e+01
-6.953274233003243765e+00 -3.127007657766179616e+00 1.557464480689825947e+01
-5.953712709384488377e+00 -1.096458196222457993e+00 1.405089807283710357e+01
-6.229417278923313539e+00 -1.095135952323139650e+00 1.408302285808520438e+01
-5.626535917433367118e+00 -1.039629782173370209e+00 1.428156556317851411e+01
-5.476480780378778057e+00 3.037702621830438598e+00 1.442343056150525271e+01
-5.518536424337407986e+00 2.414939687205859720e+00 1.364868789720961928e+01
-5.762928788893816545e+00 -1.282777454774323367e+00 1.445653749932084864e+01
-5.360301852396881728e+00 8.023872309481216991e-01 1.852564648394145408e+01
-4.105028285549211731e+00 -1.136539343450710726e+00 1.933253075947395772e+01
-5.048271596705379949e+00 -1.099451088356452111e+00 1.549354601428254696e+01
-1.720381262236125419e+00 1.334262734751166191e+00 1.878537890181009473e+01
-5.007076216009076930e+00 -9.032007058772755226e-01 1.529754726977153112e+01
-4.219549847982606572e+00 -4.751937134517251748e-01 1.569932206233984928e+01
-2.503169775305711831e+00 1.054697541352639822e+00 1.465441878971047274e+01
-7.752625291061644219e+00 -7.956594144338733354e-01 1.616987535137722531e+01
-6.823986662197713216e+00 2.584840301745519486e+00 1.659161457126312555e+01
-4.082119666807038527e+00 -6.721668197640960907e-01 1.608039680019733808e+01
-4.380335928136197765e+00 -1.448130076398335131e-01 1.486064403727909777e+01
-4.615423172086468462e+00 4.342362105966063979e+00 1.807050696146043478e+01
-7.240022716814205950e+00 -3.775796718726336931e-01 1.682098948358483526e+01
-4.600267408603526675e+00 -3.079884544942693925e+00 1.710382368113812745e+01
-1.258021767552900849e+00 -5.903752508809685662e-02 1.795907992438933931e+01
-3.460588700713291388e+00 -4.600737084546156486e-01 1.632031586456408334e+01
-5.566829017807801705e+00 -2.409188550715425148e+00 1.819937958463782124e+01
-3.025313998672749971e+00 -2.690700061959055978e-01 1.651955558409138902e+01
-3.924585581707793924e+00 2.691837052305875222e+00 1.382601802996600782e+01
-6.745032251328828998e+00 -3.055237561044287897e+00 1.543884155118361790e+01
-2.817628842705616421e+00 -4.571283329087336145e-02 1.638346834552608655e+01
-2.072477486995339291e+00 3.326337922583292861e-01 1.637648430437434754e+01
-7.286284309676332782e+00 1.672163973195036846e+00 1.450553587855518956e+01
-1.904299810543923721e+00 4.307253731256343587e-01 1.636209552850591464e+01
-7.251602187972390645e+00 1.403941223606533173e+00 1.645469006345059526e+01
-1.658812832083232713e+00 1.190459201014322677e+00 1.614651422526133118e+01
-3.588025196046748189e+00 -1.092435093618592701e+00 1.683403908547363770e+01
-3.472846058824399229e+00 -1.032655707154648272e+00 1.688763752706607235e+01
-3.641697566426382870e+00 -1.296694856946860153e+00 1.692478571374506302e+01
-3.381380683516471031e+00 -2.716107464429561524e+00 1.779213300730075176e+01
-1.695366836312820924e+00 1.005574071092528055e+00 1.618593430301607228e+01
-4.197447519498892277e+00 -2.150520222985858876e+00 1.918758956224230516e+01
-3.367716728009383154e+00 -1.204329386101160027e-01 1.584708367621245984e+01
-7.008218148316634810e+00 2.038986634921617025e+00 1.654386488166531777e+01
-6.181547007077657696e+00 -2.290814794558506673e+00 1.501372557918286432e+01
-4.374113409733556779e+00 -3.351114223276406179e+00 1.745239879117932347e+01
-5.020990889742581231e+00 -3.455336430828374272e+00 1.727653614837141660e+01
-6.763605229666553420e+00 -3.116358928918173898e+00 1.557759414051780666e+01
-6.376681358610374772e+00 -1.304327964288341413e+00 1.420207302210159028e+01
-6.796015287788796044e+00 2.130968575015147248e+00 1.679209083785901768e+01
-5.992159718586619555e+00 -1.522797291478291459e+00 1.442647647391178722e+01
-5.859919108104048924e+00 -1.604924520813612698e+00 1.471701027088574065e+01
-3.852840091480806084e+00 -6.951433417866021980e-01 1.629267515716742665e+01
-3.479390291086593034e+00 1.042910283554939532e+00 1.356529372629701413e+01
-2.074855584567957489e+00 -4.240557386256393890e-04 1.681436446069814039e+01
-3.603528082116541853e+00 -8.938767542643712982e-01 1.666968592650912129e+01
-3.862428927299268899e+00 -1.284207007900426634e+00 1.674315813203983438e+01
-3.956052119840888448e+00 -2.354736900220026463e+00 1.719990943841169795e+01
-6.518728799330670398e+00 4.379110643600886421e-02 1.752422272601839737e+01
-3.523615091487916740e+00 -2.983168890690131470e+00 1.776505785111853797e+01
-1.726155245673594685e+00 4.932652043498230721e-01 1.919177306651105042e+01
-2.489128946729953995e+00 8.758853718401402588e-01 1.502490110625819497e+01
-4.411673417613624082e+00 3.074686946589963554e+00 1.873109508156808189e+01
-6.358328904954433369e+00 -1.506715887626039141e+00 1.426462696727907442e+01
-6.372756926067720151e+00 -1.716322352975831134e+00 1.436156382265572873e+01
-2.708868887775532475e+00 -9.705928145023966225e-02 1.657103578782603748e+01
-5.974265118263937246e+00 -1.873015943565389918e+00 1.485039521239103166e+01
-4.278613103606550894e+00 -2.038935514647473302e-01 1.512033579410630679e+01
-5.982385867855045447e+00 -2.096842887427182944e+00 1.504475277184277715e+01
-4.930925608170141139e+00 3.366513195165328209e+00 1.496628583146663871e+01
-4.201238191765913399e+00 -1.501182347493081881e+00 1.662039693255895045e+01
-3.838273892810713850e+00 -2.870738428997286373e+00 1.747177188823748750e+01
-4.130138146122343201e+00 3.275778954881887195e+00 1.500219190760006782e+01
-6.824946841947099330e+00 3.672799738949403370e+00 1.612407862399312464e+01
-4.161223939665630311e+00 -3.145600121925347992e+00 1.737552452456034402e+01
-2.886278880538637903e+00 -1.243636673741080667e+00 1.752958131755203297e+01
-5.124608813960513487e+00 -3.326863689952562098e+00 1.697889939194999087e+01
-7.368552037306784541e+00 1.642754491530080907e+00 1.610625912950177607e+01
-6.367997003686613589e+00 5.406392176345304890e-01 1.352040813132490626e+01
-6.200714359628662464e+00 -3.288228793158716190e+00 1.624967531646589336e+01
-6.416316325729053638e+00 -2.714670615813900234e+00 1.521040123374128328e+01
-6.583651612296866240e+00 -2.767558879371547320e+00 1.518216431757412366e+01
-4.582598717336350269e+00 1.225706172959462270e+00 1.279816858977925520e+01
-5.805366215166634980e+00 1.111627252088782658e-01 1.341064566679683523e+01
-6.134337177169665090e+00 -1.965150857838394938e+00 1.474541870851246372e+01
-5.137309436799069040e+00 2.620742928020839191e+00 1.833269222007090704e+01
-6.001978241428575167e+00 -2.280046859733504405e+00 1.518581791344580623e+01
-7.418998261769345071e+00 2.353497090679026016e+00 1.514055377698127458e+01
-5.823883865192888365e+00 -2.319519356999652171e+00 1.545758404523686735e+01
-5.332886173936676855e+00 -2.115623566005231826e+00 1.598173780375134001e+01
-3.515154208785820966e+00 -1.108791837275015651e-01 1.977396827885987207e+01
-5.181639142765277484e+00 -1.929716535934876021e+00 1.601000423801922423e+01
-4.808228231020454935e+00 -1.723454597240421826e+00 1.623908797910300805e+01
-4.421720982246233334e+00 -1.501298161375968609e+00 1.645581030709739778e+01
-4.584833789291031358e+00 -2.383738483066816016e+00 1.678490121841247529e+01
-4.041695993221567917e+00 -3.108241014236397426e+00 1.742834165136356361e+01
-4.776333245264964944e+00 -2.917784616633623429e+00 1.690937802222090980e+01
-2.911622735560927655e+00 -3.808085782425443822e-01 1.678903375878497783e+01
-2.934366340025401865e+00 3.514193741251896874e+00 1.849863425019851704e+01
-5.372175162003683724e+00 -3.154999001610069964e+00 1.661553549966957277e+01
-4.030486771482395980e+00 -1.081175452967373829e+00 1.647856772600236397e+01
-2.275126739279306420e+00 1.970126405863879215e+00 1.905153262596932606e+01
-6.224421824107634116e+00 -5.901895743204120803e-01 1.778211507860129714e+01
-5.652634262284191635e+00 -3.082954319570963442e+00 1.630462282389823869e+01
-3.586856568945858026e+00 -2.731438596168438870e+00 1.762448655444875456e+01
-4.869157153439305219e+00 -2.951172377733685348e+00 1.868257690280614369e+01
-5.657479167544576804e+00 3.424400001775131930e+00 1.764064267119612950e+01
-6.194861420508177119e+00 -2.952928773056816336e+00 1.561121717481914928e+01
-7.673739209323811927e+00 6.242706426182942359e-01 1.584562053518233782e+01
-6.251486177712055614e+00 -2.672567361852357326e+00 1.527440161106664718e+01
-1.174394753450166640e+00 -1.086719979848143502e+00 1.906910161970645490e+01
-6.064298793303093404e+00 -2.720427671087221277e+00 1.549859260951722817e+01
-1.783677607855904901e+00 -2.318672677433024187e+00 1.887897125102247387e+01
-5.799252317155959346e+00 -2.704022195188419353e+00 1.578674173637899614e+01
-4.955862328716013288e+00 -1.936967325372809468e+00 1.623467731332786812e+01
-4.531373630665625818e+00 1.460359109962832802e+00 1.913806500259432042e+01
-4.767043730049112860e+00 -2.115433612127988194e+00 1.650497144372205938e+01
-2.786037311441107889e+00 3.543474766723578639e+00 1.739858218155428560e+01
-6.901356553100457702e+00 2.487252989631461020e+00 1.451073960891471515e+01
-4.775503924209893114e+00 -2.329409681749622596e+00 1.661001489331166070e+01
-4.959199086574352933e+00 -2.932806536577059031e+00 1.678667287309967904e+01
-3.610597690608385868e+00 3.719127154620751163e+00 1.866062138662872982e+01
-5.222346004470517222e+00 -3.101907230300527729e+00 1.668652770595258872e+01
-3.817306859701400157e+00 1.807219873501251683e+00 1.268804041871525357e+01
-6.270890092516373748e+00 -1.857514522345228070e+00 1.446328875574905126e+01
-5.421540608587196886e+00 -2.731014779134958825e+00 1.624908250487114358e+01
-5.979845640942929030e+00 -2.924837171038629169e+00 1.579716941317597545e+01
-5.588180392875664815e+00 -2.704155083429217843e+00 1.604519323277834886e+01
-6.547105701152181823e+00 3.421355294428888527e+00 1.536054403464329354e+01
-2.553961024271249158e+00 2.111449776610501594e+00 1.425552905716719110e+01
-7.735964918493881015e+00 -9.315649797786726971e-01 1.524979782052657029e+01
-5.128473848418246384e+00 2.084949276755881931e-02 1.867245311376941075e+01
-5.451020546110077802e+00 -2.509947121967545325e+00 1.608722326843382078e+01
-5.200034580601654355e+00 -2.312091577520789087e+00 1.622690626466587460e+01
-6.159330678477790144e+00 -2.538607784650904087e+00 1.773564763837360303e+01
-4.995232055422825113e+00 -2.204456296169813978e+00 1.635409718466266682e+01
-4.987132791515815455e+00 -2.340646850606538543e+00 1.643958029889249062e+01
-7.443077681573567972e+00 -2.599241490832465029e+00 1.521867045696248155e+01
-4.170654127581839177e+00 2.550280084678941961e-01 1.938413837819316043e+01
-6.813749701740891673e+00 -1.941990383782819185e+00 1.724451275774231718e+01
-5.014725011985996517e+00 -2.518600700270183790e+00 1.651774923091182146e+01
-6.185156671920856830e+00 2.031646950993121425e+00 1.754853275120996514e+01
-5.137825806770165649e+00 -2.535865292922967029e+00 1.641322689861753403e+01
-3.121593844545634600e+00 -1.317663949762236886e+00 1.997895972711457446e+01
-6.277461488822541291e+00 9.303542897859793381e-01 1.326807383003729157e+01
-3.666556296004702009e+00 7.660647343662037034e-01 1.390970845987678217e+01
-7.114922391311215399e+00 1.001770849548017317e+00 1.421017045439255000e+01
-7.169707360888452286e+00 2.325064579016026034e+00 1.460957881114127943e+01
-6.885417010163674689e+00 -9.839173004992949334e-01 1.720395274425214538e+01
-1.702123379602448860e+00 -4.570911326116876561e-01 1.736074075340107115e+01
-4.072480833937012434e+00 4.624405029090354446e+00 1.784215915487889603e+01
-6.000643150122329850e+00 -2.976493288100888979e+00 1.783659311981764617e+01
-3.455793484104435098e+00 2.591935322394386620e+00 1.392409833588935797e+01
-4.644291212690072612e+00 -1.607376373388509083e-01 1.901694853367472504e+01
-5.821991108242852597e+00 1.556946658222244428e+00 1.291310367594493158e+01
-1.689597686861749271e+00 1.444588998794461787e+00 1.578715234092263486e+01
-2.587806516536285795e+00 3.289216141244944769e+00 1.720147077420336146e+01
-3.368140077316489123e+00 1.383060994054835957e+00 1.967004172719729738e+01
-2.774798899588185375e+00 3.745797556397514327e+00 1.799112049849093964e+01
-3.235401274762994994e+00 3.454519221333942625e+00 1.645187390311061293e+01
-4.202393012233722303e+00 4.673062364233930843e+00 1.782268306248191081e+01
-2.939179784706051013e+00 2.530782518419749216e+00 1.440149218532566877e+01
-3.860547437854895847e+00 -1.919185494622217825e-01 1.553577106565020571e+01
-4.073350803643855045e+00 -1.243141679627930207e+00 1.655364686528377760e+01
-3.245999854318887934e+00 4.149322345700273473e+00 1.827383231513159600e+01
-2.716379888865504633e+00 -2.240059038948008840e+00 1.817816990641089703e+01
-1.192196370168013608e+00 -1.900710500191032937e+00 1.904550204115020406e+01
-3.634583813081768255e+00 4.339667244964585890e+00 1.829551546608979251e+01
-3.497824925211677094e+00 1.993659313121387333e+00 1.286317192814378529e+01
-2.149722489484243049e+00 -2.930928850363692106e-01 1.985886486449893695e+01
-2.843362155376790490e+00 3.635769774045713998e+00 1.835878973911703227e+01
-4.700558788861243897e+00 3.015550548321732194e+00 1.428699608844282309e+01
-3.061372200755883011e+00 3.834320106796039962e+00 1.837649978929350070e+01
-6.317788480766573400e+00 3.051800479185770687e+00 1.706552100179443343e+01
-6.312341302387860509e+00 1.285627291709817710e+00 1.323272186282938634e+01
-3.051751029150315819e+00 -2.279556977559401787e+00 1.790392100857677704e+01
-6.292985658693247331e+00 3.967819283250572315e+00 1.603628926505141195e+01
-3.767139334596609324e+00 3.456009990170887392e+00 1.881088783554321608e+01
-4.211216703279585971e+00 4.229485737716538019e+00 1.835176446659950145e+01
-6.904186243264506473e+00 4.605054105135270581e-01 1.711156832411160522e+01
-2.539445671061416387e+00 3.325598898950526294e+00 1.828547780056959837e+01
-3.603398722459896231e+00 3.205852054220218683e+00 1.892006846001936182e+01
-2.788007090701916990e+00 3.366379588006505941e+00 1.848423157560428720e+01
-2.682282710325183395e+00 3.319378106195463030e+00 1.842115368997881220e+01
-5.479821741495896070e+00 2.702133826044953224e+00 1.396498041674174928e+01
-5.218503708412597142e+00 4.438463690390536343e+00 1.757634894520710489e+01
-3.173829483535149265e+00 3.523470616053527404e+00 1.863600773244459319e+01
-4.379583432740879800e+00 4.052925932841974443e+00 1.838683853480914010e+01
-1.670063801806984438e+00 -1.406845718328330719e+00 1.819156366143043968e+01
-4.911371973185851836e+00 1.240945922311615046e+00 1.885790888154362577e+01
-6.104469577254266532e+00 1.109404767803611191e+00 1.301461823483515090e+01
-4.612520744662044869e+00 4.062836346417197930e+00 1.824238472649613030e+01
-5.088235393649027216e+00 4.500435752295141256e+00 1.764395244354033920e+01
-7.140087608603057134e+00 -3.270233709301673120e+00 1.607600513537324716e+01
-4.256640604430654840e+00 -9.623925733681428785e-01 1.923184147362566776e+01
-4.655081649882098382e+00 4.703080490266929203e+00 1.763546215772500503e+01
-6.409201610106145530e+00 3.646847693676010138e+00 1.676181602921301206e+01
-2.075270486286805660e+00 2.781961459789263014e+00 1.799576382970573363e+01
-4.240582180976327997e+00 -3.313999749781634918e+00 1.898575238456554715e+01
-3.000259697783993484e+00 2.879548731852458410e+00 1.893828496333532385e+01
-6.527689762525619166e+00 2.198538597486998203e+00 1.709827314008473920e+01
-3.203608716272937862e+00 2.751849821785515182e+00 1.908604171352040524e+01
-5.613864016892882169e+00 4.472494397891011886e+00 1.698315617295842728e+01
-3.582590236512935622e+00 2.887828654027641218e+00 1.907191536865225245e+01
-2.650983736819926051e+00 -2.840382908626413627e+00 1.856556004636900425e+01
-4.209574487994427017e+00 3.556223684717330080e+00 1.867926502793043042e+01
-4.773443569034670375e+00 8.262589695338253826e-01 1.897792633664399986e+01
-7.153049843113983286e+00 2.322122128898409077e+00 1.617997065171478610e+01
-7.707126162218406407e+00 -2.104297577895045901e+00 1.611357029878138647e+01
-4.397968958946302465e+00 3.834849901287227691e+00 1.849611468677923298e+01
-5.359758108487057804e+00 4.269217980919480127e+00 1.756231188937701759e+01
-4.765307831771360192e+00 6.306097067702132186e-03 1.894064493807850980e+01
-4.274260188708398189e+00 -2.253146120451851697e+00 1.693633612818559087e+01
-5.436453632242120193e+00 4.556993333885545283e+00 1.714311392027466852e+01
-5.558379482105544334e+00 2.144057594662572286e-01 1.835193380265703311e+01
