-6.558096347554005945e+00 -2.438965348543690403e+00 1.652447666317857866e+01
-9.173028858221385917e-01 1.712278311378563789e+00 1.394821083146766583e+01
-1.402944169289506160e-01 3.344801256351250807e-01 1.290121325246202488e+01
-6.823307548942523226e+00 -4.004335517209278272e+00 1.577927382583639471e+01
-6.501814603930462511e-01 -2.533830748594344318e+00 1.573864957336903458e+01
-7.962664369298277922e-01 -2.648653915695406980e+00 1.574883918608639632e+01
-3.779185695521415145e+00 -4.535020812266978396e+00 1.367259039125837816e+01
-7.250502805416960683e+00 -5.119832716110822579e-01 1.626441292389904092e+01
-7.564763014750850445e+00 -1.786113245367130897e+00 1.571346633729087827e+01
-6.560847317391506728e+00 -5.211696759542236101e+00 1.458668546566033442e+01
-1.017979097372965436e+00 6.370883999772308792e-01 1.208451658049436261e+01
-5.861646022522925215e+00 2.627633858517592458e+00 1.538430277973871441e+01
-7.259392289021008970e+00 -2.698659659622848483e+00 1.376285456465459234e+01
-7.104175484812659036e+00 -1.923727318147430587e+00 1.348336325994460694e+01
-6.666601686708627739e+00 -4.246854647500977187e+00 1.578262738615883976e+01
-3.862289868518824498e+00 -4.575687203360348398e+00 1.573892910282320301e+01
-6.666368956239159260e+00 -6.828524172301568829e-01 1.668642059255384069e+01
-5.458590074639626977e+00 -4.132923428511483976e+00 1.613103911031529591e+01
-6.248816198599644878e+00 -1.495783892176105523e+00 1.678714055401789906e+01
-7.096741747968625669e-01 -2.187572546049695088e+00 1.589612795474790730e+01
-6.231344086033777430e+00 -1.296421293151853060e+00 1.680647124433076911e+01
-7.007692754918763534e+00 1.509623651430777258e+00 1.239241517567517192e+01
-1.992289511655614520e+00 5.402532791662285616e-01 1.200937704282090479e+01
-7.071458417100779492e+00 -3.268738650923672662e+00 1.595427458943800403e+01
-7.334501526563757423e+00 -3.973583976739865076e+00 1.444904522842915995e+01
-1.538456418443756801e+00 2.511448831124810877e+00 1.597679375720936079e+01
-6.626295060215323218e+00 3.958063966590367189e-01 1.247048632850543370e+01
-5.149453507840403788e+00 -5.488546988595088827e+00 1.548396559893260971e+01
-6.656045904741376695e+00 2.413681710711587103e-01 1.255934430599030449e+01
-6.678693163458725657e+00 -1.983912513897172047e+00 1.351922364496042306e+01
-7.320212442508914563e+00 -3.158691884966784880e+00 1.392488055765543820e+01
-4.952553093346754309e+00 3.075487079178643057e+00 1.155551244863947957e+01
-5.180881845862437274e+00 1.754012038622192904e+00 1.151109384175227390e+01
-6.586834545589971057e+00 1.148439127216738243e-01 1.261143837631560771e+01
-4.989925186607662155e+00 -3.586637528324642332e+00 1.624779206528866027e+01
-2.666169473514417909e+00 2.940917821184979797e+00 1.327817039910679497e+01
-4.504732994574798255e-01 -5.184915913115857755e+00 1.353671104700078232e+01
-3.414981860486158816e+00 -3.455391159072412899e-01 1.271738211612972336e+01
-2.552418599595966064e+00 -5.655665855814170584e+00 1.479402884912735416e+01
-3.765611913008115152e+00 -2.186974245657232974e+00 1.345145277572515496e+01
-6.469726589434655395e+00 -7.700894098806809751e-03 1.270916050032947098e+01
-4.365773434983257317e+00 6.325634317734748491e-01 1.714875712313235212e+01
-2.415823587902912184e-01 -2.119782510959428823e+00 1.539630871422326308e+01
-2.517573053547965678e+00 -2.952104084464702183e+00 1.332148603272033327e+01
-5.142419642789469059e+00 1.429101184707814109e+00 1.727422428059501769e+01
-1.546697749109887887e+00 -2.590983134145676381e+00 1.306204849677697055e+01
-5.343865060415238233e+00 2.858987650183561602e+00 1.459722781632813948e+01
-1.027705933526130266e+00 -5.643239112535328061e+00 1.428753213478287520e+01
-7.600778799584660739e+00 4.299705385049193973e-01 1.458560924664532266e+01
-6.435360042554659543e+00 -1.084957152958596627e-01 1.280225473543162806e+01
-5.343418294511422140e+00 1.441281483347111259e+00 1.725326649367063325e+01
-7.738056728894697756e+00 -1.331040811190358664e+00 1.436380291227623829e+01
-2.496379074447088620e+00 -5.908889356592726294e+00 1.428932944443763731e+01
-4.053951509352017091e+00 -4.264486156780067372e-02 1.265200851481337807e+01
-2.599378521171341383e+00 -4.533987489791293513e+00 1.347766348806879577e+01
-3.552319702329211903e+00 -5.586063808905718631e+00 1.519886930508477363e+01
-2.627476322542295684e+00 -3.475500156022196752e+00 1.591749032382785956e+01
-2.137971484437481529e+00 2.919204246828141613e+00 1.643473844792208283e+01
-6.406920136363274842e+00 -3.231355000529130272e-01 1.297340533944003127e+01
-7.410475565952876487e+00 1.744612570734196400e-01 1.600915409059921402e+01
-1.423629682527527640e+00 2.309022941069642787e+00 1.515947025602106280e+01
-6.254379819681185282e+00 -4.079334581374065571e-01 1.304535004641357787e+01
-4.422400367740392468e+00 -5.932079282939325182e+00 1.421543322818627431e+01
-1.073937415402250739e-01 7.229311440257447652e-01 1.448438404405690605e+01
-9.866939734112071259e-01 1.402786712429863858e+00 1.273458356691134341e+01
-5.577575027678074449e+00 1.428879774551107040e+00 1.175179301725928482e+01
-4.258154960148075929e+00 -8.146060868311029157e-01 1.688197246424963183e+01
-7.143998238064134476e+00 1.347912750302720397e+00 1.245734835234890525e+01
-2.340647841289777986e-02 -7.315371376466792697e-01 1.497439412977216122e+01
-3.021793043557535530e+00 -3.654430921362686657e+00 1.594693009190920563e+01
-3.520170703418032510e+00 3.079855769042262104e+00 1.227419627579191896e+01
-1.634273534625353630e+00 -3.238232863089317015e-01 1.237736980296736888e+01
-2.870177184515354085e+00 -1.140872247757991342e+00 1.299452421539950464e+01
-2.871578569943441739e+00 -9.765230406420526421e-01 1.294005743453893942e+01
-3.623398871297666801e+00 1.147512092969472874e+00 1.182688471844344846e+01
-9.760608987259985492e-01 6.581893444611045529e-01 1.659065532568469692e+01
7.582135881984686243e-02 -4.129565013688067054e+00 1.408728779247107710e+01
-2.854790633765603936e+00 -7.576372534462944008e-01 1.284263122826887482e+01
-2.339436084046107034e-01 -3.713674797320096754e+00 1.499177468019424353e+01
-4.539259103091112024e+00 1.405337192978555194e+00 1.727395685567603678e+01
-3.398037038511865671e+00 1.769265211111306968e+00 1.145026105978026365e+01
-5.969567794491315027e+00 2.409269646922958863e+00 1.157272685015437830e+01
-2.658708957852212507e+00 -7.784026898094142943e-01 1.283907591402802595e+01
-2.444891138120395713e+00 -8.415638538858760676e-01 1.281756109324497217e+01
-2.274252646478128970e+00 -8.029351643557129936e-01 1.274617123420427234e+01
-7.242835436733790822e+00 -3.804559353396095300e+00 1.541282378381538720e+01
-1.595029021828376470e+00 -3.485123904408072626e+00 1.563178429614236720e+01
7.125730493773074770e-03 -5.336606253317834891e-01 1.360683416119794842e+01
-1.544917339493192543e-01 -2.496318121806297530e+00 1.516699838203439654e+01
-5.596892166557733361e+00 2.860933472456527182e-01 1.711439700101017181e+01
-6.517353491775259577e-01 -5.982062278031071711e-01 1.244589823535124040e+01
-7.983977717074247638e-01 8.699894878247228514e-01 1.649369792596539597e+01
-1.661989648492826932e+00 1.293832364405639979e+00 1.687440019160819205e+01
-6.442527350533681085e-01 -4.024939356529453338e-01 1.239405952600874272e+01
-1.772294804436882920e+00 2.599651198197924895e+00 1.560337149559462588e+01
-2.452303018713432259e+00 7.215449205347479467e-02 1.229770289771288461e+01
1.565249720841468406e-01 -3.475536783281495623e+00 1.375520696128109321e+01
-5.006048685425334099e+00 -5.596354416480450844e+00 1.418079934945099652e+01
-6.551232513949148961e-01 1.221111061355806271e-03 1.230481896532472419e+01
-6.254914411927513740e+00 -1.158562068039856507e+00 1.332739998377684643e+01
-5.080429110202087095e+00 2.837377769081873335e+00 1.729894193646621048e+01
-4.685055226200230294e+00 -2.030118934967195976e+00 1.359514224717621644e+01
-1.148371229617188849e-01 2.015218768516844339e-01 1.286042425854501303e+01
-2.151894324688929494e+00 2.600409590411787430e+00 1.302685524410816598e+01
-5.826323144126237530e-01 -5.450039958958438291e+00 1.408111319639037262e+01
-2.652746923527744549e+00 -1.785775926531458779e+00 1.314709437968484806e+01
-1.944270532665805407e+00 -5.484906408276671641e+00 1.478126065536300260e+01
-2.751302032181613733e+00 -1.826135116421207183e+00 1.647363347381593357e+01
-6.187752751451100153e+00 -5.647697286114365944e+00 1.493763206748505823e+01
-7.727341691573440308e+00 -1.158359301480525572e+00 1.490767451507219832e+01
-2.839613744792634620e+00 -1.995804919687501400e+00 1.321989625502290622e+01
-1.799788374686584591e+00 -5.861018016850723100e+00 1.411689455508112090e+01
-3.664947405375301059e+00 3.032528706058362111e+00 1.408768650558031865e+01
-1.755053050964361372e-01 -4.611232352026000125e-01 1.573946628966114858e+01
-5.620783963623086521e+00 2.719511742799386678e+00 1.377692509032601365e+01
-5.728741666261880638e+00 2.659442860560329525e+00 1.338516764304162265e+01
-3.814638094890099307e-01 -4.673952978045766038e+00 1.326749504869750851e+01
-1.190534964247094152e-01 -5.494897875689394029e-01 1.561652508367364689e+01
-4.965902230537773576e+00 -4.068652548874661434e+00 1.392648142506336839e+01
-2.549016550391594471e+00 -2.094261842793553985e+00 1.635804515155716032e+01
-1.777184455066707081e-01 1.080666358084390932e+00 1.590233415586148524e+01
-4.338151841778522311e+00 -1.405403624111185135e+00 1.678337444060108297e+01
-3.994851218462307063e+00 1.962608496530056090e+00 1.132652354915948578e+01
-5.465611506427214827e+00 1.726066209258089401e+00 1.724749597050383088e+01
-5.250165462700640440e+00 2.919129824172750798e+00 1.394255386782515771e+01
-5.668427987017974345e-01 -2.334334126634926232e+00 1.575632257356327770e+01
-6.655233433775465279e+00 -1.545715650946649422e+00 1.337163701537084748e+01
3.354935541477477301e-04 -2.535924280211502069e+00 1.452963395672110991e+01
-3.562698056847931838e+00 -5.783980114580326237e+00 1.501396836796515188e+01
-3.498798312352334516e+00 -4.584897972345488348e+00 1.567380110197406751e+01
-5.471778088828422426e+00 2.798839718153664613e+00 1.696722043786858691e+01
-4.641281153037514429e+00 -4.073455805731275525e+00 1.604114141650830661e+01
1.701681925982214683e-01 -3.521982065257996730e+00 1.364354585574099232e+01
-5.374224872046078350e-01 -2.526084325841504441e+00 1.566085194383543566e+01
-9.719235753823559643e-01 -4.531011692357780341e+00 1.321902367624035080e+01
-1.954598373356377650e-01 -3.807125114587396997e+00 1.300977938936020095e+01
-1.207738403762684820e+00 -5.765555253145517867e+00 1.407579620481433480e+01
-5.582223763865977517e+00 -5.075329776338457499e+00 1.413579501216723955e+01
-7.350549310795777558e-01 -2.745577934897268868e+00 1.566597739451282578e+01
-7.159000353331223643e+00 1.491910398443447860e+00 1.258267654867039553e+01
-2.183431176099025262e+00 2.834802892959202403e+00 1.503035315569363561e+01
-4.199109252986231056e+00 1.759195442626773520e+00 1.146745318655235835e+01
-4.341706881056256684e+00 3.113361787364498756e+00 1.635133794036050503e+01
-5.505086115759302956e+00 -5.958043973836771867e-01 1.696634592046186540e+01
-5.194561451314719136e+00 2.759028235412411822e-01 1.713166037832385413e+01
-7.136607282047583212e+00 1.459194626839038111e+00 1.246950551902742532e+01
-5.072320776013508059e+00 1.541586956780218731e+00 1.165452436077721998e+01
-2.566044256547872049e+00 -9.641049231404854591e-01 1.664162530481005220e+01
-7.024433563867375163e+00 1.288179051337467129e+00 1.241133359942593373e+01
-6.781149737190302673e+00 6.287757384697656438e-02 1.270929509624413711e+01
-3.813007119876709705e+00 -5.513289725350591475e+00 1.381960935467216345e+01
-7.391790130826382921e+00 -3.603959336877174735e+00 1.419546447871752903e+01
-6.630006764315879764e+00 7.884042576558392135e-03 1.270949501097641487e+01
-3.553769229231543925e+00 -1.095873786524804938e+00 1.307161316255441008e+01
-6.989684904986201985e+00 1.722477963497193620e+00 1.461377853343397604e+01
-3.426248892344272434e-01 9.115302340874850140e-01 1.617244710158643173e+01
-6.615475422484528245e+00 -8.449766157992233406e-02 1.279013453980702408e+01
-4.340891211629858137e-01 8.916626005793309995e-01 1.334679478481023907e+01
2.102705182359199121e-02 -3.719154641337641731e+00 1.446360111581646990e+01
-6.093219947520896795e+00 -7.154198061647196738e-01 1.689519339146430710e+01
-6.630499115410682265e+00 -2.012794963990436892e-01 1.288621901935318803e+01
-7.652123183742634893e+00 8.000898786226140480e-02 1.382108371861648877e+01
-8.801171740429354351e-01 -4.071371180630307673e-01 1.237756507669634587e+01
-5.932989700996830429e+00 -1.910037141156295526e+00 1.672998158197681207e+01
-4.787535987933204673e+00 -4.653875714006602493e+00 1.390421793765706937e+01
-2.683544693351990862e+00 -9.776673179768646804e-01 1.293370948049586033e+01
-5.114276185685632470e+00 2.925959389105933006e+00 1.717543173666932788e+01
-4.227865990304215060e+00 5.546946640678952489e-01 1.227275962351788152e+01
-2.473690798187184736e+00 -9.539330027641432785e-01 1.287750098252073983e+01
-4.493121083157007867e-01 -4.201257036139157686e-01 1.247306136583541658e+01
-1.943999928345362394e+00 1.720197080768692377e+00 1.699135954923250935e+01
-6.365748762430752272e+00 -2.258135882363105029e+00 1.661625028948015270e+01
-6.624146955309809570e+00 -6.690101124297298529e-02 1.673587045748135793e+01
-6.360767238452725181e+00 -2.072392974295042212e+00 1.665457692570425152e+01
-7.378434193078948766e+00 -3.970972374963120277e+00 1.481699558873506462e+01
-7.534236908054700699e+00 -1.419978469549969313e+00 1.573213040563657827e+01
-1.471419537755105589e+00 -5.765264213008692629e+00 1.391599474384250001e+01
-6.779278556290146973e-02 8.776201439400940219e-01 1.544202168422588883e+01
-7.406656880412449517e+00 -3.590508002959279299e+00 1.527700670351633860e+01
-5.907545709443773330e-01 -2.731197210527894992e+00 1.559526582913320070e+01
-7.634566035691337405e+00 -2.393403691759635521e+00 1.549661815618812355e+01
-4.700093001583562469e+00 -2.367232815483284458e+00 1.366934446424979299e+01
-7.898259780194718527e-01 -4.413556595123557358e+00 1.318167973447283359e+01
-2.680188235654605844e+00 -8.580190761228929652e-01 1.667895925177167626e+01
-4.116682725693623368e+00 -5.185745744326301754e+00 1.553173642510679642e+01
-2.671804067055261633e+00 8.313100956475468761e-01 1.192801312066650965e+01
-4.798176896157723803e+00 2.139767760003482788e+00 1.123330679046229008e+01
-7.284920960234553711e+00 -3.945078090295547568e+00 1.430048160188647088e+01
-7.202695692811771799e+00 -2.262248068308037929e+00 1.613955491850466828e+01
-1.619601960097639903e+00 -5.160750741816826803e+00 1.349728514023805914e+01
-2.597959693024322725e+00 -2.843366746868154493e-01 1.676971082075189301e+01
-6.291806291067688406e+00 -2.438834928890125209e+00 1.658793840189920488e+01
-1.200622526992100703e+00 5.907776960533944743e-01 1.202372852769626732e+01
-5.018542459314186743e+00 1.073381228054013370e+00 1.196830544986658040e+01
-1.880547624439596888e-01 -3.451050411570064091e-01 1.575539213252322313e+01
-4.639338315812935321e+00 -6.203018030355038626e-01 1.305591926994793894e+01
-3.396413619121974925e+00 -5.741247344829619514e+00 1.501059321653696443e+01
-6.219964890991426465e+00 -4.609682301078972699e+00 1.589647630140707335e+01
-7.318184688772905844e+00 -2.194400142171438084e+00 1.604494902998166239e+01
-7.342861517678916705e+00 -2.020215843105513276e+00 1.606794278553244126e+01
-4.065456939915198298e+00 3.032144779730754802e+00 1.728580087706987101e+01
-4.700536544657538229e+00 3.016726171721868077e+00 1.698450225376924649e+01
-7.495648374731886499e+00 -2.047528722347570884e+00 1.587187883801690091e+01
-1.750975758848097197e+00 2.712052015103086688e+00 1.658867029147448235e+01
-5.677753280304000505e+00 -5.190894397335725774e-01 1.697020020837360121e+01
-6.273577255278448561e-01 -5.384281598498607657e+00 1.428940612542008282e+01
-7.718210934149606572e+00 -7.270061783917582954e-01 1.457545114196853930e+01
-8.815888357387899887e-01 1.875290893067100395e+00 1.477694882405006283e+01
-7.225412785077604205e+00 1.292020938493807947e+00 1.257010450548488834e+01
-3.973731436819332608e+00 5.825574099232407876e-01 1.711059768640942380e+01
-3.899868582210438639e+00 3.118929668260688626e+00 1.077616642870613717e+01
-5.066957323101184407e+00 -4.328265058982521118e+00 1.601256877656283351e+01
-2.359378316893852467e+00 -3.584556013647115069e+00 1.336712451127099754e+01
-6.933446986702127113e+00 -4.398115106965133414e+00 1.426439474756322667e+01
-5.172516924014612272e+00 -5.067359001856951650e+00 1.404436431526184137e+01
-1.853985348991735727e-01 9.828364965277792686e-01 1.466252922965710681e+01
-3.201277964607048165e+00 -3.028795035370873467e+00 1.621139969715550322e+01
-2.464534924604757204e+00 -4.737096785142417832e-01 1.672077962365480985e+01
-3.828504855659210282e+00 -6.063535745583870096e+00 1.457036634274178866e+01
-1.392229346091651054e+00 1.045844013520067506e+00 1.678091939224382045e+01
-7.108297945253368999e-01 1.675529380200097229e+00 1.452418494983099961e+01
-7.198458014164137886e+00 1.085800204895625676e+00 1.258086669325276219e+01
-6.854994731548685216e+00 1.526726972464694798e-01 1.658178949160101112e+01
-1.424267699678914756e+00 1.758196963765343401e+00 1.238317497094470454e+01
-3.392595174681662940e-01 -2.401891514161351271e+00 1.285896582788391029e+01
-1.650421344037218185e+00 -1.767623983314127845e+00 1.293499839050476297e+01
-3.585565109948298357e+00 1.801523900545076717e+00 1.142841390863970830e+01
-7.223213269817096993e+00 9.308479713503462483e-01 1.265134602449073853e+01
-6.956226714346075646e+00 -4.571828138562485933e+00 1.440264263623732788e+01
-7.374484894453968487e+00 9.064282513005034181e-01 1.282751822042458301e+01
-6.229558906790139128e-01 -3.145927000755656788e+00 1.542650585597874269e+01
-7.112010448213726299e+00 1.647607692153297609e+00 1.363231719076638271e+01
4.426610177125178680e-02 -1.489814680279700099e+00 1.377453428060072227e+01
-4.184692345792331736e+00 -5.958442891041191736e+00 1.419700348189474326e+01
-1.323186100378968000e-01 -8.804082594354513125e-01 1.285174404572258666e+01
-3.268271857805665093e+00 5.605062631853107158e-01 1.215286092638980975e+01
-7.917720715006212329e-01 1.886090272498209597e+00 1.534045258103477849e+01
-1.306776146233201708e-02 -5.072921509112429117e-01 1.481568519277906049e+01
-2.691583687824489868e+00 2.943739345443644240e+00 1.225178901511999285e+01
-7.232478309149262152e+00 6.655168990713936639e-01 1.274382818306150611e+01
-3.908315927969181480e-01 -5.111933072824472291e+00 1.429400230555688367e+01
-4.969753567865994981e+00 -4.458613165332058870e+00 1.393737025498662874e+01
-2.055131322735115340e-01 -4.653404345523941998e+00 1.330204430748724675e+01
-6.022249410650911017e+00 2.278675570905448922e+00 1.157206527984848421e+01
-2.060692674282781134e+00 2.835300452789590864e+00 1.598567697137450594e+01
-9.583892291092903637e-01 2.113269492127307192e+00 1.614552375870237100e+01
-4.714219424118180513e+00 2.219425942547170738e+00 1.736201237845489587e+01
-4.187738313399569368e-01 -2.095651363536965572e-02 1.242889220739096956e+01
-7.585785759376729942e+00 -3.176099526831015485e+00 1.428571515436042105e+01
-4.400458853929205993e+00 1.996536743030785654e+00 1.131639488866168008e+01
-1.343426999943503342e+00 -2.384616222550933085e+00 1.298389170339696719e+01
-1.511448518366887761e+00 2.165000019368883422e+00 1.377438114748669662e+01
-3.731714225396156603e-01 -5.270338465199890798e+00 1.389399175650812523e+01
-7.439746667205418440e+00 6.866716116538315040e-01 1.298435155136732178e+01
-1.759976284487360987e+00 -5.417465272981969449e+00 1.477644232149973291e+01
-8.307382433122354470e-01 -5.618149510856533801e+00 1.413715996943029651e+01
-7.052322254144629099e+00 2.684148162801979209e-01 1.273756442682858037e+01
-4.443833369340744355e+00 -5.932410022052418963e-01 1.693634614401824123e+01
1.743374541620208440e-01 -3.848478820570800263e+00 1.331676046136447056e+01
-7.137294900488961424e+00 -1.449714707258592306e+00 1.632134996401380889e+01
-7.339595170848808969e+00 9.033757648933339324e-01 1.611413228018651367e+01
-2.791712505445691495e+00 -5.747348849468803422e+00 1.474340815024570261e+01
-2.908277559221438047e+00 -1.414334789114034319e+00 1.659838167124531694e+01
-6.990432004519262499e+00 6.596682269356946016e-02 1.279489204025018623e+01
-6.818932566483866253e+00 -7.587386024791853423e-02 1.281952056500966464e+01
-1.030124959525886563e-01 -3.101728312970356338e+00 1.493744950831162654e+01
-4.600024559681527236e+00 -5.911835200962360481e+00 1.503985280601162700e+01
-6.804292592360629000e-01 -1.311998655022553972e+00 1.607986088780910094e+01
-3.932015397533759060e+00 -5.572316563671965817e+00 1.529200802615269694e+01
-7.218902375568346130e+00 1.513887272214835100e+00 1.320843532326466274e+01
-6.789031699944760412e+00 -1.777441253183044134e-01 1.288997163928852174e+01
-2.053933161919331063e+00 -3.858249114329081131e+00 1.560818787463334090e+01
-6.004655058764061693e+00 2.073268883681093744e+00 1.703361080521353088e+01
-7.097790879042923606e+00 1.259013822492827117e-02 1.287071365270189816e+01
-9.503870587411014093e-01 -1.916781807815712391e+00 1.604949137182230956e+01
-3.553472213868927199e+00 -3.923655854259008979e+00 1.363169316277421572e+01
-6.645343237675519710e+00 -3.429632807548369522e-01 1.297957176856177242e+01
-1.966816716526142983e+00 9.296117771775299632e-01 1.688701009936756137e+01
-3.203551776030754361e+00 9.908892578065912060e-01 1.189202760922769997e+01
-1.996147802831655937e-01 -4.240193087477680756e+00 1.311809814620727721e+01
-1.582729675380416756e+00 2.275107634561031045e+00 1.415040044974024980e+01
-5.790754356184049989e+00 2.290967520839332749e+00 1.139697431889331725e+01
-1.385944403869670660e+00 -1.874658410428737820e+00 1.615785294085839396e+01
-1.548958037604176718e+00 -1.224890641756931187e+00 1.638096874775692058e+01
-3.540352372226320377e+00 2.777463866295079242e+00 1.740553261399520935e+01
-3.985360793201473406e+00 7.401606467213440732e-01 1.713947530189778590e+01
-7.480825236946244239e+00 -1.958252928289317740e+00 1.371397993005296811e+01
-7.303350918683140236e-01 4.892214855287724262e-02 1.639222924072479159e+01
-5.251646341715687782e-02 -4.696482135906900890e-01 1.303671318738602380e+01
-6.192680185119288083e+00 -3.068180217547242350e+00 1.643102933749385741e+01
-4.259095126280407761e+00 -1.820986715574013926e-01 1.699646888970213965e+01
-1.645248276809257781e+00 -2.528453248019578714e-01 1.662774049176558933e+01
-2.629063656248118441e+00 -1.120859458505236717e+00 1.296425064491706181e+01
-4.226314256548200810e+00 1.393288188495159563e+00 1.171241691542428853e+01
-5.114473007685813144e+00 3.018116201783808794e+00 1.235811015653015588e+01
-1.380212996551859472e-01 7.663253817270310186e-02 1.567759397633669138e+01
-1.252581870312998058e+00 -3.491269498043154229e+00 1.552964743939324777e+01
-6.968643429326133010e+00 1.195203050725134553e+00 1.635533451635429358e+01
-7.057560268843260154e+00 -3.427948819304809991e+00 1.589424031241305713e+01
-2.217425856330630829e+00 7.207905286412364942e-01 1.689640800033782497e+01
-2.095346656506140715e+00 -2.357444771089894697e+00 1.314563032130371667e+01
-1.623323013503619405e+00 -5.370307419812098360e+00 1.358094447816363370e+01
-4.382263883058504561e+00 3.070632306380170817e+00 1.494344367134896956e+01
-4.657509119062241076e+00 -1.251636690336781488e+00 1.332617251662502511e+01
-4.032973415028209274e-01 -5.279341750262446453e+00 1.404115840500857004e+01
-2.674362921651995517e+00 3.037348716465908982e+00 1.713156508339017492e+01
-1.203900852243205311e+00 -5.683321045719528009e+00 1.387295239316812356e+01
-2.974673875166113923e-01 -1.006589910033662827e+00 1.261109521046632054e+01
-2.865726809571158995e+00 -6.447517436592311579e-01 1.674793906052527248e+01
-1.271643494735780644e+00 -1.344940658142382617e+00 1.273559395068481948e+01
-4.590447777153079389e-01 -5.285946386116633366e-01 1.604585918572308501e+01
-6.040210245999510619e+00 -8.150871165246798000e-01 1.325282783362628081e+01
-4.150737204522862989e-01 -8.474792476610315539e-01 1.254673988878988311e+01
-7.538862822228311167e+00 -2.397466105507294998e+00 1.388650352251001507e+01
-2.962654494498834445e+00 2.985252445140131883e+00 1.144838911943751825e+01
-7.190626963526041138e+00 -2.432458340791882279e+00 1.610753834694800801e+01
-7.295297995833140980e+00 -1.243342309211166841e+00 1.613412150843481996e+01
-2.742250480027820903e+00 2.755782204985610218e+00 1.123023822773744129e+01
-3.821234620306472429e+00 3.046483336839891365e+00 1.372866365703707103e+01
-4.157052837799728451e+00 -5.704473691321617856e+00 1.521613231840502678e+01
-6.556439216916742474e+00 -4.760538999754481360e+00 1.425241216532692690e+01
-7.394185759477644559e+00 -2.382230125053713898e+00 1.590394591028197269e+01
-1.140035942451824713e+00 -1.922262949905121143e+00 1.609081430437354143e+01
-7.078131952293371221e+00 1.605099398755259532e+00 1.280240386004485842e+01
-7.745456540108987653e+00 -2.757947920511452988e+00 1.448856180769511681e+01
-6.154906024305561552e+00 3.528035674631073704e-01 1.243435437022160883e+01
-1.907317439458507735e+00 -4.447933194676865654e+00 1.532357845518225403e+01
-1.350247323966187185e-01 5.135355383655276773e-01 1.384377376215321576e+01
-7.349523484243357885e+00 7.051505754225068090e-01 1.284501407195715572e+01
-1.807077744392212582e+00 2.451937429503747268e+00 1.415630371664866871e+01
-6.208256777631770085e+00 1.895587513983172823e+00 1.177855519373011717e+01
-3.201455026684386418e+00 -5.888234878942988360e+00 1.472008592716862196e+01
-7.235398612926393191e+00 -3.032482489775984114e+00 1.585997005261340931e+01
-5.564436152304526928e+00 1.489131217602281065e+00 1.721889559260042191e+01
-6.582522540335038919e+00 -2.246730854834745550e+00 1.655441859706049357e+01
-6.517638503842979603e+00 4.185761532550692499e-01 1.684357984979957124e+01
-1.021056339515409306e-01 5.141149136096553329e-01 1.405232300573308279e+01
-7.185557690539107867e+00 -3.964803286482581512e+00 1.419710087999436965e+01
-1.100216884178239374e+00 -3.869164245670556390e+00 1.534077943365604924e+01
-7.314814978658575662e+00 -1.450023045860964754e-01 1.307211819591816848e+01
1.188240346925466540e-01 -4.178597700324655939e+00 1.340420751935269195e+01
-5.962111889754022620e+00 9.056570379541381000e-01 1.710343148061958729e+01
-9.484360577489444610e-01 -2.105085576032970085e+00 1.599982131257624118e+01
-1.948700551377391399e-02 -2.625531870418463587e+00 1.300840612518898709e+01
-1.207234081013549565e+00 2.023886266300181536e+00 1.432709655201017895e+01
-5.539491896426867790e+00 -5.862045521221271649e+00 1.513771057372992246e+01
-6.994473122472637527e+00 -1.465251268807181706e-01 1.291688553211243473e+01
-3.292543599799496512e+00 3.110431386531371523e+00 1.721768491628259667e+01
-6.850003266076795327e+00 -3.267051546535906237e-01 1.298642840576787094e+01
-4.903445808458132049e+00 -5.344372448317399105e+00 1.554892534682672434e+01
-2.191444902827618613e+00 2.801160385249161333e+00 1.462292275396172059e+01
-4.739481226526331525e+00 -2.313783054395873506e+00 1.660949837675758900e+01
-7.263687258972232996e+00 -3.404028743230946841e-01 1.310135951499339413e+01
-1.705445439534016838e-01 -3.885747911494057405e+00 1.303550680783092375e+01
-3.414212115261233471e+00 1.552462507482979870e+00 1.157446705344965565e+01
-7.282604466079896532e+00 2.963213131513372511e-01 1.289959263955369195e+01
-6.828767119351482506e+00 -5.578609608129692088e-01 1.307382639832843907e+01
-6.448294039244493625e+00 2.164617481633630103e+00 1.405586587780289065e+01
-5.078123458513816857e-01 -2.238535052338570974e+00 1.281814089434982051e+01
-5.469863436930841871e+00 2.811417103767132275e+00 1.318227615035816669e+01
-3.090290444165243677e+00 2.696282770397753659e+00 1.096423427701678932e+01
-2.197670097492814278e-01 -1.454636401335282603e+00 1.269730352477040114e+01
-2.097757982780028563e+00 -5.209200986825559987e+00 1.500383137204531536e+01
-7.409216290171679375e+00 -3.225352265587373868e+00 1.399210074305375784e+01
-5.244753958133351546e+00 2.895470038295662629e+00 1.134392630501593757e+01
-2.989231903189932815e-01 -1.113078723312543872e-02 1.250152392097957588e+01
-5.464078540607735235e+00 1.384236212311861225e-01 1.263610832206677159e+01
-2.233791153407312713e+00 -5.792392020313392287e+00 1.394467920774028968e+01
-2.813363652259541769e-01 -1.208851581884798465e+00 1.264158186358232783e+01
-2.556911674054579198e+00 1.514359473700492842e+00 1.709736134395375373e+01
-1.640713919903817208e+00 -3.232438863105688398e+00 1.573647521656347337e+01
-5.501204344706406957e+00 -4.027581869285824290e+00 1.398439609909705084e+01
-1.744511751722006787e+00 -2.035005806848544818e+00 1.617770739867559726e+01
-4.026194105647872945e+00 -1.248824703372418909e+00 1.322958665447938742e+01
-6.277837892436664013e+00 1.616963331134083415e+00 1.188525625931643148e+01
-4.858570960078348655e+00 -1.740209403713189329e-01 1.703473412427749523e+01
-1.141655456876788932e-01 -2.309763091149226621e+00 1.506114530079659986e+01
-3.596157050331987293e+00 3.032881880760799564e+00 1.389237451425972480e+01
-7.392571298132976310e+00 1.178132646130473304e+00 1.499406536458273465e+01
-5.703109081236143574e+00 -2.849924733567545054e+00 1.382076548039595210e+01
-1.315673602428384381e-01 -4.700429808078076199e+00 1.428278524667488014e+01
-4.978734276433645078e+00 -5.811581665232007587e+00 1.432234556713629203e+01
-1.946807866682876753e+00 2.652851020984344554e+00 1.500559823022232209e+01
-3.943866518065622273e+00 3.099685964962516582e+00 1.728462125996336951e+01
-7.637000197367391330e+00 -5.310969940957204205e-01 1.376754750043339115e+01
-1.182409303281106272e+00 -5.448084584167763644e+00 1.363978049879149879e+01
-7.242839981959406925e-01 -9.179415061318975111e-01 1.618531327478874360e+01
-7.313902657933036622e+00 1.453530011958342971e+00 1.400267206664063124e+01
-2.844443928196813687e-01 -8.370095589379772383e-01 1.260636956095267536e+01
-4.118711063197228128e+00 -3.290622326071520831e+00 1.372573617539156388e+01
-5.848793226337466677e+00 2.598709739257885953e+00 1.418636479277668272e+01
-6.420390199033555234e+00 -3.661545427204986769e+00 1.617755041865092736e+01
-3.176434841935129594e-01 -2.705020515713693618e-01 1.252133221107001404e+01
-2.590633496227588317e+00 9.592530942956195572e-01 1.185565176590002423e+01
-4.017394349140436915e+00 -5.540826862446194490e+00 1.386040821180680993e+01
-4.829166296562904748e+00 -5.394104611276528960e-01 1.697039733474731449e+01
-4.017029865845588077e+00 -1.946225221592781107e-01 1.697449832861170549e+01
-6.587348483535782506e+00 -3.591424134770212273e+00 1.615044172166082248e+01
-2.486104066822433900e+00 -1.529460772825804060e+00 1.306156013264916638e+01
-6.647672732904347903e+00 -3.673784837802480219e+00 1.607831495464327176e+01
-4.473373065574600460e+00 -5.539317467687220997e+00 1.397368249305625554e+01
-2.035165840673888393e+00 -5.802043303998853929e+00 1.395771554590527685e+01
-5.853804266291294134e+00 2.636312438069067454e+00 1.664868189033940737e+01
-7.158252078590707335e+00 -4.380660876730805064e+00 1.460376946784664298e+01
-7.488332670029707927e+00 -2.424123243620127433e+00 1.577329914647280518e+01
-7.515599858465167316e+00 -2.192971696277445037e+00 1.582730197734064959e+01
-5.431879331847049741e+00 4.624115022686167142e-01 1.715883410765402672e+01
-1.530367497264815135e-01 -4.054513876412448425e+00 1.307861458598983617e+01
-7.483998176368796607e+00 -2.538272558490309638e+00 1.385838889609386015e+01
-4.017706874917599258e-01 -4.850947335403103189e+00 1.333634729416082010e+01
-7.361295346836024933e+00 2.853978836582518053e-01 1.299232658632967130e+01
-2.449679485236553322e-01 6.528646712478317626e-01 1.605381922167105913e+01
-2.828659994466531380e-02 -5.269341741455559891e-01 1.501116452624500042e+01
-6.750861840719035278e+00 -4.579107790220312779e+00 1.425535302879917410e+01
-7.288298146570416414e+00 5.736526164700606056e-02 1.297728231161056200e+01
-4.727492670021012700e+00 -3.514276109154272909e+00 1.384719597253464585e+01
-2.292968796686214006e+00 2.564975720942116677e+00 1.199971546874306583e+01
-5.959631561234775887e+00 -4.195121592923172216e+00 1.401806622543947967e+01
-4.835790678479893856e+00 -6.079991982691244523e+00 1.463235632978195966e+01
-1.745124438541889589e+00 1.917083471344914081e+00 1.696173248391680843e+01
-4.208291916250174403e+00 -6.089950679230702768e+00 1.461240634345221068e+01
-6.908601987074774797e+00 -3.795652601915733726e+00 1.403556932426392123e+01
-7.049725961986911038e+00 -3.018983546501443627e-01 1.300982935500778481e+01
-5.338444257057209263e+00 2.858364828930436641e+00 1.480820879208296859e+01
-3.830888434862733227e+00 -5.491132396638235491e+00 1.533370177776269472e+01
-3.178142134563431753e+00 1.784361020845578238e+00 1.144586693460239601e+01
-7.037536639921109227e+00 6.584802863930631078e-01 1.259919988875306629e+01
-7.058815868916350489e+00 -4.121922709022929343e-01 1.305522929439710467e+01
-7.035919541344439310e+00 -5.504408892260568287e-01 1.309118450471710204e+01
-8.940516630141992493e-02 -1.633329481030884267e+00 1.279627580871303039e+01
-6.343951048614260735e+00 -1.495917324142409743e+00 1.676020272038795511e+01
-1.219214969744646826e+00 5.405032396931985783e-02 1.657009015790318429e+01
-1.120037311210868580e-01 -1.449258073833266103e+00 1.275667024825314044e+01
-8.864889330899764497e-01 -3.105303633453558865e-01 1.639364751549016930e+01
-6.175750190619131885e+00 -5.625142228580354065e+00 1.474667692527087226e+01
-3.350841747078666444e+00 -5.555211317048106778e+00 1.514753318859544251e+01
-6.976499963426462614e+00 -3.976920119728143188e+00 1.409949849505501973e+01
-3.245966391914681282e+00 -3.992464917538308455e+00 1.586479273372374266e+01
-3.727531000520466264e+00 -5.392663086205217837e+00 1.537135872480082455e+01
-2.265376914777307960e+00 2.830524024888748658e-01 1.215846719844226342e+01
-1.378100961541423475e+00 -2.301032346177567245e+00 1.602152265262928310e+01
-5.065889474913953805e+00 -5.985532970152531718e+00 1.497327618416370498e+01
-1.132756422076516500e+00 -5.016933648939528645e+00 1.486021288793997641e+01
-6.545884046540576762e+00 2.085391610009901253e+00 1.383915108164194763e+01
-6.189921251001575087e+00 1.266857980715967891e+00 1.196391839665358603e+01
-1.650632563452654855e+00 -4.921202601317236081e-01 1.658213850536423806e+01
-2.399527708962969630e+00 -4.710630925055874663e+00 1.346457606772770177e+01
-6.916369330081022504e+00 -3.611971435662921781e+00 1.398721057664679890e+01
-2.597982344477473671e+00 1.568723978332448032e-01 1.685045766086826191e+01
-7.746971184827641466e+00 -2.726355952990266562e+00 1.472221886860073781e+01
-6.444701933156400386e+00 -3.885474289654396340e+00 1.607987786889939130e+01
-6.557432920640082763e-02 -1.522772716354750200e+00 1.514004013022718809e+01
-7.648413871920722862e-02 7.101286124320010940e-01 1.468643642389087844e+01
-7.469218276598777351e+00 1.196492738336229156e+00 1.327023755941004524e+01
-7.286016563163055793e+00 3.614620848799701136e-01 1.619367655430098907e+01
-3.006666549194217275e+00 -5.135562350232978801e+00 1.359893567438700401e+01
-2.287552656588531796e+00 -4.424924623972827042e+00 1.543667026075872784e+01
-7.570212064444855393e+00 -2.393218790627914316e+00 1.565343805304759783e+01
-5.154703091049555042e+00 -3.059830321986648727e+00 1.383709883994228207e+01
-6.805550642191779076e+00 2.822944917880424454e-01 1.260583956856040189e+01
-6.074743205485724218e+00 -2.605120493848416263e+00 1.375698488446111512e+01
-1.428087101320727914e+00 -5.816584698639538864e+00 1.415456383402736762e+01
-5.020053446466729241e+00 2.986166313681142270e+00 1.556005014101347328e+01
-7.119976242762601437e+00 -8.782651510944836648e-01 1.636352697390448085e+01
-2.577915832900677273e+00 9.065754883078548376e-01 1.698320393522118721e+01
-1.870757018485813550e-01 -1.122362949466162663e+00 1.563553761072727966e+01
-4.179171420377203461e+00 -4.302434395334756800e+00 1.376491746637988811e+01
-7.581868199975678735e+00 -2.188755298059273269e+00 1.570592635175381346e+01
-4.383455126452229678e+00 -5.604494465689501048e+00 1.533149550189276411e+01
-6.502218248334909134e+00 -5.351271212774370234e+00 1.474958612499759525e+01
-2.854566728420055988e+00 2.932628889253122484e+00 1.725227745527805823e+01
-3.216327903619199624e+00 1.742447562547263518e-01 1.694407075131843854e+01
-4.538373139601529438e+00 -3.696514151853610652e+00 1.383304742358529538e+01
-6.797100906234799567e+00 1.533805323823869582e+00 1.640503795100372386e+01
-2.602515563195446635e+00 1.241799504713196001e+00 1.171598367625903947e+01
-7.538251412899157344e+00 6.408677945755484329e-01 1.321227963888729207e+01
-9.839018742685212704e-01 1.842185855707566322e+00 1.426257303511878760e+01
-6.922214121377165519e+00 -3.180877233192330067e+00 1.387360131430467547e+01
-5.245255202394790928e+00 -5.881633163304674561e+00 1.448877147045142166e+01
-5.803733305964147604e+00 -4.620446697294825711e+00 1.407222843751906183e+01
-2.108531599863086026e-01 -4.701277198069328200e+00 1.447745407119232297e+01
-7.244117097168859765e+00 -5.369026070759519431e-01 1.315461358717699980e+01
-3.872723419965773850e+00 -1.062635704311173601e+00 1.312925590017117727e+01
-7.255432575186516075e+00 -1.505697372235752951e+00 1.340164342307441459e+01
-1.912244915900424447e+00 2.297943881646038911e+00 1.703420086222225294e+01
-7.064710071908296030e+00 -1.688455725631828663e+00 1.338305282605918123e+01
-6.854251219839976983e+00 9.700276318079980031e-01 1.658338713645427376e+01
-2.441730157984781435e+00 -1.245709187456950362e-01 1.240706277881613673e+01
-5.196444366925061509e+00 -2.855278457018587623e+00 1.649580384800480815e+01
-4.004577969771858648e+00 -5.621398563540585869e+00 1.390355737223596222e+01
-6.632125253374489660e+00 -3.072951719284424232e+00 1.633499830328988978e+01
-2.365197137289205109e+00 -5.610115675873356800e+00 1.479094630000527744e+01
-6.072200879658327999e+00 -1.505674858805579053e+00 1.680172952172928902e+01
-6.875368574184173909e+00 1.792982129658837298e+00 1.279171160423693365e+01
-2.668097128383235983e+00 -5.595068971648283096e+00 1.488130490722505428e+01
-2.462076221801898779e-01 -2.910364742306073449e+00 1.528024447912324391e+01
-7.073245616127545432e+00 4.230914364492216473e-01 1.269271051810623518e+01
-6.092886433083977593e+00 2.441707363272041853e+00 1.420473592191552470e+01
-3.596463332306484517e+00 -5.933356825651824096e+00 1.480870565742069900e+01
-5.660788124921567466e+00 -4.455331731321352073e+00 1.607310792637580832e+01
-2.552802489826687005e+00 -1.607854250059208123e+00 1.648972749276439842e+01
-5.496390003552132697e+00 -1.493343712338810469e+00 1.682693165111588840e+01
-3.740591753618381254e+00 -5.594605914563477000e+00 1.524498284455633623e+01
-5.604826908837019062e+00 2.243328215088756572e+00 1.133206717526720197e+01
-6.685014429550239612e+00 -4.092684823690523110e+00 1.408438581055148475e+01
-2.598203838979200597e+00 1.510776626371371556e+00 1.157824049533650523e+01
-4.221789470713103398e+00 -6.094182632961198109e+00 1.443315078770602966e+01
-7.658394283585209017e+00 -2.200096064641670068e+00 1.552444020592138330e+01
-3.594918752540709583e+00 2.742202107649363896e+00 1.084858249419907494e+01
-7.286904521886652830e+00 -1.569523930053561500e+00 1.344030997420012952e+01
-6.480811701528486957e+00 -2.283986988549977948e+00 1.658495956812059902e+01
-2.281840332173430408e-01 -4.976576750170218055e+00 1.352347138588881492e+01
-1.200169923294666319e+00 -2.485770544759696943e+00 1.592873553940354370e+01
-1.669316555253572698e-01 -2.338369411526991293e+00 1.520462569408702436e+01
-2.242488139844458939e+00 -3.048815417951609152e+00 1.596707113079324003e+01
-7.153506479983276378e+00 -4.384914897060871120e+00 1.481497514908337010e+01
-3.451770642382100629e+00 1.901020230567814773e-01 1.697871759855275187e+01
-6.349323158491793073e-02 -4.602989738825713495e-02 1.303195084726673159e+01
-2.567171053643983125e+00 2.328513095934832577e+00 1.125455564336807512e+01
-6.485116437826317970e+00 -6.801343181850590947e-01 1.678041645997345555e+01
-2.972739361678487402e+00 -3.734323162410509767e+00 1.351157525466236464e+01
-6.389405496980188559e+00 1.316650477481586368e+00 1.691908987520630703e+01
-7.112654202949889815e+00 -1.781828260293631061e+00 1.343295346162691217e+01
-6.365976092341513848e+00 1.927174481731292577e+00 1.676999520219539974e+01
-2.531830026964264846e+00 2.331190275752566432e+00 1.722263401594878829e+01
-1.997189464548167592e+00 -5.856404979611252948e+00 1.432897716373948427e+01
-1.672717961546159593e-01 -4.323698836189608485e+00 1.466179139273053167e+01
-5.722545071891353530e+00 2.654926521342571011e+00 1.258832753694439432e+01
-2.911194469387952122e-01 -4.519133415780542506e+00 1.470921887135852657e+01
1.586444059871316981e-02 -1.084119780496120899e+00 1.376561202568511177e+01
-3.681782327168780178e+00 -2.318635827588301890e+00 1.346378424296425536e+01
-1.661370665088656606e+00 -3.643076074216248461e+00 1.558579676603046593e+01
-2.007564952079530229e+00 -5.607225672539827954e+00 1.469825279199909218e+01
-2.420268493891060135e+00 2.876220944596607154e+00 1.362153281635811553e+01
-5.030290745787623585e+00 -6.127845524460368010e-01 1.310734888963588318e+01
-7.328850643348556737e+00 -1.017498520645196747e+00 1.613253318868934727e+01
-7.385604937172105977e+00 1.292132184025593933e+00 1.302487933201745207e+01
-2.155943098227095511e+00 -5.609317116561681971e+00 1.473678400670346278e+01
-5.499764549340065756e+00 -1.968611887273908234e+00 1.672309208761607024e+01
-2.966219978437258042e+00 -5.770037016230922688e+00 1.476838527478453855e+01
-5.663846454075305736e+00 9.577133652815473797e-01 1.205111046471182945e+01
-5.970590238234816383e+00 -5.643065316757795102e+00 1.456006077693472989e+01
-2.151025282184941823e+00 -2.265314197110721128e+00 1.620371753561206063e+01
-5.495642760855586673e+00 -1.083115726102976240e+00 1.335154615932460942e+01
-6.887706242168738058e+00 -4.209899418105214508e+00 1.558254614211375255e+01
-5.704873157444150245e-01 -5.306770220691257478e+00 1.431327449304535904e+01
-4.045405828203459286e+00 9.358080732146384362e-01 1.200437866228982742e+01
-1.629052482880813502e+00 5.002287544061067015e-01 1.675643006801253776e+01
-1.803659324881952353e+00 1.078148822221125958e+00 1.176911387609382942e+01
-3.991953526835671617e+00 -5.978534984659476414e+00 1.420639252681573694e+01
-7.020492341412342796e+00 -4.190413007964550296e+00 1.543037187880873873e+01
-3.087475054429136279e+00 -1.222574535642790394e+00 1.666763048148912318e+01
-7.384063489613905240e+00 -1.163938495376072080e+00 1.343122695478743012e+01
-4.117037799778748841e+00 3.146194628745275779e+00 1.636687971322320223e+01
-5.457141448332763822e+00 -5.948850049929377271e+00 1.463814757336026062e+01
-1.393581353169195403e-01 3.557950718415185953e-01 1.307078591827984937e+01
-1.054336022641116921e+00 -5.568427680331182295e+00 1.374665349787040824e+01
-7.383164333212472563e+00 -1.683677016181779340e+00 1.354765613857176376e+01
-1.938347200231603562e+00 -2.782349063548507306e+00 1.317590292848685252e+01
-5.445547522737252066e+00 -1.121223395071552442e+00 1.689024484469888776e+01
-7.792015119066100226e+00 -1.950714566938705818e+00 1.455169543789040532e+01
-7.336142937162548172e+00 -2.145571086813126804e+00 1.363692069364178749e+01
-3.060959059968537233e+00 -1.006916063728435340e+00 1.670925692466975576e+01
-6.363505639212492682e+00 -2.560862140949019761e+00 1.372337745131924081e+01
-6.380184027701679028e+00 -4.230291229512268991e+00 1.406531882490132901e+01
-7.509123323291883700e+00 1.645194892377799256e-02 1.576456397831470824e+01
-5.581002266125627997e+00 -1.159009248697886463e-01 1.705003997227952439e+01
-4.968286169376848527e+00 -5.917429358116591764e+00 1.506610532586050866e+01
-7.295740031631184230e+00 -2.933451316158484090e+00 1.384280848126080699e+01
-3.547743275704621890e+00 -5.421466548310363009e+00 1.530309620733590137e+01
-3.138144185158013855e+00 1.781060306943912597e+00 1.722716896571477818e+01
-3.337343274453778985e+00 -1.837820546345788397e+00 1.657276544158154152e+01
-7.138675407017230690e+00 -4.274119408946392973e+00 1.511815495247891405e+01
-2.040315005859961950e+00 2.635976227099741553e+00 1.416966551536967600e+01
-5.990963721275110565e+00 -4.846174917010012351e+00 1.415239387047784092e+01
-4.473797259144207672e-02 -1.128914147733338091e-01 1.527178792859865197e+01
-1.096498295367800857e+00 -1.537120368606475385e+00 1.275096320374162318e+01
1.322578596423680253e-01 -4.353498157140744063e+00 1.372124684732119348e+01
-7.270626167613494673e+00 -9.439787990309425059e-01 1.327933419691047234e+01
-1.601350680768595547e+00 -5.615334814757275694e+00 1.373757074652209909e+01
-3.430288811923432046e-01 -4.686233135192205523e+00 1.464717614616225561e+01
-6.100954370904778656e-01 1.469219833752958060e+00 1.634310615218897667e+01
-6.507144527764025632e+00 -1.586605527530666304e+00 1.341147795379869834e+01
-7.057139866725581356e-02 -1.285814306757864456e+00 1.293350661212132380e+01
-3.487469005791947740e-01 -4.871245021540028475e+00 1.450489809286311171e+01
-5.106977794960368300e+00 -1.533824543191407930e+00 1.681404694710158410e+01
-7.402821721741696059e+00 1.228326892104652401e+00 1.481380289602541822e+01
-7.636294662582171489e-01 -5.475641363500501235e+00 1.430777194524766927e+01
-2.706600473168113030e+00 3.078537026510639318e+00 1.613244107260191029e+01
-5.359001729256052116e+00 -2.530462429474476860e+00 1.659612621813979061e+01
-6.140921518832501036e+00 -2.089918474266654780e+00 1.667999768894386037e+01
-7.150988393228407070e+00 -3.750388893151970215e+00 1.407753786171985055e+01
-5.870058352732613116e+00 -9.138049299724917418e-01 1.689988702627477224e+01
-7.916203577306863970e-01 1.915164144563454407e+00 1.555060494769801593e+01
1.599698789807391108e-02 -8.556726729848614932e-01 1.378643782086924929e+01
-7.604340401678020278e+00 -1.744957667090501374e+00 1.389025577770992825e+01
-1.406834040280117604e+00 -5.766202995711641854e+00 1.429025553686738093e+01
-3.000027764046096834e+00 -3.221873105075825805e+00 1.610396818043815514e+01
-6.486947942354693630e+00 2.057303324827945978e+00 1.625200753265343323e+01
-2.213293808781962468e+00 -5.796682675575509869e+00 1.452197745876591384e+01
-6.006433050070667079e+00 -5.408147872740260986e+00 1.437220813040324785e+01
-2.610103183594956633e+00 -5.813010023841541418e+00 1.457841112585270693e+01
-7.254797414514463361e-01 8.303425407222012611e-01 1.244469951035296518e+01
-5.994127211236984110e+00 -3.278958024581979824e+00 1.638615432303195618e+01
-6.334976615741655159e+00 6.598466677157172056e-01 1.223523464860535981e+01
-5.577334826498677067e+00 -5.698846742262154486e+00 1.530728742763944794e+01
-1.653561976019024549e+00 1.671147062926051419e+00 1.181316495367309827e+01
-2.056278286506738606e-01 -1.309491916809755852e+00 1.559664667031860219e+01
3.361673569996126432e-02 -1.413049399505632575e+00 1.335185236870312409e+01
-4.522319428359166338e+00 -4.070251370589685003e+00 1.602771674668694502e+01
-7.463723849772552654e+00 -3.528772059964171426e+00 1.427226383043123192e+01
-2.591910075098495803e+00 2.100487632942019012e+00 1.128420839072670034e+01
-4.014460940422219792e+00 -3.583822320509074455e+00 1.614343271506423250e+01
-4.127741584912804740e+00 3.114864505777171999e+00 1.572633730960649601e+01
-7.646977420606887677e+00 -3.144412892492796097e-01 1.487465666007487997e+01
-7.528026007270404385e+00 -2.264844897852198446e-01 1.575560524240266247e+01
-2.785395608633116638e+00 -5.830290787367169436e+00 1.459765867162027675e+01
-2.153954043101904414e+00 -5.006022630022322950e+00 1.513019030546547228e+01
6.877331673432518500e-03 -4.665224957313010457e+00 1.368795002028057084e+01
-5.624096780114745897e+00 -2.078094445171085880e-01 1.288867524195500991e+01
-3.407979077539657453e+00 -5.913470285045229424e+00 1.477607359423933175e+01
-4.404515117592100459e+00 -6.090109554346462950e+00 1.444300299313454516e+01
1.288523164589561176e-02 -3.842357533065130504e+00 1.311855895086306489e+01
-3.958020744054183471e+00 -6.002652446117851426e+00 1.477604808642619716e+01
-3.983067676599054252e+00 2.762361614440746571e+00 1.083654568860017875e+01
-6.929707723118109008e+00 1.621846220691636642e+00 1.241099584145790047e+01
