-5.763247655050740548e+00 3.068951350021645874e-01 1.717693924953073292e+01
-6.548234174083255255e+00 7.117470557656389030e-01 1.683949820281743115e+01
-6.763976854213820999e+00 7.280651444730209532e-01 1.678493413352521912e+01
-4.264311190846076904e+00 2.862220521269864371e+00 1.507673338171150590e+01
-6.748705820360330065e+00 9.776249108639222252e-01 1.669325034123731655e+01
-6.952794527461786167e+00 9.308726782676363110e-01 1.666456539912572765e+01
-7.154761522631718051e+00 1.582401910000546641e+00 1.640719633799398736e+01
-7.093932461833960090e+00 1.123666027988896365e+00 1.657077158392775118e+01
-8.420718715367446094e+00 -4.018103293527098829e-01 1.209709811573444682e+01
-7.125320691862443212e+00 1.367624497173420384e+00 1.647797343654944768e+01
-5.191177038823204803e+00 9.156651247859293186e-02 1.739333047257684228e+01
-7.452452492941664453e+00 1.662757104712590195e+00 1.632812012950317637e+01
-7.887309217637910486e+00 1.346352024349876775e+00 1.630661004374842804e+01
-8.918420699044748545e+00 9.810622984610735120e-01 1.589871288946420691e+01
-5.406379530534694666e+00 -2.785777203219899079e+00 1.543540585131248122e+01
-1.008146461798218141e+01 -7.431560878898449962e-01 1.455162302849252143e+01
-1.009200691706042363e+01 -9.129276997866867527e-01 1.451217321598178955e+01
-9.902378365981167718e+00 -1.925134293624140458e+00 1.393214002717755307e+01
-9.987357467921761156e+00 -1.922668449696137039e+00 1.408729742904941418e+01
-6.837157523950118332e+00 -6.019022120301475987e-02 1.148182361933584872e+01
-2.541866993580702339e+00 1.360660644651307649e+00 1.553795721616025105e+01
-4.722507384125551155e+00 -3.938291352494996955e-01 1.265905818540954186e+01
-4.955391204369240299e+00 -3.776231478250079432e-01 1.284254216827465456e+01
-4.270450328230952941e+00 -4.244735514677621113e-01 1.248044513726770077e+01
-2.202923642531378956e+00 9.495093217025982746e-01 1.664868335993025994e+01
-2.838642976814393926e+00 1.117207232321033583e+00 1.738146928002065295e+01
-5.458718032589914948e+00 1.628414527158629221e+00 1.227587531522474507e+01
-2.969898521083689236e+00 1.110529087019480610e+00 1.744288845815127331e+01
-3.170686528744196764e+00 1.153957504994066241e+00 1.751056775315296221e+01
-3.203309989500054744e+00 1.337643394407885156e+00 1.747363879102845630e+01
-3.616890739077590844e+00 1.100282567334036399e+00 1.763020063171227036e+01
-4.204599809455351611e+00 7.214042077216108462e-01 1.762493778288695978e+01
-3.787873433244740795e+00 -7.048585349799106892e-01 1.785298993057641326e+01
-1.002636652600475742e+01 -2.398921358917018409e+00 1.565328763505500831e+01
-4.761717212495740981e+00 9.805417867339805138e-02 1.753356637434892207e+01
-6.768100092849152816e+00 1.546426101559323474e+00 1.193113773295583968e+01
-4.425784736964101462e+00 2.640957430286555496e+00 1.446237950776857417e+01
-4.753172650493952212e+00 -1.668662454525778882e-01 1.757357061447604707e+01
-5.745840733892525698e+00 -8.598853334337575038e-02 1.728310951608753498e+01
-3.807550042648865762e+00 4.954107106185365872e-01 1.771923035859633444e+01
-6.737820224394647006e+00 1.540898027503232459e-01 1.697584039753064644e+01
-6.966371742673501011e+00 3.971362886661307101e-01 1.685640420018030738e+01
-7.154256336342795564e+00 5.451260743871007008e-01 1.675647244894735621e+01
-8.413054938356108181e+00 6.053506357964726359e-01 1.637294279878218362e+01
-3.763070895458627163e+00 -2.150856005140565408e+00 1.791993186901128610e+01
-8.747949533244700149e+00 3.507930220326430648e-01 1.630421762380330364e+01
-5.968745459367275963e+00 2.643625711452907368e+00 1.359917807187488847e+01
-9.917287252476533865e+00 1.506860117542718758e-02 1.500091834199088225e+01
-1.007036924146578727e+01 -5.812861405873551712e-01 1.494955498497853341e+01
-1.010981490736455868e+01 -7.908882379932608009e-01 1.491163478335452908e+01
-6.907711754979310115e+00 8.524204553467351619e-01 1.670739450653567815e+01
-8.473434975351700871e+00 -6.560148913132700654e-01 1.220729157108084451e+01
-8.310901308028721957e+00 -8.463585918747514869e-01 1.220816081850617962e+01
-8.020702616462948242e+00 -1.990179297455266783e-01 1.168675075943641417e+01
-2.550011722272454762e+00 7.557508816429505671e-01 1.441425003741807132e+01
-7.906008861108529295e+00 -1.989262914846318120e-01 1.160186539866599276e+01
-5.314799349109446958e+00 -2.424924683385815127e-01 1.282906602250355377e+01
-4.511952911449410131e+00 -6.061978437490692651e-01 1.325762476686143287e+01
-4.694698468500607014e+00 2.803384068278186536e+00 1.432557320329080142e+01
-4.229563837800822235e+00 3.261723503529224022e+00 1.599375291358666829e+01
-1.892125403800970496e+00 2.153203696451924110e-01 1.585957601772242498e+01
-3.620375746088991598e+00 7.118957594523814825e-01 1.769578230645880268e+01
-4.797833164399563977e+00 -7.161268987059196123e-01 1.761903538539937131e+01
-5.048759373107503556e+00 -4.597679791285963491e-01 1.751866265493138286e+01
-3.850338018405678575e+00 3.069486856913713702e+00 1.648066217910116649e+01
-5.215289823487554877e+00 -4.873166027109377962e-01 1.748354267394637418e+01
-5.958714634406477195e+00 -2.728013356045514426e-01 1.727625213697898232e+01
-5.954364908660499722e+00 -4.583255601348285024e-01 1.731107602338518348e+01
-6.741597822205503299e+00 -2.551186398536345878e-01 1.708109565274529018e+01
-6.251270551678346443e+00 -2.781998620142076106e+00 1.526983502244481627e+01
-6.941827552189122841e+00 -7.875859401701612583e-02 1.699187527919430352e+01
-7.165950894435644258e+00 1.102485083619005879e-01 1.689358438662595319e+01
-7.927296596528260686e+00 -3.115359749815941992e+00 1.706989237600502207e+01
-7.175821370294113599e+00 3.457501799579132395e-01 1.682342498964644761e+01
-5.925748050955344404e+00 3.700364497726566171e+00 1.535401301988619593e+01
-7.919367865859576305e+00 5.320273594340654277e-01 1.658094320084359197e+01
-8.115448066367292768e+00 4.955735447951229999e-01 1.652999735346379140e+01
-8.329266455949262848e+00 3.586708201624656533e-01 1.648681069276883449e+01
-8.499939129143282202e+00 2.836641726988308188e-01 1.644545800006250147e+01
-8.537446072509784045e+00 -5.232574826134961388e-02 1.653659846479396833e+01
-1.014680011130283432e+01 -2.372689834390549812e+00 1.463202212053342066e+01
-9.398720589288164007e+00 -3.088507745522653725e+00 1.450881207871108103e+01
-9.203972887507411826e+00 -3.177412147723387204e+00 1.466328765993940664e+01
-9.181137861954365320e+00 -3.248079878778073581e+00 1.475265674623007328e+01
-8.429638385022588665e+00 -2.676832201567640901e+00 1.438217348756594305e+01
-1.806659011570050044e+00 -3.723674859300122320e-01 1.580874807027113604e+01
-8.836156475248888142e+00 7.702356623147504910e-01 1.232860448943346654e+01
-8.090589502804327537e+00 -6.547953490466825732e-01 1.199638067258976548e+01
-6.092282435407178731e+00 -3.591994737706694085e-02 1.218282244883872067e+01
-4.168117196378656075e+00 -6.984608732313940527e-01 1.347048548509459209e+01
-4.110141449008922088e+00 -6.047503621017672470e-01 1.309804193918423465e+01
-1.981170681032526026e+00 1.790825865054265220e-01 1.640557724677498896e+01
-7.930860375130520445e+00 2.325868803236721405e+00 1.303055541123775640e+01
-2.967630328147458307e+00 3.352513785726394246e-01 1.756618881527900555e+01
-3.962310595720577311e+00 1.343341458720241022e+00 1.302742072582169186e+01
-3.014785169774239382e+00 1.013447284888908673e-01 1.761556557018580804e+01
-2.853278079897528574e+00 1.520719760940723031e-01 1.753420272878166486e+01
-4.980564775770195851e+00 -9.086861919063767834e-01 1.757678250201968950e+01
-6.167734758448809806e+00 -7.100084786458723540e-01 1.731495650860496482e+01
-5.769077122971090432e+00 -8.982276757897676989e-01 1.742794684316442755e+01
-7.564021003308242008e+00 -4.780688984463440372e-01 1.693126487080336773e+01
-3.435292215166506402e+00 2.279377666020315552e+00 1.546273972733555979e+01
-7.558599650301931483e+00 1.382194365778827150e-01 1.680219158306539384e+01
-3.258233853906969291e+00 6.594525474248078556e-01 1.290697823243151277e+01
-8.338863268253120964e+00 -4.870520438808015884e-01 1.670261745970314138e+01
-8.520955603684871704e+00 -6.411113581493389502e-01 1.665928873555746748e+01
-9.496946043902482870e+00 -6.485078709198338620e-01 1.614212908473759001e+01
-8.209025474016328872e+00 3.135273262639090230e+00 1.400194490916667434e+01
-9.722556212425043753e+00 -8.110317307258786412e-01 1.595076029773709791e+01
-9.805892932502871417e+00 -8.101101409989467372e-01 1.585394703529114935e+01
-1.008676710461268300e+01 -1.433768809897324914e+00 1.549634183565128609e+01
-1.018405080091783788e+01 -1.813595784719108206e+00 1.525460323112250194e+01
-2.790155769752458159e+00 -4.760552207311669060e-01 1.759489451557471540e+01
-3.786263511978214424e+00 -3.472383545099883007e-01 1.782760038300768457e+01
-4.211194016429768539e+00 -8.988196891432534974e-01 1.779353787956262778e+01
-5.777259150014704581e+00 -1.054836526900754468e+00 1.744808184170255316e+01
-6.361311877620337007e+00 5.336630204559217328e-01 1.695739746160003136e+01
-5.382439236359665813e+00 -1.298440436921999286e+00 1.753986946899982513e+01
-5.744210766364854059e+00 -1.509253054477853961e+00 1.751194453883494617e+01
-6.201324270512650116e+00 -1.073207618413653197e+00 1.737810668044448903e+01
-4.691666968178775932e+00 1.622406776559242925e+00 1.255394861574662002e+01
-7.578635429073000473e+00 -6.779980421477173058e-01 1.695903782002871907e+01
-8.164354771248508058e+00 -6.752989593424022496e-01 1.679196511321885055e+01
-7.781683072854257865e+00 -2.536441864181072647e-01 1.683155358987514205e+01
-7.243218552863399218e+00 3.253773627943352231e+00 1.409941317770930169e+01
-7.923325373656152415e+00 -5.983198544018886178e-02 1.675089006038506767e+01
-5.559762226440426502e+00 -3.107463749093314131e+00 1.765926293221846777e+01
-8.144308112543409806e+00 -4.314435432014865901e-01 1.675722894216681169e+01
-6.423273932178008572e+00 3.460908693227263466e+00 1.457080585235832615e+01
-1.889540564504402997e+00 2.221582670400145121e-01 1.505830415040260561e+01
-8.525235566059318870e+00 -1.270391949664678943e+00 1.675573858364483470e+01
-9.901100777302790590e+00 -1.662958409094359435e+00 1.590912525603935279e+01
-3.488588676244969378e+00 5.651835730060688068e-01 1.237918047633967689e+01
-7.829826303001479637e+00 -2.767229793440316055e+00 1.479610460699926477e+01
-2.770993376409051301e+00 -7.361255632079499733e-02 1.267234054819189737e+01
-7.607477950954835144e+00 -2.571299963722591730e+00 1.476394850539200831e+01
-2.147426292714250007e+00 -4.290069761612956833e-01 1.699012727627161468e+01
-3.776234936476504878e+00 -1.095104398977041260e+00 1.788096557453096835e+01
-6.048542776438876167e+00 1.156275696280800958e+00 1.150633074051776106e+01
-4.143371595707999511e+00 -1.499417381296618945e+00 1.782262155111909152e+01
-5.226035403208421748e+00 -1.508900701601864291e+00 1.758586506728585874e+01
-3.135486887905941877e+00 3.701570884818887741e-01 1.259737983829117525e+01
-5.749207016895551803e+00 -1.160416528682872706e+00 1.746464496060186633e+01
-5.394566635507365149e+00 -1.493683010080517626e+00 1.755683367414644636e+01
-4.644221212128282872e+00 -3.254158839471740006e+00 1.584243272547078618e+01
-5.363290293231095518e+00 -1.699340954486642463e+00 1.759057234381885593e+01
-6.933668781382928081e+00 -1.268613026912329911e+00 1.721632461937107195e+01
-6.466579965395607310e+00 -1.640917126732330811e+00 1.738772884160598409e+01
-3.537726419043965009e+00 1.776883832269817054e+00 1.441035138779280089e+01
-7.167105687833057459e+00 -1.284845243299417739e+00 1.714784760662315222e+01
-6.965561680332668537e+00 -1.453592845617230012e+00 1.722547328088565166e+01
-8.288128812510656473e+00 1.215758589315899307e+00 1.210075277830056706e+01
-7.340027560068523194e+00 -1.450695378541956515e+00 1.711383526046292047e+01
-2.737778560899736480e+00 -1.128516158479386799e-02 1.279580832173888894e+01
-8.891899764712270837e+00 -1.668238901571778676e+00 1.667270675745272968e+01
-9.361760676382221646e+00 -1.459478302750463641e+00 1.640406866611782988e+01
-1.849327870348395297e+00 -9.950764727955051514e-01 1.599569705153661658e+01
-9.260935199191617784e+00 -1.670984885782205165e+00 1.648667830486600394e+01
-1.004669890117252251e+01 -2.236636248292205753e+00 1.564707809082761969e+01
-2.276745673316645124e+00 2.044934410288761217e-01 1.397377431777587020e+01
-8.486738185401669909e+00 -3.768784008926540086e+00 1.552931422234473047e+01
-5.310798895470223435e+00 6.829086514361759619e-02 1.736061964136796831e+01
-4.469581551831150357e+00 9.908354030718971028e-01 1.176456143694485945e+01
-1.001919620222882656e+01 -2.604256274086474310e+00 1.560046470423781528e+01
-8.698906399427258407e+00 -3.692347883815000120e+00 1.539205801420929731e+01
-8.456434127058603423e+00 -3.558691033509912227e+00 1.528476746698983391e+01
-7.844949310611197824e+00 -3.407882776169592010e+00 1.527004578480821095e+01
-7.440747641098384157e+00 -2.646827683706876044e+00 1.488682994671188453e+01
-8.126002002454402628e+00 -2.407030846044610151e+00 1.427322250396083803e+01
-4.796576365252464669e+00 -1.167406630120974675e+00 1.438442566718279636e+01
-6.980056091469486468e+00 9.372062445057633973e-01 1.148189287450720997e+01
-3.791676505647084916e+00 -1.160650497842276252e+00 1.443396933027204199e+01
-2.323499575296503306e+00 1.220426347539362855e+00 1.588467280121017922e+01
-9.658868064431690215e+00 -2.055551682671169722e+00 1.622563648719312113e+01
-1.829262120061934116e+00 -1.507797409913985698e-01 1.583562729110704481e+01
-2.539116376863417290e+00 -1.254687618879896771e+00 1.760049159032435284e+01
-2.266391063036813591e+00 4.453755114370097079e-01 1.445427843916699828e+01
-7.938861184574567353e+00 -6.670697478658308421e-01 1.196237971074921091e+01
-4.384192723624537713e+00 -2.141929041528002564e+00 1.780994609000010342e+01
-2.775717699287979290e+00 -1.090762567828785556e+00 1.769375983159439158e+01
-2.807248359355374756e+00 -1.286010743405676671e+00 1.773995781863079912e+01
-8.225066764110298578e+00 1.657181768187476756e-02 1.183992953367351930e+01
-3.588723520515999965e+00 -1.518634610820769115e+00 1.791783217256212879e+01
-3.799266893119003896e+00 -1.682005710234331097e+00 1.788295950988116090e+01
-4.477167557631169359e+00 1.070258865366612744e+00 1.744935098273555951e+01
-4.817155745023289803e+00 -1.670864386011758462e+00 1.767312069159517307e+01
-4.775872699958797263e+00 -2.128043477363914082e+00 1.771858863205654444e+01
-4.918664505039588519e+00 -1.961688671112044258e+00 1.767122832235082086e+01
-6.603668368055828353e+00 -1.705561906761032809e+00 1.735942799867409292e+01
-6.793618266939230210e+00 -1.672364781550506052e+00 1.730313652601100216e+01
-6.964443727641923765e+00 -1.880986628061502408e+00 1.727607759997579961e+01
-7.547103349407676909e+00 -2.105641231251210055e+00 1.713069087888703734e+01
-6.829574678830781842e+00 -2.997340404352871523e+00 1.525427522734525354e+01
-8.122949785541869971e+00 -1.890573084051255126e+00 1.694453913538298906e+01
-8.421243908432280989e+00 -1.874725992189234081e+00 1.685663094037361276e+01
-8.043497432395600555e+00 -3.644374369661284252e+00 1.545990446873624791e+01
-7.435887957307131479e+00 -3.142796551346649370e+00 1.518118898701248298e+01
-7.252019594655043200e+00 -3.263130117185772949e+00 1.530966929487727413e+01
-6.844340633156011933e+00 -2.812468460181200669e+00 1.515262561115504525e+01
-6.814539761051086941e+00 -2.559538124365814404e+00 1.503412140578044642e+01
-7.033841564479912378e+00 -2.352096695152658068e+00 1.486155920566255872e+01
-7.181444446753616262e+00 -1.993261606216387261e+00 1.457394628408805914e+01
-7.008680162999444185e+00 -1.734267226101589898e+00 1.446439201170947797e+01
-2.430958675276020831e+00 1.427918666007995885e+00 1.608904595461875431e+01
-6.825397008631052920e+00 -1.561580503544696352e+00 1.441743274881518033e+01
-6.841133082392948594e+00 -1.261921481311049309e+00 1.413765010165831626e+01
-3.995661889538211220e+00 2.135184121403592705e+00 1.730204725417925715e+01
-6.983115039143532599e+00 -1.096537651102449384e+00 1.386894069182267941e+01
-5.797046926212906293e+00 -1.010560823840796818e+00 1.428156733203645246e+01
-5.403821589237035816e+00 -1.139866667576087789e+00 1.435860297636791927e+01
-5.126595779696743627e+00 2.705869834491026360e+00 1.674175218258100983e+01
-5.211896893104648321e+00 -1.147437385100501306e+00 1.436133808514041021e+01
-4.581313889307590870e+00 -1.350767428554065397e+00 1.461768254994270677e+01
-4.018881006604998696e+00 -1.334884914175033188e+00 1.464463147441819757e+01
-1.803194786159217244e+00 -7.501984615761204678e-01 1.497281965440053142e+01
-2.608465880845167728e+00 -1.700865862725831068e+00 1.767934821111828114e+01
-3.365619154927287582e+00 -1.909953313840960565e+00 1.792581184050163046e+01
-4.183129240552787564e+00 -1.927759092703665633e+00 1.783870699770675117e+01
-4.274308355941614401e+00 -3.220827167856551210e+00 1.592474074606257517e+01
-2.425398838994327289e+00 1.069300524067945624e+00 1.525447074506126199e+01
-5.179405368438084523e+00 -2.312206012878319505e+00 1.766318910561840028e+01
-2.855544251684184687e+00 -1.721420916683166435e+00 1.782279754026099283e+01
-6.979935192330287919e+00 -2.071658153972465666e+00 1.729007188695580055e+01
-8.329468828506158218e+00 -2.692381812407636410e+00 1.693044094480873696e+01
-8.745621661872473140e+00 -2.468898809359500568e+00 1.676930568735215843e+01
-7.057333338164649916e+00 -3.374064975905057384e+00 1.541418796709496064e+01
-5.870432844262396976e+00 -3.148274024952234296e+00 1.550607607070575966e+01
-7.075275542127619666e+00 3.843419924509197116e+00 1.545425502745077040e+01
-6.855346182410271716e+00 -3.178614049294816279e+00 1.533646809057144367e+01
-2.863334337047485523e+00 -2.803915724732443326e+00 1.559210673942198611e+01
-3.340313021038660679e+00 2.586827034880867071e+00 1.630247658933941324e+01
-6.406990874001277980e+00 -2.619896041595646707e+00 1.516806646995528496e+01
-6.037470578201797444e+00 -2.774123404117741387e+00 1.530718605381502329e+01
-7.871508954134481151e+00 9.785327812609087017e-01 1.179403844751709585e+01
-6.568909460395451205e+00 -2.629792470555938344e+00 1.513938428593149155e+01
-6.811468865024004060e+00 -2.401143343965844945e+00 1.496089935145419503e+01
-7.172441267017201305e+00 2.659498947799969759e+00 1.333264337741580619e+01
-6.629663165170696537e+00 -2.152036847203177228e+00 1.489471328327208255e+01
-7.332181559651656855e+00 2.308903793034490004e+00 1.285919971085758817e+01
-7.551047484023405865e+00 2.300753494534708565e+00 1.287809984803237029e+01
-6.788059578805256677e+00 -1.785603231479840236e+00 1.461860753186401496e+01
-6.599989140841047153e+00 -1.100221077623767307e+00 1.412114997109627978e+01
-6.757649588236401605e+00 -1.131393954008013569e+00 1.405791921873075268e+01
-9.402527350124838534e+00 -1.712003340623514891e+00 1.640381002957300893e+01
-6.436798072636643830e+00 -1.054568339338242566e+00 1.416832648542253992e+01
-6.573646102296740068e+00 -8.747383201222912463e-01 1.390300127054128865e+01
-6.362044051621182028e+00 -7.527794789891552041e-01 1.390746026494245058e+01
-5.785476446612688228e+00 -1.317580249923316682e+00 1.452574661426964298e+01
-5.997384099763340082e+00 -1.131821535645423982e+00 1.435947772207578765e+01
-5.004269474384173577e+00 -1.550008911067302098e+00 1.477899076548239776e+01
-1.962869982706673788e+00 -1.980137159516350831e+00 1.592296295119560767e+01
-1.867207666794171494e+00 -1.183497662842979192e+00 1.597245264349724891e+01
-1.875769341396683387e+00 -1.166183208859734144e+00 1.538001746911205458e+01
-3.988385314626113676e+00 -2.234891718069025313e+00 1.789564056645888712e+01
-6.546739038777023012e+00 -2.495487206223093946e+00 1.744919584675174207e+01
-6.736937578282911510e+00 -2.525509850805444767e+00 1.740051489085819725e+01
-6.953153983247930547e+00 -2.735542437255938264e+00 1.735590480852280137e+01
-6.581280746946058358e+00 -2.736141078884872790e+00 1.745730894308108105e+01
-5.388945656587478261e+00 1.958114922317412354e+00 1.683121496100510228e+01
-7.347008425681916144e+00 -2.908065889893304945e+00 1.724340560139546596e+01
-8.027789674571010892e+00 2.791042064049607863e+00 1.354505390073288140e+01
-7.532868502344084227e+00 -3.118584162596163001e+00 1.719156543544347215e+01
-8.509950422869852815e+00 -2.893876863574901481e+00 1.685424863201436807e+01
-8.187468458222280532e+00 -3.114729246491417580e+00 1.697019153714611406e+01
-8.729055861938089578e+00 -2.707295607560163742e+00 1.676707638081744989e+01
-9.158245330094075598e+00 -2.872601985875553154e+00 1.653851401902203122e+01
-9.485891635289718238e+00 -3.053409516624845832e+00 1.622645911518554129e+01
-9.462235254771844239e+00 -3.224472369865088783e+00 1.617903850441424396e+01
-5.804029436314927182e+00 -2.863085784522467314e+00 1.539185741359145965e+01
-5.631074850086981165e+00 -2.585952022724655741e+00 1.530154170709005257e+01
-7.761298471280256628e+00 3.225129612852304373e-01 1.668894717745288858e+01
-6.440476674145130254e+00 -2.127568767610341194e+00 1.492817888583061148e+01
-5.832646970196409875e+00 -1.572293262372868927e+00 1.470636036388138024e+01
-5.376418454474976016e+00 -2.038742792795075864e+00 1.506718546384843194e+01
-2.285128324048461224e+00 -2.000192972792015356e-01 1.335266133222664564e+01
-5.626577903128049840e+00 -1.765412204142962960e+00 1.486401523906601341e+01
-8.804103840892818056e+00 -2.751909771024091400e-01 1.231773869361623497e+01
-4.617498594068904616e+00 -2.138688811288490754e+00 1.531250183917523344e+01
-3.914459743671439895e+00 -1.229520702602987736e+00 1.452655941704205134e+01
-3.842396370190150456e+00 -1.960441180577658926e+00 1.527730021303440822e+01
-4.048037397965771333e+00 -2.150462111601153747e+00 1.542687655063615182e+01
-1.942340433461523297e+00 -1.504106551529153180e+00 1.559970610448149131e+01
-4.796332420906705529e+00 -3.104437114487272442e+00 1.777070225687283767e+01
-5.262444181729398984e+00 3.552717239932235760e+00 1.528117044681083314e+01
-4.529071961149493397e+00 2.281167278087532058e+00 1.712835445264794743e+01
-6.356066472213435681e+00 -2.731313970819031045e+00 1.751250785480754502e+01
-6.561135418470138703e+00 -3.145062425302152409e+00 1.746655132372329433e+01
-6.751254919204675353e+00 -3.101691836577429751e+00 1.742161196243158372e+01
-7.270173688650587884e+00 -3.338395930276976120e+00 1.725607486835140492e+01
-4.892693428088607632e+00 -3.845112764306207520e+00 1.625827588269723378e+01
-8.268680302829398698e+00 2.422069115518483251e+00 1.325062462321890422e+01
-7.747004344442182777e+00 -3.296530975076520154e+00 1.712372459040435757e+01
-8.305897955520851639e+00 -3.286833278771001066e+00 1.692248448980394926e+01
-8.156668778820439059e+00 -3.499105602328530740e+00 1.696363553407140756e+01
-9.110510315493769440e+00 -3.282159969572530311e+00 1.648681211836620975e+01
-2.850740735172781370e+00 -7.101768963211586572e-01 1.766660741206096219e+01
-5.269001118353672020e+00 -3.224246531173732055e+00 1.565679461777537540e+01
-5.440060840265855902e+00 -2.962902516689112531e+00 1.550748816940006236e+01
-3.616433600802076320e+00 1.874834632520379518e+00 1.444638728828969931e+01
-5.461362865969857872e+00 -2.588582390627347962e+00 1.533508912181406458e+01
-3.989168854080591409e+00 2.092732723994365607e+00 1.422494943800219147e+01
-4.845353742091991656e+00 -2.368319632751586301e+00 1.537462602494500885e+01
-4.437814397231779395e+00 -2.410603340459318567e+00 1.550539282028977084e+01
-4.258837887323045912e+00 -2.564749724844128664e+00 1.562246799647149942e+01
-4.044962018806761428e+00 -2.365200301272144756e+00 1.555609398349365335e+01
-3.860021615534152239e+00 -2.528569720249341568e+00 1.566011589516530478e+01
-3.415314888771487922e+00 1.899389642453741534e+00 1.483335357858068448e+01
-4.370769520692451948e+00 -3.092360799169273644e+00 1.784790062448396952e+01
-4.202849745638326695e+00 -3.332554824821066131e+00 1.787178814105229208e+01
-4.775313615412405177e+00 -3.526769219890719231e+00 1.775780589211235139e+01
-5.149013418885655113e+00 -3.310984544560396703e+00 1.770983325463141256e+01
-5.978063513937319051e+00 -2.887190200432151688e+00 1.759689997276385753e+01
-6.161447294334990055e+00 -3.126895310165379360e+00 1.755241657258688548e+01
-6.383020664564104329e+00 -3.493980903043823805e+00 1.745864636247946322e+01
-8.845346417220834923e+00 -3.625157339945622947e+00 1.655444302881447527e+01
-6.902937051276890834e+00 -4.201198233675998317e+00 1.653921909561216808e+01
-6.294086623603621256e+00 -3.972994126618871302e+00 1.620198311376485378e+01
-5.069349284457260296e+00 -2.778336854468060668e+00 1.551470473955353668e+01
-4.640167830400353743e+00 -2.960276304314303442e+00 1.571374005253865391e+01
-4.843532535852572707e+00 -3.737054931514836920e+00 1.613091291637851299e+01
-3.840898086898086206e+00 -2.782972307064017325e+00 1.580173246837628653e+01
-2.606933944462034081e+00 -2.869232852408635903e+00 1.737903468124007134e+01
-5.371651241250392061e+00 -3.503358412782195952e+00 1.764980062170548081e+01
-5.581657709199827622e+00 -3.320299900475640609e+00 1.763653031947873018e+01
-6.115935274358407447e+00 -3.544074170016646708e+00 1.751498471689447456e+01
-5.240171083162951327e+00 -3.761956425037300544e+00 1.607770734132827073e+01
-4.451765657692306810e+00 -3.397125056092247686e+00 1.596095540247328870e+01
-4.270823755242092012e+00 -3.368233794520252733e+00 1.599266886467064097e+01
-5.647426874591464419e+00 -2.309792187130530028e+00 1.517313138882881418e+01
-2.688560030775593468e+00 -3.101744329451978199e+00 1.729937444298335691e+01
-4.415377764524109239e+00 2.713138443373100284e+00 1.459702019693289543e+01
-2.927110880765753986e+00 -3.299844462813280810e+00 1.741476010213789749e+01
-7.659162759245854879e+00 1.350554566698193737e+00 1.203979757406572304e+01
-4.491330914369644489e+00 -3.899810126080217376e+00 1.642441914971482930e+01
-2.891497725120572682e+00 -3.486903487290405668e+00 1.719390477418083663e+01
-1.814296423500959321e+00 -7.559650818590594179e-01 1.555629124967018839e+01
-1.838911566906975548e+00 -9.650538924384196582e-01 1.561135832676934854e+01
-8.006919324410510796e+00 2.401790744337836347e+00 1.313125536049754771e+01
-1.804344491529874084e+00 -5.452235060624576191e-01 1.522870737348241477e+01
-5.880821104406505739e+00 1.338272350037672531e+00 1.176204889781340057e+01
-1.848181168970809196e+00 6.084198859190081965e-02 1.545059430540172229e+01
-2.054138230772971419e+00 7.796240374783898197e-01 1.607164568811396776e+01
-8.884697339056916832e+00 -2.318107533958383426e-01 1.237563437330432237e+01
-8.682742764866844709e+00 -4.211953574701460257e-01 1.225948491652509631e+01
-8.699223448506717915e+00 -6.714660047682219357e-02 1.222548214800960409e+01
-7.168398884040652064e+00 1.841057307001522148e+00 1.632733123637562045e+01
-8.707498182816120647e+00 3.934880970050562699e-01 1.222368872110506999e+01
-8.452446220142647348e+00 -1.393037726436852086e-02 1.203738774981032122e+01
-8.953103610561143455e+00 1.151025246687791270e+00 1.248405044038361922e+01
-8.885767749235476742e+00 1.380732328292010092e+00 1.250670676860767117e+01
-6.832220402256617753e+00 6.017899564085490427e-01 1.122940920950340171e+01
-2.152318188690044209e+00 9.844316369261587596e-01 1.608513069770293669e+01
-2.296079299957632713e+00 8.319737753041536177e-01 1.511364405346704842e+01
-4.608748930030212243e+00 1.465742438852758456e-01 1.758825653457532212e+01
-2.425725970353127092e+00 1.264126629686077807e+00 1.564349847679397953e+01
-7.644595249285399241e+00 8.806727534314553463e-01 1.165813797426243070e+01
-8.984565595970835261e+00 1.821552127410709154e+00 1.284853025371942437e+01
-8.730351252163856657e+00 2.460802512486345073e+00 1.343742280732035965e+01
-4.642888877093417577e+00 3.286117343823087733e+00 1.525107776151216399e+01
-8.959391401620806050e+00 2.238602867070998759e+00 1.322514035335494498e+01
-4.484226125850310218e+00 -4.338940144491950646e-01 1.261931683647360103e+01
-8.921902794698780781e+00 2.037988827464882302e+00 1.302888084677321245e+01
-6.209029430660727655e+00 6.202246911516200445e-01 1.107943670184140927e+01
-8.385880472595886204e+00 2.920170751346666815e+00 1.380477487384139579e+01
-2.528348959060181311e+00 1.684742042360319880e-01 1.339705927067782198e+01
-7.509478209198218401e+00 1.485389058621078284e+00 1.211441592027032499e+01
-1.911467353938133051e+00 1.935251484698568003e-01 1.493069056381490611e+01
-7.415562843484781119e+00 1.490504401331858908e+00 1.208936598795791184e+01
-6.840390727712819974e+00 1.071235420077868650e+00 1.155560904540623568e+01
-6.658007682688062090e+00 1.118859888741787323e+00 1.153775762190553422e+01
-8.031926197940101986e+00 8.265968425801817343e-01 1.178281670203443099e+01
-2.825381618625881330e+00 2.021286192137514259e+00 1.631941182236231924e+01
-8.152442628892643484e+00 6.531354545526402156e-01 1.180934736365232851e+01
-7.090103336558773783e+00 3.823972524781720672e+00 1.498122492794949068e+01
-3.201804659067630787e+00 2.498136845845064791e+00 1.655069056980355668e+01
-2.948976288031408099e+00 2.157387798119368316e+00 1.629222258127177980e+01
-2.902246678792844481e+00 2.018076269463014771e+00 1.606178957012831887e+01
-3.845045418478384214e+00 3.051287340101762613e+00 1.631113711596854898e+01
-2.844252791162012795e+00 2.440967624099051880e-01 1.291109699084312723e+01
-5.198534762177218660e+00 1.387412493319457374e+00 1.703182869059785531e+01
-3.469259615529682428e+00 2.512967572238731684e+00 1.585076847194829952e+01
-3.072870076697365338e+00 2.408352124150053841e-01 1.252229979250507341e+01
-1.010573460253169387e+01 -1.926992669721783624e+00 1.434289881529605282e+01
-2.974008728984431915e+00 3.051651281448936048e-01 1.277086854086726220e+01
-5.133357836467130397e+00 1.836025348555894610e+00 1.268139786897297228e+01
-2.856494430418348163e+00 4.255460223752379201e-01 1.313583238736773495e+01
-3.085732841963599427e+00 4.286956750368181024e-01 1.275979581953942699e+01
-2.903421804921600291e+00 6.175137659748426433e-01 1.340262607924920246e+01
-3.115782608458309788e+00 5.759546072781154269e-01 1.295590554740480371e+01
-3.160161808901593705e+00 7.410068633352260292e-01 1.321612622496057554e+01
-3.526830138242502244e+00 3.633625965030539140e-01 1.202240366032862084e+01
-4.173152136403370349e+00 3.147748938586299339e+00 1.577713036416436410e+01
-3.329278863502695085e+00 5.548199254186181317e-01 1.259131619532112012e+01
-3.011718675323979078e+00 1.486169244021038782e+00 1.483018453569994222e+01
-3.162808896826216465e+00 1.732824151471393126e+00 1.499570362960906778e+01
-3.244139781093512642e+00 1.639015804680858057e+00 1.468262616353003835e+01
-3.617244039898145580e+00 2.642723920578159191e+00 1.580774122557017591e+01
-3.898589538265075483e+00 3.010737610068814352e+00 1.608588696036577659e+01
-3.676770405635198635e+00 2.637360608151672725e+00 1.568481412744446857e+01
-4.038313769961533239e+00 4.338147486075613624e-01 1.152469259251905953e+01
-3.687226810915928965e+00 5.968904592861250524e-01 1.217318750857569398e+01
-3.880972828001073793e+00 6.074850302792162982e-01 1.193364141528734734e+01
-3.663163168488867250e+00 6.699633435715574015e-01 1.233521133730965857e+01
-4.250019297365528637e+00 6.374571038437135684e-01 1.155331730001341128e+01
-3.907683869361868290e+00 7.851436066045627271e-01 1.218997277457042117e+01
-3.937696560972838711e+00 2.981723867784325854e+00 1.589086124091669916e+01
-3.900036400029769368e+00 2.837194297381760766e+00 1.566012126802821314e+01
-3.693055570983108993e+00 1.407573822208005865e+00 1.354344608930761495e+01
-7.938166901417930355e+00 2.533439429852162306e+00 1.324028304789609933e+01
-1.893422099930961000e+00 2.347082707837068183e-01 1.563715728611442302e+01
-7.097845270450759969e+00 1.453208490077838810e+00 1.195250386917068397e+01
-6.872133196768506203e+00 1.296602702166400833e+00 1.173617856892800404e+01
-6.629752276257362631e+00 1.240451346159904489e+00 1.162697674489096755e+01
-7.071924065825599293e+00 1.578957428126705809e+00 1.205924837207385281e+01
-4.706889022111595544e+00 3.541525607163497735e+00 1.589957987462298661e+01
-4.262319850101355279e+00 3.244639581135996043e+00 1.584930552566504502e+01
-4.088763428114190468e+00 3.039699885907946708e+00 1.568739470317964901e+01
-7.667783075414788208e+00 -3.891642477182533977e+00 1.584040699077360870e+01
-3.798754264816825987e+00 1.694032398918851046e+00 1.385680457833450419e+01
-4.478548515419163323e+00 2.819472611407641160e+00 1.467597427106314001e+01
-4.759297027804931801e+00 3.541546600387789123e+00 1.572532628066873173e+01
-4.405638846469440928e+00 3.288046271985815672e+00 1.561043008064483928e+01
-4.453428767794670229e+00 3.238827227283102239e+00 1.546022549669107349e+01
-7.954755701320856964e+00 2.894230631601503401e+00 1.362976038096856968e+01
-4.820386959190917864e+00 3.513027178138518281e+00 1.557782213394818882e+01
-4.350472096932334942e+00 1.325324803131150864e+00 1.242106551525585445e+01
-4.667083950237267409e+00 3.407337168043434783e+00 1.547747008002845348e+01
-3.871696072729036153e+00 1.565091016672495172e+00 1.353064942592445163e+01
-7.367891746731893399e+00 2.753190664961241207e+00 1.343293040107776903e+01
-4.083628385876806988e+00 7.932447509458091517e-01 1.196091410924216802e+01
-4.189820780813400702e+00 8.523546766357442683e-01 1.191026791083383074e+01
-4.651152294185807889e+00 3.206448068933567264e+00 1.508466576580087093e+01
-7.538758179068161702e+00 2.191961424499207389e+00 1.277215668585218111e+01
-4.203174293121609395e+00 1.699997081451014580e+00 1.325317994941627120e+01
-4.333604137264912559e+00 1.771287261037271410e+00 1.317571904678828076e+01
-4.659238205215536333e+00 2.857549876737507155e+00 1.446572627564226821e+01
-4.311823979948989027e+00 1.377759286887525469e+00 1.256418918345960378e+01
-4.426541526231081214e+00 1.068049795362729260e+00 1.192657877473567396e+01
-4.410114157883311847e+00 1.885004629697988321e+00 1.324764850312115527e+01
-7.671252403261394015e+00 3.542109351667297901e+00 1.446257949631493034e+01
-4.491521018130203657e+00 1.254280750586429738e+00 1.214613571038537287e+01
-5.652239763174715215e+00 3.670042862385214377e+00 1.542766222409804300e+01
-5.046492824551913614e+00 3.489360800380179928e+00 1.523144560076963927e+01
-5.059631061488447656e+00 3.390849669018038970e+00 1.501325638031204335e+01
-4.626057072272683257e+00 6.582855349785461385e-01 1.130154283280189986e+01
-9.272801272123214034e+00 2.683720065272152677e-01 1.597874053114733073e+01
-5.234134684058147968e+00 8.451487824278196559e-01 1.128486381323358501e+01
-4.727758179445724629e+00 1.537067625933006276e+00 1.240038443603149432e+01
-1.784031224337186750e+00 -3.084788682765576828e-01 1.462886173778217369e+01
-4.896164684958653091e+00 1.555074011471284434e+00 1.233547953746449366e+01
-5.640604341043292891e+00 1.250121841893197860e+00 1.168314420118225883e+01
-3.403712159272588522e+00 2.746557052074660721e-01 1.209163151688868254e+01
-5.118948947666533300e+00 1.365670534794877877e+00 1.198040041934820721e+01
-5.383204233783315473e+00 8.456134748371291199e-01 1.123745643475804457e+01
-7.223680892442317258e+00 3.099788378221942864e+00 1.391428145275123285e+01
-6.773124705016573266e+00 2.886274849996882885e+00 1.371561929752963493e+01
-7.420468146645935015e+00 3.282948241613713680e+00 1.410992313501773765e+01
-6.983555606584598507e+00 3.254362965283304376e+00 1.414992794418643740e+01
-7.573964236907541725e+00 3.014228721889702367e+00 1.376040056579605420e+01
-6.760348093260628133e+00 3.713975656362183297e+00 1.488425605779757177e+01
-7.006055528817606515e+00 3.504593539157706772e+00 1.448446808050979939e+01
-5.707244636835248741e+00 3.567360672337642313e+00 1.505281602005257469e+01
-6.010110281725758341e+00 3.487070501957584945e+00 1.477096245701206101e+01
-8.495450049695492112e+00 5.944327038242243066e-01 1.205686149303242161e+01
-7.787958089769875691e+00 3.275211679473275073e+00 1.409799827645124992e+01
-8.347729930866783832e+00 3.205874574117363540e+00 1.409108032670211941e+01
-8.203633852845801044e+00 3.386098425532053646e+00 1.431918277465225486e+01
-8.155331123157321116e+00 3.555895526596190681e+00 1.472545112871107875e+01
-5.511006374674606967e+00 3.666772082626054807e+00 1.592810737655374709e+01
-6.143248242421476490e+00 3.686463539245044441e+00 1.582056347498668458e+01
-5.919084530817150913e+00 3.662236474987881518e+00 1.585825237841032731e+01
-6.065135718362983930e+00 3.562821731611617526e+00 1.598652684720367034e+01
-6.686078877589994640e+00 3.859890792351902800e+00 1.519793446172921136e+01
-6.483119123330285838e+00 3.881428182936680127e+00 1.541129413618552491e+01
-8.760221945434707891e+00 2.791187795224473245e+00 1.474668641069833086e+01
-5.186650251507907150e+00 3.421812120201569218e+00 1.634423832963241097e+01
-5.491618043226192292e+00 3.171910800467626412e+00 1.640543113633982131e+01
-5.193064243710630024e+00 3.242743540770022914e+00 1.648682468634343934e+01
-5.704826622013690063e+00 3.371197426817839737e+00 1.619959828419518288e+01
-5.873866775704719601e+00 3.465690105492281514e+00 1.609524477444009705e+01
-6.280433383771264921e+00 3.556725605824992531e+00 1.592915479845765958e+01
-4.111108562033120251e+00 2.188829908083636866e+00 1.419658362449778366e+01
-6.114304018898306659e+00 3.302056531100181935e+00 1.613224672790228453e+01
-7.132738643119557409e+00 3.621736802649269116e+00 1.561045143910570232e+01
-9.083498262440070192e+00 1.683269932356062704e+00 1.278095170811783987e+01
-9.220385610895714734e+00 7.233982159723606475e-01 1.274527879418504028e+01
-8.923114745695663430e+00 5.401440782264314011e-01 1.240517705331704690e+01
-9.220415920615824490e+00 -6.931922788461865048e-01 1.266169693085991810e+01
-8.960879195052974922e+00 -7.393780298475219892e-01 1.250143156505762221e+01
-4.529525624687947172e+00 3.368410594084397580e+00 1.651705022897727559e+01
-9.358260276390652166e+00 1.089858722808635161e+00 1.530257753531339660e+01
-4.198411671366014453e+00 3.297240399845035252e+00 1.633175002210316507e+01
-4.730022293895062901e+00 3.544188248958609844e+00 1.607883743152929412e+01
-4.313201993927955336e+00 3.352056101053511483e+00 1.626699373123618386e+01
-5.125112573167525554e+00 3.135056834658955349e+00 1.655843772958795057e+01
-4.491830647696117396e+00 -1.336180646503655645e+00 1.772889878527387708e+01
-5.474813837094768765e+00 2.936301306014608592e+00 1.652687067441346613e+01
-7.163198502597958317e+00 3.251330643377495999e+00 1.579523220826954599e+01
-7.221106212749931252e+00 3.148081541844685471e+00 1.582359117488914535e+01
-8.163998098924960090e+00 3.102517870616096074e-01 1.177363871322923927e+01
-7.344932647479897270e+00 3.468456087038182201e+00 1.562003128954689402e+01
-4.911996197329478342e+00 2.882278391191943179e+00 1.675518618310097452e+01
-5.410501948209477163e+00 2.611315064962181243e+00 1.666721616659895489e+01
-5.555661549199750304e+00 2.154717222520089237e+00 1.672594121656487687e+01
-6.007217171373667064e+00 2.612430075339156943e+00 1.643509169849946971e+01
-7.312246068627755058e+00 2.792956094640593356e+00 1.596507095098092321e+01
-9.621127211952778424e+00 -2.833441359387450786e-01 1.332979675972615041e+01
-4.917704348842052653e+00 5.339270561141309379e-01 1.098817791224100660e+01
-3.405613899701717351e+00 2.660721873826946915e+00 1.683092733462970614e+01
-3.402110103228783267e+00 2.700366520556126471e+00 1.670263253521699909e+01
-4.007981604120975483e+00 2.853406913850730309e+00 1.699148191619897830e+01
-4.082026896866816301e+00 2.494198292949433959e+00 1.716221485574754269e+01
-4.425192449263415817e+00 2.828864022514677057e+00 1.694764865074302662e+01
-4.943301008221551385e+00 2.298110572642297456e+00 1.694247641532954418e+01
-3.645901230152708727e+00 1.219289979513031197e+00 1.330132677566277266e+01
-5.749547540145385938e+00 1.938845724067169485e+00 1.669590514862070307e+01
-6.182717366435889872e+00 2.433348596137519859e+00 1.642056374950681175e+01
-8.385742588407932629e+00 2.218547269771055319e+00 1.568643892117854932e+01
-4.070946040674080280e+00 1.628989806566199849e+00 1.333460097802986155e+01
-9.199120851205673688e+00 1.379167698266632325e+00 1.529517488103646627e+01
-9.645234433331015822e+00 9.656015351958513460e-02 1.354691651145694209e+01
-5.189216324440829808e+00 5.929131776211351568e-01 1.094843146576087634e+01
-4.203809385265891763e+00 3.300408165338956312e+00 1.618604432276237048e+01
-5.625029802996200701e+00 6.863140892793350156e-01 1.107443520464726561e+01
-6.857317280712706520e+00 -3.366233793777319239e+00 1.544543531304402961e+01
-3.995617711526018745e+00 -5.269588947744607843e-02 1.161317833358696561e+01
-2.908667471279927419e+00 8.045403104517853121e-01 1.376050722808154347e+01
-3.541806730748117360e+00 1.796749470594800613e-01 1.182022374937282194e+01
-3.037635631890729382e+00 2.283582623041700899e+00 1.685762621575413789e+01
-5.509087137516261556e+00 1.664356584885557488e+00 1.683965726717862310e+01
-8.555872099573267775e+00 1.670390178442618945e+00 1.583289296467731333e+01
-5.912663272539835368e+00 1.403819197253362905e+00 1.677009038287666698e+01
-5.707680059932821237e+00 8.873112867280925631e-01 1.700609825874369818e+01
-3.366971604970665055e+00 7.080356985158975380e-01 1.284061539807286323e+01
-6.132701530244040633e+00 1.219673734324052461e+00 1.676644919225809360e+01
-6.841255721072349694e+00 8.362858493918071678e-01 1.138220672265938305e+01
-6.420054665663506022e+00 2.251748866060865328e+00 1.638650382353193180e+01
-6.459294173650128812e+00 2.073345826908108425e+00 1.641880998324601393e+01
-7.259075566387635625e+00 2.304414301098190787e+00 1.617631867505150467e+01
-7.320670581781614672e+00 1.965125046582081758e+00 1.626578974180205961e+01
-8.229348663186630830e+00 1.885424535705310767e+00 1.594063397302124940e+01
-8.510267533277776408e+00 1.824516191244768715e+00 1.579195020970754371e+01
-8.293388457982949546e+00 1.726768375859906612e+00 1.597168173325005114e+01
-7.910520042036737642e+00 1.999454458650422595e+00 1.606481783081112980e+01
-8.426744508849353110e+00 1.737259257505979537e+00 1.588346335806389931e+01
-8.773153196012316357e+00 1.438717784193303206e+00 1.579057767020441361e+01
-9.362554151924246781e+00 1.169628464998275774e+00 1.521968584897386023e+01
-9.342838995955627723e+00 1.276612191900373006e+00 1.512591701090353524e+01
-9.869480161001703777e+00 -2.826914420118163962e-01 1.393244794816244081e+01
-6.659470564035197881e+00 4.752690672955459106e-01 1.110495949747701872e+01
-6.723574570036464415e+00 4.072324759218429735e-01 1.107063431126191233e+01
-4.870353665253952968e+00 -9.263406864547574227e-02 1.185455072114815067e+01
-4.932681908055283060e+00 2.122922420472143745e+00 1.317356306546797384e+01
-3.131894540829463391e+00 -3.684170576048040324e-02 1.221199028960261757e+01
-3.099587968353573419e+00 1.998034672198140793e+00 1.717629938012186130e+01
-5.045968483745532751e+00 1.623916396098593395e+00 1.704676448765221153e+01
-4.674710136659933291e+00 -3.378385771172917051e-01 1.244724401359331267e+01
-5.282371439964456350e+00 6.323312812581842746e-01 1.722117705391686115e+01
-5.953455858377895815e+00 6.891606114256723092e-01 1.700209214343568931e+01
-5.899758781708506206e+00 9.025192052000667875e-01 1.694415921364505095e+01
-5.662266498578797602e+00 1.388740014072914697e+00 1.186971987774706605e+01
-6.156393653027333990e+00 8.122334017647097060e-01 1.691393904009439808e+01
-6.709928841642601505e+00 1.915383649746920991e+00 1.639328051995107671e+01
-8.047142740645263359e+00 1.668855711775886874e+00 1.612078486315675718e+01
-4.344619084096445150e+00 -1.321444244889653064e+00 1.776784724129223036e+01
-8.260894932460534079e+00 1.488574279915730436e+00 1.608639712185727433e+01
-9.229486687360033415e+00 9.519384490829939649e-01 1.559430008618602415e+01
-9.523502378925474687e+00 1.070425508892500321e+00 1.492296119336742066e+01
-9.553164078356907396e+00 9.766513801919453064e-01 1.497310142714896131e+01
-9.707173356787123453e+00 7.402382560608659068e-01 1.445858537436478031e+01
-9.953957462846503290e+00 -1.158251604132001678e+00 1.392084282780753313e+01
-6.087329369786331768e+00 2.074635913917817653e+00 1.276605047931431614e+01
-9.859822181771708216e+00 -1.757234036111165132e+00 1.380306287799545117e+01
-6.678828304435540986e+00 1.377714906042679655e-01 1.123301843328231087e+01
-6.195508221262793214e+00 1.315824138458367987e-01 1.149285657537953398e+01
-5.157911384182896519e+00 1.235487311522737164e-01 1.147521035421740265e+01
-5.350700098533456739e+00 1.105086339627057157e-01 1.166302599194582967e+01
-4.699486859632327374e+00 -1.976548093527027428e-01 1.205020758976600348e+01
-5.081150613286914641e+00 -1.170663940689439242e-01 1.209820241532341356e+01
-4.507274902194975397e+00 -2.809838899114683874e-01 1.217875345885671123e+01
-3.745460982333210787e+00 -2.937709408575671644e-01 1.217990974180069230e+01
-2.394079073849621597e+00 -2.839153561157926609e-01 1.303776561744931684e+01
-2.009314402936051014e+00 6.506119429547390087e-01 1.609182739194987022e+01
-2.930211785099565258e+00 1.369707972568112941e+00 1.735138951582407429e+01
-4.901299906005128548e+00 4.691948945211220079e-01 1.740784156584194164e+01
-3.313140311346301381e+00 1.809315301053656899e+00 1.734799465590825918e+01
-4.189753847125391673e+00 1.101744319912516978e+00 1.754562597894755527e+01
-4.687804962183908408e+00 1.329905251919585529e+00 1.729497587550957149e+01
-6.809450320009086788e+00 -2.071980007508392951e+00 1.734189122100762148e+01
-4.849343778701887153e+00 5.931965052524654780e-01 1.740035848720792444e+01
-5.171607361138580217e+00 2.491367629265599959e+00 1.361793347572781698e+01
-5.945526327518527054e+00 2.440094649056254728e-01 1.715075623219686918e+01
-4.205292004809948025e+00 -2.149486296594864232e+00 1.784974838116184515e+01
-6.754205946978935948e+00 5.118121817583296540e-01 1.686811667771398504e+01
-6.730732765810404139e+00 8.649275141424567215e-01 1.674028978717873173e+01
-3.347325975984917878e+00 3.457971426820383165e-01 1.224034722359699145e+01
-6.805712873187593992e+00 1.417772115631824370e+00 1.651392513576004006e+01
-7.562166060878330320e+00 1.655459919939030300e+00 1.630235354361657585e+01
-8.634934342906653626e+00 1.095594136331868862e+00 1.604719599063851376e+01
-9.944547075350904208e+00 -4.164184544295890245e-02 1.475166901482053561e+01
-1.011572405212206860e+01 -9.981378049963481880e-01 1.455156732064425285e+01
-9.874926903388608679e+00 -2.176032758730733985e+00 1.399242571121835255e+01
-3.976059740335391446e+00 2.535772068123209877e+00 1.498177376241109471e+01
-9.572455957418409156e+00 -2.425159672822114310e+00 1.377236335866886918e+01
-8.230344172112776135e+00 -1.945923608241457714e+00 1.312679317367202714e+01
-6.868501645255659760e+00 -1.220092498391253111e-01 1.157078001217109886e+01
-6.738816687514639803e+00 -1.010808617757404937e-01 1.164298408681161590e+01
-5.260249617086220297e+00 -1.214628542693226843e-01 1.229005588782203517e+01
-4.706473884306347166e+00 -4.556419912428740782e-01 1.285086472977534555e+01
-4.884714736466032825e+00 -3.328263073345020251e-01 1.261590937599216034e+01
-3.335832990706752543e+00 -3.005949751418753868e-01 1.239662049492746121e+01
-1.992320297483092251e+00 5.371103145217274166e-01 1.618218291456754088e+01
-3.087439655172648401e+00 1.009448154853514579e+00 1.751513861941274541e+01
-3.810064770282598268e+00 6.872955795814789104e-01 1.769297651511986658e+01
-6.786230395311390495e+00 3.185853167607806125e-01 1.692058668991267467e+01
-6.538583148299659697e+00 -1.139279462653967068e-01 1.709306963672890589e+01
-4.423507892695162091e+00 1.289576782389260545e+00 1.226838232094748804e+01
-6.943612726437695670e+00 1.095056433300314325e-01 1.694220873869517874e+01
-6.975425035735909773e+00 8.352574997794101064e-01 1.669618572902478348e+01
-7.076994956870810149e+00 8.095130664284230226e-01 1.667937256275844504e+01
-6.459603268800347742e+00 -2.550297529639014460e+00 1.512542832441045704e+01
-7.547805456089963450e+00 1.056925112692202795e+00 1.650641757038404478e+01
-7.353117949792556729e+00 9.688732531381727409e-01 1.657264170145486304e+01
-8.778293882730437758e+00 6.163026498185637525e-01 1.617526254879999925e+01
-8.981276915668974681e+00 3.880159472971106416e-01 1.614492769777052672e+01
-8.838804478236564677e+00 4.542860562567161420e-01 1.620481104394942662e+01
-8.631978607185793351e+00 -6.219551818982623770e-01 1.228160582247559773e+01
