-6.788490854050349910e+00 -1.102879313368188008e-02 1.996223431977401930e+01
-6.405593789150552553e+00 -2.074427877580116597e+00 2.026224061079712158e+01
-5.155182710158859649e+00 4.115900903888003448e-02 1.651859447612335430e+01
-5.344325108321938522e+00 6.795473581274636965e-01 1.943035893382175772e+01
-4.760815584687658308e+00 1.519778029422437227e-01 1.622317215160218495e+01
-6.717465581024755217e+00 -6.659909391220479868e-01 2.015250366343703092e+01
-4.069715825272143483e+00 3.044300593881602346e+00 1.847893708356648546e+01
-5.732652008357913331e+00 1.820761071384529028e-01 1.630372093968438918e+01
-2.271749007971354040e+00 3.789933211877955177e+00 1.621642507633249153e+01
-9.439413516692176653e-01 4.039511683219009219e-01 1.472973529116627134e+01
-2.385512373165349587e+00 -1.645885098691135529e+00 1.684959810812205916e+01
-2.425564122408030432e+00 8.806213999852863239e-01 1.343992652122289400e+01
-7.543924449670528887e+00 2.917199070901626445e+00 1.780305147055217674e+01
-7.174165498124281726e+00 9.437773038902762535e-01 1.504787674217283211e+01
-5.631106335855201594e-01 3.593145667936996079e-01 1.495417940125130940e+01
-5.140105674216522758e+00 1.578019052917912113e+00 1.909515131765024165e+01
-8.211340390057038974e+00 -5.761794530453743235e-01 1.948969461696778183e+01
-3.980657762081779349e+00 -1.875554428365855397e-02 1.608953456768502122e+01
-7.403524254226617529e+00 -1.439986174433328436e+00 1.822689506963512684e+01
-6.619441447529019751e-01 -2.553212355640535058e-01 1.875886206393653310e+01
-7.568746731069402323e+00 -8.708929993654315194e-01 1.662070290806033057e+01
-3.804986439773642148e-01 2.005491681937648707e+00 1.746820529861422244e+01
-6.331052745392187653e+00 4.285778879623225457e-02 1.628489950072540182e+01
-1.546651316438512946e+00 -2.342160529961750282e+00 1.736459908874584102e+01
-2.893635710159285779e+00 1.117588648842712917e+00 1.880723643188058247e+01
-6.405162866853618908e+00 2.450036599168750939e+00 1.464121379293464997e+01
-2.810317847461019092e+00 -2.655409032164549821e+00 1.805147875760628295e+01
-7.809523544696613806e-01 -1.804094756505865149e-01 1.883723017624384255e+01
-6.565655600899698463e+00 -5.399031771039259908e-01 1.726334117522953449e+01
-1.324383214989512503e+00 3.475528744129857905e+00 1.760761203917857642e+01
-5.555308115355734877e+00 -1.090885869167361966e+00 1.990692988553202269e+01
-9.196346142716954608e-01 -4.742149354664642047e-01 1.896216731690269341e+01
-5.619147669896220165e+00 -2.624078351390595198e+00 1.864711348376337696e+01
-1.708422786445802810e+00 -2.929510235388812944e+00 1.932525428068562690e+01
-6.105990580895681141e+00 1.994834750321602623e+00 1.912674016199543559e+01
-5.881156778025128595e+00 1.645028281927250591e+00 1.922643226929157123e+01
-1.363397299730408019e+00 -7.392961486150197992e-01 1.911648386510169217e+01
-1.211743650358167557e+00 2.954465136225367328e+00 1.786839447307449547e+01
-3.167885643990062672e+00 1.428496239929549771e-01 1.485424522395658897e+01
-6.121913533118277684e+00 2.380290027061621849e+00 1.431936950123310481e+01
-3.964767128086699177e+00 -1.610840866947891303e-01 1.939159349779802000e+01
-3.295278692514347796e+00 3.868702841587678964e-02 1.529977170935904240e+01
-5.786108700730719256e+00 -3.190848923270453774e+00 1.979470425330642058e+01
-6.185101312119434702e+00 -8.573843595031245268e-01 2.005099040551384348e+01
-5.169782030832325681e+00 -1.212044536183892518e+00 1.768050529812513361e+01
-5.105987914105584835e+00 7.975925051429318957e-01 1.332957843353356964e+01
-1.647989152238335198e+00 3.751240945154712847e+00 1.767136407762983197e+01
-1.450259992495150696e+00 2.805328821766025271e+00 1.615799989440011331e+01
-4.167442309705185366e+00 -2.476793509968862494e+00 1.990219561578837926e+01
-7.510270808812710364e+00 -5.136413313407142134e-01 1.631951469806946164e+01
-6.783187700281188448e+00 3.974054881183154198e+00 1.778971150319898697e+01
-2.870741527028990991e-01 1.377738888690566155e-01 1.630714603128521389e+01
-1.951775891996365919e+00 -1.561545459092725796e-01 1.530398769784069657e+01
-1.160451394040231676e+00 -1.301064859929904394e+00 1.914246244445551071e+01
-7.358799013108211717e+00 2.669983367546194586e+00 1.843544100480502834e+01
-6.382427938659013478e+00 -8.522998269955051054e-01 2.011189126772210045e+01
-8.366605737692434985e+00 4.780717351735974674e-02 1.867670381422791337e+01
-3.824254154307678899e+00 -3.311752397769506917e+00 1.964453869207225267e+01
-6.565398473679727509e+00 -8.015455719392492462e-01 2.015196972675671105e+01
-4.214602877683048199e+00 1.338905507930182592e-01 1.590327991930281826e+01
-3.178890332307107158e+00 -2.238113852458702979e-01 1.589432694425450876e+01
-3.436943390179175495e+00 4.985628528585472452e+00 1.748468907490949675e+01
-5.285709472511359586e+00 2.164978629788881115e+00 1.889893289300663071e+01
-7.590469195541524883e+00 -1.595146849778601883e+00 1.842238934969466158e+01
-8.288379461991020491e+00 -6.214609294886324076e-01 1.940885487954582089e+01
-6.010533950284400184e-01 -1.314809616554656557e+00 1.883726110638433227e+01
-8.971192001370033031e-01 -9.644168433664668250e-02 1.523965747433238960e+01
-2.712910956464098078e+00 7.197337932971148433e-01 1.346809089885596933e+01
-3.451832489151527295e+00 3.379870246154458524e+00 1.486155253938108700e+01
-1.372968494682101470e+00 -1.422666377980539743e+00 1.667336372055551408e+01
-6.108668212972859779e-01 -2.132967100868969901e+00 1.885150588849435849e+01
-8.327757989572026176e+00 -7.412752864004865661e-01 1.938423903225377387e+01
-5.728376274568109938e-01 -8.327669947453375521e-03 1.531193018655110905e+01
-6.947397483932120643e+00 -8.770289815425498237e-01 2.024129620596321644e+01
-4.129245829550887592e+00 4.107877548708288584e-01 1.411804396527081451e+01
-9.518701706636993887e-01 2.096020376643192851e-02 1.508682320148578526e+01
-3.012439554862362368e+00 -5.565574766513050609e-01 1.626516986268282494e+01
-7.747274820503398551e+00 2.680134272356795133e+00 1.757536532936822482e+01
-4.074619569457707868e+00 3.265628484302769863e+00 1.458080455091202055e+01
-3.344295372837683411e-01 -9.484979726845181869e-01 1.846732520524912502e+01
-5.305448068398401773e+00 -8.760943717944500442e-01 1.979628032665674198e+01
-8.515402969309112891e+00 -9.814759761547531269e-01 1.902053066288425498e+01
-4.759635529095399775e+00 3.239204616869099107e-01 1.941411161205524394e+01
-8.523078382682106380e+00 -1.158977428302985668e+00 1.844091343014044071e+01
-8.507361872636854727e+00 -1.074785526259710577e+00 1.803353221168995901e+01
-4.862283888624729378e-01 1.507126650096653142e+00 1.795562749943803738e+01
-2.016858209566261273e+00 -3.325119508429989157e+00 1.930987876804270797e+01
-8.430204058769952269e+00 -7.263431332755834191e-01 1.725220724813248552e+01
-6.346817695000496862e+00 1.145709364796233753e+00 1.371808721120078900e+01
-4.526019910064293050e+00 5.781524154532832194e-01 1.369788946080722525e+01
-4.593813657046263543e+00 -1.869874246180423416e+00 1.798856512279449049e+01
-3.503300026713997539e+00 8.280937444066677200e-01 1.294338522092535015e+01
-2.583606259767839752e+00 -3.144326309540442566e+00 1.855238638409448981e+01
-3.768977567906638182e+00 -1.217729449912476003e+00 1.726976514350162262e+01
-7.421976523469074216e+00 4.992633864219094275e-01 1.562163128288834457e+01
-7.346943658260818744e+00 5.742104683571159773e-01 1.970717446233353343e+01
-3.923595066147091970e+00 4.373904152019562619e-01 1.391552388943366481e+01
-8.205340295286842611e-01 -1.554760620330651211e+00 1.902252002702746125e+01
-4.507490595445072579e+00 1.012606676181842857e+00 1.235622454078551158e+01
-5.596635929774600449e-01 -1.624992344337687911e+00 1.704565135340128990e+01
-3.485000145027062235e+00 -2.931619406806897921e+00 1.851074470712585907e+01
-3.734643837963832702e+00 4.140707723019257380e-01 1.393774245597688832e+01
-1.798011757424042845e+00 -3.277180650221363845e+00 1.927064638094423543e+01
-2.358872206986935005e+00 -2.909362674134330362e-02 1.510046820386339306e+01
-2.930227537384771708e+00 6.523318068832648642e-01 1.352137469348485155e+01
-1.033919215055186358e+00 -3.244551891386018294e+00 1.876199279771729778e+01
-3.791107511720700263e+00 -3.053394479020857588e+00 1.869178352201367233e+01
-7.983646206568970172e+00 -3.993127461772341125e-01 1.969152694205304499e+01
-7.700575424691424864e-01 2.093802872299667106e-01 1.495550325896753208e+01
-6.200129592096403464e+00 -1.581972313869567159e+00 1.820453738515939079e+01
-1.565476396342589949e+00 -7.149232918799386383e-01 1.915489436295262493e+01
-6.124518732058604975e+00 2.519559544008007634e-01 1.587518855510672466e+01
-3.072646996703645161e+00 4.331568259736262583e+00 1.777209411515294590e+01
-2.010683699852282125e+00 -3.280320253007265041e+00 1.862639395449588164e+01
-7.428651062026450091e-01 -3.706651282497281930e-01 1.884947444349699452e+01
-6.580093667836187876e+00 -2.416839588253971716e-02 1.994070041069193167e+01
-2.091149228780055047e+00 6.168089862103174337e-01 1.387817341302280028e+01
-7.186114531053289234e-01 -5.255268022435926056e-01 1.885913576609596731e+01
-6.756544446911987301e+00 -1.057660242372745252e+00 2.025209878324258739e+01
-6.865096042792130149e+00 4.041825719226485703e+00 1.760928675938212962e+01
-4.096419580626722734e+00 2.080965748604411303e+00 1.318086681088766454e+01
-7.551653974133941460e+00 7.223531334453087149e-01 1.568132741236166794e+01
-8.941847939363299913e-01 -6.365229412981265877e-01 1.897716582036067479e+01
-5.811931850237162855e+00 -1.282111662707514199e+00 2.001711325801057484e+01
-1.028317033805139058e+00 -1.949402690330495957e+00 1.915659784569507451e+01
-1.346955310497712555e+00 -9.042973014989996727e-01 1.914506289602162070e+01
-7.346964734445003309e+00 3.509941770543358874e+00 1.737595113043754935e+01
-4.777619512560237758e-01 -2.502281546755704689e-01 1.563008641401882670e+01
-1.522468867112958701e+00 -9.359646129560517114e-01 1.918384034049301334e+01
-5.241643311519553983e+00 5.403729656721147023e+00 1.728532915536725767e+01
-5.774846078965658602e-01 -2.729521126101526640e+00 1.798208860483119764e+01
-3.024624463530811269e+00 -2.159098299816362143e+00 1.769999805380741265e+01
-4.889279237644470477e+00 2.341354418509918212e+00 1.355182934360011870e+01
-1.416393254806275204e+00 -2.341007046664085323e+00 1.927604055491092083e+01
-4.251733940413306101e+00 8.264538552232707502e-01 1.921151842922996877e+01
-7.985588888301671240e+00 -1.064725298159166167e+00 1.724159683844570168e+01
-6.340131565864892238e+00 -1.063972601034988363e+00 2.013734675996915513e+01
-7.388776443959478080e+00 -1.247969042838044995e+00 1.795652783804277419e+01
-7.114892780819099816e-01 1.323032260971442220e+00 1.834928265309565631e+01
-7.869073932086261713e+00 2.290513351510758078e+00 1.692558421573406235e+01
-7.353683785027826048e+00 -8.667501001824229334e-01 2.021734322940055506e+01
-6.707064385156681574e+00 2.121850297796256779e+00 1.475328625390427106e+01
-6.614092226795097673e+00 -8.906776214820644189e-01 2.019039398787884920e+01
-7.982108074598190051e+00 -5.498906461847807847e-01 1.973822688565313399e+01
-6.775630610692837230e+00 -8.389771800685141834e-01 2.021385319709703055e+01
-2.258747039613528074e+00 4.176228361387519072e+00 1.662189356060732592e+01
-3.621030298551317639e-01 -1.498406963902813249e+00 1.743019903344165300e+01
-8.115077536923713808e+00 -6.259117415675063967e-01 1.962395135828900550e+01
-6.234202519833862421e-01 3.433629624849920958e-02 1.865089108448764676e+01
-2.712792616337901919e+00 4.486786161489293434e+00 1.646021482818937187e+01
-2.833166551754285667e+00 1.915887421791519607e+00 1.374461417325224488e+01
-6.914367815007310902e+00 -1.062468661444954110e+00 1.778566170533125046e+01
-6.213672051627521675e+00 -1.661499881368600828e+00 2.020505816596241999e+01
-1.533545683978512653e+00 1.344755430171860056e-01 1.485277328488424331e+01
-2.091695242276227606e+00 2.733271521964036221e+00 1.824930945263446347e+01
-8.511282545296152691e+00 -1.179286291948844267e+00 1.905087528725503887e+01
-3.166663079230165323e-01 -5.126284688673381496e-01 1.772283964032708781e+01
-8.064546573893714765e+00 1.309629874608481792e+00 1.633083520287782164e+01
-8.534182101144656585e+00 -1.156812404918518888e+00 1.886004683755248834e+01
-8.141706183688864229e+00 -1.392289933994427908e+00 1.825906259073320825e+01
-1.248991195666869114e+00 -1.442109018576873680e+00 1.917408431422305171e+01
-7.004927599129376681e+00 2.138605061083842962e+00 1.905813227708563318e+01
-4.584297575679491921e+00 -1.274773656129976729e+00 1.760611771951945315e+01
-3.350817851126760782e+00 -2.195123739731679180e-01 1.605624818939933363e+01
-6.301347699801167934e+00 4.728221551750236173e+00 1.696456081675944461e+01
-8.400831867296378874e+00 -1.148225424740037637e+00 1.781363729617930858e+01
-2.783185290444844640e+00 -1.661368195094803379e+00 1.950191610541917697e+01
-3.156195276398174876e-01 9.276232510001141129e-01 1.596809748975408638e+01
-2.748877927712766400e+00 -7.281927309296098993e-02 1.916628951357209587e+01
-3.119120636806920199e+00 2.674952368369094557e+00 1.831721140554536476e+01
-4.200474433051999412e+00 -3.421312702030051778e+00 1.917211895002140665e+01
-4.906986216717618809e+00 3.372564099245747848e-01 1.593603498649398631e+01
-8.646138052599647850e-01 2.758582649698317013e+00 1.764809497970846763e+01
-3.058288922029720247e+00 2.517259285686585635e+00 1.413088910820680866e+01
-3.117846238758181787e+00 5.805873439142494874e-02 1.508660529003650907e+01
-5.426980286843681611e+00 -3.266159247862188142e+00 1.977741965796784740e+01
-8.369617513335590786e+00 -9.212735152486468682e-01 1.725362349869964618e+01
-8.183584609442347002e-01 2.520572136715965694e+00 1.779363103422483761e+01
-7.929786949694884512e+00 -7.390726517956638375e-01 1.669852221640685741e+01
-6.227819828149789849e+00 -1.286983958494965385e+00 1.799991938185463880e+01
-6.535521031918964496e+00 1.015440574885492220e+00 1.397062087742094860e+01
-5.600018444403472628e+00 -3.249139786901441784e+00 1.973293745807853128e+01
-4.719881850071995011e+00 6.198974921050962594e-01 1.370149684466274209e+01
-2.860825935131608322e+00 4.764840179348501792e+00 1.745869714394482486e+01
-5.207087835530546549e+00 -3.161016866521534130e+00 1.989360382697088880e+01
-7.037690578201012848e+00 1.708073100742093509e+00 1.498494376341376011e+01
-3.133566288750106121e+00 -1.091407296965840601e-02 1.530521855606168913e+01
-2.676520365037018401e+00 2.567938809465943883e+00 1.830337120201884460e+01
-7.197734274683804223e+00 -2.687663833152893922e+00 1.934630040601316381e+01
-6.379830000975607263e+00 -7.759375575512850176e-02 1.652724668308724887e+01
-7.616603288294556684e-01 -7.027217407813701744e-01 1.890088203918207199e+01
-1.936690609275157904e+00 -3.412395991773163662e+00 1.923447617383639141e+01
-3.478922709739293406e+00 2.341208337766093273e+00 1.852872689209131352e+01
-2.847369709490127132e+00 4.150970014123535279e+00 1.781468603849809540e+01
-7.202096185684899510e+00 3.134550963229266074e+00 1.814942132726178414e+01
-1.082083679157200606e+00 2.017949962564792088e+00 1.576112705706771067e+01
-1.400337152698742926e+00 -1.120738126392797351e+00 1.918587237224610220e+01
-6.042123312795214751e+00 -2.849547796994012394e+00 1.894615200036425762e+01
-3.804584154531084117e+00 -2.476899084493171088e+00 1.983049163399153514e+01
-6.074150782936632353e+00 2.221997910708427337e+00 1.903464329332668825e+01
-4.012724548426398030e+00 -2.444934957624026239e+00 1.986535620156112714e+01
-8.381121972790735342e+00 9.199800568385141375e-02 1.688802630619687761e+01
-4.219550855030613334e+00 -2.309344846664844741e+00 1.987721135058824018e+01
-6.939570210639366188e+00 7.803053281902816440e-02 1.564320675987896436e+01
-1.306001758236335242e+00 2.353272473304769186e+00 1.823713292748433190e+01
-3.300791606103018250e+00 8.816784341191515884e-01 1.287120517177410761e+01
-5.066502187503305166e+00 1.045590216394314265e+00 1.256202803708594473e+01
-3.388898027162599469e+00 5.245012075939339269e+00 1.704811148144644761e+01
-5.401898127772798652e+00 -2.080976509834780774e+00 2.002991354661904921e+01
-4.259814057781756702e-01 -2.530557515130483992e+00 1.782488551828263468e+01
-2.241648082542161635e+00 -3.447140209062534044e+00 1.919501196059706416e+01
-6.853361051979192986e+00 1.515719030643483789e+00 1.455436850438599805e+01
-7.943935702271175181e+00 -6.293032326176635216e-01 1.978922074412434284e+01
-4.696552961164636386e+00 5.243305736211860690e-01 1.409641764210618220e+01
-7.539422151786081550e+00 -1.208743172127979104e+00 1.786575799080626581e+01
-5.576893096877004297e+00 -1.859816687853767636e+00 2.004470158806847735e+01
-6.966673152722775875e+00 -1.029035128686484724e+00 2.028200493781213964e+01
-4.679714441046344264e-01 2.136067403259040542e+00 1.716639982584535318e+01
-7.336116495561157080e+00 -7.191586337496083114e-01 2.016733600678647065e+01
-2.807480685575442170e+00 -1.261484091805545216e+00 1.682756767165743383e+01
-8.253697455113824688e+00 6.779985809499999849e-01 1.650827660206919489e+01
-5.047237402728557143e+00 3.493234059081631315e+00 1.497814241619658304e+01
-3.625519725968021634e-01 -2.631613228773395097e-01 1.589043578086634767e+01
-4.919510312328035262e+00 1.512166048307288957e+00 1.906309262043508568e+01
-7.379613486602749184e+00 -6.201344674695477011e-01 2.011125032660248024e+01
-3.730402373627061063e+00 -1.039741947346775053e+00 1.953155444491095949e+01
-8.165845312644560039e+00 -9.911597167657744123e-01 1.963573186959210659e+01
-6.530582093592168569e+00 1.168919911277951140e+00 1.952036060834257114e+01
-8.340453496134674793e+00 -1.213180709130207813e+00 1.943643140962173277e+01
-3.672335720127389291e-01 -2.502225319157967309e+00 1.820012541842837095e+01
-8.133986739247083264e+00 -2.141043724082633659e+00 1.940797292954280096e+01
-2.470922096175377725e+00 -1.131620636602882035e+00 1.649965478485963644e+01
-8.005793167191132653e+00 -2.013707852368307627e+00 1.986460047193966716e+01
-4.988990712020388685e+00 -2.765383719830227793e-01 1.682768384413439833e+01
-6.316730384532636577e+00 2.002398190893208252e+00 1.914328005589676707e+01
-8.461531573220820945e+00 -1.432844393679479023e+00 1.900172015537661707e+01
-7.041066509722893940e+00 2.716640237904252686e+00 1.869324109792195543e+01
-8.491711341686912107e+00 -1.326429295336300829e+00 1.888212214287941748e+01
-4.863513819581634756e+00 3.049535031126579199e+00 1.442205994643694567e+01
-3.834290091955117052e+00 -2.898679616524273861e+00 1.980883046997829666e+01
-7.984872400367507561e-01 -2.751660592059891552e+00 1.902183519435628511e+01
-7.180725025641924830e+00 3.781292872290640705e+00 1.742031603500433334e+01
-2.183040098176536326e+00 -5.054142943479151828e-01 1.580036200436023819e+01
-8.343952917456750384e+00 -1.312892659875988244e+00 1.825773974140876277e+01
-7.534543331656743170e+00 -1.142957705836471494e-01 1.611070066743659623e+01
-2.322566014914455135e+00 -1.074000775895607163e+00 1.638903707411349586e+01
-3.205846798413707344e-01 1.508587517525011634e+00 1.753402739136545563e+01
-4.541545462209750639e+00 3.331950718401343603e-01 1.937905761199960608e+01
-1.404752154817828114e+00 1.690061030393007702e+00 1.510279429371210824e+01
-2.282609195805077373e+00 2.642576074574069622e+00 1.829556202179631441e+01
-7.832709508982370394e+00 1.798549011335964787e+00 1.855515258067052287e+01
-6.903974498734736898e+00 2.441292514957306148e-01 1.544859532172631589e+01
-6.907424188975126889e+00 3.715274632080077577e+00 1.653308337835158426e+01
-1.669573318257852712e+00 2.605294742778213823e+00 1.572168436650855483e+01
-7.407936869827127957e+00 -1.743670212464477620e-01 1.605664151755353686e+01
-8.342960396831811565e+00 -1.070532182750528971e+00 1.743636497956055820e+01
-6.206995366795911018e+00 -1.990220100054481467e+00 1.848274842121073647e+01
-3.355150402006877197e+00 -2.238701196928102544e+00 1.789222844715437333e+01
-1.799129115423976133e+00 -3.076523326392406776e+00 1.821983188787253027e+01
-5.775690668514624981e+00 3.280667571167193985e-01 1.590501337599267373e+01
-6.492251139758334233e+00 1.339689443213838427e+00 1.391893800767152101e+01
-7.964827140487249935e+00 -1.011516353452976968e+00 1.702351746716971803e+01
-8.285568900705355233e+00 -9.011639385823484449e-01 1.709924960307132125e+01
-5.316934812375065711e+00 -3.103934340884042520e-01 1.691853133101265882e+01
-8.095908795422907644e+00 -1.952709912713327611e+00 1.978129870110353750e+01
-2.102568773822256709e+00 4.460819805411684769e+00 1.717691840606861575e+01
-1.734631405198518328e+00 -8.851800338991704376e-01 1.622292019642142691e+01
-6.685389039421090196e+00 1.014381564620001175e+00 1.397505547176718466e+01
-4.734977694576389062e+00 4.536117329454619762e-01 1.492472430470899525e+01
-4.253856410248097575e+00 -3.445525814898650285e+00 1.939361718491350928e+01
-4.835616526982506436e+00 -4.846379309389152734e-01 1.698816133269758666e+01
-6.719390543129610371e+00 9.769570611891248424e-01 1.412483111127810531e+01
-5.060552407084583315e+00 -3.070468417852538767e+00 1.874557828915146018e+01
-5.872414115261982204e+00 8.301102392847784506e-01 1.389304125469124074e+01
-2.445067968075043119e+00 1.350041072053957514e+00 1.365313111904287524e+01
-8.339298783945114479e+00 -1.760692634784638333e+00 1.923556649609935931e+01
-3.183126232282748269e+00 -4.360449307561131693e-02 1.546909312587998642e+01
-7.990239342999960748e+00 -1.273071655936868218e+00 1.787545718032625786e+01
-6.057747962428672750e+00 4.604266302853789128e+00 1.761359279328098637e+01
-1.346110372736452732e+00 2.919744036509785534e+00 1.639029358299606542e+01
-4.258313961258277658e+00 5.041341589717207583e+00 1.661648126522455726e+01
-2.348454023676987301e+00 -4.218621203356649474e-01 1.570029035420191832e+01
-9.496045824812315850e-01 -1.521624998744437463e+00 1.908316033906732656e+01
-5.585746288193529807e+00 -3.214533128276133578e+00 1.918854698215253762e+01
-4.522367893631861868e+00 1.114260558980240123e-01 1.616947375020632194e+01
-2.907456001667513057e+00 2.413409759754494566e+00 1.417066794856251022e+01
-3.226021136105742038e+00 -2.915893628999888687e+00 1.967945370433339747e+01
-2.550445217778965823e+00 3.252372238666297322e-01 1.434846772639958346e+01
-7.097754175897352802e-01 -2.626068362601263750e-01 1.547916951648887363e+01
-4.008987448797686426e+00 -2.679737601630246324e+00 1.987568656445021986e+01
-6.557592525608670009e+00 3.578535360776371910e+00 1.831703606003655693e+01
-1.671355375955001277e+00 -3.421746299661533097e+00 1.901424244418095100e+01
-7.628086102647865907e+00 -1.007115362369598088e+00 2.013666897505546416e+01
-4.177060876727445304e+00 -3.202304557935153895e+00 1.883996508306012885e+01
-6.623282478753425906e+00 -2.077482318803054451e+00 2.028275268353421268e+01
-7.826584076983804650e+00 -1.649508485551461678e+00 2.006715154748399499e+01
-3.109501596226487141e+00 -5.552966515446604578e-01 1.632955856123147242e+01
-4.298582904719905784e+00 3.080783835979850949e+00 1.436296434500561503e+01
-4.416352172019793798e+00 -2.472567447302911781e+00 1.993770326391135939e+01
-7.366142426427164658e+00 -2.935907835947979549e-01 1.611754442849393598e+01
-7.153726378965973076e+00 -3.264833633146915215e-01 1.605962835420063328e+01
-3.041676032313292311e+00 -2.596958004927141239e-01 1.579716706322047060e+01
-2.292377989401067850e+00 2.530066398130607741e+00 1.832971817122906089e+01
-7.268771061608238604e+00 1.518584061949367570e+00 1.532709555636245824e+01
-5.451954642460782097e+00 -2.272790015848193068e+00 2.007066104576976784e+01
-6.469527278781006530e+00 2.314169362418308840e+00 1.458710199424901077e+01
-2.355568858523687581e+00 -5.574057315132445733e-01 1.587069671161249573e+01
-5.619470432006174576e+00 -2.062057296268630324e+00 2.008550450472132809e+01
-2.986927486013570832e+00 -1.486351858215712252e+00 1.716272579754147642e+01
-1.452491804425642963e+00 2.172689324278428646e+00 1.553207374532875917e+01
-6.017046787105862826e+00 -3.115050882140629085e+00 1.983237086557301154e+01
-2.802797268335144310e+00 -1.723166405932208267e+00 1.722137844412576158e+01
-1.716749704399692655e+00 3.329177584629344766e-01 1.449726671400228639e+01
-4.508975119344138527e+00 2.316775075261843231e+00 1.873550047721668932e+01
-1.930307211456550709e+00 2.842138538410451387e-01 1.899077372201420388e+01
-6.793960457204835990e+00 -1.251017154917947849e+00 2.029130361387910852e+01
-2.902623258194504619e+00 1.834686836913195451e+00 1.359375138471446576e+01
-2.950207932962500390e+00 3.106769812304302492e-01 1.909065385825908834e+01
-1.189583957230492928e+00 3.386952235171135417e+00 1.714993613057305311e+01
-5.075025071476672700e+00 2.573625170045053423e+00 1.870423611178967604e+01
-4.314724965912231092e+00 2.085235915489230152e+00 1.316089534370130565e+01
-1.266158552863416498e+00 8.201756050494761752e-01 1.447690752143918758e+01
-6.974721754355685199e+00 -1.220627277686657575e+00 2.031193913241915538e+01
-1.523056201136640864e+00 -1.788776180005521077e+00 1.694083640438973504e+01
-6.874569601334979296e+00 -5.937803479696481812e-01 1.686944132668130436e+01
-4.831810270841931931e+00 1.054206614746374449e+00 1.239621825185530213e+01
-7.153813641649645838e+00 -1.055130912820325229e+00 2.029064872483398574e+01
-6.064118638062580224e+00 4.294504057576713052e+00 1.619129309877704515e+01
-7.784877747801847825e+00 -2.042519671280423221e+00 2.002438612726803058e+01
-5.124782157966563112e+00 4.570651632637129924e-01 1.569209935496864716e+01
-8.387651937649575729e+00 -1.583907663689984258e+00 1.906604360762477768e+01
-8.055499062299846358e+00 1.044697590343818705e+00 1.618290222291790315e+01
-7.151285668816901087e+00 -1.214620891549285986e+00 2.031426531723943185e+01
-3.901858300808943358e+00 5.114535918365987754e+00 1.673100142589764516e+01
-1.929253366511200829e+00 -2.958715517328791567e-02 1.509624091959641135e+01
-4.144386515212699629e-01 -1.002110567821707487e+00 1.673250185095778164e+01
-4.309390581862991176e+00 1.151496675835651962e+00 1.912022344509006189e+01
-9.645060356657814138e-01 -3.249961536109744475e+00 1.856561297402295452e+01
-6.947770281102060075e+00 -7.658014653512581482e-01 1.722469916590316075e+01
-5.576125816013343339e+00 -2.208954128562198527e+00 1.840332035361629437e+01
-7.470217362628704727e+00 -8.386910357546162320e-01 2.017088428751291929e+01
-2.485126792570909515e+00 3.676777635073163797e+00 1.795135784528987699e+01
-7.526303082307630454e+00 -6.568889843019407593e-01 2.006904138339474741e+01
-3.335916046237601407e+00 3.261049641545729627e-01 1.915574847600669983e+01
-7.815971412715388311e+00 -8.076456902434985263e-01 1.992873506988057386e+01
-4.112001536941356505e+00 7.364305361506595649e-01 1.920945873985900221e+01
-3.952176787320341944e+00 -1.310563772071533961e+00 1.962759267265184349e+01
-5.981686156369323548e+00 -2.695514295199033850e+00 2.013370706357952145e+01
-1.505806006087533344e+00 3.688676533373330679e-01 1.449649470853986344e+01
-8.158401328422417720e+00 -1.185109907467527535e+00 1.965250282343591692e+01
-3.317003917622554532e+00 5.021133448041141811e-01 1.909358939762072538e+01
-2.583108530020185700e+00 -2.847311244203099001e+00 1.819064396151605223e+01
-7.968325653104135320e+00 2.067205351043785999e+00 1.713838593775855657e+01
-8.421379250210080158e+00 -1.433497137375765895e+00 1.882119377663008919e+01
-8.278097668564567968e+00 -1.953712534486409247e-01 1.921078227408437300e+01
-8.307532620262545464e+00 -1.483641913756789332e+00 1.862888836989581165e+01
-3.011582616952833469e+00 -3.443235182562867092e+00 1.936305018326536498e+01
-4.450515904755478758e+00 5.342798075704182637e+00 1.692075411906403559e+01
-7.760708907783564925e+00 2.253125803763078139e+00 1.818193571033983602e+01
-4.954729733173243389e+00 -1.668995669699744777e+00 1.987996807183368730e+01
-8.182406642289880239e+00 -1.209188886618397518e+00 1.763293736864368100e+01
-8.193007484696426701e+00 -1.322374738488007129e+00 1.805025703547402571e+01
-8.204047215961178807e+00 -1.137224759401882723e+00 1.744907753269556849e+01
-5.033348693619455361e+00 5.355819370005830748e+00 1.740164564086627053e+01
-7.979561650235348580e+00 -1.824309514042935287e+00 1.882825856849273549e+01
-7.913228067686692846e+00 -1.418716738846752090e+00 2.000089780507322246e+01
-2.262197050650809782e+00 2.077502090757056941e+00 1.454444054075372605e+01
-6.615085929131102382e+00 -2.973171462132253584e+00 1.977550807983865866e+01
-5.959661100232583664e+00 -3.161448312780347436e+00 1.974105169721650554e+01
-1.974615750944290093e+00 -5.442905952938477121e-01 1.585242342818314398e+01
-1.798825272787329732e+00 -2.690699994642646420e+00 1.935482176986952396e+01
-6.726892655351854877e+00 -3.880196376624525101e-01 1.662505001208540989e+01
-8.179567913900744003e+00 -9.467708845051736599e-01 1.703210632444554307e+01
-1.418643397199077949e+00 -1.770907475934140773e+00 1.924234502029366922e+01
-8.127898904074070785e+00 -8.881712507217554009e-01 1.691533421820708583e+01
-7.400480431785779523e+00 3.037122033681556310e+00 1.794260369701078872e+01
-4.311699358825752171e+00 3.083996720486670728e+00 1.849910790346704204e+01
-5.890506405823594527e+00 4.838473575343655853e+00 1.748471594573290133e+01
-4.051140268912902798e-01 5.086897002141146373e-01 1.536906821718676497e+01
-7.952176915843098826e+00 -9.500902629891585516e-01 1.684643310975634733e+01
-5.904182980115559864e+00 5.820652374935624263e-01 1.469850461067877490e+01
-1.664235577347696671e+00 8.776199289836639217e-01 1.408176654706389286e+01
-4.152960038825748157e+00 -2.127627733163022672e+00 1.982882178374237725e+01
-3.545161044934163286e+00 3.771814377117432837e-02 1.570888595783774377e+01
-7.429688866164882555e+00 1.485262898930754805e+00 1.557769370983166368e+01
-7.371474595049026135e+00 1.522290387455618621e+00 1.550462566843082612e+01
-4.777625925618581348e+00 -9.982642898071267812e-01 1.742693204460130829e+01
-2.956042247689466773e+00 -2.327960263495785220e-01 1.566076234991885485e+01
-6.278968756149803987e+00 2.655173181369768542e+00 1.884967751028554517e+01
-4.661978029930236467e+00 2.510613618865969343e+00 1.867689644441857411e+01
-6.102230499225310467e+00 2.623795043109322211e+00 1.885256870523751616e+01
-2.724457574626152567e+00 -8.741576413274805279e-01 1.639730952854269219e+01
-3.760588153384232690e+00 -6.953711941849218814e-01 1.946670993460239174e+01
-2.924333378965215502e+00 7.352700233483083769e-01 1.333200899617150270e+01
-2.542513863614768166e+00 3.133569909101473483e-01 1.904268809405080987e+01
-7.232287813779829655e-01 -6.151127557399223011e-01 1.587951725739376485e+01
-1.266665292599663539e+00 -2.810648733078458861e+00 1.787799725888262259e+01
-1.307683713019599736e+00 7.159598233918162968e-01 1.880076593033898291e+01
-2.539313996681348051e+00 2.569490871373266705e-01 1.449973612239590892e+01
-9.987679387903638517e-01 -2.534596578466336680e+00 1.918368489983775760e+01
-9.776020256637583117e-01 -3.135439328609511911e+00 1.836956860669798175e+01
-7.910552478603106508e+00 2.066981269406768185e+00 1.674149754147556735e+01
-7.853169000961879753e+00 -6.020967231613372217e-01 1.658995058047522519e+01
-6.193621675552649641e-01 -5.180625629925248443e-01 1.578815868206335438e+01
-6.790734344891614427e+00 8.734630257068493053e-01 1.450222775950582133e+01
-8.013427419469941526e+00 1.823745209111831578e+00 1.770406883528888642e+01
-4.354426998720821729e+00 -1.215495261663422255e+00 1.748849985064488521e+01
-3.154095117527274006e+00 5.512723549775537801e-01 1.369217010834984194e+01
-6.151880798311355036e+00 1.545437376756030989e+00 1.931131553609285589e+01
-5.823914755597097148e-01 -4.148703505087085741e-01 1.569725317792505592e+01
-7.920757327955121774e+00 1.556218902799143544e+00 1.629107886856816378e+01
-6.857719162161033388e+00 3.476294273321990147e+00 1.622415093367968097e+01
-6.561050261376322190e+00 3.609073788467864752e-01 1.529473366044728522e+01
-6.031474396108634117e+00 4.797199061368708328e+00 1.745952460802925543e+01
-1.363994967718550111e+00 3.012932887184284869e+00 1.793895512704903439e+01
-5.128940486103070739e+00 6.670945841138463672e-01 1.392516587456288590e+01
-2.537248169475863624e-01 5.620769937406403516e-01 1.773597742077647155e+01
-9.837755290385333806e-01 -2.340443029077913017e+00 1.917998170417654791e+01
-5.550263584159058627e-01 -2.270623753991689586e-01 1.553066065145314667e+01
-3.325334999593233309e+00 3.949495115508145471e+00 1.550831864648556291e+01
-2.887509472903158514e+00 1.511198544860303361e+00 1.331428599211450603e+01
-3.025805559647917420e+00 -3.374975719561374543e+00 1.894900865768723719e+01
-6.369247138350650594e+00 8.821848559876876994e-02 1.610344285349605542e+01
-5.022450951889058324e+00 5.081042935342233946e+00 1.662236390186262724e+01
-4.330435817972524970e-01 -3.659840165109895516e-01 1.573868209647982752e+01
-2.678692317678330159e+00 -2.333004724228157301e+00 1.956018870527492481e+01
-5.236455831798092930e+00 -3.287642380204701009e+00 1.977133895245189166e+01
-1.581840939449069339e+00 -2.953515884212225551e+00 1.928230867119527403e+01
-5.556231063339923892e+00 -8.638612663679823278e-01 1.986127944843356374e+01
-6.824577074511919861e+00 -5.009327580115048306e-01 1.670418987687515511e+01
-2.672852683886790537e-01 -1.130639877921020053e+00 1.828406664679152271e+01
-7.865582556417651805e-01 -1.724941146455726493e+00 1.903102451302793696e+01
-1.937839537069518503e+00 -1.891098302709111056e+00 1.699683033080188466e+01
-5.626396324820690076e+00 2.451296416459442185e+00 1.402426219077502623e+01
-4.619310268430436017e-01 -2.293103001962813803e+00 1.856181840677829342e+01
-4.970024849543685619e+00 -2.965353289762211020e+00 1.866109006276752069e+01
-2.317575385054242876e+00 4.416479363023734450e+00 1.748379668872746606e+01
-5.685173875526031928e+00 -2.202328465083271070e+00 2.013419672937307325e+01
-6.049188090424813424e+00 -3.157927694963062581e+00 1.955618810217149672e+01
-2.399951809199693198e+00 -1.719956710123570875e+00 1.943078184723627544e+01
-1.963639468613914030e+00 5.047412046448027656e-01 1.893773349826813757e+01
-8.449308041293848603e+00 2.521101217913287451e-01 1.748634796570809158e+01
-7.484992561203413608e+00 2.863154138953034611e+00 1.800679761307441851e+01
-6.935283436948908253e+00 -8.120402453854902447e-02 1.999329119738735727e+01
-6.182112055760602409e+00 -1.891688912165744529e+00 2.022122879998578782e+01
-3.134145001645221473e+00 1.160311880361434733e+00 1.880853284423329086e+01
-6.396391454120629483e+00 -1.668498668237401006e+00 2.025266126020643043e+01
-1.215422786494916751e+00 -3.163585167499189499e+00 1.840793578509005357e+01
-7.405290188859922296e+00 -8.607074139960557702e-01 1.669432032249947184e+01
-5.232441042919102614e-01 -2.783094806059493553e+00 1.818022074098754359e+01
-3.114908045506400436e-01 -1.162405028842018462e-01 1.792175854299863147e+01
-6.366175033825692609e+00 -2.240509824785552606e-01 1.684516359090338966e+01
-6.106878319058393068e+00 4.698366247062227830e-01 1.508674042922841352e+01
-6.960270270571383477e+00 -2.248708348617967090e-01 2.003479172588158974e+01
-7.801401365682249178e+00 1.412536775884118967e+00 1.898838376487253043e+01
-6.982153399122696946e+00 -1.425742369917347041e+00 2.032524105113245128e+01
-2.536143610087922440e+00 3.708471717163625558e-01 1.425894761555363743e+01
-1.154575284309583338e+00 -4.685384813573745255e-01 1.569608065802924557e+01
-4.348685332074765597e+00 -8.494705698035167618e-01 1.960778940550211047e+01
-7.608460283372010302e+00 -1.196624965002839103e+00 2.018388441893328178e+01
-1.781836825847363359e+00 -1.007873031264904018e+00 1.633122179004183749e+01
-4.240998774205760879e-01 -2.636166381085267130e+00 1.791062362346826120e+01
-3.362832907799751414e+00 -1.344809015867544089e-01 1.927127143731254222e+01
-6.077448002938213634e+00 -1.069689879282331724e-02 1.659082604713830733e+01
-6.405875909718235839e+00 -3.020650545305644030e+00 1.980786987126219856e+01
-5.724128014273012433e+00 9.885739760916609775e-01 1.330250951672287840e+01
-2.992812297366516550e+00 -1.840053315904284226e+00 1.743235466421332092e+01
-3.021711171333203438e-01 -2.115435032576555408e+00 1.822174390033497104e+01
-6.491490351596755026e+00 3.889993578096722526e+00 1.617021919324170653e+01
-7.517867846374593377e+00 -1.022209306102885407e+00 2.020671146179102351e+01
-1.187927364987582113e+00 -2.604103001655457383e+00 1.923895496840673758e+01
-7.594622933745077908e+00 -8.120177754918402879e-01 2.008740263076607135e+01
-8.087302702604180382e+00 -1.858753181494468887e+00 1.893042034366692405e+01
-3.830683683865094835e+00 3.555273010095512998e+00 1.825113202591297323e+01
-7.966872359391119041e+00 -1.022725521736635779e+00 1.985482371614271102e+01
-5.160100060046727499e+00 2.082364059516850219e-01 1.628720578221162185e+01
-3.854630636300000912e+00 5.285779459721078766e+00 1.697053429268181901e+01
-3.255852258400182997e+00 4.932750222756018488e+00 1.747343540068067114e+01
-3.273449112311315190e-01 1.534626883010891563e+00 1.675417958053002820e+01
-3.070298549503486907e+00 5.898741522274861815e-01 1.362630671102632363e+01
-4.563911530925473414e+00 -8.481249321145190034e-01 1.724290783107077374e+01
-7.144494291699218458e+00 -2.457953756102790877e+00 2.014367365239796470e+01
-4.350478332843133344e+00 3.226121890435114103e-01 1.506633296302847214e+01
-8.041200863314756475e+00 -1.190087825386918263e+00 1.979940411219588015e+01
-7.133820544277978293e+00 6.965802302643842037e-02 1.569731337100489554e+01
-1.740123897171259815e+00 2.166078726790891196e+00 1.521541086831413736e+01
-5.736746576184515334e+00 1.593809896158635109e+00 1.922083648331809513e+01
-2.130365552764566406e+00 -6.097637414550152180e-01 1.593815919615643395e+01
-8.341880782103659797e+00 -1.605501392010286743e+00 1.945879760437471617e+01
-3.769502005438945869e+00 -2.693994601162038816e+00 1.982104263828980351e+01
-4.854741036855778624e+00 3.542515104974327311e+00 1.834760322524432752e+01
-7.068902671776750246e+00 1.896670281937926639e+00 1.514973570205766862e+01
-3.941604840648662123e+00 3.729522800877627109e+00 1.513307243161129634e+01
-3.059207175142931501e+00 1.926036294009180416e+00 1.353297967914299704e+01
-8.396198348136062251e+00 -1.595380603379942475e+00 1.926454289931746899e+01
-7.700182616296200599e+00 -1.741315046677164524e+00 2.013815653682451767e+01
-8.273338653477846805e+00 -1.484434578429070228e-01 1.677709565350839682e+01
-8.136143964334387135e+00 -1.507941035209690028e+00 1.847344870149579066e+01
-8.190661545969291524e+00 -1.429862349615306005e+00 1.836147860274397203e+01
-3.844806983391155786e-01 -4.676562040748621918e-02 1.567790719039072656e+01
-2.314644048261329523e+00 1.265231254166559127e+00 1.372893718055056667e+01
-1.088220589738024380e+00 3.105562599833052495e+00 1.762565274163424078e+01
-4.898956957273569834e+00 2.149681676952450271e+00 1.880704117809964515e+01
-6.694140407766751011e+00 3.611330758263598728e+00 1.821355677213174573e+01
-4.771495434621476406e+00 -1.255573328464996141e+00 1.763905457988745695e+01
-3.009874453753477175e-01 -1.317441388813592518e+00 1.802737801374567539e+01
-3.739141386727486971e+00 5.692181336951269710e-01 1.357233525665970575e+01
-5.551194918256738831e-01 -7.245547843364179563e-01 1.607148627769994675e+01
-6.507433487344999712e+00 9.191349077446235860e-01 1.411398063079248288e+01
-3.922262322633472964e-01 -4.628919759516747501e-01 1.591284018220117957e+01
-7.654737951154060305e+00 -2.482644049513472506e+00 1.989055654096295456e+01
-7.032509217277214120e+00 4.843775924796902554e-01 1.981108483499961892e+01
-3.479196608819973946e+00 3.471554122562368949e+00 1.494849805930022768e+01
-2.744287288981474005e-01 -1.186675997795846538e+00 1.830315253136163278e+01
-4.529068914324895445e+00 3.913356913787464642e-01 1.492843140287398285e+01
-1.799045796628721439e+00 -2.335416088368367671e+00 1.934511423258712881e+01
-7.906247820263487824e-01 -2.129735687184218573e+00 1.904438727134545672e+01
-2.334887507523004224e+00 7.453399097230611892e-01 1.357205646703565805e+01
-6.005970924860331905e+00 -2.048899949393639730e+00 2.019663059889005297e+01
-3.813444471595608398e+00 -3.072900466484448589e+00 1.975247110321553379e+01
-7.323343294772925560e+00 3.274938253762559537e+00 1.780596057719609604e+01
-8.320223721563603902e+00 -1.786930073487890791e+00 1.943992456595467644e+01
-7.775288926057525529e+00 -1.766389438808222856e+00 1.865348823131854772e+01
-3.509292279864501207e+00 4.889217994120282906e-01 1.914713559463775994e+01
-7.824907917560617321e+00 -2.444534390909286703e+00 1.940175010502931485e+01
-5.871946532620753167e+00 1.965516414200875195e-01 1.623187852330398329e+01
-4.615465149373155995e+00 -2.961142751974181753e+00 1.865984668730324358e+01
-8.225327161957128652e+00 -1.961813968803600261e+00 1.925078177341561059e+01
-4.895963127405927651e+00 2.387437902722000516e+00 1.873109998865826498e+01
-8.237028844820180495e+00 -1.818207733776848745e+00 1.904310597469219601e+01
-6.553641545903213128e+00 -4.386352584916122233e-01 2.005753735845922137e+01
-2.621295966150577250e+00 -2.949839114545161678e+00 1.953322422898541788e+01
-6.432597946433851632e+00 -3.032650169940942053e+00 1.960391512243582213e+01
-5.964269559248755570e+00 1.042563868052054366e-01 1.975029926664724655e+01
-3.308223706598134584e+00 -1.474089845674750876e-01 1.589731036541000719e+01
-3.011658029656275382e+00 -4.427656716405041770e-01 1.609961200300373463e+01
-7.993949900847979073e+00 -1.532258092672095007e+00 1.843804886682054445e+01
-7.745284160773022286e+00 -9.112271886150025146e-01 1.666282650999057324e+01
-7.098948075456360307e+00 6.918378186990534751e-01 1.507642948663456650e+01
-4.353530074671101424e+00 -1.787228708423556078e-01 1.649598124688392176e+01
-1.417904111725250216e+00 -3.209809596960204292e+00 1.908577279840276475e+01
-6.721084011247695500e+00 -2.112806631156520343e+00 1.869870180247427527e+01
-4.162664742962026487e+00 -1.235542052883892072e+00 1.743925444008191050e+01
-7.353938914212397648e+00 1.736258192007370527e-01 1.985409240606075798e+01
-6.938565983921823666e+00 7.094226358749475825e-01 1.490333562028576608e+01
-5.593830381544994346e+00 -2.474620747837245727e+00 1.856100039978917948e+01
-5.536682483752207062e+00 9.336429635961340789e-02 1.646796042696537654e+01
-5.643991861355334372e+00 4.008538996473873794e+00 1.568481519815987468e+01
-5.254800111673909591e+00 2.639015543058928159e+00 1.403304625752382151e+01
-5.213103638139855001e+00 -1.875738787849564382e+00 1.996098240163798465e+01
-8.073949793109985507e+00 1.704000323701122976e+00 1.692633441911260661e+01
-6.190741046687025850e+00 -6.616656404361880295e-01 1.742072031198486570e+01
-5.132783585747114685e+00 4.738244262321167910e-01 1.554961150977605655e+01
-7.203088345762743927e+00 -1.173438576099158359e+00 1.785353837314792713e+01
-4.950659663477074091e+00 4.129785462152534281e-01 1.573731896801456287e+01
-8.135869877062539501e+00 1.059040533465239742e+00 1.854318859913692563e+01
-7.743352999870238840e+00 -2.556242306976909351e+00 1.959147656216057953e+01
-2.943929109128148092e+00 -5.094780708199568853e-01 1.613195511887570177e+01
-8.067871895222197054e+00 -2.236352089042826563e+00 1.941747493946565584e+01
-6.399939794921840619e-01 -2.663356561975629866e+00 1.786889636377144086e+01
-4.148021146790830116e-01 -5.991392455007982232e-01 1.603122219593103637e+01
-3.091579496753667389e+00 -3.427156731270471379e+00 1.906310695847963643e+01
-4.264658830237758380e+00 -2.455871324605723771e+00 1.830152391093212572e+01
-6.846231447760573907e+00 -1.808362518411541053e+00 1.848735636110430391e+01
-1.083595078584806970e+00 2.880466968618693002e+00 1.780150090148359254e+01
-1.140044072049960944e+00 6.648373489532157787e-01 1.878289630211715178e+01
-4.436363089748794231e+00 -2.992055390927002456e+00 1.867551309795127423e+01
-7.396873964425327408e+00 -1.294404984525183266e+00 1.802688593765820713e+01
-3.012896882459845105e-01 1.336474657800786892e+00 1.636276199757988081e+01
-4.687097768745897675e+00 2.548031806467451865e+00 1.375210986228795207e+01
-2.888361310805069859e-01 -1.350795325045492490e+00 1.823585014767241574e+01
-6.668275512843309549e+00 3.524672880964180521e+00 1.831741114319626718e+01
-3.353319828892754595e-01 -1.534602837389621222e+00 1.844393213026209821e+01
-2.066149457149227597e+00 3.099664257678707457e+00 1.810756385237057486e+01
-2.059372502115797587e+00 3.538376436491239563e+00 1.620582561385872111e+01
-2.722312484402041211e+00 1.049908464507030903e+00 1.314291464709175017e+01
-1.085064547343011609e+00 8.090256217254534477e-01 1.467650298683824417e+01
-9.943115416008506680e-01 -2.155390556588919981e+00 1.917142424931834910e+01
-7.981751841542728876e+00 9.346393469535734244e-01 1.605699941522621543e+01
-3.035830801154636660e+00 -3.294307602400446289e+00 1.953918812605218847e+01
-8.379941606380807428e+00 -1.339134532950879475e+00 1.844946424681116071e+01
-4.630984894444031497e+00 -3.299637955049458338e+00 1.980078107284865041e+01
-2.512162901992897712e+00 2.618087677438966310e+00 1.478937027598305320e+01
-3.105271895630417056e+00 2.028181311316412216e+00 1.358822479754960710e+01
-6.237967432657371969e-01 -2.534661816716913041e+00 1.883892496966762309e+01
-7.827250340158607322e+00 -1.816316699014918212e-01 1.639492147162769697e+01
-3.468208697001149421e+00 5.125325084805682607e+00 1.739392920367897233e+01
-3.456780897717593337e+00 4.624403456827270276e+00 1.620776313459310813e+01
-5.612361694764445019e+00 -3.085913820786410078e+00 1.996559948422674324e+01
-8.347932713109234015e+00 -1.361456821923818783e-01 1.690089953628083919e+01
-5.808829156016769524e+00 -2.797030148236227198e+00 1.880864347817264104e+01
-4.988565679191484747e+00 -2.033197644769210388e+00 1.816185415467563047e+01
-6.399855131500771677e+00 -2.864092094687191725e+00 2.003306899578778655e+01
-2.692283139150359883e+00 4.136084683418800978e+00 1.608641194369494798e+01
-7.485632581633284488e+00 3.036931962942501784e+00 1.775913763996834405e+01
-5.782520900167623656e-01 -2.313179281876829751e+00 1.757120828131802881e+01
-6.825586621147059496e+00 -2.586702763664731286e+00 2.013827785333804599e+01
-7.988918616068655387e-01 -2.283985238518180694e+00 1.743369414301263731e+01
-6.032771469109045270e+00 -2.498576276871947499e+00 1.872894216870956541e+01
-4.114361012321350319e-01 4.453074916874391054e-01 1.823883725682189549e+01
-4.529719217704284873e+00 2.593824348204528007e+00 1.865526649377225965e+01
-7.917915123110595310e+00 -1.249259059784348924e+00 1.997298194659125414e+01
-8.549426150868800534e+00 -9.224187163394361733e-01 1.844516557713602367e+01
-8.007691624203763681e+00 -1.403802973883292005e+00 1.989368242427928379e+01
-4.298127961689661269e+00 3.906035760023323977e+00 1.538322602637621372e+01
-4.004585401156370850e+00 3.947319393935805887e-01 1.410084707518320357e+01
-8.109302636117879715e+00 -1.560506738835980567e+00 1.978758406758707622e+01
-5.401884207089848289e+00 -3.264169542512853628e+00 1.918113254608108065e+01
-3.265344872101039186e+00 4.346234321711823334e+00 1.781387992353349148e+01
-5.402198138985498055e+00 -2.876636070050874849e+00 1.871067525412319554e+01
-8.223699367258195281e+00 -1.814149769798473422e+00 1.964843051247618888e+01
-7.782227660254402934e+00 -1.001494854409875401e+00 1.704077241810483656e+01
-4.698708594358319557e-01 -2.660013648199829106e+00 1.825305506039621406e+01
-6.918493654275430949e+00 3.571089499581658333e-01 1.531374615890741353e+01
-2.871206131628872171e+00 1.709083135570417245e+00 1.351055767376657712e+01
-5.252870894673975499e-01 2.304570796167144664e+00 1.756638564547193937e+01
-2.111741742178091741e+00 -2.489339644258614648e-02 1.508582418630677324e+01
-6.724011784101569411e+00 2.609585643958434176e-01 1.543931757785582448e+01
-7.382214791719608371e+00 -1.223369319058718485e+00 2.028092442076640367e+01
-3.047151018948921486e+00 -4.782332710399122000e-01 1.620621683759073761e+01
-1.327781618757310378e+00 3.157351715773611733e+00 1.665780557519577343e+01
-6.302378505922287211e+00 2.137668111123948833e+00 1.909813740823432937e+01
-7.064316223621305291e+00 3.882022931450210268e-01 1.983921340986615434e+01
-5.914946174587821126e+00 9.146395697246938461e-01 1.370899961076261775e+01
-3.008099443560884323e-01 -1.516209743607567884e+00 1.828296222914809732e+01
-4.433834306286206228e+00 4.990255580619802345e+00 1.765862902345484997e+01
