-1.813642273914690239e+00 -6.751970108575602314e-01 1.693453213423563852e+01
-1.720490546604106274e+00 -7.974065638658631716e-01 1.694415584165243871e+01
-3.917455695242963998e+00 2.804094813974191691e-01 1.656954139456987463e+01
-3.528292406635268330e-01 -8.333420382031253570e-01 1.672363484215930640e+01
-2.533277380978189441e-01 -7.774374735436089257e-01 1.678285143852910011e+01
8.570020243227560730e-02 -2.429707148165916042e-01 1.735152123729100992e+01
-5.547738445619211589e+00 1.179664755742734217e+00 2.005489432129317606e+01
-7.616705764126167288e+00 -1.313658049978428943e+00 2.056703400968062567e+01
-2.301020586430368997e-02 -9.276793950018344947e-01 1.933534758041362522e+01
-1.299726123080688911e-01 -1.339962857733851598e+00 1.947397529966228547e+01
-3.272559839723171216e+00 4.394207512329221466e+00 1.902261390663037588e+01
-6.284402125566548314e-01 -1.603496716316252568e+00 2.048898419690889483e+01
-8.765875174550599169e-01 2.399131050931880171e+00 1.688328267248734704e+01
-1.859016354125024861e-01 -1.546685781055115561e+00 1.950260988943433205e+01
-5.526531081441593329e+00 8.230176101780235509e-01 1.496921547947803788e+01
-6.076862999743790628e-01 -1.391488144981894104e+00 2.052467897724363866e+01
-4.350699922829957877e+00 1.491182269934205884e-01 2.051126161578795859e+01
-1.343292025893169983e+00 -1.799121332518167637e-01 2.073101043370564156e+01
-4.445245082454420960e-01 4.056241272388154684e-01 1.571109875152283308e+01
-9.760122626998350981e-01 -2.179865994587451006e+00 2.069141118169790872e+01
-8.598446898614973577e+00 2.150747061837177565e+00 1.709723541793957224e+01
-3.488609187206236584e+00 2.688447441967367180e+00 1.548376456315640581e+01
-1.655594383602279951e+00 -2.713515707899515128e+00 2.076495379161008970e+01
-3.314892886213986145e+00 1.506948800041810976e+00 2.009393820944020348e+01
-4.973788977693662794e+00 4.786424791343285357e+00 1.740219485474159455e+01
-6.000848365775104387e-01 -1.748776896244403245e+00 1.783230605139083735e+01
-7.601348029497409620e+00 -2.417711663403308009e+00 1.983697570310400238e+01
-7.801498146795132094e+00 -2.224752758505683659e+00 1.942821633024551886e+01
-8.342851879473009546e+00 -1.214147571130048453e+00 1.785104563153503676e+01
-7.638405406569847678e+00 4.084341972066211746e+00 1.830044682574759207e+01
-4.997609448945110167e+00 4.328399761873195750e+00 1.688738876583663995e+01
-7.810636586537950343e+00 -2.121784231566335777e+00 1.921933033317693429e+01
-7.778923660979272903e+00 -1.878731447259463616e+00 1.885663460747679920e+01
-7.240794148882394587e+00 3.530256240348760066e+00 1.665148143888345800e+01
-8.076425104015736878e+00 2.421545756021865614e+00 1.918543102241436316e+01
-7.581790376258358499e+00 -1.559039071320478032e+00 1.847170872332047509e+01
-1.050822357559350939e+00 -1.946887327890466812e+00 2.080616348928614201e+01
-7.968059216864376459e+00 -1.371740839406617285e+00 1.802935294807713262e+01
-2.638280881092145869e+00 -1.734284564067822609e+00 2.089301913422351475e+01
-7.204098885007133468e+00 -2.333564269546014813e+00 2.055811574705222000e+01
-8.860290092381568172e+00 1.157520831803911854e+00 1.775968072056195979e+01
-7.643143194732405554e+00 -1.225418858829465441e+00 1.792348965325469123e+01
-7.428997335336339880e+00 -7.923180661415847315e-01 1.689604314524737561e+01
-7.611767303407558138e+00 -5.670429261275853339e-01 1.629751738700902308e+01
-8.112183935554053704e+00 -4.403709759502645316e-01 1.636656534466042245e+01
-1.967464402061537054e+00 4.305932384363759802e-01 1.494443410361087388e+01
-7.870942757903939047e+00 4.449079376502522720e-01 1.557965587552927644e+01
-7.172256834373138545e+00 -1.498854090262591310e-01 1.575027954635088179e+01
-8.001732839471955572e+00 1.374359873335898374e+00 1.590384642119052216e+01
-4.952037406345924708e+00 4.234219835306325841e+00 1.678498762086589835e+01
-8.102622611930495822e+00 -3.736044623216356886e-01 2.023088089863387040e+01
-2.679053238533719572e+00 2.494728952619993390e+00 1.982616479793045272e+01
-6.582932921169693863e+00 -2.692468795255835712e-01 1.729102761998200322e+01
-8.095440405477685175e+00 8.224387777763098040e-01 1.996832549684965841e+01
-8.774341312087667433e+00 1.712862070613369703e+00 1.738796561459123069e+01
-6.620733736221296795e+00 -4.224496674194104795e-01 1.755651098236502605e+01
-2.154760716389159114e+00 -3.653167371840948530e-01 1.714351882660064774e+01
-6.197712988470062356e+00 -4.771778233421442028e-01 1.774126620760909390e+01
-6.317890692432142075e+00 1.952730486413422062e+00 1.974518513975426970e+01
-3.153288312875988986e+00 -1.176084207554281003e+00 1.835081460628229877e+01
-4.336873928103970322e+00 7.259450654343109210e-01 2.033661457854012866e+01
-2.027925094182255528e+00 -1.374607593935142313e+00 1.838981415936241604e+01
-8.899732679662403001e+00 -2.865599391048367917e-01 1.831583478746897242e+01
-7.421065865907403136e+00 6.927986170459390358e-01 1.480082603076668590e+01
-5.462909240929985089e+00 9.274297471128046810e-01 1.435040739435000035e+01
-1.585961039013041862e+00 -1.027068894013879463e+00 1.709218822900580648e+01
-1.161615598191392040e+00 -1.252685745102289472e+00 1.710271436057578143e+01
-8.821689441307331236e+00 -4.790906179499152540e-01 1.808986599617669100e+01
-6.765191874635011260e+00 -1.898970551261314199e-02 1.591336096419168200e+01
6.572192517405595069e-03 -1.353755723665600152e+00 1.892267539132635790e+01
-1.003207856923804098e+00 -1.165803445402534999e+00 1.691143046981655829e+01
-2.841577379857004093e+00 -2.751031596679365698e+00 1.983988696430243692e+01
-5.660495737765414148e-01 -1.448674050156405935e+00 1.732585839609912171e+01
-7.769703626670076524e+00 -4.028160353054970333e-01 2.037614785290430319e+01
2.664241581616788590e-02 -1.049771278285846821e+00 1.773113992412300632e+01
-2.171745309762982856e+00 -2.086305369112519514e+00 1.908117870082198664e+01
-8.953276649594199554e-02 2.499958209481985438e+00 1.867133200585568176e+01
-9.444602576651648373e-01 -1.761200880797737289e+00 1.792845737536696049e+01
1.277864107575797936e-01 -7.486243432610086845e-01 1.767383861606466411e+01
1.521713396293667420e-01 -1.219922610625225889e-01 1.799407676774093545e+01
-4.662868465884204561e+00 -2.518668646969811853e+00 2.091735414483919442e+01
-5.341337083946584574e-02 -5.567711750543036242e-01 1.954249481545524247e+01
-8.491767688619695775e+00 -8.548056975877174057e-01 1.750047799207120391e+01
-8.684783580659161117e-03 -5.307558682400095318e-01 1.938361766549347465e+01
-7.371518440493595392e+00 -4.296727645060276490e-01 2.045413843452035252e+01
-7.935481413979636578e+00 -1.190663580247012687e+00 2.040574654835106827e+01
-8.563822253638584403e-01 3.701248299718815638e+00 1.854131164118045660e+01
-1.905189470445897371e+00 4.888991085716904994e-01 1.478503308079618250e+01
-3.658910126838243571e+00 4.357192355831791097e+00 1.900352209135818526e+01
-2.878382618233487733e+00 4.891889068997943291e+00 1.821054524086482473e+01
3.352924670550283537e-02 -7.507745045558349428e-01 1.910483090570758691e+01
-6.707460508450241221e+00 3.217792651637889634e+00 1.927244689834380154e+01
-3.513654651359277015e-02 -1.344068269647604064e+00 1.914054589652405980e+01
-6.058250552634278030e+00 2.324502815438042269e+00 1.507839119773849745e+01
-3.869513020941944825e-01 -1.966132736244666779e+00 1.986838859417792946e+01
-4.000496807797029319e+00 5.198277971195882863e+00 1.816402116403185119e+01
-5.633363833265363496e-01 -2.170692892925631057e+00 2.009965466487072661e+01
-5.495500422009308217e+00 1.638800444403800460e+00 1.422985153052703566e+01
-4.424759541364085003e+00 3.040977142521946952e+00 1.556163235456985205e+01
8.136295234122431497e-02 1.285110193101857146e+00 1.861652846647217530e+01
-7.538224043948356101e-01 -2.372944433098751027e+00 2.029952739376491166e+01
-9.311022242403459437e-01 -2.389791272862181515e+00 2.053943693344458410e+01
9.063847307952949128e-02 -9.779416456912781719e-02 1.857320440006928663e+01
-1.854024811947765805e+00 -2.149005971735132192e+00 1.905588886764416401e+01
-3.545545005202516364e+00 4.665760097668152362e-01 1.615532569091575965e+01
-8.236288728051725627e+00 -1.158069521932974189e+00 1.760522657028882776e+01
-1.248868812954780250e+00 -2.575384872985523543e+00 2.066730009985185745e+01
-5.228806667483630655e+00 8.788893251866252143e-01 1.493109916083761135e+01
-5.165557618425680175e-01 6.276777436651832520e-01 2.027103135248323440e+01
-3.641469748332721856e+00 -3.029260340710782984e+00 2.057185066176407418e+01
-1.089003451121375310e-01 1.230374266162200136e+00 1.940371042920866529e+01
-2.032554760578605624e+00 3.987740734472562387e+00 1.773412877582806857e+01
-2.886582318558079230e+00 7.733895154286549722e-01 1.498937521492750591e+01
-3.685982674398112557e+00 6.699986687241692440e-01 1.561662598797320811e+01
-5.808634654680583154e+00 -2.736681899142084262e+00 2.047778759613139243e+01
-8.628479949878371968e+00 2.350422183975214629e+00 1.726770894216779340e+01
-7.340942045133258098e+00 1.920799700100961349e-01 1.531137302374393983e+01
-7.360367356952409068e+00 -1.148492117920415501e+00 1.802232959770012144e+01
-8.254698867083487102e+00 1.227593522319834651e+00 1.625352353105350289e+01
-6.734467915741422228e-01 -2.186266725228732888e+00 2.028388892394615084e+01
-7.221515864399920659e+00 -2.554053733138998084e+00 2.001357443116317114e+01
-7.019212310860775794e+00 -2.429399340664013529e+00 1.964079245351891245e+01
-5.489353376226883796e+00 3.368880235791678501e+00 1.926284410976679595e+01
-5.452292368665397682e+00 3.896031412679278105e+00 1.900481899009908204e+01
-7.392066663819278460e+00 -1.985242939481713043e+00 1.901636087440121514e+01
-4.449385419468399938e+00 -3.055685952968849151e+00 2.021440427874844659e+01
-2.078883549584097601e+00 8.008370368272310635e-01 1.443668712090433814e+01
-3.068319427078847639e+00 3.998327675876995890e+00 1.717242563936444100e+01
-1.043414967096608192e+00 2.465321324081883425e+00 1.680818263554626668e+01
-7.162739825784385062e+00 -4.436979664195070949e-01 2.047647287857907372e+01
-7.145274126970744710e+00 2.229967020473756723e+00 1.970393473573862053e+01
-7.521594443936854724e+00 1.237514132845469739e+00 1.516416731673368901e+01
-7.636520369133624975e+00 -2.067802076157816416e+00 1.909577824538770585e+01
-8.641495772886909066e+00 1.401803385304063232e+00 1.695741341517131673e+01
-7.209337766990909557e+00 -1.657167192304535464e+00 1.867821237297926018e+01
-1.826713515390391951e+00 -2.417989168256938548e+00 1.931651149254470567e+01
-3.993591161516455657e+00 4.943233720000647757e+00 1.869032130441375728e+01
-5.285556637968692684e+00 3.577101117190398583e+00 1.620040433585897688e+01
-1.898808894787015422e+00 4.325810028896988513e+00 1.818015033660775259e+01
-2.591548783725318383e+00 -2.049861853366914843e+00 1.906519018568080526e+01
-3.645109318156973366e+00 -3.008596573642346783e+00 2.023486314932833352e+01
-2.316614436148979106e+00 1.900075730382586370e+00 2.000222414123443571e+01
-4.160728726397044497e+00 -9.742586200956113718e-01 1.816516618873207278e+01
-7.204719719643262188e+00 -1.385813940363796570e+00 1.840837561930395339e+01
-5.877046776153089347e+00 2.670017606914637742e+00 1.541840881242471539e+01
-3.133262670129105754e+00 1.911216729427342775e+00 1.997950548205189136e+01
-7.573203833213974612e+00 -1.381816558185061217e+00 1.824663746808013798e+01
-6.325176935861340333e+00 1.186507033245722820e+00 1.998549606448898430e+01
-8.294995096421377667e+00 4.056201769914775657e-01 1.988733431269727703e+01
-7.370031677891732080e+00 -1.218991178668446418e+00 1.813485002162216375e+01
-7.567093525426900946e+00 3.659249276904726678e+00 1.691929543205694131e+01
-7.027275812827199708e+00 -6.579072874754288147e-01 1.734818116122347931e+01
-4.647532614302968490e+00 -2.391127773829006209e+00 1.930477689183640422e+01
-6.104417164381563232e+00 2.376724833710052387e+00 1.961334299388062163e+01
-7.384992895159498971e+00 -5.415885623410214844e-01 1.627883643013429094e+01
-1.927517186564338125e-01 1.673738041637344631e+00 1.710730898774463782e+01
-7.553221120001178512e+00 -2.443040826430171730e-01 1.588818257999929529e+01
-6.457810059693404270e+00 4.678059385984286500e+00 1.753233826608691714e+01
-8.014516312583058522e+00 3.480491610039186057e+00 1.713773216039452052e+01
-7.847252468521353386e+00 -1.360894675330153181e-01 1.600478261285028481e+01
-8.198034112056237888e+00 -4.320044707642620718e-01 1.647610110288519536e+01
-2.279337931557581687e+00 4.441533516043104868e+00 1.908487201484279439e+01
-8.361604457274093960e+00 -4.086798328402949654e-01 1.668216195630667187e+01
-5.381829688273871426e-01 -1.553192198699046012e+00 2.035048889014314000e+01
-4.779123472796258376e-01 -1.986573990503346598e+00 2.004441346044194461e+01
-7.487732401378444091e-02 3.909538839322250769e-01 1.638543758107689996e+01
-3.621480124135795897e+00 -2.509939038345896378e+00 1.944946242750942389e+01
-7.881977641129831902e+00 2.330709290195414063e-01 1.575199288262756880e+01
-4.840232582464679467e+00 3.961632098163777371e+00 1.905737762729764739e+01
-2.020295443459974027e+00 -2.114319319903796845e+00 1.907835916485451122e+01
-7.706868946184219915e+00 -1.557354390207410511e-02 1.575574383042104643e+01
-7.348552034592300330e+00 -4.426417959052002526e-01 1.611912597109391498e+01
-5.113351687545308444e+00 4.071056375001074201e+00 1.895862985363876874e+01
-8.855550650922495493e+00 9.923650886195160004e-01 1.779342413356151553e+01
-6.784358011292713542e+00 -4.599235216563239970e-01 1.734383068140710549e+01
-6.757478257857058246e+00 -6.350081966052527616e-01 1.774225426627782554e+01
-2.717772585015769238e+00 3.217742750873142654e+00 1.651414805766955141e+01
-4.861236691775697061e+00 4.643902336881629900e+00 1.722257287193099273e+01
-6.585901537764992320e+00 -6.976959054655134107e-01 1.789901279026118885e+01
-3.917390442046908561e+00 -7.806651473498282812e-02 1.718498850219377516e+01
-6.576072876529925892e+00 -8.799554988162074931e-01 1.810909939744567509e+01
-4.483491419971877612e+00 3.784334392581664375e+00 1.919253903720041166e+01
-6.528155569161976146e+00 -1.098539170432682566e+00 1.833223960780924244e+01
7.428852057783713603e-02 6.833706691942709188e-01 1.882308435016067705e+01
-2.185439098129397184e+00 -1.891851393848087204e+00 1.891308267118959208e+01
-2.164049685568041337e+00 -1.622805671543712913e+00 1.866579117261614584e+01
-6.200957728365596111e+00 -2.466834258569231331e+00 1.964750626229928088e+01
-1.809988177138402765e+00 -1.244195679916572095e+00 1.807179711250884679e+01
-7.158863511339855989e+00 -9.448312125778592918e-01 1.783871366721234608e+01
-1.800912103461324687e+00 -1.022721040725879993e+00 1.772207776585963046e+01
-1.313033048075176845e+00 3.808262495181958140e+00 1.926304381202429283e+01
-5.231961108460455812e+00 -2.577313038456545691e+00 1.963546425728707590e+01
-5.716968704492304987e+00 6.138434359780740035e-01 1.557662669893901608e+01
-1.725076706598510423e+00 -1.040672948542457066e+00 1.752799699517922249e+01
-1.312080229219441785e+00 -1.350577718790558324e+00 1.735030590291257369e+01
-4.422541332979285755e+00 -3.008052704569501579e+00 2.002596345029937908e+01
-1.204842747174522888e+00 -1.466104010389301271e+00 1.750967538461922857e+01
-5.634749495903890182e-02 -1.013779031921736573e+00 1.741945345257457234e+01
-4.162876488450073520e-02 -1.703107055277422122e+00 1.872178478972863758e+01
-7.087103878459557471e-01 6.410443394663647432e-01 2.043140444842184422e+01
-1.199549544168132309e+00 -2.786931217679170736e+00 1.985842548880123815e+01
-8.050535756587407832e+00 -1.364931130257034608e+00 2.030456141236434320e+01
-1.183386168477724931e+00 -2.164961431848325013e+00 1.882193148071957012e+01
-8.628992074892195774e+00 8.671428864543773152e-01 1.900535860732357207e+01
-9.886394228203116974e-01 -1.650589381836851333e+00 1.770903259966405585e+01
-3.771368089781118593e-01 9.786880247037950120e-01 1.623992175175072106e+01
-7.037628455217757484e+00 4.741095446218799303e+00 1.772229241810332923e+01
-6.418358276241156624e+00 -2.439656978033982071e+00 1.963358363402474538e+01
-7.912256606805803116e-01 -1.701189701865443604e+00 1.773236811777409372e+01
-6.646502906554782264e+00 4.582309221885723538e+00 1.850415685951110589e+01
-4.031597198076833699e+00 5.075548709254277924e+00 1.791142737778024951e+01
-3.539884497113210404e-01 -1.479849425442668620e+00 1.747529812466186883e+01
-6.449221226166201859e+00 3.740432327607722485e+00 1.899946372385709736e+01
-2.446627664532360358e-01 1.059429627378538630e+00 1.652526944047468760e+01
-3.574061594750506998e+00 -2.767920655496403093e+00 1.973831122561021800e+01
-3.292819658144130468e-01 -1.310638808586639170e+00 1.723617735520124938e+01
-8.209602612373075203e+00 3.284260623176571414e+00 1.823821594123958079e+01
-8.711005917118674891e-01 -2.696305775136975669e+00 1.983324692313935600e+01
-6.510490647428611055e+00 -5.984289792709660549e-01 1.781883376210593894e+01
-1.349372442432279495e-01 -1.447369350854248227e+00 1.771707642761531076e+01
-6.569333682528004204e+00 3.227853573180112789e-01 1.539799456058069893e+01
6.194127662254622635e-02 -1.108798337671875744e+00 1.815811166554441058e+01
-8.272300630983018266e+00 -4.183200996005902450e-01 1.656848328364628742e+01
9.918274281665778735e-02 -8.850464185727797695e-01 1.792219320815227235e+01
-6.785098908978459242e+00 -9.154868537409368567e-01 1.809007215049190620e+01
1.565013226344394992e-01 -2.885758993408920059e-01 1.801816069427393785e+01
-3.243222380145230677e+00 -2.965810685772747313e+00 2.046303173071555648e+01
-6.858068877574657662e+00 -2.555140713928500062e+00 1.985946463040166776e+01
-4.592449053017132243e+00 -2.988768919583942640e+00 1.997533646607661950e+01
-3.509433782144555813e+00 -3.011793127974142337e+00 2.039544758681317660e+01
-4.839942682406266350e+00 -3.038569511047463756e+00 2.043185405063674409e+01
-2.585822864625722417e+00 1.239192306882789474e+00 1.443751179762114134e+01
-3.015829809901126035e-01 2.061277247675060487e+00 1.946384656674981528e+01
-2.696302767610431417e+00 3.314456572781712573e+00 1.952694362617630475e+01
-6.827149931465856803e+00 -2.630407220163420767e+00 2.004065865020382375e+01
-7.023652843833197323e+00 -1.964508048394507211e+00 1.902975839802883229e+01
-5.744971811007300033e+00 5.025172781804805311e-01 1.594224980799405245e+01
-8.266569904017465831e+00 8.042357832473157053e-01 1.633122527454536765e+01
-3.988875746554123580e+00 -1.525301670704162005e+00 2.091936339886346730e+01
-5.313899557744619528e+00 6.754703263894275000e-01 1.555788484767427349e+01
-6.926930955090661257e+00 -1.452025621402925237e+00 1.856389750055252108e+01
-4.152424961427669814e+00 -1.065693303544079873e+00 1.823590548796555311e+01
-5.569387634918588681e+00 4.162024447932246574e-01 1.623391721816273758e+01
-5.409441186240806498e-01 -2.371724662638090564e+00 1.989908277558384952e+01
-7.182088187960073533e+00 -1.110465696086839538e+00 1.810403203400282024e+01
-2.530699052456721887e+00 4.979316188599278714e-01 2.034699756471891163e+01
-8.980341802427904696e-01 -2.715876514923881047e+00 2.008945969831718514e+01
-6.977881693144133202e+00 -7.452572800990060475e-01 1.767046021283849200e+01
-6.925875679131972440e+00 -8.610757711189080954e-01 1.793408425632542702e+01
-6.404444669184238492e+00 -1.548093651784395730e+00 1.872442234162583929e+01
-8.210121164722178122e+00 3.469219581205634562e+00 1.804822937145289785e+01
-5.399690872979139300e+00 -2.207549942470683035e+00 1.925489609240668187e+01
-2.803701628136067381e+00 -2.073142988081231763e+00 1.908212115918289697e+01
-3.815702127827909074e+00 -2.065940153549594704e+00 1.902299398338102776e+01
-3.197554362854177601e+00 -2.068742306625240168e+00 1.905814268231141995e+01
-3.709368028550964702e+00 1.309378273833327722e+00 1.388848205359445842e+01
-3.861061725123792421e+00 4.194870511439866334e+00 1.696600935333592730e+01
-2.309942658340962129e+00 1.850534365723059738e+00 1.526950623276262320e+01
-2.196378918070038821e+00 -2.290680106077940259e+00 1.925890295249563167e+01
-1.715187737129685086e+00 2.675152196663381332e+00 1.992692132439902508e+01
-1.538011414053637171e+00 -1.424608400377624262e+00 1.790084546681180200e+01
-8.310066735494014978e+00 3.319658980583253705e+00 1.784701781606437265e+01
-7.969833619380954914e-01 -1.862336543926328192e+00 1.807466713138379077e+01
-2.903001401000547599e+00 8.956396732664697602e-01 2.025799054899076168e+01
-5.988772657705898617e-01 -1.869437118623544558e+00 1.808759916781880861e+01
-9.459166828291953877e-03 -1.519209229129396155e+00 1.830750730748891897e+01
-8.790170578032167725e+00 9.465796595415589820e-01 1.737987162310965061e+01
-5.786628653254397570e-01 -1.091035654422842116e+00 1.683878840577053637e+01
4.302016792571439208e-02 -9.256137333469613981e-01 1.893996317896542791e+01
3.897172372321244804e-02 -1.289017561820955615e+00 1.873560566468128030e+01
-7.343995455994634103e-02 -1.759850072042653535e+00 1.889414014729297264e+01
-3.001782245362540014e+00 -2.905491420386837831e+00 2.023410024074301816e+01
-4.508318709050779027e+00 4.985296325515142790e-01 1.618105142347396708e+01
-3.397395589563167118e+00 -2.926423038050688596e+00 2.007881386527116518e+01
-8.649686827986498017e-01 1.098468158467418521e+00 1.556702533159418067e+01
-1.906142831840405005e+00 2.690253256866075304e+00 1.990405425500055969e+01
-3.649009430758198391e+00 -2.942948669066412393e+00 2.004511573885049813e+01
-3.986650551490267702e+00 -3.001791800924785036e+00 2.009337744684265203e+01
-4.647719979563754933e+00 -3.043200083965569291e+00 2.016954961983180539e+01
-4.862886938617716481e+00 -3.019111831095735887e+00 2.022112104121464426e+01
-8.260864570843722277e+00 2.263891943716095145e+00 1.903178208318501419e+01
-3.891765956360757173e+00 2.513618667668347850e+00 1.508005291288419869e+01
-6.400647889457840023e+00 4.127065940955061407e+00 1.878704843199852803e+01
-6.033235867914315875e+00 -2.468422299634021044e+00 1.963061386585368240e+01
-6.587603699522950329e+00 -1.771898549335906070e+00 1.888996962903697607e+01
-3.195996001627360084e+00 5.067168679757038774e+00 1.867334854531137722e+01
-4.158826815694553147e+00 -5.203570494305733707e-01 1.776719441635098207e+01
-6.633808850281099900e+00 -1.616165479043879971e+00 1.876688942071309185e+01
-5.409762715643360309e+00 -2.394575645267578601e+00 1.944292998254262983e+01
-3.215986598290743181e-02 -1.125624200541417430e-01 1.953298802456847483e+01
-7.274076462734992976e-01 3.482121809646500310e+00 1.835927577165866609e+01
-5.064308835358737326e+00 -2.450903682182006271e+00 1.943228323048520423e+01
-7.050779549082076159e+00 3.534041890263609709e+00 1.657450780928785861e+01
-8.873705789836716207e+00 2.169166151582333502e-01 1.748478271322850475e+01
-4.836117596871892133e+00 -2.552025543032903521e+00 1.946793087029944047e+01
-4.637818827119702725e+00 -2.492674565738512982e+00 1.938578265959926483e+01
-4.458327406862387043e+00 -2.586279816775703289e+00 1.947529492471393553e+01
8.285707567421829456e-02 -4.443690248435652190e-01 1.736310665627103589e+01
-4.027162895955797239e+00 -2.274878452227359737e+00 1.919777623279721013e+01
-6.755591442794636414e+00 -1.321666669324321530e+00 1.848854118199110275e+01
-4.151515770152092166e+00 -7.152421855199191381e-01 1.795127526080656111e+01
-3.972633881896890706e+00 -2.060420790119369627e+00 1.900502731895596753e+01
-6.821469583400682879e+00 -4.229357080736713126e-01 1.712913856029668125e+01
-2.365555407415272704e+00 -2.463127987348907588e+00 1.942350915658257549e+01
-2.021911978833206280e+00 -2.165611964614050144e+00 2.091195986571644738e+01
-2.211045776173041766e+00 -2.499520413142599651e+00 1.945167199671498537e+01
-2.976806173998574057e+00 4.667503917589548301e+00 1.792228661774728238e+01
-1.532051608006466559e+00 4.426602932054941597e+00 1.878779682420365305e+01
-2.427660286137659718e+00 -1.638842201013937627e+00 1.871037208179814826e+01
-2.406527499246755131e+00 -2.073273776928151513e+00 1.907917101558085449e+01
-3.374505082140824896e+00 -8.789426199539078777e-01 2.075715708633092760e+01
-1.775170828743134699e+00 -2.046673361244423006e+00 1.893705060327106082e+01
-3.692130259089786648e+00 2.850838848756412691e+00 1.554811098989130613e+01
-1.417738831303406055e+00 -1.703621008106363410e+00 1.824689245039439101e+01
-4.346839647327305656e+00 3.004139897661504133e-01 1.659106985526437228e+01
-3.975624770954750975e-01 -1.935644687358250904e+00 1.826345280749208655e+01
-8.711081635797924605e+00 5.213503522054183659e-01 1.889858157001025063e+01
-8.293977174507041639e+00 2.308343174831177791e-01 1.991990653357560603e+01
-1.931728993528623040e-01 -1.857827351521602610e+00 1.830933109713226514e+01
-3.090776415482197059e+00 1.704297479038028307e+00 1.462940412020313374e+01
3.769837558746602646e-03 -1.520938070010431575e+00 1.868858061367613743e+01
-6.684440867947742504e+00 -1.025873779627077820e-01 1.633408283984856268e+01
-4.404486442363902299e+00 -2.052152066405363406e+00 1.900997497277365511e+01
3.835873668462697061e-02 -1.306149732386266527e+00 1.852327679240779901e+01
5.888366784907439477e-02 -9.466729223176637564e-01 1.873308422985930832e+01
-5.101398721519630364e+00 1.750166862242831023e+00 1.426387087009170784e+01
-8.825248821445377700e+00 7.439311439590994279e-01 1.756736529089732812e+01
-8.286914566110631597e+00 1.239530395004699859e+00 1.960173129887098042e+01
-3.810049728584122164e+00 -1.914339098071652812e+00 2.094640847215985957e+01
-7.759111160462395240e-02 -1.838475579128410642e+00 1.866305788369380991e+01
-8.448460356483725064e+00 1.446454474319111227e+00 1.919056328356634111e+01
-1.177539119812743174e+00 -2.838815696179607606e+00 1.999974976855735065e+01
-7.110920509910325649e+00 2.601952874292200235e+00 1.956877641352721042e+01
-4.408799745403120252e-01 -2.181758835265694696e-01 2.032831208243847243e+01
-2.026031266950407250e+00 -2.973666687435189360e+00 2.022584631558339652e+01
-3.258203059581062266e+00 -2.819530376392595628e+00 1.987352348141168079e+01
-3.558328522828228202e+00 -4.509162357277316513e-01 1.765870245718010523e+01
-2.030222242004766642e+00 1.584863134551647068e+00 1.513418357719155694e+01
-8.741631095658661366e+00 9.150885891058431199e-01 1.855780583702326680e+01
-5.059036782189666681e+00 -2.868586526912983103e+00 2.002165009201009838e+01
-5.214621467638123065e+00 -2.841523892602698886e+00 2.007834018316429336e+01
-8.865644087857262434e+00 -2.038383773466623250e-01 1.769652282006197197e+01
-5.655717473540862628e+00 -2.628143782733650013e+00 1.984402348522929316e+01
-8.538159690100620480e+00 2.261173537361854002e+00 1.841739599436326102e+01
-3.590530341534627468e+00 -1.151981868601611891e+00 2.082828162365077418e+01
-5.237993421605170674e+00 -2.697341274120124588e+00 1.983883564827451096e+01
-5.632496985834238856e+00 5.227651373394795797e+00 1.829468716884954205e+01
-5.070331914970052978e+00 -2.705234638336097674e+00 1.976368436627463865e+01
-2.161052024327930088e+00 4.437474040382601181e+00 1.811886157421465526e+01
-7.735767958273533473e+00 3.983182417669748343e-01 2.020313279256555461e+01
-4.800106027401718656e+00 -2.677487109283468669e+00 1.960048688370709868e+01
-5.665179913754481156e-03 1.098656717067270971e+00 1.746040393719312078e+01
-2.691036617454973801e-01 -8.882658271520142979e-01 1.685912896575126751e+01
-8.187547562114072974e+00 8.057993984769917795e-01 1.617177998563688135e+01
-4.615473668522059647e+00 -2.603810539736777230e+00 1.948995148005882783e+01
-6.038244643505194631e+00 -1.109610371412826479e+00 1.836555605187959372e+01
-3.029053079993840658e+00 -1.758259189981487003e+00 2.090218974876002278e+01
-5.055806053796742638e+00 2.830582655803812742e+00 1.542169204859570186e+01
-6.686397795108619313e+00 -3.688228128249921856e-01 1.732667875966354387e+01
-7.606548336380986264e+00 3.493752640413556598e-01 1.526982105785733523e+01
-4.597630841174530580e+00 -2.790222707095185939e+00 1.967830603457355920e+01
-7.592278928771961866e+00 -5.142968575557287370e-01 1.621060924595768427e+01
-2.396548891734489484e+00 -2.654255164067873984e+00 1.965764736436940296e+01
-2.040141771917055813e+00 -2.783668054194990304e+00 1.982745581945667368e+01
-6.871172427672094685e+00 4.157013391592290219e+00 1.707021143984679412e+01
-1.415995185814340251e+00 -2.282101701974149854e+00 1.906150602456015974e+01
-4.287525469831872549e+00 1.369919895213445038e+00 1.381685874884039578e+01
-1.633600987135093163e+00 1.896318905664236887e+00 1.576124561467285901e+01
-7.946228657901271752e+00 -5.529646339631086871e-01 1.635367456964034716e+01
-1.152733149923397038e+00 -4.194499324244633787e-01 1.590816244442597593e+01
-1.152732292635888056e+00 -2.069840745542955496e+00 1.865915883013985166e+01
-4.079251989702079584e-01 -2.115711426358679148e+00 1.866011941558970477e+01
-1.029952552975560875e+00 -2.347200332221974328e+00 1.908138522357938882e+01
-2.039507845858927748e+00 -2.904354551622686742e+00 2.003434402230270450e+01
-1.587002016535132398e+00 -2.429581222310034150e+00 1.929547775830568668e+01
-2.891782572780176697e+00 -8.222131227664775110e-02 1.703884753790704565e+01
-9.784205708769544430e-01 -4.028205024576545501e-01 2.074227434499225353e+01
-6.454937159272986502e-01 -2.344622845764258834e+00 1.907938803779996562e+01
-4.784102607999840551e+00 -2.893185754902965812e+00 1.986131317595496171e+01
-7.978263693206144147e+00 -1.562832673368474978e-02 1.607301478605803879e+01
-5.366897616982968522e+00 -1.312225862651825503e+00 1.853072971814407310e+01
-8.237087312390212190e+00 -1.934905524648258268e-01 1.644978126999569668e+01
-4.081769945814851752e+00 2.158547988165464560e+00 1.465000289990770455e+01
-2.827322170908835863e-01 1.343912633013479407e+00 1.665386705447873084e+01
-8.294605827641092333e+00 -2.456318273046276257e-01 1.654791056984486630e+01
-5.627721198329315833e+00 5.319406966616572419e+00 1.816891402587820892e+01
-6.615998809202208619e+00 5.108578527927799762e+00 1.818015184137474449e+01
-6.636086532191362686e+00 -1.793694758225552466e-01 1.678657527816962869e+01
-8.260259997633539797e+00 1.033904583342805994e+00 1.972190907922390579e+01
-4.344453059329050681e+00 1.420028855170544668e+00 2.010017154306614628e+01
-5.650752771922443962e+00 2.808610996660196424e+00 1.947590732611331532e+01
-4.825773640659198449e+00 5.206464660954164714e+00 1.795947848129323177e+01
-6.620384726468357961e+00 4.856125435115604461e+00 1.837313359410124747e+01
-7.261556693762322823e+00 2.943136068885122913e+00 1.606995822079024805e+01
-6.606947992097179423e+00 -1.919108241092436051e+00 1.902186853130584154e+01
-2.713257964137556044e+00 6.945625149431466916e-01 1.520451194117180904e+01
-1.417411235012813187e+00 2.538503743695986969e+00 1.995617865676203451e+01
-6.770095650823273026e+00 4.995141756375211628e+00 1.826140575984659620e+01
-3.605620383338172807e+00 4.996914317899468827e+00 1.871548992021775604e+01
-5.140851218121453847e+00 5.545112687522957273e-01 1.595779075055581586e+01
-4.818780993154960335e+00 5.348387739820157805e+00 1.830167399788682303e+01
-3.610990137461854488e+00 -2.394327863410364188e+00 1.933303704245861354e+01
-7.951203824308948676e+00 3.997742561970334840e+00 1.783836443560927876e+01
-7.245376031512446247e+00 4.509233675220744253e+00 1.832266308086222040e+01
-4.028491052546742779e+00 4.407332413943385596e+00 1.893449633235887575e+01
-7.430408907630593696e+00 -2.453694786395652194e+00 1.983795769946489429e+01
-7.348154786558422025e+00 4.158194053468990958e+00 1.855172291680370478e+01
-8.723808119259281568e+00 1.351920948677169942e+00 1.717373997264168395e+01
-7.063451243586290396e+00 4.078613972728052595e+00 1.873922482924378841e+01
-7.435253542102858937e+00 3.906861999283229636e+00 1.866538333378971259e+01
-7.810071908732095558e+00 2.819121183478597636e+00 1.915686015844337220e+01
-7.901471231340463142e+00 3.720707823855168073e+00 1.832285811344437576e+01
-4.978899483318047992e+00 -2.799703488010951702e+00 1.985054762004906337e+01
-1.164947398493794806e+00 -3.866404192804593354e-01 2.076275816177177802e+01
-3.877761453501858746e+00 3.021710707912805383e+00 1.957530266326682522e+01
-6.742009305521221574e-01 2.283126542927008451e+00 1.975696918085186837e+01
-8.139014357730282256e+00 3.577638081557479310e+00 1.808828118355225456e+01
-5.816301279601031382e+00 4.383730753493153109e+00 1.703795189645508401e+01
-3.793200604003341248e+00 -2.987872395983758977e+00 2.070151232803844721e+01
-7.116079876900927914e+00 -1.003027834331984058e+00 1.798849946516359211e+01
-3.602217683386310654e-01 -1.196957469579520650e+00 2.010658493266333124e+01
-1.815177250881450544e+00 4.394065878081002019e+00 1.903502730542648180e+01
-4.915257871419601798e+00 1.383104090798632058e+00 1.386437927585640750e+01
-1.862518570891229963e+00 4.298646829426081339e+00 1.913674519653208250e+01
-1.047930758423711639e+00 -2.171100811414861553e+00 1.878948659438790969e+01
-2.773720418369393093e-01 -6.296641031293666035e-01 1.668179393301961966e+01
-7.284531564960960104e+00 4.366893990889690436e+00 1.743891990408252468e+01
-5.989178157168116634e+00 1.025991791428327637e+00 1.410809773514176868e+01
-1.682143050780341209e+00 4.256576457074350728e+00 1.909350704265460763e+01
-6.754279082847705951e+00 -2.634981521204451393e-01 2.045593346575415694e+01
-6.074248827184059785e+00 4.617509398555448286e-01 1.589168915895362488e+01
-1.717185598647679168e-01 2.835311115283020822e+00 1.868975994533592200e+01
-6.880197986960059353e+00 3.334489977849339315e+00 1.921134503942300142e+01
-4.055775208729428982e+00 3.503726980093388121e+00 1.609808927331403083e+01
-7.258232619397328556e+00 3.799997302319732206e+00 1.885485005418308191e+01
-2.527787485077992891e+00 1.640954083488825432e+00 1.489473341345199486e+01
-8.031705658849606522e+00 3.431372084921781695e+00 1.840239391302981176e+01
-3.752333033880374202e+00 -8.550263674911657841e-01 1.806022893770039417e+01
-1.657461908614859869e+00 5.015423327086561134e-01 2.048767637094616134e+01
-1.131018454764565195e+00 4.083367886540912650e+00 1.887052036959407531e+01
-7.975170232554698480e+00 -1.892413820247433209e+00 2.018603873125967141e+01
-8.728384624837591588e+00 2.127828286778437938e+00 1.761356017392161988e+01
-7.031846009352189952e+00 2.994811086948478085e+00 1.938293535555802549e+01
-4.018028375253310802e-01 1.494676212741402832e+00 1.982613060480127132e+01
-6.019162773095205754e-01 -1.686361062609184502e+00 1.770243371593390691e+01
-7.022947921018404038e+00 3.341560423688200387e+00 1.919903450356979846e+01
-2.701017311743032057e+00 3.184483984920135846e+00 1.958367085314095846e+01
-1.266549552279552016e+00 1.502756774678536189e+00 1.560890738031329761e+01
-1.629389358074470273e+00 6.871772360627332876e-01 2.045900067069474204e+01
-8.603271488185917804e+00 2.328131805553981248e+00 1.816017080923004556e+01
-7.201352593770741883e+00 2.958934403896797072e+00 1.937333407186543610e+01
-7.475508071997476911e+00 2.790323005379071297e+00 1.937535591776208577e+01
-2.147318809694419794e+00 -1.249011902153031484e+00 2.082756226128532973e+01
-2.475545832322147088e+00 5.651575153914678573e-01 1.537665808739770767e+01
-4.293540766731155145e+00 1.672820640923227131e+00 1.414071745563887106e+01
-1.595712072779788659e+00 4.036462070560967064e+00 1.806917100871788051e+01
-6.958040643156048866e+00 3.757833238745611482e-02 2.035522670212969132e+01
-6.773645683537468098e-01 2.380638983576036871e+00 1.707018072149597288e+01
-6.942678992840498609e-01 1.875713709085563119e+00 1.997830315868789341e+01
-7.280989857682971689e+00 3.198905481421782770e+00 1.921475895958420210e+01
-7.294432411084311951e+00 2.555856807121550389e+00 1.957242960351307204e+01
-8.080948111529092870e+00 2.664639453242311440e+00 1.900894829971780098e+01
-8.807368584353049812e+00 1.863795322181974745e+00 1.775137842117104015e+01
-5.485542757173775819e+00 2.374957186041482871e+00 1.965769622945914108e+01
-8.834055861947330612e+00 1.757223363807412619e+00 1.760588857330824197e+01
-8.864526439235824284e+00 1.541114777402303293e+00 1.775666237115747492e+01
-4.112765322636045440e+00 1.385799659138821305e+00 1.382900373630634050e+01
-4.437822174767953598e+00 2.844598094200129434e+00 1.535059551082169804e+01
-6.025797262172885027e+00 -1.065436957392426942e+00 2.069289211678928098e+01
-3.887475304292177469e+00 1.197564610121958362e+00 1.373717389437122449e+01
-3.021225868737430709e+00 4.980258554723933528e+00 1.873974416743491389e+01
-2.827570710252173658e+00 -2.903101979667576771e+00 2.022689640238413489e+01
-5.374159241385732422e+00 -2.820824774939645341e-01 2.052361253140176700e+01
-4.666060405563468017e+00 2.762567195261574238e+00 1.960820565886452016e+01
-3.466740375435803934e+00 1.187208994045521493e+00 1.392235362584528247e+01
-6.389880756956384467e+00 -1.871074279166698107e+00 1.898548060265559201e+01
-3.515284188635195983e-01 3.239657479484703284e+00 1.872350132897000918e+01
-7.527724802333072951e+00 1.231696568678636972e+00 2.000680704317930747e+01
-2.073648820623219979e+00 2.865663362877254983e+00 1.980464137263942348e+01
-3.882515235066864356e+00 2.129401179358827445e+00 1.989417523517241193e+01
-3.790064863622379043e+00 -7.401131299942338426e-01 1.796805836340084284e+01
-7.336135371654748383e+00 2.271305055340536949e+00 1.970229780712327994e+01
-8.803252167015592988e+00 1.629268644645444297e+00 1.803024636793100655e+01
-3.575390021773553251e+00 -1.285504730224364733e+00 1.841464010811166929e+01
-1.683166504723404344e+00 3.393725286216521475e+00 1.732440500857588717e+01
-2.220742494501067865e-01 -1.436095207233579307e+00 1.755772732148298587e+01
-3.536298670667929578e+00 1.947996584456939573e+00 1.996099615615950995e+01
-8.860965808938811250e+00 1.329402178541297941e+00 1.794962142459267085e+01
-7.164229254598359020e+00 -6.964649563187028658e-01 1.711029276594740622e+01
-1.684297681889971088e+00 3.069785296468940494e+00 1.973429797882374004e+01
-5.676831801348635409e+00 2.004961233183829350e+00 1.464532372020882889e+01
-8.188112099986149417e+00 1.024994176135766377e+00 1.981495787075871107e+01
-4.303584324976345243e+00 1.085051677226511302e+00 1.402662069551216462e+01
-4.091423721439351624e+00 1.031717895703706755e+00 1.418504229413598239e+01
-6.682155560298295605e+00 -5.184619132414673981e-01 1.764612795519729360e+01
-2.278456610790962955e+00 2.283891898154953637e+00 1.993461264914703435e+01
-2.378603097560257673e+00 9.343235472258923924e-01 1.450671385113314926e+01
-3.041783330999882295e+00 -2.757935827107576898e+00 1.982214913506299325e+01
-1.747828505646062958e+00 7.814642826064945869e-01 1.443892068871389256e+01
-3.080867578692378927e+00 2.314955023909985421e+00 1.985499384905488540e+01
-6.790955949235717437e-01 2.867723767410306657e+00 1.947351040939568634e+01
-8.116597038242747697e-01 3.506955840316878792e+00 1.918152808858799574e+01
-1.073157283153417296e+00 2.468612495390474670e+00 1.990443266846101267e+01
-1.945060414875196653e+00 2.540209196883602694e+00 1.996225246907544459e+01
-3.916538271350277434e+00 2.339435384899037906e+00 1.982392778966777058e+01
-2.258749528245191929e+00 2.663029694947486981e+00 1.984066612087761428e+01
-5.713743348056533833e+00 4.537367972613814970e-01 1.610030853578727772e+01
-4.153253443174258486e+00 9.205950235067980048e-01 2.028148378019942299e+01
-7.493822735476302732e+00 1.967867663517183452e+00 1.980184279301687411e+01
-2.034790016359414810e+00 -2.669974385461297395e+00 1.966346222927803922e+01
-8.151008378726274373e+00 1.499846209622607063e+00 1.965837329056702032e+01
-7.176430085951433391e+00 4.804751346110872845e+00 1.805268883775502076e+01
-6.833326366106838634e+00 4.105072587712561116e+00 1.876228325597232782e+01
-8.267692585631113644e+00 1.414003363227869459e+00 1.954399727421316157e+01
-7.853071716509265165e+00 -1.575750280146721805e+00 1.845678317253478440e+01
-1.242317396150285136e+00 3.553421194378029391e+00 1.938929375322070570e+01
-8.924361922654188817e+00 3.223948897309985018e-01 1.811984331866111830e+01
-5.049417714692817860e+00 1.233681613401203858e+00 1.385603353288079376e+01
-6.046366581470613788e+00 4.067452980310977573e+00 1.677149946968039274e+01
-5.117332069342225509e+00 1.437728685441570065e+00 1.396835499849677831e+01
-4.811226570198068764e+00 -1.924055110680302549e+00 1.894227219114636540e+01
-4.052471666817978324e+00 3.826154929902018331e+00 1.921660167215910064e+01
-7.194917478485926665e+00 -1.243457928076259433e+00 2.062627172246422447e+01
-6.431697181491204063e+00 -1.848491304648612443e+00 2.076903750219118194e+01
-4.923928878727217295e+00 1.131526946987531757e+00 1.392421928999245750e+01
-2.964186433282633537e+00 1.492164572627798780e+00 2.009271450059335251e+01
-3.710355976827160340e+00 9.167125164665076431e-01 1.458915892760958855e+01
-3.524631899537301827e+00 9.597207639276462698e-01 1.420409053469912664e+01
-1.626171308041628460e+00 -6.649809427003361417e-01 1.655688541686743065e+01
-5.496628301771548930e-01 -1.529379768212041801e+00 1.742008178551029829e+01
-4.302077706251185241e+00 2.355659811010665905e+00 1.979577314569201718e+01
-6.055019315358596721e+00 3.563665684372237852e+00 1.631882793428599143e+01
-6.223592534483818106e+00 3.526762250727086379e+00 1.631988155461792189e+01
-2.931041765144847489e+00 9.147841321994413244e-01 1.439647062449759574e+01
-2.036898567702882357e+00 4.735144280985176479e+00 1.880127581482103238e+01
-8.244571386576769356e+00 -1.970977866275328561e+00 1.944731316557371770e+01
-4.444919374172786597e+00 4.268910122965757559e+00 1.676681588080409568e+01
-2.529416449449183979e+00 6.645448378278937529e-01 1.500172175255242024e+01
-2.324537038717985116e+00 5.701754712814059989e-01 1.502304881993054408e+01
-1.485921272044786079e+00 6.233726770123881877e-01 1.472018461421279767e+01
-2.656072238747344549e-01 2.701551871542239525e+00 1.908460272598966867e+01
-8.826785182204945901e-01 2.488708700487874736e+00 1.981035697052804068e+01
-7.146180641194321836e+00 1.402753293920373512e+00 1.995630167600807425e+01
-8.829898053164599858e-01 2.253385727275983186e+00 1.991776871358619161e+01
-7.403451263547478511e+00 -1.224181216178640730e+00 2.059462733541287349e+01
-1.890178748707204370e+00 2.052324400063705312e+00 2.011628439718636940e+01
-7.234486987423262683e+00 1.967322176506447029e+00 1.530646638757163913e+01
-5.999058314804901038e+00 -1.962019273027321598e+00 1.906732822875604683e+01
-5.515095006852019033e+00 1.337716895628172864e+00 2.000709476174314005e+01
-9.853960785680642154e-01 2.176319496449891311e+00 2.001034871797553905e+01
-4.858686362110035795e+00 3.831366889454628666e+00 1.637752416847720127e+01
-1.097540340201686782e+00 2.059948823420624464e+00 2.010984403448735236e+01
-1.735488559279270149e+00 2.433372058210618860e-01 2.051422275074418877e+01
-1.172886525469239327e+00 1.856994924310714001e+00 2.022238606208548362e+01
-2.951161819319285673e+00 1.867603247332652483e+00 1.488618933431556712e+01
-5.215896631053451138e+00 3.541809143923657199e+00 1.615761975589794730e+01
-4.937196247930422999e+00 3.395440918727306023e-01 2.038888521681128196e+01
-6.026660785513653806e+00 3.866447244415916806e+00 1.658600291980093289e+01
-1.308177708287734831e+00 1.691587230062371328e+00 2.030365747861041825e+01
-1.502216551134676781e+00 2.027176465518653714e+00 2.019329191539042512e+01
-8.588584825859904015e+00 2.661442890242331050e+00 1.781925397519238174e+01
-1.681003000858775298e+00 2.132623569981582534e+00 2.014478492087149419e+01
-5.104734542553590604e-01 1.612279123564341887e-02 2.039069926730663695e+01
-2.110063000559752933e+00 2.257765853857859106e+00 1.998699114155986933e+01
-6.867768892212322562e+00 3.746661076329536932e+00 1.669652716885734378e+01
-6.421557250706305453e+00 3.785899963502166621e+00 1.661993753134530749e+01
-2.327137380546091538e+00 2.079737679272384288e+00 1.996746100246347311e+01
-2.359693062136483110e+00 1.080065825021452763e+00 2.017724705665642659e+01
-8.442374615082879785e+00 2.191499140157513015e+00 1.875223987272616455e+01
-2.608970877645676811e+00 -2.487756605767009965e+00 1.946363160718325958e+01
-7.699729448526281494e+00 1.083909585101931583e+00 2.004802060270508690e+01
-1.955200553363744209e+00 7.561866096922198466e-02 1.575079322025266038e+01
-4.825001332933629428e+00 -4.361906187484396735e-01 2.062605801564240693e+01
-7.975574405351244955e+00 1.213309247878778141e+00 1.990685658037314454e+01
-5.175270952904267752e+00 1.217688865329099146e+00 1.392856195202708847e+01
-3.265796253307216457e+00 1.970403476662963005e+00 1.482654577613126179e+01
-3.381153983841152844e+00 -2.991430378101965104e+00 2.042538290594245609e+01
-4.290918259908880650e+00 3.735865242359331262e+00 1.923972003863443803e+01
-1.476866249418564259e+00 -1.763817474378925221e+00 1.842764538097859628e+01
-4.516290200123349585e+00 1.020510156667869817e+00 1.460630538785134291e+01
-4.408582677481774681e+00 -2.380374524058132657e+00 1.928404169780901611e+01
-8.058544286118756617e+00 4.504029391243502545e-01 1.598411187605219652e+01
-4.520217555005105581e+00 5.666046053913607050e-01 1.599371848222121173e+01
-3.302024530956642945e+00 8.017273971397689269e-01 1.519745420725747920e+01
-4.521703023180966952e+00 9.767566192602032960e-01 1.480876881025345426e+01
-4.631809284811505556e-02 -7.987397241641136514e-01 1.720051993449866501e+01
-3.318324217076693561e+00 8.482377627955077770e-01 1.497266046321583133e+01
-3.130861370266558197e+00 8.348795535719930605e-01 1.496235657883917725e+01
8.384526694797633795e-02 1.074083494338358591e+00 1.863401858934638966e+01
-3.537822708628379775e-01 8.519167057593177717e-01 1.999063375634798234e+01
-1.939815995167533114e+00 3.424543902246606208e-01 1.504910377416204881e+01
-1.305213692155125615e+00 5.395519715797905125e-01 1.482451522960899126e+01
-1.098652887638634779e+00 6.603239376258804860e-01 1.497658891088595823e+01
-2.928799491432200863e+00 7.465328652103622176e-01 1.520842659263607999e+01
-1.690189236690032848e-01 2.458219986654856193e+00 1.909725352907765483e+01
-8.797667035455425832e+00 -8.924826309902693655e-01 1.850702650410832462e+01
-1.023298415655418125e+00 3.096054747970715226e+00 1.955768501109393753e+01
-6.044181496256146868e-01 1.761229000585327498e+00 1.995032314898014647e+01
-3.723823113550514208e+00 -1.024492269940175948e-01 2.058413413069552433e+01
-8.935564482793920682e-01 1.600244379656608373e+00 2.021135174898089559e+01
-4.295680455768605910e+00 1.456982550604268400e+00 1.393783087024687006e+01
-1.312950183772004564e+00 1.461131429728969700e+00 2.037121012421727784e+01
-8.234685097669935061e+00 2.429742850660104647e+00 1.896023784008144020e+01
6.913722076651296344e-02 -3.076543586931157481e-01 1.876039072058554069e+01
-2.304801997081370235e+00 1.692799951668635616e+00 2.005659291091497920e+01
-1.889951865602626402e+00 1.645625487016369570e+00 2.018898038538887363e+01
-5.697206978213803730e+00 7.254458145268447566e-01 1.522350715928639175e+01
-2.128348680084344746e+00 1.279166706853314350e+00 2.019315226183514511e+01
-4.522539711331260648e+00 1.083651403776224820e+00 1.418530590023405580e+01
-2.164898239763493937e+00 4.640432470539300525e+00 1.847777783845018007e+01
-1.944669625814250846e+00 1.453566272667425219e+00 2.020685587547780671e+01
-1.935440637088122973e+00 1.102984207132000627e+00 2.027323581143271980e+01
-6.674906323196100111e+00 4.728439183413733815e+00 1.764148148055108578e+01
-6.239683595215285372e+00 4.668604157834240098e+00 1.852719531531957387e+01
-2.338732976272930753e+00 7.594677099803062159e-01 2.025547798764721108e+01
-7.704649633447330892e+00 9.353769528937537769e-01 2.008463619878479278e+01
-7.932988076141428202e+00 7.718125533066788613e-01 2.007768020398441422e+01
-8.220635785633128023e+00 8.469816835331462901e-01 1.983952121408349001e+01
-5.524376243859976832e+00 7.170513870215953212e-01 1.532634303987735080e+01
-8.370662658235310971e+00 4.563754748904733649e-01 1.975221350905196971e+01
-8.901104921691405991e+00 -5.267881516233030581e-02 1.768273964134852605e+01
-8.394613259362262880e+00 -9.753508165984829947e-01 1.989592744040255212e+01
-6.262779076588620875e+00 1.163181778134274147e+00 1.426303559967733037e+01
-8.593766903713859762e+00 1.491052820969445580e+00 1.881850373165659818e+01
-4.513694820289407161e+00 3.325221408657081934e-01 1.655481787310596786e+01
-5.605884943404944920e+00 9.185224180751034861e-01 1.415982481324229525e+01
-5.564989055060964418e+00 9.049397466597408624e-01 1.436906826057334996e+01
-7.461564253927741142e+00 -1.912836212880358433e+00 1.891904389361195626e+01
