-7.966405851594979382e+00 8.789719130797446489e-01 1.641729453648198245e+01
-2.298007504382733046e+00 2.190066249168717949e+00 1.940623352263072832e+01
-2.645597490817961805e+00 2.192472870907785421e+00 1.937941524819598271e+01
-3.638705351181104053e+00 2.872751083649194737e+00 1.511697462733577169e+01
-6.026952890662551354e+00 -9.170562583027260795e-01 1.987375158539455100e+01
-3.028598199422117165e+00 2.125572361540706723e+00 1.934163346972444941e+01
-5.245566433612163237e+00 4.213381970390187581e-01 1.944888659136269382e+01
-1.656630965099700648e+00 2.618338124046983850e+00 1.886362740825224193e+01
-3.489208568821334122e+00 1.901972009975336775e+00 1.934631484155254810e+01
-3.456327176532225653e+00 2.128659428154616950e+00 1.921849876211333452e+01
-3.103984214715426404e+00 2.811023655068437765e+00 1.888887246135410436e+01
-3.075394232968788444e+00 8.015636676574919850e-01 1.983518383061419144e+01
-5.658754665576267939e+00 9.382592621725003301e-01 1.914520311855994095e+01
-5.060989040743017142e+00 9.146675888591695447e-01 1.934011594018268454e+01
-3.969485303176991220e+00 1.018216397019293229e+00 1.277341460717238419e+01
-5.736649052683453931e+00 4.521191816369881877e+00 1.653204784128813998e+01
-6.463601594808732642e+00 1.573849013249835060e+00 1.863305509948543914e+01
-7.581278579168580833e+00 -1.949160066485988718e+00 1.965732191303815313e+01
-3.231398686667018350e+00 -3.728614287680624084e+00 2.076616781944135681e+01
-6.356819095388441809e+00 4.500199000220081125e+00 1.677143606731948466e+01
-6.697537771104732585e+00 1.351314624223346250e+00 1.866630097315810843e+01
-1.494436636114974348e+00 2.269786833256072001e+00 1.676997539887876343e+01
-7.856484476042162157e+00 -1.129968434220217866e+00 1.615268317171873491e+01
-6.912929265720968885e+00 1.532552848636874909e+00 1.847643093137359216e+01
-2.909741850132859575e+00 -1.639654592712110670e+00 1.737709040348142508e+01
-7.079689077202766967e+00 2.408909485467451539e+00 1.768643700369899818e+01
-4.767486649145926236e+00 -7.958899859563891566e-01 1.510474225887364241e+01
-8.426829955402582728e-01 1.270585536077984301e+00 1.691593195873938527e+01
-1.427407965298566950e+00 -3.143568724489554711e+00 2.093309702220994239e+01
-7.606280368860035779e+00 2.135516441800056064e+00 1.656965104792070065e+01
-7.509363081972802334e+00 2.461520628450191150e+00 1.647627472057437359e+01
-8.082844962016928037e+00 -2.104097329343305178e-01 1.799834801574481702e+01
-4.861606527523594679e+00 3.621715278315039033e+00 1.557023200722743894e+01
-4.677646162602592028e+00 -3.539732872047751666e-02 1.982009310740227193e+01
-2.064443394155032863e+00 1.173926756191366216e+00 1.992616347507497210e+01
-7.705159712392873672e+00 1.865780722653782586e+00 1.645985789182705616e+01
-7.088266292542282798e+00 -3.450262941640339420e+00 1.786384836043460922e+01
-3.800957793242635940e+00 7.089782705929534856e-01 1.219730179489283017e+01
-8.197185950702500890e+00 -2.739775737558463931e+00 1.797384130385564305e+01
-4.983004158717193599e-01 5.640872754099537367e-01 1.906166176777966115e+01
-7.672087553162000972e+00 1.883319845721572072e+00 1.607590757707675522e+01
-7.534190841969627073e+00 2.070186637507575700e+00 1.588880720443264494e+01
-3.189843110775369084e+00 1.167410906673252313e+00 1.304898963419203284e+01
-3.515044374597290133e+00 4.571352693344205242e+00 1.756330794949153784e+01
-7.506282847487762311e+00 1.906196884862647600e+00 1.570465352816881222e+01
-5.973525048387898551e+00 -2.911350796384589490e+00 2.035784384002398184e+01
-2.557118054158109111e+00 1.885245913558410535e+00 1.441859418014464467e+01
-5.823459854745136610e+00 -2.091656027001137730e+00 2.026404529681001065e+01
6.030648649878594947e-02 -1.781168101073714372e+00 1.761208655250608501e+01
-4.242406361100660162e-01 8.181775616003790219e-01 1.812773525599047986e+01
-3.495446628997887495e-01 5.692325668804577576e-01 1.850715587197357337e+01
-2.056055919097131479e+00 -4.049914120080538638e+00 1.936700671801415297e+01
-7.376799423064113181e-01 6.832171182422379641e-01 1.611206681828605980e+01
-5.127248565306940620e+00 -2.837942915498186558e+00 2.051703006259440798e+01
-2.359194123771129359e+00 4.826151592948638158e-01 1.316884535558814662e+01
-7.989490504932751591e+00 8.557663527852173990e-01 1.704309848857617737e+01
-7.405341176325276109e+00 1.982991734820005014e+00 1.762993456932608183e+01
-5.141450485853511054e+00 -8.878696331944512243e-01 1.470723690821789376e+01
-4.266045319210393316e+00 4.725569526992532410e+00 1.732953261888413721e+01
-8.359830641852097344e-01 7.467099290559965352e-01 1.953968653299445890e+01
-1.080694459161994248e+00 9.276269941199793978e-01 1.970424329301113175e+01
-6.492845051714757787e+00 -2.875935267354280622e+00 1.687329468331979143e+01
-7.468614154860228282e+00 -5.915070038761119919e-01 1.524533174360369259e+01
-7.567404100230131547e+00 -2.153609607838277817e+00 1.612359924947342904e+01
-4.159006075418519188e+00 2.273442688635133990e+00 1.411361598374801218e+01
-1.675254563854583267e+00 1.334303698416360984e+00 1.981740440043637363e+01
-4.957479939553394388e+00 2.617238051461193482e+00 1.457751141110036741e+01
-2.025954234697133316e+00 1.655751244365086361e+00 1.971613559570018026e+01
-1.045358438310420857e+00 -4.988950990521588968e-01 2.049264379527656388e+01
-2.874628179324254074e+00 1.747644913881927220e+00 1.959412211948427540e+01
-3.098435505110181953e+00 -1.564437838250569257e+00 1.725287869202772129e+01
-5.542297837247978975e+00 -1.529290414231255779e-01 1.360854893564751933e+01
-3.043167730148426120e+00 -8.937678992473726547e-01 2.047773491043181338e+01
-7.593660167480912326e-01 4.911557032033954662e-01 1.569475522848175331e+01
-3.834521248729062748e+00 1.276090495367355082e+00 1.951522001075704793e+01
-4.681058839584659736e+00 7.025989068741169685e-01 1.950869506260318076e+01
-6.455521635795202329e+00 -3.229656139758352307e+00 1.762210438041354621e+01
-6.857832898555390244e+00 9.606671026227635579e-01 1.880346977060033709e+01
-7.206318368946808661e+00 1.384943861554953415e+00 1.839685524327250477e+01
-1.835199689574832593e+00 9.610844974756769243e-01 2.000326816564582089e+01
-7.299145054387379261e+00 1.622547899127386728e+00 1.812549998426592168e+01
-7.163399138015922318e+00 1.976093309824133559e+00 1.796445534593026139e+01
5.190827565568323365e-02 -1.346206444025151772e+00 1.720948980147267804e+01
-7.263970862599478551e+00 2.156765033648806451e+00 1.767306782078426153e+01
-1.864341998660282718e+00 3.048264227150943473e+00 1.719541150978471222e+01
5.754395352251634455e-02 -7.822013697806674548e-01 1.780401374577643736e+01
-7.656367354189747232e+00 1.832432770193852534e+00 1.707105928638641501e+01
-5.961329368944388918e+00 4.090924884726370614e+00 1.613170483647895281e+01
-3.200144547217805613e+00 1.278275794897680173e+00 1.313285882172127828e+01
-7.560322612877552473e+00 1.699014016362008217e+00 1.563846949803040332e+01
-5.664922581222571196e-01 5.656036363050910287e-01 1.921796280561471093e+01
-7.227824573285612786e+00 1.151339895406318092e+00 1.496700852433368567e+01
-7.518605761088670292e+00 1.508439123680874516e+00 1.546214880770997979e+01
-2.362262677969888980e+00 6.463483265886716955e-01 1.312268739306034604e+01
-1.830099682908112868e+00 -3.344205484250459826e+00 2.088787802842864494e+01
-2.460126105780487737e+00 -2.156706583686905709e+00 1.787674157243409212e+01
-7.741811656181207368e+00 2.833840655338870640e-02 1.863438433491290880e+01
-3.332850322878525784e+00 -3.561640883158355475e+00 1.866054967307093193e+01
-2.047527151456163708e+00 3.124466898814527660e+00 1.695936544664067469e+01
-2.694847637004136320e-01 4.221014883423401254e-01 1.826938468935117754e+01
-2.649951765005410520e-01 4.252613955816799685e-01 1.792286008701197630e+01
-3.409143520846865894e+00 7.608806776755950851e-01 1.239096431061995673e+01
-6.762384841984880879e-01 9.408085055136710118e-01 1.912286121311094433e+01
-2.971065283126761436e+00 4.548388597645400266e-01 1.287815769884714712e+01
-4.118545202882495815e+00 4.620685864828069533e+00 1.714925052478496070e+01
-3.037543523128555911e+00 -1.896359477194853760e+00 2.072552474282200308e+01
-1.002389976750659661e+00 7.230547037732859561e-01 1.974045430642173216e+01
-2.495910909860283855e+00 2.614368853166474160e+00 1.909255208506557722e+01
-4.730603565211358941e+00 3.476987659010347009e+00 1.818153213071921925e+01
-1.659500838601343897e+00 9.815305715496258632e-01 1.996612733228123915e+01
-2.255045475242636321e+00 1.526577513671531605e+00 1.978454124360902000e+01
-5.873662471837031163e+00 -3.669492373840812949e+00 1.837439487379299408e+01
-4.995784104759417588e+00 8.168766934253715029e-01 1.276585286877929803e+01
-6.786643369020278982e+00 -2.899867379643415788e+00 2.016659589367306182e+01
-2.277086534874045665e+00 3.558934932065122680e+00 1.858606332301593511e+01
-3.268712230383289175e+00 1.314319906264556082e+00 1.964864841605161416e+01
-8.260177069100510749e+00 -1.797519777427718513e+00 1.776890123027717294e+01
-7.821406356431481299e+00 -3.268189609286155095e-01 1.570894927949478159e+01
-3.494614855466955383e+00 1.149254664648053925e+00 1.963557593729063200e+01
-2.115892219962773879e+00 -3.751516436252190889e+00 1.900357238022271389e+01
2.950025463917610447e-02 -1.812585886122194623e+00 1.966134448985202710e+01
-4.501210547235771742e+00 4.173712035834681089e+00 1.785643279595269917e+01
-5.846779896768609319e+00 -3.355140749868538386e+00 1.809363712553586367e+01
-4.270490178954407412e+00 5.544046123648979085e-01 1.965222854304164457e+01
-6.939067043424483217e+00 -4.629975956955523220e-01 1.457939315434153826e+01
-6.666429611489613549e+00 5.737833464074739709e-01 1.902129122859953725e+01
-4.562388079641598537e+00 4.469940385305967823e+00 1.659226558196200330e+01
-6.664893029179735251e+00 7.466948948133517172e-01 1.894721556757568237e+01
-4.991197545590020823e+00 -8.071554047249537289e-01 1.472452070153552484e+01
-7.081127489552548226e+00 9.787859195853985117e-01 1.870717282499694534e+01
-3.142608360179458327e+00 2.389200435405892109e-01 1.335395853952465473e+01
-5.633469697095744522e+00 -1.934213445740812443e+00 1.646855063037570943e+01
-4.303466435395053580e+00 4.518009979992269720e+00 1.686723813977116748e+01
-7.476978581963740211e+00 1.175524975878910361e+00 1.825932807860283447e+01
-3.039179634887451797e+00 1.354160125860274455e+00 1.969980082288139300e+01
-6.724163148726345796e+00 3.864637989720780098e+00 1.634236643987249238e+01
-7.565698836845225372e+00 1.621251557650956521e+00 1.769809335679491369e+01
-6.651594646827968305e+00 1.519547906375318558e+00 1.859816037128898358e+01
-4.732041905371985324e-01 -1.316949773507166910e+00 2.040961572894195086e+01
-3.371850696608163389e+00 -3.819944447998497861e-01 1.511638675846822366e+01
-5.422441851208285257e+00 -3.308949351510895642e+00 2.049365411996428321e+01
-7.846617210593002767e+00 1.445828272040722062e+00 1.668224506513983130e+01
-1.241265837638127589e+00 -2.213882100039588074e-02 1.471595588586409065e+01
-1.429002958954842972e+00 -3.050287423457808123e-01 2.049191303574711753e+01
-3.436857713327190478e+00 -3.997225552169738183e+00 1.922934427775257404e+01
-7.812677915520188421e+00 1.270221945677721953e+00 1.597933108105238631e+01
-7.599585344220571415e+00 1.147393155658681607e+00 1.540737994526434562e+01
-7.856804676791222519e+00 -7.210979675879637396e-01 1.598891538258481404e+01
-4.137570892364623276e+00 5.080962457301518853e-01 1.237585516572149658e+01
-3.549087382203855778e+00 1.292566509009530407e+00 1.309054041553669379e+01
-3.187351826912012243e+00 6.678379048171383392e-01 1.252875338766158819e+01
-7.689592989087564945e+00 -9.061271693837923413e-01 1.915651468737276275e+01
-1.340111152568926045e-01 -7.314983147827758270e-02 1.861670724999130044e+01
-8.105228582086340339e+00 -5.701119911864694911e-01 1.698671997217144991e+01
-7.285034377121432314e+00 -9.239363015079405939e-01 1.948389510932575774e+01
-2.088352470659089022e+00 1.065843002368207060e+00 1.384665057236573915e+01
-8.012071704981968523e+00 6.960873864845359416e-01 1.660347107802667921e+01
-5.098143751583142924e-01 2.614969646046454987e-01 1.938804040388630057e+01
-5.341042066642900821e+00 -1.337131973174004340e+00 1.554153001282283242e+01
-4.046745228618348733e+00 -2.702700609177507429e-01 2.007748100854225726e+01
-1.336290910207119431e+00 -2.454645960557567452e+00 1.753043366866739206e+01
-4.737689780975207654e+00 4.774285553648662805e+00 1.701944008616453630e+01
-3.429055651032161478e+00 3.429989960174103292e+00 1.595557703085216872e+01
-3.224344053885493722e+00 -3.917364660815626509e-01 1.519330235441947963e+01
-6.788564831429599877e-01 3.045553548913425557e-01 1.963362731439622166e+01
-6.563646164266357275e+00 1.447442086167994635e+00 1.866260925814480487e+01
-7.707060431956794133e+00 2.078068845199638748e-01 1.859416742093966235e+01
-8.737527383689513982e-01 2.530144979291952811e-01 1.989191095660358855e+01
-1.019481535690644591e+00 3.491521735984426389e-01 1.995845026947788625e+01
-5.428259727478698338e+00 -1.816285796994918211e+00 1.689225140189530094e+01
-1.424265397220384255e+00 7.456661463973317527e-01 1.998784862606764534e+01
-2.887833829756682569e+00 -3.037166026270115449e+00 1.834462749054311814e+01
-2.663122387733155350e+00 1.301071863344660517e+00 1.980935012517445415e+01
-4.505333214460774727e+00 4.420465479680221854e+00 1.768989151979636887e+01
-3.039764641309427695e+00 -3.309105283056152480e+00 2.078854237801461124e+01
-2.451372721192725646e+00 1.527528256777176185e+00 1.977007978728706661e+01
-4.054614408402848369e+00 -4.357189049474776255e+00 2.041114022192430610e+01
-1.963724987981352976e+00 -1.225128620255404588e+00 1.661768253001647366e+01
-4.714000380665128276e+00 4.324005244588826180e+00 1.771550775279499135e+01
-3.050457445412153135e+00 9.277594524413123045e-01 1.980949479702459115e+01
-7.249341909146593821e+00 -3.820947392613204929e+00 1.961256995283059723e+01
-5.360031268872468502e+00 -4.580710952804022407e-01 1.393177555320002625e+01
-3.457509119104356099e+00 5.364563116635837625e-01 1.982048632442242564e+01
-7.596403287031693097e+00 1.522646135051728855e+00 1.560915389085130300e+01
-6.491566499688373071e+00 -2.947901511281488141e+00 1.705755892129851503e+01
-4.855192343942020372e+00 3.414675150795809522e-01 1.959995240556492746e+01
-5.979205399660516562e+00 3.094372730922428261e+00 1.800114735342761207e+01
-6.455850926849237226e+00 3.032685179247009088e+00 1.781597219027267442e+01
-2.613290955990672959e+00 -3.737827283150865210e+00 2.077430883411386020e+01
-5.858530285917224134e+00 1.306499183705763789e-01 1.940663723968073384e+01
-1.051386385781355681e+00 2.031779732228536250e+00 1.795151302296115148e+01
-6.542458222695273662e+00 -2.146005625122690663e+00 1.585994236901058230e+01
-7.046301144125749261e+00 4.850722897703114711e-01 1.894448959456347836e+01
-3.027180526757667689e+00 -4.265345331963111164e+00 2.048885164231646883e+01
-3.262447830828250073e-01 -9.299969244160578574e-01 1.643583280003829827e+01
-7.563789396961340117e+00 9.516552397824269427e-01 1.831381764095491604e+01
-7.911139545303694121e+00 -2.841292445450554816e+00 1.929582375502140223e+01
-7.644573414995981864e+00 1.139240434909077893e+00 1.803729494996535010e+01
-4.001367544302067980e-01 7.129115556173587498e-01 1.774843920061609737e+01
-6.149059761760719667e+00 2.736558646499005043e+00 1.508478132589407750e+01
-7.303443522077508021e+00 1.388103620927094717e-01 1.896748307192099503e+01
-2.491247646149391759e+00 1.755840572144522493e+00 1.965668581752927224e+01
-5.535620725641875239e+00 2.665724098854314050e+00 1.475046899099115905e+01
-8.192072498967235106e+00 -2.786516645749353316e+00 1.851264198489197810e+01
-7.630027427140461782e+00 1.379468367084309088e+00 1.784504913923500879e+01
-5.202966757233275175e+00 1.694658989203376542e+00 1.895332448033467188e+01
-6.513196558019565430e+00 3.769653505209846323e+00 1.725938368111779653e+01
-6.022295822814099253e+00 -3.780846027070805082e+00 1.848465001732354551e+01
-1.761251116327088750e+00 1.329215912521454213e+00 1.476757215155262060e+01
-7.778641762732323883e+00 1.231932249566343174e+00 1.761305449750575747e+01
2.928926613719612382e-02 -1.678288241841462192e+00 1.963789364042312258e+01
-7.864914062368288938e+00 1.229641446257144111e+00 1.724675942530350170e+01
-1.431497103730274167e+00 2.132982248451796181e+00 1.670259003393900343e+01
-7.318371764417046066e+00 -3.929571746248094133e+00 1.883000598427647532e+01
-2.848603035300143471e+00 7.154899134151793128e-01 1.991232089221668389e+01
-7.948075454432041553e+00 1.027123091554195788e+00 1.705113921901786966e+01
-7.552716911006391864e-01 1.409085391741319970e+00 1.774604984643875127e+01
-7.959075878984153363e+00 1.023255787580023224e+00 1.684265365849361018e+01
-7.910370382914081233e+00 1.218181346319730629e+00 1.663035749538581598e+01
-7.967401644461004295e+00 -3.294843406147870413e-01 1.617938754577428995e+01
-7.734352921168516914e+00 8.860130689275647065e-01 1.558702248218521902e+01
1.640225323155870552e-01 -2.242898546782855274e+00 1.898522901313026523e+01
-6.939993030417754838e+00 -2.593511905047829913e+00 1.623689476859638603e+01
-4.966974392026985541e+00 3.119686644916118468e+00 1.508171489017050959e+01
-4.152793447628934764e+00 3.829736960313878114e-01 1.255386410455012935e+01
-7.851684752861512351e+00 -1.275987004178923634e+00 1.913046255879200430e+01
-7.187157066050962051e-01 -2.150779049650266117e+00 1.723920031925773344e+01
-6.981213246708678710e+00 -2.155263517462624012e+00 2.001565789083956304e+01
-1.404126177514541718e+00 -1.149857805273994504e+00 2.075736451323831488e+01
-1.041268327450119990e+00 -3.125954980618724122e+00 2.092685891874248938e+01
-4.007093595070548631e+00 3.667466267005574654e-01 1.257483191797758337e+01
-4.037276726920246972e+00 -2.088817477689998814e+00 1.752888679706174457e+01
-1.061339831087728669e+00 5.358592357930280770e-02 1.479246674855976096e+01
-7.864875112077996278e+00 8.073658745566065775e-01 1.784661672307159819e+01
-3.977038408380078938e+00 2.937344089814521997e-01 1.273129692790370626e+01
-3.302558914910571630e+00 4.339895138441913325e+00 1.806461618572951267e+01
8.640051404675569424e-02 -2.667645701231072586e+00 1.974215626652554789e+01
-7.729602206876000636e+00 -3.726991312531021006e+00 1.903619007304495625e+01
-1.615823777163627240e+00 -2.313551695989318091e+00 1.757954958255236733e+01
-2.931037428566727332e+00 3.227800201884277742e-01 1.322713022747616662e+01
-2.423741897713055149e+00 3.854232569654840734e-01 1.334409051167088478e+01
-1.049270191005609254e+00 -1.184621854694214882e+00 1.639269213629561506e+01
-6.675236670189676147e+00 -3.476274260290901807e+00 1.799872091489300630e+01
-2.270255140231902224e+00 -3.470215046484947496e+00 1.877841656685168914e+01
-2.164405999435091488e+00 4.541858572403759120e-01 1.333311560625503489e+01
-8.119311926372342114e+00 -4.427256407120637727e-01 1.796298030432176063e+01
-3.030007373876517640e-01 4.568805676313690833e-01 1.766116114235482826e+01
-7.757453855508117613e+00 -7.858717162476264173e-01 1.902194560923151556e+01
-1.129286689828322698e-01 -1.551173126784388678e-02 1.847402582471884358e+01
-4.161211055614792542e+00 4.543066846766718569e+00 1.767567481866554857e+01
-4.265152948760967178e+00 -3.145281605593098107e+00 2.072172498243929084e+01
-5.949483366111104843e+00 1.992016336308059632e+00 1.854837812265436980e+01
-6.339546031887793864e-02 -4.244786756752475521e-01 1.881882733107956795e+01
-2.168528094309001841e-01 -4.675122046153021849e-01 1.945133952649636910e+01
-2.574549396474603014e-01 -2.223784471068077639e-01 1.926723785975826075e+01
-1.203145226050217342e+00 5.482738194961332967e-01 1.996893424725376320e+01
-7.840811014177340166e-01 -6.429317140115843321e-01 1.570738198907783101e+01
-4.288449808723814316e-01 -4.564808960463884180e-02 1.950938173745014126e+01
-4.761682387040645281e+00 -9.298976429800015486e-01 1.569390933804901778e+01
-6.398356499286219634e-01 1.134510791875019686e-01 1.972809839599549520e+01
-7.963632606033451466e+00 -2.192457377449344325e+00 1.922312939177802349e+01
-1.279535226430398076e+00 4.757817071073197623e-01 2.005071208262086202e+01
-2.882129457808542572e+00 -5.035651887186586295e-01 2.036485160283704232e+01
-1.471720128235703307e+00 6.434160562512973858e-01 2.005085293323337936e+01
-1.763761536582604039e+00 2.268837590443938179e+00 1.620179007753265665e+01
-1.460415511404171474e+00 4.897049402492371084e-01 2.011553466011789482e+01
-5.336350985570041061e+00 2.694443116077680056e+00 1.472841720733715221e+01
-3.384761830331525889e+00 1.571047203145690574e+00 1.343851634939503015e+01
-5.072909046208984307e+00 -3.368599785502171429e+00 2.055616860382713185e+01
-7.627486348322985776e+00 -2.045633373004635658e+00 1.614946118774640382e+01
-7.439827814082276447e+00 1.361708611239802913e+00 1.816567542062296070e+01
-1.362915169406997640e+00 -2.010115555218890737e+00 2.090908321201717257e+01
-1.863606183480029488e+00 5.164383349310573967e-01 2.014861054543693797e+01
-5.897726295668888952e+00 1.136474043764011732e+00 1.368620687903808886e+01
-2.074349171969941175e+00 7.177193180967311736e-01 2.007317572682523377e+01
-3.159455457381312282e+00 1.354277657047705752e+00 1.324337265923608697e+01
-7.714825027317068873e+00 5.221650320892178287e-01 1.539387694098540038e+01
-2.665581020929056244e+00 5.460817972799612008e-01 2.000511897070306588e+01
-2.897608180657135213e-01 -1.899646312293457928e+00 2.036677252269244320e+01
-3.273792757657747909e+00 7.098080268642328328e-01 1.980932615392315910e+01
-3.845251516384626811e+00 -4.390461767274459470e-01 2.019806370625162373e+01
-7.948238510261617762e+00 -5.924021345887749979e-01 1.859944915867074400e+01
-4.808127024008680195e+00 1.113575329797139579e-01 1.971835868008324866e+01
-6.150754379131893046e+00 1.368565484280239497e+00 1.404727755655036958e+01
-2.221000968855616264e+00 3.825050720241434554e+00 1.789046658304518189e+01
2.286572862830638098e-02 -2.474671403134774739e+00 1.984318516357293305e+01
-6.875583211817852813e+00 -4.845176734641165606e-02 1.923253715225165195e+01
-6.446859311507773249e-01 -1.901434004025229996e+00 2.075768145383605656e+01
-8.040295328113161943e+00 -3.192613703775322609e+00 1.787259975353939012e+01
-7.077862544941172729e+00 1.743007852751313203e-01 1.906179591922649763e+01
-3.305163423785689947e+00 3.487416768779248777e+00 1.610337640147939453e+01
-4.427586290523104040e+00 -3.932481935732638600e+00 2.062018063722680239e+01
-2.725687769119585213e-01 -3.121682422169775428e+00 1.820203312753145042e+01
-7.302578413777474964e+00 3.494970250434757952e-01 1.887799863971901715e+01
-7.480990276061083577e+00 3.423480974065422622e-01 1.876092033834316908e+01
-7.694723315077968806e+00 5.472338228182849207e-01 1.840481763391360204e+01
-7.892206794566414274e+00 1.030841471868189974e+00 1.744703185597674633e+01
-7.590712080849629118e+00 -1.940960808760602951e+00 1.605649406689947511e+01
-7.933505894330883379e+00 6.630436256496659020e-01 1.604183796327485823e+01
-7.799014954098696606e+00 5.190362261832337509e-01 1.557793250269288876e+01
-6.678593543357688844e+00 -8.883813516433657353e-01 1.970074280746964490e+01
-7.568477381378366786e+00 7.673557208906465199e-01 1.521711243537663449e+01
-5.794640697173827348e+00 2.617844258191758477e+00 1.479302585488787258e+01
-4.650472072856034700e+00 3.318053313573484653e-01 1.273672613206110071e+01
-4.346783329277836394e+00 2.601915303559430015e-01 1.279067069879870644e+01
-8.155526105541547111e+00 -1.877966051370684397e+00 1.878759555671770443e+01
-3.984454926902689209e+00 2.051728264408980706e-01 1.294082381213488020e+01
-3.940553028611230690e+00 1.396873441374280045e-01 1.311733883591195848e+01
-2.540461951027285892e+00 -8.514179592451313061e-01 1.625366858493161715e+01
-3.766922735404016898e+00 1.721220204959347244e-01 1.313658464892972688e+01
7.384901379430658386e-02 -1.240175862544640850e+00 1.924203394285298430e+01
-4.657195913237806906e+00 6.303601318872132930e-01 1.250276825696295901e+01
-9.086345746679791446e-02 -1.045443031649868182e+00 1.964567738711778588e+01
-2.010706080545753005e-01 -6.847442951129870670e-01 1.962500199457801386e+01
-5.466895655698911227e+00 -1.966385499396693604e+00 1.702631890607410270e+01
-1.500858416337597534e+00 1.892572059439716181e+00 1.616600384241374400e+01
-6.680252882544648330e+00 1.153514477914433733e+00 1.876785973805049679e+01
-8.255596075334782569e+00 -2.430745698003052180e+00 1.810832019292896433e+01
-3.599353884077453603e-01 -2.584649590287618759e-01 1.958417986361084928e+01
1.458294630623286903e-01 -2.854890193527158893e+00 1.890564592101795682e+01
-7.318915433790079916e+00 -1.498352360918540960e+00 1.551224523884910411e+01
-5.123219603762816377e+00 4.459108478243679841e+00 1.652805946115147151e+01
-7.765000813564837401e+00 -1.732723270214590272e+00 1.942989153479649644e+01
-1.484554503367867762e+00 1.742077657157765636e+00 1.596655605270968437e+01
-5.089354982577555253e-01 -7.224302465320364686e-02 1.969075984370632426e+01
-4.767036583133029692e-01 -3.049235480671591558e-01 1.983350542378400405e+01
1.280184941929772280e-01 -1.603038855422469489e+00 1.817427382878019415e+01
-4.335707280144092679e-01 -6.715963784227968469e-01 2.001914089501942584e+01
1.486165510356378117e-01 -2.181601478296352425e+00 1.821134926501840567e+01
-9.474309953686677055e-01 1.488221039315575922e-01 1.488464976022982711e+01
-6.480414314910925011e-01 -2.828236338930104621e-01 2.004556428172754323e+01
-8.154964885416433162e+00 -2.680287492135125405e+00 1.874113940136631840e+01
-8.197555356682473260e-01 -7.119068764755076550e-02 2.007069505285249278e+01
-1.075470902557877029e+00 -1.295043193912011059e-01 2.029418804137726084e+01
-5.133174258854163341e+00 -1.049370068173022919e+00 1.507201428015540756e+01
-1.159645605868631080e+00 1.683856930688820142e-01 2.016202572897270784e+01
-1.498016323513609693e+00 3.590767134465177035e-01 2.018524331053207987e+01
-7.858564832986971282e+00 3.877283062972621819e-01 1.821931382724314119e+01
-2.066938495412872889e+00 3.592022889410421138e-01 2.017508626345983913e+01
8.707328353952109579e-02 -2.359179938919970798e+00 1.776982380647826432e+01
-2.253040914144083473e+00 4.766205357459255554e-01 2.010862543102932420e+01
-6.071459746492168463e+00 -1.864922406829294665e+00 2.016476838151043438e+01
-8.018546042782027428e+00 -1.083822348689210902e+00 1.876309775507964872e+01
1.089760126477798408e-01 -1.051933348023093018e+00 1.862112659576273188e+01
-6.457025908278609450e+00 2.836380575827159412e+00 1.538088231403794026e+01
-7.046614197440808525e+00 1.504328944550930025e+00 1.842117772282220045e+01
-2.433471699857309378e+00 4.554362998725302036e-01 2.007689595082059242e+01
-2.635721997940408734e+00 3.253368512204918295e-01 2.007789503320139346e+01
-3.237461439624615966e+00 -4.949045309722845953e-01 2.030857073628455112e+01
-6.320107842120286534e+00 2.086144413598221448e+00 1.470411988203755982e+01
-6.555902413498282399e+00 1.960855367189663356e-01 1.402481859820365884e+01
-4.039888602597134337e+00 -6.901102653856615587e-01 2.025560180369593155e+01
-4.652342001968854390e+00 -1.397908362807385174e+00 1.683935670859116840e+01
-8.060648589502848793e+00 -4.251946056699109633e-01 1.821144854464328944e+01
-6.787956581157446934e+00 -1.272624125505898984e-01 1.429381144938235337e+01
-5.063002844394940638e+00 -4.826626268822448163e-01 1.991668018514797467e+01
-5.088977700448248598e+00 3.141978616800943147e+00 1.824162949354821706e+01
-5.260843338224706400e+00 -4.857098887465139958e-01 1.986808203472688916e+01
-8.136227840607636708e+00 -1.368036392417899982e+00 1.714313190923220276e+01
-8.218862173323817188e+00 -1.788547037885974245e+00 1.750142255100804789e+01
-6.008703120136646092e+00 3.981353747572524693e-01 1.352361662119154317e+01
-2.676163512640898468e+00 3.368792696991038227e+00 1.871405215638230146e+01
-1.250226306769627094e+00 -9.202737567415967268e-01 2.070190071824325173e+01
-7.257111437077988114e+00 -6.936360163394289513e-01 1.938189862102122873e+01
-7.106527552451348484e+00 -2.359170751999839499e-01 1.923278565152121189e+01
-3.073368656353725914e+00 -1.980536115929190544e+00 1.761506429436608556e+01
-7.083836714443766169e+00 -7.309748510378943909e-02 1.916466631687368505e+01
-7.439662920646080480e+00 -7.787783633832423558e-02 1.896684720822990045e+01
-7.654541592802277528e-01 1.375907736667327796e+00 1.755648839465638389e+01
-5.185810786059715127e+00 4.183044756831274524e-01 1.295071526677079277e+01
-7.493935121047366366e+00 1.572756492319687949e-01 1.883308778406777861e+01
-7.628739951881680526e+00 1.272410764606810574e-01 1.872625407912255469e+01
-5.459761787388186960e+00 -4.428218302567140441e+00 1.979931360603609392e+01
-7.926658440215833323e+00 1.615658641506177440e-01 1.823277112231147612e+01
-6.925298281820667867e+00 3.266921903657755699e-01 1.905445019134300821e+01
-7.885496169704735436e+00 5.724927898984429886e-01 1.802123724393980808e+01
-2.226886512052238754e+00 -3.275555080487121185e+00 2.084308948618100743e+01
-6.297560062625059629e+00 -2.079379475471325733e-01 1.397591733806297754e+01
-6.512247486308138988e+00 2.481693375441064831e+00 1.514926600553983604e+01
-6.256811917816902380e+00 3.031276850898151576e+00 1.539242363798932445e+01
-2.698494599292661000e+00 4.252740793928992957e+00 1.815114616941374237e+01
-2.768820211091802097e+00 6.014258971984486335e-01 1.288698357990000432e+01
-3.329335844036906966e-02 -8.431810507784022191e-01 1.922625769399393647e+01
-8.065782232456758294e+00 4.193704314320713666e-01 1.682854695703840520e+01
-8.203018689132950403e-01 2.403628732053170181e-02 1.516735765374363609e+01
-4.569261995687567079e+00 4.298196099234362633e-01 1.260031475623755881e+01
-1.335736415700470303e+00 -1.113789832834233717e+00 1.622495961467453895e+01
-8.057809093794357835e+00 7.450503484707710067e-02 1.661067524591757660e+01
-8.171132761903662001e+00 -7.696037617728034297e-01 1.778726039937674841e+01
-7.994795091009674337e+00 5.250259566385284682e-02 1.622094432922639839e+01
-8.019566874526043776e+00 -2.639644127997398115e+00 1.911067674617672196e+01
-7.854074854798763994e+00 2.513889836258774713e-01 1.567456435795394043e+01
-3.266308964717167918e+00 2.561968807644970703e+00 1.898701109453051572e+01
-3.242663067682151623e-01 -2.257288839645076095e+00 2.047954653875075337e+01
-2.110546591505670644e-01 -1.696074871559261066e+00 2.018372023059023235e+01
-7.573205333806937389e+00 3.236914466144597546e-01 1.516162627108370486e+01
-2.078469241576463844e+00 -4.166782168298649225e+00 2.055114272475682213e+01
-5.442797343982343605e+00 5.667581149042292266e-01 1.310081121942872784e+01
-4.594906436403762839e+00 1.687920185591398337e-01 1.295816573315744336e+01
-4.303072929302156346e+00 -2.194486090073016538e+00 1.759959395732243337e+01
-4.572747000680411844e+00 3.693854282979264214e-02 1.316744838602013346e+01
-4.201803636596459057e+00 9.190418103520575643e-02 1.312358068440679659e+01
-2.350483448671274012e+00 -3.987144087302275652e-01 1.530246668958721301e+01
-4.328893956812273736e+00 -3.687534266906355995e-02 1.334634192101050587e+01
-1.988278112339702197e+00 3.379997632368255012e+00 1.750293690102297006e+01
-2.331486050739679960e+00 3.033796286674114384e+00 1.645943934016549548e+01
-2.639694134964140737e+00 -4.058735605425230375e+00 2.066662293247193816e+01
-1.268778495199256895e+00 1.532672703960438199e+00 1.613589939481930458e+01
-4.835420156808625691e+00 -2.550052091447859492e+00 2.055498490492624342e+01
-4.618654084673243787e+00 -3.297455921289120351e+00 2.065225342976680878e+01
-6.067114668707180414e+00 -1.675917466866586381e+00 2.012509465605931780e+01
-2.854154241981016860e+00 7.377510049369145895e-02 1.401337630789817723e+01
-2.156918202887688096e+00 2.663363894822718403e-01 1.374032524260735499e+01
-1.958482353202286808e+00 2.272184269947749025e-01 1.389247957632161246e+01
-1.557570963988393675e+00 4.312451445674007622e-01 1.392421289467031897e+01
-6.968023043154122576e+00 3.474133704310233828e+00 1.700535603854491740e+01
-1.203553031922051542e+00 5.019570325047648662e-01 1.451930497475758841e+01
-6.880042753497264130e+00 -3.593436031337797321e+00 1.823628117039316265e+01
-5.508336683612188978e+00 3.192350552554612975e+00 1.811230595958705436e+01
-8.252941531752370219e-01 2.660201341368182426e-01 1.514135671464552502e+01
-7.399910518057160047e-01 1.282319506017923771e-01 1.530998706356192685e+01
-4.747567517821401850e+00 -1.493756053353944235e+00 1.692942177150130334e+01
1.052250165394508219e-01 -1.448709068825423163e+00 1.921470461320295442e+01
-1.339009232965922669e+00 -1.035076335822484594e+00 1.601360124478761549e+01
-3.544238136666741035e+00 4.372308332187210489e+00 1.720059305020722462e+01
1.263530040751378869e-01 -1.675382108498842726e+00 1.920844820771345951e+01
7.272298919760877833e-02 -1.674437387778681341e+00 1.952916524472003346e+01
-6.453463832016242963e-02 -1.457360463664230554e+00 1.980253945205473087e+01
-3.843931715901108603e+00 -4.366602126192452360e+00 1.987810625625197503e+01
-2.557298052915600306e-01 -8.551984080063214089e-01 1.986582716876900179e+01
-3.240893975003819705e+00 -3.546471097524011906e+00 2.078336632981958587e+01
-5.669061548104386006e-01 -9.127042914021771258e-01 2.032410116495934460e+01
-9.401623607032264518e-01 -5.931763168952931542e-01 1.554563164404662956e+01
-3.509254510012124850e+00 3.883624247365172977e+00 1.649159159377472150e+01
-4.492991119684839774e+00 -1.904256893510785531e+00 2.053771433910225852e+01
-6.539949021216109326e-01 -5.244040415368255159e-01 2.021729348575539120e+01
-4.101076532594682078e+00 -6.659445149367836381e-01 1.551255668317166680e+01
-5.644965750272533000e+00 -7.276776121295328581e-01 1.987567007958740817e+01
-2.559814636583952030e+00 -1.413055121607229569e-01 1.474547049477781258e+01
-4.748269323749005011e+00 -7.168547585268908451e-01 1.489779849222626495e+01
-4.848453142867358068e+00 -5.070611056441919340e-01 1.998276903918791447e+01
-8.829275185030341921e-01 -5.063645704264502223e-01 2.040675759835691849e+01
-1.042037943258783184e+00 -3.460191199713099630e-01 2.041465111047689618e+01
-8.268434027673677633e+00 -2.219861345943885400e+00 1.807545724978783852e+01
-1.638156026385452879e+00 -1.177652733165853727e-01 2.041484766624512304e+01
-1.863579152971532205e+00 7.290712992137382553e-02 2.031627300865194741e+01
1.073964425830505331e-01 -1.013853614581441409e+00 1.842933357761602764e+01
-2.248099086055260543e+00 7.466248294443955658e-02 2.025354060912673759e+01
-2.697859419441548834e+00 -2.185256770396183601e+00 1.786166793689721999e+01
-7.122851239354348607e+00 -1.529852700937865517e+00 1.533171509637577401e+01
-4.423262310442700240e+00 -1.528166688155327968e+00 2.044601327639993116e+01
-7.259906771046566121e+00 -1.077006719663318179e+00 1.956970474782736602e+01
-7.624642303434708168e+00 -4.548076430808112303e-02 1.879545659626361953e+01
-5.283506691776633346e+00 -3.498548455168574822e+00 1.833633960576427313e+01
-1.121596409667922067e+00 -7.479218523716125722e-01 1.561775613191477419e+01
-8.030498452866773107e+00 4.338488657878635246e-01 1.764203687080618010e+01
-3.065634486498254319e+00 -4.062708179954416465e+00 1.936123882439888888e+01
-2.112804609173934978e+00 -3.277072324793286473e+00 1.868556002264312355e+01
-3.110705574007716745e+00 4.517189709532017261e+00 1.783399471894432509e+01
-1.091356265392936731e+00 3.319679854751322878e-02 2.020732665880605339e+01
-8.124984960951778135e+00 -1.715408002478405747e-01 1.721499226016215545e+01
-3.559969683807001850e+00 3.637684172291177465e+00 1.613115155282928015e+01
-3.077220317722959564e+00 -1.264193127110843751e+00 1.693799848670420261e+01
-6.289995880075867518e+00 2.447375658662745312e+00 1.816215215070344158e+01
-7.601488749360838071e+00 9.973134259847582506e-02 1.521451825584097861e+01
-2.365083576768414186e+00 1.227753610271788975e+00 1.988681175088213848e+01
-4.075341824524405965e+00 -1.741905312747464407e+00 1.724804176749499618e+01
-3.697746863487376134e-01 -8.372852254298558394e-01 1.630380332177153235e+01
-7.802941561309006957e+00 1.027029720013108993e-01 1.554886112065569392e+01
-4.937571055198899828e+00 -4.054390208508388938e+00 2.048247523984232288e+01
-5.537727772617701660e+00 4.464222389423380122e+00 1.737221706023856882e+01
-4.387098937578235436e+00 1.306859457060123075e+00 1.309335940331794035e+01
-1.813825703731257732e+00 3.315734839890898122e+00 1.775913668139941848e+01
-1.139302702932794453e+00 -6.431857502960293127e-01 1.549686056105020526e+01
-3.754550317145022298e+00 -1.848830702948368598e-01 1.429780868584091991e+01
-3.856120774253015693e+00 -4.434658053012221046e+00 2.027911871914460562e+01
-7.396178103328328035e+00 -1.009311988458287956e-01 1.496531976624181226e+01
-3.512201504610386493e+00 -1.311517365862389095e+00 1.687884149664684230e+01
-3.946126983927080278e+00 -6.396739886162575717e-01 1.551030731847037458e+01
-7.305525965411097999e+00 1.483495967499153800e-01 1.477309931417649125e+01
-1.776975654188200027e+00 1.884768402275191157e+00 1.559737731646595904e+01
-5.385504888827938430e+00 2.167100435885062071e-01 1.320918469618612079e+01
-8.074719082572892503e+00 -2.345333264389457550e+00 1.711741125981698275e+01
1.687891245193680057e-01 -2.884368292815712831e+00 1.952380932750103426e+01
-3.113654511742772524e+00 -1.259388863207869802e-01 1.449713733435334717e+01
-6.465014859556236004e+00 2.188773762116065669e+00 1.824583873474621498e+01
-6.848529198372110827e+00 1.905086028634052298e+00 1.825570882386440985e+01
-4.958319267707633315e+00 6.340742567968227217e-02 1.316624374185466451e+01
-4.851504340461577636e-01 -3.378997710660543774e+00 1.853132430480680171e+01
-4.820694190143626656e+00 -7.621163573381994905e-02 1.334398647827880779e+01
-6.845050430444612033e+00 -3.141973297166600343e+00 1.724940759656753642e+01
-2.260227294008998911e+00 -4.020383478895436902e+00 1.931400067072867444e+01
-4.390265593813932554e+00 5.597671101109596981e-02 1.314790452621461014e+01
-4.544451733299775142e+00 -2.592362166966561965e-01 1.375841337883597504e+01
-4.373885083997594236e+00 -2.091502592828556883e-01 1.372541139617866435e+01
-7.969690872946506133e+00 -4.526440053139398900e-01 1.847375549932879579e+01
-4.525531765561627395e+00 -1.893386228176968000e+00 1.733363857843976064e+01
-2.332842548999729537e+00 -5.057963115322069436e-01 1.548288613571996564e+01
-4.170352160812027975e+00 -1.451823897800460506e-01 1.372301207297455505e+01
-3.578372741599638029e+00 -1.469578457763992541e-01 1.428701721265303348e+01
-7.381691919377432853e+00 -2.610995322917196049e+00 1.620819547749832878e+01
-2.255554548401887516e+00 4.606812162132539745e-02 1.419200243346700319e+01
-8.072385754618103704e+00 1.376668579389546676e-01 1.776718327057929514e+01
-2.103341985705402095e+00 2.035997793342817497e-01 1.388951809019343386e+01
-1.311914612538664038e+00 9.001164610897044449e-02 1.447696277726199554e+01
-4.623678502852023087e+00 -1.099560629056170136e+00 2.026093272534044587e+01
-5.764118558193986885e+00 -7.420522395667927817e-03 1.355506101166137256e+01
-9.040122715219047755e-01 3.533606844780089462e-01 1.506282983812333498e+01
-6.056128066562500578e+00 -1.150145684133405233e+00 1.462322123060031487e+01
-5.173313629004661962e+00 1.799582194604375740e+00 1.379885279864472380e+01
-5.955916924878003726e+00 4.793737305684813710e-01 1.345697324411485596e+01
1.582655854110892601e-01 -1.611014501733373905e+00 1.880834994432395035e+01
1.568169089612144740e-01 -1.666031629434295613e+00 1.896979266493971750e+01
-3.056596934932455323e+00 -7.868563540088135966e-02 2.016982492745829347e+01
-1.059564481249472223e+00 -2.893264143782915632e+00 2.093646539171939480e+01
-5.421014654307606762e+00 3.206799880405679648e+00 1.525001559093644232e+01
-4.878125558718171551e-02 -3.500331429150262963e-01 1.685893392073256791e+01
1.620382159391241528e-01 -1.864026843488456819e+00 1.899698285225459671e+01
-2.266320453220775910e+00 -2.487077158823863154e+00 1.812428792231388286e+01
-7.647863909676646088e+00 -3.264971371933045763e+00 1.960219573447532326e+01
-5.242926965412770812e+00 2.329977248576273752e+00 1.857079477038646331e+01
6.061080386360762073e-02 -2.161795383841464080e+00 1.969163882152623302e+01
-6.347161922558107960e+00 -1.394334448311887353e+00 1.496378175061665416e+01
-1.209477720747049179e-01 -1.677028516542829806e+00 2.001279284473453401e+01
-8.059450115898693312e+00 -3.646752640576833571e-02 1.796673141502699877e+01
-2.226715191104845282e+00 3.719906802792749545e+00 1.762998859745354707e+01
-4.304099523870762667e+00 2.362538838102830052e+00 1.882217421377149691e+01
-2.148990126959695324e-01 -1.291697821976686811e+00 2.003916048368104441e+01
-3.557731276273952581e+00 2.338655003161178136e+00 1.445187746872295520e+01
-4.865536039003604429e+00 -4.141847802902813847e+00 1.907310985645502655e+01
-6.495849930015709095e-01 -1.312516540835387158e+00 2.058847291140357783e+01
-8.115698456233972902e-01 -7.221089315304679568e-01 2.046385627691164899e+01
-4.539280131613432800e+00 -1.129043265299730869e+00 1.648600875083081974e+01
-4.816197775971533090e+00 -3.094511168706211013e+00 2.060679469159059352e+01
-2.039763596912094634e+00 -1.061711295819182110e-01 2.035880123082974791e+01
-1.693438383036734329e+00 -4.149364147066922470e+00 1.950338266268006038e+01
-1.240877632173699396e+00 -1.053056012995705615e+00 2.073685881004039544e+01
-2.811596729759168412e+00 -9.070390390255919089e-01 2.051121843640502362e+01
-4.461364382377887239e+00 -1.472880984636576684e+00 1.696137546854875922e+01
-4.260853902588094044e+00 -4.204147436225541767e+00 1.933490104725377989e+01
-5.548956215992612684e+00 1.741691994992360826e+00 1.388632909328866560e+01
-3.796599264888184777e+00 -1.892023165250355188e+00 2.066677386343457101e+01
-7.249055652654710968e+00 -3.975181815892301795e+00 1.890132845073829770e+01
-3.849544337240434544e+00 -3.942228305842289782e+00 1.906559139107324796e+01
-6.473287002002965806e+00 -6.298563149620250989e-02 1.935317543669683005e+01
-6.680208130211571671e+00 -1.475363149662965334e+00 1.992590860784293483e+01
-1.597615083112792211e+00 9.196911597262651394e-01 1.440611262768602074e+01
-7.285208197895164162e+00 -1.468675519044583488e+00 1.969352689205726392e+01
-8.086434965770145311e+00 2.425930667134864049e-01 1.700543306413307931e+01
-6.444432929021401080e+00 4.833001327559209304e-01 1.911365794970942744e+01
-7.616398014736862621e+00 -7.331969509901939963e-01 1.913561493404355218e+01
-7.713536863929347120e+00 -6.290323460087928753e-01 1.898014953742185185e+01
-7.648102866787744869e-01 -2.226882686480896822e+00 2.086567993111644626e+01
-4.106620575478483914e+00 3.973836391806566670e+00 1.806920692699135600e+01
-7.743353328464817054e+00 -3.993614672981307123e-01 1.881731485510732682e+01
-3.916680715198598950e+00 -1.076762935053070080e+00 1.649531333000017241e+01
-7.895051320734669531e+00 -3.997880541370126828e-01 1.859037280183058272e+01
-8.139992581873327637e+00 -2.038775162069791369e-01 1.757487395913445738e+01
-2.929696871632644584e+00 2.923841634966754643e+00 1.563394515880984414e+01
-4.514827884833165328e+00 -5.877934673952783795e-01 1.492785670766706119e+01
-7.924306413138710425e+00 -7.247065068197827697e-01 1.619330868676611601e+01
-2.450886336978534530e+00 -2.917511221171189550e+00 2.081264959594938091e+01
-7.785227422660735641e+00 -9.696386308344462357e-02 1.554911538029655560e+01
-6.283580795366260574e+00 3.132252436680063479e+00 1.784902971273376693e+01
-7.136541238535416554e+00 -2.846114672306920834e-02 1.460873998767703341e+01
-2.477990595514285577e+00 -4.160379266678903676e+00 1.946890308749875231e+01
-5.775055114683203428e+00 3.913928815149172458e-01 1.336119018809952053e+01
-1.664609440749384550e+00 2.183838660691591382e+00 1.923306292265979067e+01
-7.240363046258691426e+00 -1.711977630880162859e+00 1.556394605843128431e+01
-5.466239847901199767e+00 -4.139915770247048599e+00 1.896873408538080952e+01
-4.260861730858037433e+00 -3.041820074488721382e+00 1.815158736180552523e+01
-5.918862021371982252e+00 5.848099784068316875e-01 1.345543885030393483e+01
-5.655300377831713021e+00 5.013929370790268791e-01 1.328100289304159531e+01
-1.754660801140179860e+00 -6.538649609388135220e-01 1.548816488549953618e+01
-6.433773692226498753e-01 7.100074580244174483e-01 1.648807672289914450e+01
-1.605709761397750457e+00 5.729047433157290481e-01 1.390588860250695546e+01
-2.387433888681274929e+00 3.217733834262209713e-01 1.352969498082018873e+01
-5.163589876484982355e+00 -1.724220299479450880e-01 1.353113837033303923e+01
-9.148735247821712102e-01 9.099116965443372340e-01 1.590719370053881931e+01
-4.927937005529354764e+00 -4.079202874048121208e-01 1.391000006085053542e+01
-4.960318035152955218e+00 1.741690325540672379e+00 1.368056581564671603e+01
-4.313213664329959229e+00 -2.336304269046841409e+00 1.770223969734891512e+01
-5.141949344688825363e+00 3.311476657059111872e+00 1.530170686660733992e+01
-6.204900977980235766e+00 -2.844385311202575650e+00 1.714775303972017895e+01
-4.742555616753287850e+00 -3.904410203461694540e-01 1.395662803986748202e+01
-4.410753749372986476e+00 -2.990020513785182077e-01 1.395314893427207892e+01
-6.746394784902238762e-01 1.040073235843180233e-01 1.548912844483357532e+01
-3.540702357295923974e+00 -2.003841921332299991e-01 1.451310984997015652e+01
-7.830061002145443538e+00 -1.507301447250009918e+00 1.622900388576269393e+01
-4.791378232019592787e+00 3.853776830319540103e+00 1.580015584112615556e+01
-7.982116788450193567e+00 -3.021495347221385686e+00 1.738432747079424701e+01
-1.052212165431135382e+00 -1.901161596658595965e+00 2.089577753084456191e+01
-8.005479781360715918e+00 -1.527799285310589728e+00 1.666552941194857596e+01
-3.515649102709324403e+00 -2.567498398057898035e-01 1.471893382602046785e+01
-2.963647707661162922e+00 -2.175962425405825185e-01 1.488811905617914277e+01
-2.746429261271361000e+00 -8.930930084036359240e-02 1.451665180972435110e+01
-2.380204770480745413e+00 -6.738994226344685590e-02 1.448272955300068787e+01
-3.358562649283689527e+00 1.958564763815532128e+00 1.401489943345655576e+01
-4.477567643026119981e+00 -4.238412781985345212e+00 1.936216326863676329e+01
-2.155442737417955001e+00 -8.195355807759352462e-02 1.450690307077576335e+01
-4.210918535316125144e+00 3.798476285491918070e+00 1.596136685418490941e+01
-1.368338883664190542e+00 -6.692141240133298030e-02 1.466939480257526185e+01
-6.892868050402071844e+00 -2.763437347661198196e+00 1.645138977150893567e+01
-9.228200807045838783e-01 -4.431507606285878254e-02 1.506981468601740914e+01
-1.873632399148165373e+00 -6.454836280101405865e-02 2.036710283574450386e+01
-5.895798597416971321e-01 -6.955164834147531394e-02 1.564317598284370092e+01
-5.153862152139293329e+00 2.930741922563367297e+00 1.492444505445672576e+01
1.519869203725575657e-01 -2.271699901284015777e+00 1.916979967807771601e+01
-8.139375449089634174e+00 -8.130097835014274965e-01 1.817012013801558368e+01
-2.730060671065489775e+00 4.592783796831773069e-02 1.411750849837222432e+01
1.317701724104978767e-01 -2.257087746314604626e+00 1.934901995527039986e+01
-5.150722912790788310e-01 -1.533442583901886369e+00 2.056080108983252330e+01
-6.582036262696208118e-01 -1.463335401761045151e+00 2.065275964614991011e+01
-8.494664154512678866e-01 -1.373360671981374903e+00 2.074337753291004560e+01
-1.017935333081403826e+00 -8.723337171233015441e-01 2.063989788570901851e+01
-8.765563298288963079e-01 -3.242238525362794110e+00 1.832645098319225241e+01
-7.282344944653731389e+00 -1.888108757816019168e+00 1.570007671131885019e+01
-8.410235907211269790e-01 -9.026588904539706304e-01 2.056640635777502979e+01
-7.529361595659514350e+00 1.560601183658283375e+00 1.784550282581616898e+01
-5.628064322917586182e+00 -3.682095147110117761e+00 2.041501148466426230e+01
-2.500401269149991279e+00 -3.578481301959435701e+00 1.880616092222377489e+01
-1.919510636823686278e+00 -2.434710699013114432e+00 2.088112644921400118e+01
-1.074491993135253232e+00 -7.090586583920234220e-01 2.059658923972604327e+01
-7.718215939827340222e+00 1.477482778207756198e+00 1.586247111472093252e+01
-1.613052920537276114e+00 -7.155344794135699571e-01 2.062554868478148506e+01
-2.656413028241376484e+00 -1.299970442651093183e+00 2.063938360770966796e+01
-3.530472491992712847e+00 -3.202778925117910624e-01 1.489371807045544216e+01
