-4.590280316869570498e+00 2.872309722850533653e+00 1.365094874540920600e+01
-2.725002091398539772e+00 -1.903290958065924965e+00 1.503638370649849421e+01
-2.322748319651173343e+00 -3.124092606945939377e+00 1.734684472359384344e+01
-4.041733285794018471e+00 1.966453963357571721e+00 1.075924095387626167e+01
-1.666403638074024807e+00 2.899846132660026665e-01 1.278404744514705627e+01
-3.845968588928008636e+00 1.926848389600611666e+00 1.059148594854111636e+01
-4.021943708087135860e+00 1.764826094739059048e+00 1.057372093079529307e+01
-4.109633230409325932e+00 -3.438604636523117097e+00 1.738484810289820715e+01
-5.002224677179349932e+00 2.093403214955242841e+00 1.775957777620759614e+01
-3.628416993014143888e+00 2.682073694177229406e-01 1.774229283183668926e+01
-3.655889658052658309e+00 1.906326917802845911e+00 1.059928524325335886e+01
-5.199865183327755602e+00 1.761987090586289995e+00 1.777174291060034150e+01
-3.611710655458202801e+00 2.002653314793966466e+00 1.088472240117001277e+01
-1.615045429749398354e+00 -4.057177072672802254e+00 1.674106135037216703e+01
-7.159704855942895740e+00 -2.548291942185887837e+00 1.521867645565764704e+01
-8.431259587436574776e+00 -1.440127888465311479e+00 1.643892228504455133e+01
-4.659445145565017654e+00 5.223803681216554473e-01 1.771504562592118148e+01
-4.771659946437624811e+00 -2.710137154053439357e+00 1.553621068558938489e+01
-3.068366920204042003e+00 -1.003620989171579492e+00 1.444810707035338382e+01
-5.679803349461704620e+00 -2.606754956888006625e-01 1.776484664703579242e+01
-2.971573828403836437e+00 -4.338900400366005883e-01 1.364021852741526075e+01
-2.139237639802308077e+00 -3.452997466348678213e+00 1.717799677648938328e+01
-3.467920257325023847e+00 1.847159188437579758e+00 1.057552955397958883e+01
-5.005676926685414863e+00 -4.057838515456056783e+00 1.699443236384965061e+01
-4.701571350962203688e+00 -9.339844673404749109e-01 1.453880563683229710e+01
-3.383401681820026319e+00 -4.361748517728603503e+00 1.602324323748809221e+01
-3.247038001744649183e+00 1.867613419445377065e+00 1.076967170186497569e+01
-2.530021215469457463e+00 -1.245154984784246466e+00 1.445301502838333718e+01
-3.408795449140996858e+00 1.953782474683340986e+00 1.076870167378944032e+01
-6.704473992320161280e+00 -2.180588199393649340e-01 1.329103098061347410e+01
-1.907875425290522120e+00 -8.145637013526885184e-02 1.277249183762981133e+01
-4.154942747518702184e+00 3.681884227779400831e+00 1.748084758976419906e+01
-4.713045719864981109e+00 -1.071223512261558763e+00 1.770396840958466456e+01
-7.554549544900645230e+00 1.162432660732168443e+00 1.551265421699419633e+01
-4.728432965853818004e+00 3.713021632752924184e+00 1.747339136913737789e+01
-2.613572871206626402e+00 2.255039297561175715e+00 1.774832073625181650e+01
-4.438266663138943358e+00 1.944742870055064854e+00 1.095675661768670395e+01
-2.970018988888485811e+00 3.346903186529631036e+00 1.689221813161548269e+01
-4.091779658394379737e+00 8.459585472396780048e-02 1.276615485861636401e+01
-1.656477226972357331e+00 6.573694007200672207e-01 1.305941759376714018e+01
-4.602003478093616984e+00 1.775497759354868865e+00 1.082193282254903366e+01
-2.537656114569726729e+00 -8.507445731988689808e-01 1.404252020538282508e+01
-3.076818270222041907e+00 -1.541957451691207126e-01 1.313889711547752270e+01
-6.920054868185548713e+00 -1.260404591888384385e+00 1.394088864632030678e+01
-4.312851419262568875e+00 1.741338521195557432e+00 1.066574051046909588e+01
-2.228646369964696117e+00 2.405939292045034428e+00 1.524658189214211390e+01
-7.229034962312601564e-01 -3.600564565015138552e+00 1.691430563435239876e+01
-1.779007655541289035e+00 1.570150904403558201e+00 1.450980736544140726e+01
-7.016106655499485534e+00 -2.809359520167260538e+00 1.742804260820932072e+01
-7.973004906420386284e+00 -3.151947715215946300e+00 1.672659365895628625e+01
-4.155929366911389700e+00 3.441419007802205776e+00 1.591923583699773914e+01
-2.591294830656325932e+00 -4.092205485614107019e+00 1.685499601219011012e+01
-2.292078472792292931e+00 -1.017231480738858274e-01 1.276366367602233609e+01
-6.343249458244156536e+00 -2.413206988385382612e+00 1.760488538460194619e+01
-2.053585589942436562e-01 -2.586176652009681387e+00 1.715009960633575403e+01
-7.531702727497605387e+00 -2.569362534646895124e+00 1.520079930975628102e+01
-4.228065450969209493e+00 1.595489763321133569e+00 1.071324911083083364e+01
-3.848968775435475997e+00 1.733197318392821096e+00 1.057056186450639856e+01
-3.920428549481477454e+00 3.525683313746658776e+00 1.752851289476543784e+01
-5.158673064272822906e+00 3.131160006259635864e+00 1.763611899709746567e+01
-6.088438050903416610e+00 2.694047176084585882e+00 1.520073921043671206e+01
-4.274468780272241197e+00 -8.146107625649667838e-02 1.316708500434894447e+01
-6.530772821016243235e+00 2.003101779746552680e+00 1.467729869534089104e+01
-5.533593249572970052e+00 3.368560126368677743e+00 1.751202897030483641e+01
-5.087832053727372461e+00 -1.053338934946044247e-01 1.772175500086811084e+01
-5.788500262021112341e+00 3.359417052718667307e+00 1.751743445524163079e+01
-1.918026469376990617e+00 -5.949123618753211495e-01 1.335025822033356846e+01
-3.575511598346251763e+00 3.092283034057736302e+00 1.489957354928563049e+01
-8.541437433856877148e-02 -7.882043020369167152e-01 1.711462264223994723e+01
-5.138575702991598604e+00 -2.091364656768318842e+00 1.530097260620180677e+01
-7.312462823043794913e+00 -1.562755719438915669e+00 1.777142662457737643e+01
-5.338817184170183694e+00 5.606709724820673202e-01 1.218350454824459561e+01
-7.485885991334400913e+00 1.241051203033937789e+00 1.548989741600819414e+01
-4.661780106334012075e+00 1.578899831208537385e+00 1.094462554313244951e+01
-3.596806303547967154e+00 2.093473926778470329e+00 1.779772766563499786e+01
-6.681594565899126259e+00 2.075445911396147203e+00 1.766575806261824155e+01
-1.580221747666244458e-01 -3.080521464789496289e+00 1.588482022809592920e+01
-4.396904948705445904e+00 2.907419800411948252e+00 1.367101643283227830e+01
-2.348330239570157740e+00 2.845539435125040484e+00 1.744118107605699564e+01
-2.975444381297565055e+00 3.183907408441501552e+00 1.590454854465875556e+01
-2.175625080566883529e+00 2.858918686051232783e+00 1.728747972709664893e+01
-2.576249377350797509e+00 3.029293179013582638e+00 1.730913785930418314e+01
-2.135135744980192207e+00 -1.083736044072970195e+00 1.406272750736852473e+01
-3.284846696249681397e+00 -1.094750745806714498e+00 1.458475898252412506e+01
-7.220043884851518712e+00 9.682538524967427840e-01 1.771226627243006746e+01
-5.397348187613083326e+00 2.490278071447471930e+00 1.775381099321869627e+01
-5.369756364198358334e+00 2.943941820434466283e+00 1.767886454727537782e+01
-7.641344171765279691e-02 -1.296093643959113084e+00 1.663905898720374310e+01
-3.728824513116352435e+00 2.727196417691252872e+00 1.772968949098865110e+01
-8.456371318484341426e-01 3.965321742012215545e-01 1.778778822967819551e+01
-7.737817302979904666e-01 8.650235902536402843e-01 1.684109072028973131e+01
-6.634922129795587153e+00 1.328624616897642108e+00 1.785211816298722809e+01
-5.779371635732640122e+00 2.800601053000224994e+00 1.769609894763448565e+01
-1.707076810036919801e+00 -6.638831905199262806e-01 1.341650250192881444e+01
-2.987855083925491595e+00 6.414995118799726725e-01 1.771945930838242944e+01
-7.507767994118059285e+00 3.680472301759571963e-01 1.383511135017420557e+01
-2.102305832844220568e+00 -1.741587159450830757e+00 1.760167806044787753e+01
-1.984577276089516173e+00 -4.301117536946508224e+00 1.657650036492595902e+01
-4.794750908733126593e+00 1.696756373597477330e+00 1.098748178126554009e+01
-1.697324473614223450e+00 1.469899323641428168e+00 1.454245329454221647e+01
-5.944481252392403547e+00 -2.657199783594877740e+00 1.554959593610243118e+01
-6.736042133972269141e+00 2.488781793038560952e+00 1.624209122659516069e+01
-2.660031921476292194e+00 -3.642917307487834044e-01 1.767889116680975192e+01
-5.024490916817462072e+00 1.685890379642804859e+00 1.120731817109718165e+01
-7.537411581823294959e+00 -2.028173402879891452e+00 1.763191128027699861e+01
-2.013982051662665640e+00 5.650151320236069807e-01 1.775261478535749760e+01
-6.119594335112314099e+00 -1.348294736417849915e+00 1.464423928680001907e+01
-2.537138167838788316e+00 -3.319314212610676496e+00 1.728735309327928249e+01
-6.058785638079774216e+00 3.273270492513224106e+00 1.707452520669218288e+01
-5.829843534107777003e+00 -4.117342215253259496e+00 1.620015064780010405e+01
-1.970839169881472008e+00 -2.990900059975103442e+00 1.532135341623093083e+01
-5.415179630264451482e+00 1.697657377593465133e+00 1.175096093674327236e+01
-5.438642702030680454e+00 1.337827968601948969e+00 1.152591347232724317e+01
-5.924105950349932703e-01 -1.032456666938828871e+00 1.394148155341192208e+01
-8.507124671804778826e-01 -1.111734126441012993e+00 1.379401213699085460e+01
-5.035757969082537144e+00 1.405380974853043252e+00 1.120007559290174370e+01
-7.053512052597870507e+00 5.815389328499072086e-01 1.786783006422016840e+01
-7.395769829070965251e+00 -3.573145951728805780e+00 1.673691549962027736e+01
-6.467957609766740168e-01 5.548166591696759298e-01 1.761446909420898166e+01
-1.821350638409346079e+00 2.421388186032289447e+00 1.736079060367046978e+01
-3.790329958296495771e+00 -3.357574354710224807e+00 1.564690724484797002e+01
-1.970399951954576734e+00 2.671671659825685552e+00 1.724720979920892816e+01
-1.968602629998867926e+00 2.705782869888597286e+00 1.703560963007171480e+01
-2.592774732191155174e+00 2.696369806772309197e+00 1.523933699682875798e+01
-7.542353863376470180e+00 -1.222579214490077781e+00 1.401318497389608453e+01
-3.126333985702883123e+00 -3.115826995627807516e+00 1.557056755029606521e+01
-2.802799271691594374e+00 -3.577477937822812759e+00 1.571167036536533956e+01
-8.576781243107788333e-01 1.003602093365166592e+00 1.745669885216240047e+01
-5.196068528988156743e+00 2.562226050274485800e+00 1.773722657303424555e+01
-1.921387398718044981e+00 -1.537800999739693975e+00 1.433899072107221073e+01
-4.305977142797374313e+00 3.659820611227175391e+00 1.750430870267805616e+01
-6.165676410137995944e+00 2.769526248113685973e+00 1.763759611767344992e+01
-3.516058110678963455e+00 -4.504399666851229611e+00 1.645849154053102481e+01
-3.808392843373838321e+00 -4.092577580787304825e+00 1.702388639382151680e+01
-3.926523557738467174e-01 -1.793148463519349534e-01 1.554327875930387748e+01
-3.804756583278410709e+00 3.091393087002939133e+00 1.765568144151789554e+01
-7.437922454883525880e+00 -1.668638357615215284e-03 1.339684807069565764e+01
-4.894772955198425812e+00 -1.296371059590728514e-01 1.337672945685021020e+01
-4.620685437921810745e+00 -4.431332755664291412e+00 1.608931367950172486e+01
-5.244301271392044050e+00 1.538105474386433746e+00 1.131518058843763086e+01
-3.825391524297159673e+00 3.683281028967563042e+00 1.728928175882955642e+01
-5.924634368091967751e+00 1.477608916901245184e+00 1.225598846336285774e+01
-6.716719104286440256e+00 -1.275499825284566402e+00 1.405158101378542668e+01
-3.493816035846873280e+00 -1.736592743734228783e-01 1.336677258006528390e+01
-2.911147904142894927e+00 6.686483088181331969e-01 1.187380061390156882e+01
-5.371150986598478561e+00 3.363670462259680249e+00 1.756074021920704453e+01
-3.314422472302994471e+00 -1.244224566154085831e+00 1.471218197985781373e+01
-1.329663115155000241e+00 -1.363432190934800392e+00 1.388453717780073404e+01
-3.491581385905142554e+00 -6.375786678205770386e-01 1.412070285557343041e+01
-3.809787228944996773e+00 1.270473105264858127e+00 1.777523423575531680e+01
-2.671346895437020308e+00 8.755266909332444225e-01 1.169449555642471594e+01
-1.073640711516044677e+00 5.121915120626381324e-01 1.461636502517341896e+01
-2.080501857923398479e+00 -1.202002288365637828e+00 1.413744250174596928e+01
-7.744156068745262633e-01 7.243319293432914918e-03 1.460718058256336960e+01
-2.888169910288270970e+00 -7.693227714651018623e-01 1.412997053526366997e+01
-1.650845139577562293e+00 2.232055462999221973e+00 1.741790419633464992e+01
-7.072077909679122421e+00 -1.222519357621190572e+00 1.389838064133385487e+01
-1.798835895573125399e+00 2.205399899986731693e+00 1.756510871436716670e+01
-2.827207094249493124e+00 2.708960076877322543e+00 1.466481163530138687e+01
-5.047589834905013895e+00 7.219866409800523854e-02 1.772074366167113268e+01
-7.257278845100284315e+00 2.681907137419337062e-02 1.321938853727556662e+01
-3.814845771410794839e+00 1.894955726576563748e+00 1.779954659957290986e+01
-1.411206054544112076e+00 1.205782326017253325e+00 1.775555658155152727e+01
-3.385508930968170738e+00 -3.578580688378214081e+00 1.569902574670173223e+01
-6.968760194429912680e+00 -1.581545529264062999e+00 1.776388269449584456e+01
-6.108074956749666384e+00 -1.807393431522598348e+00 1.764828487364148302e+01
-2.360407204859848118e+00 -3.576915071758790088e+00 1.570920636783317192e+01
-3.775476455518797181e+00 -2.068721810368003400e+00 1.521363923495565373e+01
-2.218344858557945720e+00 2.795115421276034962e+00 1.743199555713900040e+01
-1.902693580328037148e+00 -4.959495926429862145e-01 1.321486703740066204e+01
-2.141329063139731925e+00 -2.756550461129284368e+00 1.745086650638434733e+01
-7.762675046057876393e+00 -6.419280121316899290e-01 1.410736768841854527e+01
-2.700410562319867758e+00 1.070965183412056820e+00 1.153314540342267591e+01
-3.982388271574679894e+00 3.163694066837329899e+00 1.489460152865579445e+01
-1.946000520366743869e+00 -3.826387132429096116e+00 1.571353300209207404e+01
-7.571445929008358000e+00 -8.522233161565528903e-02 1.772665096974867183e+01
-5.941598728343215008e+00 -1.405882058735829609e+00 1.480413019173098021e+01
-4.181262993598348743e+00 1.724934467555124140e+00 1.778203101645399542e+01
-4.157031937782636355e+00 -1.956537263683520766e+00 1.517669043405465246e+01
-3.499211561907590085e+00 -1.529397600813607205e+00 1.766445787235915432e+01
-4.596262474501007667e+00 1.935218444920083769e+00 1.775925442007646282e+01
-5.612390970152695502e+00 -2.648179365420385789e+00 1.557532111796892238e+01
-6.966362663142083633e+00 1.557551376263565546e+00 1.769996928258458624e+01
-8.395654783736251403e+00 -1.058721800672220770e+00 1.658300206925328624e+01
-4.788442731579439560e+00 2.099541608456621411e+00 1.775268552895753160e+01
-5.215624463225339014e-01 -3.390479116490184186e+00 1.692584218642022975e+01
-1.435565524853084973e+00 -2.591387783940132028e+00 1.472603267509946434e+01
-6.355224951680987111e+00 3.031798550590148356e+00 1.688348639605383639e+01
-6.011569379050244244e+00 3.258617202031923732e+00 1.736958624239621329e+01
-4.200834179644559185e+00 2.697859420459280511e+00 1.283915957858331680e+01
-5.187840472413027371e+00 2.142866902955910646e+00 1.776813255185245666e+01
-6.458698332152732036e+00 1.346366895900244387e+00 1.787102024215919371e+01
-3.305136271589863561e+00 2.750190261579471773e+00 1.376132943076638426e+01
-1.355654698276834436e-01 -1.689225594284460286e+00 1.580465151509428878e+01
-3.847208810328145434e-01 -1.988017102572539496e+00 1.753791670382093670e+01
-6.166420034855873311e+00 -3.331227695611619577e+00 1.581098798284130780e+01
-4.914286225753496939e-01 -2.159743898010067387e+00 1.454139216203497043e+01
-5.397868471562146553e+00 2.329255995518932920e+00 1.777395075256167800e+01
-5.670498700194163355e+00 5.505506162236795120e-02 1.302028285972633981e+01
-2.503338122137210298e-01 -3.029439082922698478e+00 1.530398142618487967e+01
-3.310981391620022585e+00 -1.353374863468225442e+00 1.765476129765587032e+01
-5.608082916606325519e+00 2.517568786416173321e+00 1.776212318796951806e+01
-2.398684451957800334e+00 1.212260624612050641e+00 1.187504788961907209e+01
-7.019557197790259551e+00 1.651626850422117876e+00 1.516684851223864783e+01
-7.536421213913951256e+00 -4.186819659262561721e-01 1.372702148043464021e+01
-4.282398329429748074e+00 -2.522108459320238083e-01 1.356684385135144666e+01
-6.206216207373205229e+00 2.369603094174329794e+00 1.774629229032461453e+01
-2.735030040953743136e-01 -1.810880012428070174e+00 1.746771895967555466e+01
-1.728385843388493104e+00 -1.058361531123836130e+00 1.382014567057093402e+01
-2.882888423615436846e+00 5.667375037707720331e-01 1.200177176312316973e+01
-5.623716086761972655e+00 1.471926257635886248e+00 1.174421787224035896e+01
-5.453832567775778628e+00 1.112426347842038865e+00 1.165632807485959788e+01
-3.159828044268876646e+00 -2.722792544236177559e+00 1.751011353188061648e+01
-7.107199876838140362e+00 -2.255822713207624730e-01 1.794289783441426422e+01
-4.154946842836628740e-01 2.681840372047759047e-01 1.684615811330573010e+01
-7.926012613939080076e+00 6.214426955327876367e-01 1.584528802974658745e+01
-1.064516505296436266e+00 -1.217524664251558697e+00 1.780138161669205843e+01
-1.681668337641572419e+00 2.099776392303291050e+00 1.605142967820069444e+01
-2.147201888655049906e+00 -8.627210581377613430e-01 1.383308337787283548e+01
-2.897646593152947148e+00 4.004459839392471299e-01 1.220820436792812913e+01
-2.152825069427355853e+00 2.456000487308605429e+00 1.558503247056983909e+01
-2.698620493639318330e+00 5.660860272562371343e-01 1.202257862115754605e+01
-1.820480491398095646e+00 -3.560078465299172823e+00 1.555425009326010510e+01
-2.243949390531827515e+00 5.519816202293079677e-01 1.217892014787049604e+01
-7.648462452640439224e+00 1.323608629353660415e+00 1.673709921038368620e+01
-4.432875703256896394e+00 9.125423644507892895e-01 1.772866403057691898e+01
-2.880449843586524228e+00 1.044823549161801646e+00 1.147066665561963461e+01
-8.918231452097435952e-02 -1.974369380036221866e+00 1.681467945292279254e+01
-2.789053807540376795e+00 1.839553612951707162e+00 1.213303789424681511e+01
-2.112359355469728417e+00 5.713602992231163746e-01 1.224472376984134669e+01
-7.053106776339883588e+00 1.405930283400188330e+00 1.769515183375166956e+01
-5.575290158261695161e+00 1.940494755332965449e+00 1.781106364966928268e+01
-4.175367248717014590e+00 2.102033577446137613e+00 1.778158441304052317e+01
-7.184935176269150681e+00 5.548032875130295416e-01 1.782752915843988362e+01
-5.209128065193929125e+00 4.906606425298742913e-01 1.773732860060301775e+01
-5.127231622927573618e+00 -1.676860082668203411e-01 1.349622989547150453e+01
-7.575218130151168516e+00 -1.521242695976013248e+00 1.420805711933327942e+01
-3.013508664059453057e+00 2.619068463522193912e+00 1.385573436067751274e+01
-1.417217188133908623e+00 1.867040219784846578e+00 1.737141999279164750e+01
-6.017642676032973981e+00 1.500750226095486806e+00 1.785836736282204029e+01
-7.069957279129891248e+00 1.476165101806087510e+00 1.493051409361295256e+01
-6.968240642283524133e-01 -1.088270006607050533e-03 1.777044011672905199e+01
-4.807186488089640442e+00 1.685783946253339716e+00 1.774695616590527081e+01
-6.512836366536042476e+00 1.427524211989922742e+00 1.347027216844307063e+01
-7.093396602066941448e+00 1.556366294831005526e+00 1.761590923946807763e+01
-5.558540466892777587e+00 2.160633546409069350e+00 1.780152005529572179e+01
-6.539824237805895280e+00 -1.035817647279690501e+00 1.781946599743750781e+01
-1.727322979557875282e+00 1.737786011791691454e+00 1.506000332693660582e+01
-5.777341377434167313e+00 2.312175920264635476e+00 1.779988503588967674e+01
-1.236142504465238989e+00 -2.338380685736831666e-01 1.781998849500416426e+01
-2.379152388149495145e+00 2.960044249140130201e+00 1.665750212673883013e+01
-2.986096031426713981e+00 2.240458149960172118e+00 1.777286781550080619e+01
-7.062467933389726227e+00 4.211208244140942636e-01 1.305226859977877396e+01
-7.182128094986933498e+00 -3.232186052291862399e+00 1.567541180278955082e+01
-4.918617121221555699e+00 -9.488176111585713279e-01 1.455307216992283870e+01
-5.964660391743675127e+00 2.150926617952388487e+00 1.781622105362975717e+01
-6.379421097616676306e+00 2.157437013576119611e+00 1.775655008292719472e+01
-6.595049630755685399e+00 1.974541520603882772e+00 1.773801781178223180e+01
-1.674895380503874653e-01 -1.447788120727028449e+00 1.563438317870068417e+01
-7.513400097606573347e+00 -1.382687467383211466e+00 1.410035453518795023e+01
-5.709175142017999249e+00 1.109223322557380653e+00 1.181714981291986177e+01
-8.207966770168585668e+00 -4.806467512372325501e-01 1.691517448780688326e+01
-4.017261490660292367e+00 1.286409644402167540e+00 1.776792938329620952e+01
-8.406592215148872782e+00 -8.564427100542308935e-01 1.632474600455735114e+01
-4.715472464253004148e+00 2.674342553420595792e+00 1.313435300907653058e+01
-4.843662824908411935e+00 -4.477328392992690809e+00 1.621575601292770230e+01
-6.980398396992659293e+00 -2.992912725564555121e+00 1.553908524826021775e+01
-5.659983235273845281e+00 9.401740104320894797e-01 1.190174236854495504e+01
-6.587486154345508993e+00 -8.223613803280196421e-01 1.380914043818198778e+01
-3.254702446001842553e+00 2.495670192915822039e-01 1.242689156464047429e+01
-3.496731164088972221e+00 5.454969099681854505e-01 1.197893903994043185e+01
-7.895077963121649667e+00 9.484672823227742189e-01 1.670365782152987677e+01
-5.980981205875377960e+00 1.606458080992589688e+00 1.255743589298562668e+01
-7.283872679393509131e+00 -1.057132756972536392e+00 1.786896424103436587e+01
-6.976333084131279172e+00 -3.628124830567944326e+00 1.590068808136085821e+01
-2.882381905252192400e+00 1.202398311702856937e-01 1.258791502762699466e+01
-1.036511844095877599e+00 3.852708515338629791e-01 1.781044213807094323e+01
-1.364815918537926054e+00 1.672080063456079735e+00 1.758596823049009927e+01
-1.096372436141201279e+00 -6.028332950517909516e-01 1.347976943403760330e+01
-5.088390669432753199e+00 -7.015163797136949597e-01 1.770947768361397223e+01
-1.947662279202689861e-01 -1.237019112112031305e+00 1.545652692826667263e+01
-2.260451446409176501e+00 2.746665214361898588e-01 1.237934301156728978e+01
-6.617091890680820043e+00 -2.968167526019330982e+00 1.556649454313302883e+01
-2.075121272083575441e+00 3.490711642049968422e-01 1.239184610585720847e+01
-2.404255816927424849e+00 1.220037133193113466e+00 1.774348036254446370e+01
-5.906766143493283217e+00 2.579735282454612921e+00 1.452830072921453919e+01
-7.158501585387136323e+00 -2.193186750899267512e+00 1.763734500913917813e+01
-4.430238571505565659e+00 1.327525012874225308e+00 1.773965306469728986e+01
-1.294645225062659222e+00 -5.491935018997198270e-01 1.338646800715708807e+01
-3.422381930891222890e-01 -3.194750130950752887e+00 1.686505042785125497e+01
-4.586218594851979802e+00 -2.553765641813710463e+00 1.546283414983802018e+01
-3.600586055927239570e+00 5.228589599634287932e-01 1.774598440268203703e+01
-6.440733324141977079e+00 -8.317711755576033816e-01 1.783473716274208343e+01
-5.808775890056821822e+00 1.569307008950475257e+00 1.783896661953141560e+01
-4.841568611585707060e+00 1.359980512290795085e+00 1.114189819833348238e+01
-4.358852766604824680e+00 -3.173861512891971604e+00 1.563257351535843398e+01
-6.491045594558503495e+00 2.830967061568343102e+00 1.650350259221380966e+01
-6.451121753395565150e+00 1.770700083547471770e+00 1.782139856487252061e+01
-5.217289226241254851e-03 -1.671963510315266355e-01 1.715463521345320075e+01
-3.617248263298107780e+00 -4.224590948616754105e+00 1.690862778292474289e+01
-8.533278256045385701e-01 4.266110647577450177e-01 1.521965424739827810e+01
-6.625466050824837083e+00 1.613361520472846866e+00 1.781362199768099330e+01
-5.374307426023770873e+00 3.599760057538846425e+00 1.674290738478998364e+01
-2.718879140658553961e+00 -2.173277561727698259e+00 1.516946020849751520e+01
-6.088520935748167773e+00 -3.235603629246743829e-01 1.352191724805301121e+01
-3.221019663221529772e+00 2.343993411320636877e+00 1.239670285368881864e+01
-7.007711808610939563e+00 1.825050165472417163e+00 1.757613115782195123e+01
-1.653174158891171364e-01 -4.795245189581409662e-01 1.613115084099537810e+01
-2.125765800034377762e+00 -4.046089362077043283e-01 1.312487448911086219e+01
-3.701505123545762999e+00 2.886344474647788427e-01 1.236117968042968940e+01
-7.647148349557078006e+00 1.242458405638370511e+00 1.713518295465789620e+01
-1.110510427045612980e+00 -1.624597899789425259e+00 1.775603351312121347e+01
-7.483729113085375584e-01 7.630431737315503948e-01 1.661377775691504510e+01
-6.377808747537892842e+00 1.541576968961764660e+00 1.335818210798469963e+01
-4.167219305382119821e+00 -8.546619075833774559e-01 1.443767018782935097e+01
-7.290727155954483507e+00 1.690132220524807050e+00 1.735184253985665848e+01
-7.173402082319983997e+00 1.628358637398409137e+00 1.753852243465886929e+01
-8.340073982605236136e-01 7.424239146699085357e-01 1.604224432251483634e+01
-3.458941383617571308e+00 1.192857736422070491e+00 1.114340979361986328e+01
-2.208741430424319585e+00 1.165710407813839611e+00 1.227112343763440450e+01
-4.106295605972929863e+00 -2.500731058531171502e+00 1.761618777906678091e+01
-4.643268362323602183e+00 1.105404037900893366e+00 1.772192513230983124e+01
-7.647743180133428353e+00 1.322943759943937536e+00 1.692965555813895051e+01
-2.300916482906026905e-01 6.208453533101776500e-02 1.700575797421034352e+01
-7.132085681825417467e-01 6.545432274859381838e-01 1.643421407318079375e+01
-5.926104512432153193e+00 1.110939469857037842e+00 1.203507286469211479e+01
-1.982559281140766405e+00 1.319359608757872504e+00 1.325967222829305214e+01
-6.018025588474624321e+00 9.160767941307890183e-01 1.212285856765110381e+01
-4.187042488934828555e+00 -3.550307689864074856e+00 1.571376061855711370e+01
-3.115452540596653552e+00 -7.141420106210949470e-02 1.297897360226749086e+01
-2.826379302896944612e+00 6.521044631427392879e-01 1.771363894638138348e+01
-3.593268038286404842e+00 -4.309467553134288309e+00 1.684033862664093917e+01
-5.198557202952682310e+00 -4.151511018571911293e+00 1.691572875131091180e+01
-5.878124829108954508e+00 7.534497164286528825e-01 1.213392218146136869e+01
-7.918769614603071716e+00 4.435302832414613761e-01 1.525288095214048312e+01
-2.707556621873891345e+00 1.395842115134666495e+00 1.138978381246279881e+01
-5.454747133474608489e+00 4.043335559989365002e-01 1.241899610550418132e+01
-7.241227377022156908e+00 3.917246608134055119e-01 1.783292937508380405e+01
-6.868742516134529019e+00 -1.197408840218061599e-02 1.793559477393372603e+01
-4.257894758747074349e+00 -6.522936674780765998e-03 1.298116226257625172e+01
-2.593812396158620359e+00 -1.551267714335686776e+00 1.476076392359144407e+01
-3.493497460134565635e+00 6.780777937770832153e-02 1.277700720525536937e+01
-3.122324398960330427e+00 4.600180646597529233e-02 1.275408731689339348e+01
-5.774383854533503779e+00 -2.825434897520031630e+00 1.752386206553715553e+01
-6.334855006383239839e+00 -1.348361159045112334e+00 1.447200610823505329e+01
-2.481620286167983913e+00 8.605413334064637709e-02 1.256850605181938718e+01
-3.830795101215495269e+00 -4.551656733919044129e+00 1.656575839369005720e+01
-4.879012293633995689e+00 8.751764926069838246e-01 1.163659978427683583e+01
-1.506869165830365898e+00 1.086834125071227231e+00 1.429604600991661201e+01
-5.843669203293956338e-01 -6.682570552093891614e-01 1.394925934442865767e+01
-6.952452126479386152e+00 -2.968065161343623526e+00 1.734901757196154293e+01
-7.193685582447235660e+00 -3.873131119273531819e+00 1.624299139969232542e+01
-2.101431063028758928e+00 7.930116998835901043e-02 1.257722734782555918e+01
-6.598338766778026887e+00 1.677010096170169495e+00 1.417780860024022260e+01
-7.267309403052431005e-01 -9.718999271280592822e-02 1.456444999238879845e+01
-2.286284638963637317e+00 -4.225918597592110970e+00 1.669200475011097140e+01
-7.601103834210203303e-01 -3.336724812055505307e+00 1.514214062263220129e+01
-3.566835339554400020e-01 -2.830697156487453459e+00 1.718097039476050369e+01
-3.993515177752829715e+00 2.765817105144300569e+00 1.306555419401819407e+01
-1.916878873127682681e+00 3.865715209370952365e-01 1.247305702557463647e+01
-8.097411816624834557e+00 -3.237778478317905329e+00 1.646761854703870753e+01
-2.524315416478508212e+00 -2.563443834393718479e+00 1.749002960071414847e+01
-6.934468597894190012e+00 -2.199206968464738399e+00 1.764311309249215398e+01
-5.732893265510351277e+00 -2.230757824667325639e+00 1.760807332490029964e+01
-4.468140672082656195e+00 -4.201607312153273099e+00 1.591177841604158161e+01
-3.453964047361973932e+00 -7.134938787897633361e-01 1.770098379785686049e+01
-3.894579249592390990e+00 -5.831819721572908399e-01 1.410805936583299669e+01
-6.689792164172636113e+00 -2.242411363343626451e+00 1.512019616646367481e+01
-3.062351907074113200e+00 2.156111665812834310e-01 1.246022586799354670e+01
-1.065580048609791275e+00 1.186377562579461031e+00 1.763784981572601041e+01
-3.598215349884100522e+00 -8.810738165449540915e-01 1.443180644381864752e+01
-3.715450010281482029e+00 1.694895337432156257e-01 1.258540103677358601e+01
-3.187503019730229870e+00 -4.005695515213554714e+00 1.584266487660893219e+01
-2.452654911013285588e+00 8.267077526193598036e-01 1.772020728082723551e+01
-4.953657107597235765e+00 -1.851041007732981747e+00 1.517135837089691464e+01
-3.351269380938789677e+00 -3.268279003631573421e+00 1.739615533500300515e+01
-3.161959744059534838e+00 -2.335113965334082220e+00 1.755551905557545567e+01
-2.811431785805805550e+00 1.047635715105093013e+00 1.772681013227574809e+01
-6.744394668516201286e+00 -5.679333886680231203e-01 1.356941811491410377e+01
-4.910887873653910773e+00 -1.487677389813454099e+00 1.767365849988295068e+01
-4.208685660739676315e+00 1.107480322886628565e+00 1.774809894589218473e+01
-6.582588505002969548e+00 -3.247951440977606463e+00 1.570549054811039369e+01
-6.214492280269696245e+00 1.465811534382846837e+00 1.787223405690099653e+01
-1.578238388869062980e+00 -3.819056341602574012e+00 1.556593631385119281e+01
-3.402099822635782811e+00 2.449486791924335272e+00 1.239565261312831623e+01
-7.440561045834273912e+00 1.431911357437426924e+00 1.733481515565012288e+01
-6.235039563679551478e+00 2.439731709890074818e+00 1.772142086548762663e+01
-4.680268338709817399e+00 1.115230505351341606e+00 1.128429801419200729e+01
-6.270083354342993687e+00 6.744821069309570039e-01 1.246646349529578046e+01
-5.968515161463813889e+00 2.298881827207440498e+00 1.402558170444462959e+01
-8.350145609235028132e+00 -1.484352135398825379e+00 1.666260623093977600e+01
-5.859324650168288962e+00 4.791546880904007377e-01 1.243026783023959680e+01
-3.452865675357208897e+00 1.262729881235969964e+00 1.106437559454495911e+01
-6.495274917857464025e+00 1.782684320316320736e+00 1.413760232559318197e+01
-5.683639987399040194e+00 2.866068440700626496e-01 1.263633210324573852e+01
-4.642439866637922741e+00 -2.955348503295787133e-01 1.772183039042581854e+01
-2.604725536522749962e+00 -2.900420835058209246e+00 1.743984588367835542e+01
-2.121300025158315172e+00 -6.447704921207706441e-01 1.350128710767112850e+01
-6.160399213603506396e+00 -3.228700824345404730e+00 1.576895537601562225e+01
-6.497418128323424469e+00 -1.963762407475513339e+00 1.496322996098834679e+01
-6.412770178276408828e+00 -3.957976997681927234e+00 1.686323874799080969e+01
-6.499524888478370954e+00 2.683088742102190949e+00 1.608134436050423588e+01
-4.087905916719704713e+00 -1.541398237683990757e-01 1.333864146453108290e+01
-4.212388576997571299e+00 -4.583790064925949537e+00 1.636062000162914742e+01
-6.777866720677502066e+00 1.628701952836601574e+00 1.776147077708487032e+01
-3.881086813174623007e+00 -9.380249969455078940e-04 1.295668775253900051e+01
-2.844164637586251487e+00 -4.253730025043180873e+00 1.675585007169495455e+01
-4.309342954345831700e+00 -1.691243037504988500e+00 1.769007062113012196e+01
-6.105515788410955658e+00 -3.091892044948318041e+00 1.739782282224991761e+01
-3.009427795422742857e+00 -4.473941249787992902e+00 1.636727398472221395e+01
-3.536581185083516043e+00 -9.299640929967267766e-03 1.296404102688307702e+01
-7.565824304591281191e+00 -2.770648497242935715e+00 1.537867385793874675e+01
-8.017516257365013388e+00 -1.282608593785403706e-01 1.717476716692891969e+01
-3.283985196519819016e+00 -2.079330593408101890e-02 1.293171156914357667e+01
-2.111979623144154328e+00 2.343969554506040165e+00 1.540774027637905519e+01
-5.387361738098114472e+00 3.564719008243122822e+00 1.733138640047752332e+01
-1.428122994317992944e+00 -1.283865661853869078e-01 1.309354616130497462e+01
-2.450143337164769619e+00 -2.499163491306668483e-01 1.301233756600042213e+01
-6.508424804649476592e+00 -2.419069600854477642e-01 1.333291900698039356e+01
-2.034886312193750157e+00 1.751354512622762094e+00 1.414708065429331540e+01
-2.009025117494801727e+00 5.014222818118414526e-01 1.234677379469863112e+01
-3.106208732769613512e+00 -1.542404868555123265e+00 1.762378440636641486e+01
-3.411073529251749115e+00 -4.260039632164037471e+00 1.594028121588837266e+01
-3.083660935751360022e+00 8.212991548890347104e-01 1.166940434031053186e+01
-6.867899951265124869e+00 2.730342337908082673e-01 1.288710574218597671e+01
-2.122187879929322285e-01 -1.593701809761868482e+00 1.524795396117429291e+01
-7.323570632788491963e+00 -2.251386640587167864e+00 1.759708561508904623e+01
-1.890933842013333699e+00 9.784550225466581708e-02 1.263250626211938155e+01
-4.523866305584689940e+00 3.162019173586839482e+00 1.763415333412170227e+01
-6.309840283292398766e+00 -2.566864399282891007e-01 1.338038050151846292e+01
-4.745481974935633396e+00 2.523343121848675707e+00 1.267318043238798353e+01
-5.595735606511427207e+00 -3.581737631824740031e+00 1.718309286340920394e+01
-1.016190623911421120e+00 7.432489808000588560e-01 1.776888713126804831e+01
-5.566810210186851071e-01 2.747216482307470731e-01 1.770309358699775615e+01
-3.704183725430711061e+00 4.780583169727652404e-01 1.205698103189974191e+01
-5.434827829495436191e+00 2.393078192339941790e+00 1.320079420151953187e+01
-2.469560467102643653e+00 7.055441334563274935e-01 1.197210508609360957e+01
-7.995328809007636650e+00 5.529496298068847793e-02 1.526503012065691323e+01
-1.630250390556381213e+00 -3.443117788441531157e+00 1.538440280568496021e+01
-7.151984436567117243e+00 -2.436693282641293035e+00 1.756718504356597421e+01
-7.985326194506577879e-01 7.517131184039764769e-01 1.625300498435844432e+01
-1.618937516980749614e+00 3.761007845139885397e-01 1.779115894109476770e+01
-3.274506692413678977e+00 5.623537070795305848e-01 1.197607768808569162e+01
-2.458046545081943091e+00 2.356571984712287460e+00 1.772828270945766960e+01
-7.978912181589920216e+00 -7.098561287847906520e-01 1.471852127361588103e+01
-3.811695737397988726e+00 -3.993360274644468522e+00 1.580640216700689038e+01
-5.104220607271574117e+00 -2.204707592206114342e-01 1.361250151272687603e+01
-4.238810983168414204e+00 6.963718733056567523e-01 1.774318031319218036e+01
-7.667068033281755568e+00 -8.061232157606652571e-01 1.775717877392110822e+01
-4.877080775509347710e+00 5.516657003289500150e-01 1.771151883934098592e+01
-7.075995588947384007e+00 -8.494023999805819791e-01 1.790554648475204758e+01
-7.092387106677561448e+00 -6.485151965317736966e-01 1.793195111774062056e+01
-6.441285298337223075e+00 1.163624793593868834e+00 1.788204404696140060e+01
-3.763863944749315849e+00 3.475348716626209367e+00 1.748600995280265025e+01
-2.175380452763024497e+00 2.638219715142536614e+00 1.762988370264420368e+01
-8.288325373817432506e+00 -2.453922261296014984e+00 1.656484276886686402e+01
-1.498033108163681293e+00 5.708947387146645625e-02 1.297027244849315863e+01
-4.398980008924270102e+00 2.295820747723932520e+00 1.776058962284691845e+01
-7.819491786343785833e+00 -9.604758358764131643e-02 1.437610608828112291e+01
-3.714154552420040556e+00 -1.723362038059050860e-02 1.299312917010922419e+01
-3.403915152760335516e+00 2.056680775929083715e+00 1.779543217636026853e+01
-2.621641784449609158e+00 2.987787911979075783e+00 1.611641513935923697e+01
-4.998562060775319615e+00 2.335631930027600500e+00 1.774764293692556194e+01
-7.024523115632930192e+00 9.719824492611002231e-01 1.780849136112290054e+01
-5.331475373488960834e+00 -1.653285365426939268e+00 1.764075783541182219e+01
-4.948402953774606594e+00 3.722410904219139560e+00 1.700707335588368707e+01
-7.388290687005635959e+00 1.241674839975149602e+00 1.750814200575511492e+01
-6.686203413936814499e+00 1.756774515227943478e-01 1.293309131216600960e+01
-7.451981680764189875e+00 -3.843710599344727363e-01 1.361015078855488625e+01
-9.372450290364275904e-01 -2.982910530733093868e+00 1.729621118627845888e+01
-4.583923455939511449e+00 -3.599040773965216378e+00 1.576722438399417214e+01
-2.077081527450749032e+00 -9.756714613918484602e-01 1.392236745736952841e+01
-5.351923567955040539e+00 -2.845411364127051090e+00 1.755215843624312200e+01
-2.138830139371047157e+00 2.787625474745533349e+00 1.668183290240173378e+01
-7.566769641935636059e+00 1.247676020349558712e+00 1.728629579701874874e+01
-4.005973666511899012e+00 2.547877211292889132e+00 1.222436508213239037e+01
-4.130055008787795856e+00 -2.528294231855966689e+00 1.541943272818288690e+01
-1.562046409511053113e+00 2.098510138703627348e+00 1.659030171940196041e+01
-2.967743383456887152e+00 -3.542109034676575785e+00 1.722362572030002426e+01
-6.328491225543192655e+00 5.786952470007358240e-01 1.254267423988366303e+01
-2.571351310959285819e+00 -2.116125592129259214e+00 1.511488243514864038e+01
-6.611578549281355244e+00 6.168794743629331112e-01 1.272474927484131157e+01
-1.980413122768607037e+00 -3.345257477534792745e+00 1.721103060212049840e+01
-6.456657999214616694e+00 5.012434258611002669e-01 1.265351782501329225e+01
-7.330039596892796716e+00 5.534039496399649760e-01 1.775449796563295379e+01
-1.530266458656766249e+00 -1.034664161830936902e+00 1.372164657324571024e+01
-4.785268579519709853e+00 1.623805101980237975e+00 1.101812567066397364e+01
-7.231952691207347961e+00 -4.339916231838203409e-01 1.793417323640922589e+01
-7.113620968455256488e+00 1.328921569547837800e+00 1.473142314916426088e+01
-3.331477148491548856e+00 -8.018425210396014080e-01 1.429715043681299491e+01
-2.273939375049051304e+00 1.482956537036570044e+00 1.272821088054279315e+01
-6.278766080431473995e+00 4.418614372659885881e-01 1.263280908226133548e+01
-5.088448619921044802e+00 -1.095311424138931677e-01 1.336435340121206039e+01
-4.652457083875460420e+00 1.284641522437657946e+00 1.773009742353118057e+01
-7.769939924551676924e+00 -6.019908157419084915e-02 1.415558684239116971e+01
-3.261128555147460251e+00 3.206660346529876193e+00 1.554761298757832222e+01
-4.710071173930264976e+00 -1.046894558285891730e+00 1.463887492704465743e+01
-7.190479192037291689e+00 -1.859468499602407565e+00 1.444130655420881837e+01
-6.096941713165660914e+00 -1.463609950334407106e+00 1.476432401940407502e+01
-4.914327451867261054e+00 -3.194460651820807406e-01 1.376674130304865074e+01
-8.004273912589823681e+00 -2.394431297579957540e+00 1.517161057103711741e+01
-6.407523916027636268e+00 7.523997651398712794e-01 1.788284101982034358e+01
-7.305362366160175647e+00 3.062017762995861148e-03 1.786976690656539901e+01
-1.177190453937968062e+00 -3.537964451308111880e+00 1.702927502378999591e+01
-8.028570369324796729e+00 -5.135393735014832650e-01 1.493359941017785175e+01
-3.679327413478034714e+00 -2.500789718169316167e-01 1.356721433445209968e+01
-3.888693793571943225e+00 -2.560101547471926864e-01 1.357819846556468590e+01
-1.192706023817302396e+00 5.254419219267743024e-01 1.421197759877157907e+01
-3.735692148373216614e+00 -9.818151503859029461e-02 1.320580055253363483e+01
-3.810668562409165183e+00 -4.560421753191388206e+00 1.638851181252247713e+01
-3.274937417146162488e+00 -1.236955419636842635e-01 1.316345896470739163e+01
-3.163720657086193655e-01 -1.174179419436187644e-01 1.598395932797199137e+01
-8.150692525564235069e+00 -9.333913650034597609e-01 1.712354625761485849e+01
-7.886966008561873132e+00 8.151269214583933831e-02 1.481445362898176299e+01
-4.314805997935705406e+00 -7.301439773637401487e-01 1.431660082216043506e+01
-4.551493792222005119e+00 -2.066716736769013796e+00 1.525717389772078647e+01
-2.680621459614697777e+00 -7.239473262067375181e-01 1.765412342330636974e+01
-1.908681524947958952e+00 -9.847833794785625372e-01 1.383860100284624295e+01
-3.157895591374316968e+00 -3.122249698311286625e+00 1.742081869717920384e+01
-8.379735522567610673e+00 -2.249125136802277769e+00 1.641848443260493795e+01
-1.601416111151528820e+00 1.487150253033359792e+00 1.489789417746860423e+01
-3.338434823010164365e+00 -2.521305682357349642e+00 1.537065152474974994e+01
-2.918974426842392500e+00 -3.792605896502099228e-01 1.351120830637322356e+01
-4.602036116367478336e+00 2.319559855036655627e+00 1.775008993050705541e+01
-8.083906312146623696e-01 7.784646876992944442e-01 1.763181894345274614e+01
-7.111264962219850716e+00 1.242792895473687764e-02 1.314455397088469724e+01
-1.550563765389905369e+00 -3.360805097426996735e+00 1.529369472243801553e+01
-1.532376544517600525e+00 -1.572921294892557054e+00 1.410106685105064983e+01
-1.048686691550022143e+00 6.146442508589931020e-01 1.778736075075051914e+01
-5.270993506049054034e+00 -3.282368179705112965e-01 1.376635849396366140e+01
-2.347018543386110156e+00 -3.810174819540157021e+00 1.578472389284158695e+01
-1.278049177596132902e+00 3.632259139247504542e-01 1.781264120684918240e+01
-1.365835588987089677e+00 5.100510921258014641e-01 1.366759255563677655e+01
-4.263794622124631672e+00 2.977402493197600641e-01 1.774217840244168443e+01
-5.335540775994233265e+00 3.585619486963402380e+00 1.658461056322925842e+01
-3.365902339785151742e+00 1.967245645505310003e+00 1.111835881492298839e+01
-5.613139754716512719e+00 2.701884550348281344e+00 1.423269998485406873e+01
-2.776884552779430027e-01 -2.331000884278961127e+00 1.499153850547150668e+01
-2.633860708771473824e+00 1.013570281088123748e+00 1.161682671784707921e+01
-1.148057485194407201e+00 -7.788845743804397870e-01 1.355364090824176415e+01
-5.896346126790719566e+00 -1.824216831432905472e-01 1.336922572252341368e+01
-3.778766500216924396e+00 2.649466015002481356e+00 1.277595009042223140e+01
-1.512804112532926570e+00 -5.407914742395742991e-01 1.332656069514780128e+01
-6.834884110649454669e+00 -2.675851400500639521e-01 1.793757999706469164e+01
-7.174826452402728094e+00 1.757079516599035163e+00 1.577869738621580709e+01
-4.660479541277376292e+00 3.111313176609724618e-01 1.772041953265948777e+01
-6.655191395463565307e+00 1.415545763014409708e-01 1.791579102255790090e+01
-2.186542006115356873e+00 1.357979822374363099e+00 1.268955100119422141e+01
-5.705702561475052725e+00 -1.833411443848541822e+00 1.762341751782164678e+01
-5.949325024424196862e+00 2.922533998550107981e+00 1.763292153959928399e+01
-2.327741322122164114e+00 2.204902931659451504e-01 1.243157587703182188e+01
-8.857905467221147133e-02 -8.986398194246416615e-01 1.608895536078089705e+01
-3.810454212415918196e+00 2.627869741394325498e+00 1.262720101983244447e+01
-7.935064116599647999e-02 -1.104611290852141714e+00 1.628921601454214496e+01
-1.724888368452194287e+00 -1.269212760035682841e+00 1.398848164457438159e+01
-1.464472084824345544e+00 2.016474843103599035e+00 1.717210655357862592e+01
-6.843185412270342383e+00 7.373391598208951514e-01 1.788203998527685812e+01
-3.713653667235113254e+00 -7.538745925685419458e-01 1.429917169277998212e+01
-7.159819649867873892e+00 7.312477295801707022e-01 1.780757011797313183e+01
-5.352484363058751526e+00 2.581831771071088077e+00 1.774036448399914789e+01
-5.008044317279620294e+00 3.059081152361775580e-01 1.248121814307212318e+01
-1.375058774834233555e+00 1.130760067590827589e+00 1.486406490846519901e+01
-5.176314037383669131e+00 3.394057127727763579e+00 1.551723565697681906e+01
-7.938930721388342882e+00 -1.077671827308957386e+00 1.449857837529533455e+01
-7.804785909213752149e+00 1.082591827646349980e+00 1.691371114836193712e+01
-3.718778457840800744e+00 -1.202207523025565550e+00 1.471291483747822681e+01
-2.040626782339858725e+00 2.421018203650450840e+00 1.582594151874524968e+01
-6.701922750979704801e+00 4.631075297346625153e-01 1.278867022567608913e+01
-3.444065415191935653e+00 2.629602717892207675e+00 1.309769192150049477e+01
-6.288282425385538943e+00 1.439796467283795955e-01 1.290480394899033811e+01
-8.183158806178017386e+00 -1.560822804044665446e+00 1.507308326931557829e+01
-5.307261915167397426e+00 -2.120787681775069267e-01 1.356184021082244939e+01
-7.548210619021005208e+00 -3.637114434511501404e+00 1.657000405133505083e+01
-7.471556069951320822e+00 -3.731044378201494371e+00 1.621229202971852956e+01
-2.942347894719028023e+00 -4.158115544475997183e+00 1.684631944091072242e+01
-2.185353444023850233e+00 1.839788406508337859e+00 1.391074750993729836e+01
-5.089658341231069194e+00 -3.952448733828504146e-01 1.389943510459924525e+01
-5.771498420109617555e+00 -1.391546992500467095e+00 1.484949221972380329e+01
-4.103784694677038658e+00 -1.419746409006879428e+00 1.487939545294995369e+01
-2.087181166669092036e+00 2.758167880956892581e+00 1.732940172691539615e+01
-3.670295225110218773e+00 -1.549016298038972117e-01 1.335170754272229843e+01
-6.418541253572859873e+00 -8.075808066932088636e-02 1.788098323996699079e+01
-5.738910634878346073e+00 1.367735126578790261e+00 1.184208329695905704e+01
-3.518454802625928135e+00 -2.133922761172688531e-01 1.347647204137495081e+01
-8.385914526647205491e+00 -2.644335892127650300e+00 1.618276898801559227e+01
-6.132386724055888472e+00 -1.589915683451392781e+00 1.484647030061364958e+01
-8.476154534000709617e+00 -2.373398825525832923e+00 1.595411841835335665e+01
-3.280810508024627925e+00 -2.791012064342361931e-01 1.351597835553538474e+01
-3.101831710994412017e+00 -4.396008808580473826e-01 1.372364585048004315e+01
-3.792335400396049661e+00 -4.321979240662834343e+00 1.687719749152368465e+01
-8.311819064724971895e+00 -2.674884179300523801e+00 1.639740775077416757e+01
-9.091280118964072399e-01 -7.906978328184113280e-01 1.781106202781166914e+01
-2.883594086025639047e+00 -6.134301750415418475e-01 1.390333320759453173e+01
-7.398901842500373860e-01 5.052057962147824544e-01 1.586198379812423198e+01
-9.326672298152541840e-01 -1.138180947384443975e-01 1.397051822073203553e+01
-2.375562674241742389e+00 2.366973927047308468e+00 1.478540262788635928e+01
-1.850994485760389718e+00 -4.351241168834866002e+00 1.646883146752692184e+01
-2.096232800664342033e+00 -8.002819701629504401e-01 1.372486463774192700e+01
-6.151327126698568293e+00 3.080294493963751101e+00 1.649093741334232632e+01
-5.372242194736637444e+00 2.959666678702651321e+00 1.451190509217072488e+01
-5.585366543291856445e+00 -4.202697194951781512e+00 1.681036669570724129e+01
-6.764915102861428053e+00 -3.571019223919182917e+00 1.700742726180414266e+01
-4.827959426827485245e+00 1.495453560023987549e+00 1.773958510932188304e+01
-1.690055319466020167e+00 -3.698971684412297734e-01 1.313155264964813185e+01
-4.420419562432383209e+00 2.470297547782526859e+00 1.222694322046631399e+01
-2.857587347564686908e+00 7.486825790393583091e-01 1.179131506500946003e+01
-1.650810055380850905e+00 -1.434428820958486561e-01 1.295054974505791634e+01
-2.646074970796026271e+00 2.950065431207552269e+00 1.593150667361409845e+01
-3.191429039371136867e+00 3.156989169460639566e+00 1.546468209105409031e+01
-6.922655210683193339e+00 -6.079383341653108452e-01 1.356223677183660570e+01
-4.186017381123872561e+00 2.759161781810290037e+00 1.303041554240936151e+01
-1.376485733159314329e+00 1.672708802606042156e-01 1.322315307117056804e+01
-2.336085731943799093e+00 -1.281542722449549920e+00 1.437929661141539484e+01
-8.308946929437708295e-01 2.002886236290173372e-01 1.779863516855356309e+01
-1.533248803304311236e+00 -3.387917453791251088e+00 1.713958996120925704e+01
-6.672339860168785108e+00 -5.955470242598654984e-01 1.789982022746319856e+01
-6.828160374269454991e+00 3.431416366635229309e-01 1.791787570381254469e+01
-2.466246472884170426e+00 -2.056983421069702889e+00 1.505153972514168359e+01
-7.374856760690725821e+00 7.152839909881070213e-01 1.768907745603496195e+01
-7.985443358149439064e+00 7.031024012760795916e-01 1.688729985132544797e+01
-1.991612350992111979e+00 -3.724141344221393535e+00 1.700558962932389662e+01
-5.941184760924237196e+00 2.353095747868031662e+00 1.778495062820115535e+01
-7.904571721124223238e+00 9.087131315121677044e-01 1.685193278351630752e+01
-6.085857115131466877e+00 3.198932240710313124e+00 1.671924749618898787e+01
-6.763772610219059622e+00 -1.398370744890662376e+00 1.412161022813619482e+01
-6.347985012553259310e+00 -2.577021211441871795e+00 1.543520130228494125e+01
-8.023723025133932651e+00 7.110179331925763346e-01 1.667449658702417636e+01
