-8.224083409331928607e+00 -3.806559942700930566e-01 1.673687775975281156e+01
-8.065121426440061470e+00 -1.827805392413224539e-01 1.614728867967552262e+01
-3.584054673772581801e+00 1.195114239550048474e+00 1.233210700484091760e+01
-4.906800791858335842e+00 -4.805662358185017191e-01 1.978737369477325458e+01
-2.174889156880317920e+00 -3.723543174849772264e+00 1.980388519917303469e+01
-5.081312819267743919e+00 -5.277072185430303763e-01 1.976139356230937594e+01
-5.089114087038801415e+00 -3.245525444413489558e-01 1.975539541484568318e+01
-3.184685451882631302e+00 3.579813727837296788e+00 1.490121336281706377e+01
-5.671072753753941598e+00 -9.706983282118641920e-02 1.962860438971183541e+01
-6.049969321812911360e+00 -1.026674254392542229e-01 1.951744893450262808e+01
-5.789057553814529911e+00 -2.748429052712293874e+00 1.958890036452251948e+01
-6.296051819720958953e+00 -6.013669529948478809e-02 1.943607958536228963e+01
-8.149764610114768715e+00 3.541340209871844946e-01 1.711505337530378412e+01
-6.444634026249816294e+00 4.891158620244265842e-01 1.934402032401346005e+01
-6.489453074769156338e+00 7.118527268278661557e-01 1.930709529335087993e+01
-3.401629291999818783e+00 3.811502187183384738e+00 1.509161249933489657e+01
-6.663097473592681119e+00 7.435500286909128009e-01 1.924153355267334931e+01
-8.243489025633326861e+00 -5.873994551684089682e-01 1.673861236080986359e+01
-3.820990483454151043e+00 9.050344157060882244e-01 1.245968576112454329e+01
-3.816631901821699202e+00 8.010046439307066946e-01 1.253785145702820003e+01
-5.303883542184131272e-01 -2.122578695322665077e+00 1.774654552110717631e+01
-6.104021513612451599e+00 -2.792981750974992128e-01 1.950721898074945315e+01
-6.866214336535301221e+00 7.018609670669878620e-01 1.916922906583882380e+01
-8.397360803339093849e+00 -1.202082864853910138e+00 1.751131419282979707e+01
-8.406158099616206414e+00 -1.420683986417708322e+00 1.771628948623127897e+01
-2.345643238924644436e+00 2.191767960387491776e+00 1.407249972275116434e+01
-4.388022743888619459e+00 6.396307364416994323e-01 1.255449695924927411e+01
-3.601865945236553568e+00 4.991124685594605648e-01 1.285115117406337859e+01
-3.582778637392676213e+00 6.260402759984254883e-01 1.274230517149854691e+01
-4.163535250866350346e+00 4.535615640717211017e-01 1.274200030225416569e+01
-5.032899120660830894e-01 -3.273745018333284462e-01 1.821155322420765188e+01
-8.391110342414403789e+00 -1.596003704517064747e+00 1.712339497362633622e+01
-6.571031564459064001e+00 -2.235052046782639135e+00 1.938936742372402122e+01
-6.645278640608946574e+00 1.052146884535511084e+00 1.374173633432144825e+01
-4.433663842337202676e-01 -9.262786548635566497e-01 1.801056896913108218e+01
-4.702967569514429513e+00 -2.318163583722733456e+00 1.979357761032355612e+01
-1.187225901576819620e+00 -1.895303440558763430e+00 1.634818588208336010e+01
-6.301951013523539480e+00 -2.496767061153029488e+00 1.946614413582351588e+01
-7.005762323872487540e-01 -1.306922393420906214e+00 1.742764758746069376e+01
-5.899252695008379455e+00 -2.489100831364182920e+00 1.956847642058273706e+01
-1.377487276616775613e+00 -1.403706407174335924e+00 1.592289907489043443e+01
-6.705781702189396398e+00 -2.465021693583548945e+00 1.936041210310128591e+01
-8.193118034752561840e+00 -2.957413420017743100e+00 1.674545471523338946e+01
-4.404784569336356093e+00 -4.175425030059127796e-01 1.392921947113963554e+01
-3.246358704848053112e+00 -5.133940096380441576e-01 1.420158239549776980e+01
-3.876986776167484217e-01 -1.313024067788669313e+00 1.818971684468006700e+01
-4.718429648556041300e+00 -2.714131676265630677e+00 1.978469035482462246e+01
-4.903309273307070448e+00 -2.536876461903432745e+00 1.976483192037849435e+01
-5.653900806032442716e+00 -2.661441266178928178e+00 1.962103451653698372e+01
-4.622389273387515374e+00 -5.471705439351620681e-01 1.415010182003568318e+01
-4.425598800281963285e+00 -5.394494759124630612e-01 1.418694521167063627e+01
-5.309503316917838056e+00 -2.909150406968680436e+00 1.969273437279728611e+01
-5.519372242080968327e+00 -3.292659101857370985e+00 1.963142276773542605e+01
-8.141258240516027200e+00 -3.424276398285528433e+00 1.844969581910613599e+01
-6.303874375051649714e+00 2.756940592638703613e+00 1.462020603367829708e+01
-5.009269584493733163e+00 -7.195858196731783618e-01 1.435550898105161011e+01
-4.844710950367215219e+00 -7.048765462289332540e-01 1.439033032415077784e+01
-2.816873592249517610e+00 2.819802899206709679e+00 1.326351368516978724e+01
-4.447318510799904701e+00 -7.278994438572331527e-01 1.457523337302663080e+01
-4.655323631744377799e+00 -8.393501433874226425e-01 1.472296453949288875e+01
-3.038740724925504288e+00 -9.461310106886224869e-01 1.482096174092450624e+01
-5.095692251772020676e+00 -3.298389711886937636e+00 1.971793052365744003e+01
-4.862893004317229817e+00 -9.016227039461294224e-01 1.476475799359750951e+01
-3.445371684650015975e-01 -2.327396298093738825e+00 1.833280323488685681e+01
-7.554870183234239533e+00 2.486807039235132688e-01 1.480088345081071211e+01
-4.086088732268750690e+00 -1.899092620526117603e+00 1.667035656445530023e+01
-7.593512012299432179e+00 -1.557539787131638320e+00 1.554187429403123488e+01
-7.309142863458923500e+00 -1.996797901333111191e+00 1.545597777750970536e+01
-8.118900148851643905e+00 -3.184832569812805492e+00 1.667555281935299050e+01
-7.488829004703004166e+00 -2.005833045175890561e+00 1.563629264073727754e+01
-4.585410761131550328e-01 -3.889469891921685019e+00 1.808124477935164620e+01
-6.384670771456883998e+00 4.309093360225059399e+00 1.751812807038638553e+01
-8.014869584499161093e+00 -3.199237261932896814e+00 1.648577513796059790e+01
-3.324253436738719980e+00 4.047030932114080493e+00 1.632534123966002326e+01
-7.646114739877245547e+00 -2.200822522833391748e+00 1.587214908434966176e+01
-5.071004958492433268e-01 -3.908360740086377128e+00 1.791250809583273806e+01
-2.195631853738145622e+00 2.560515794051905658e+00 1.563959837675243492e+01
-3.757891922859434075e+00 3.486248948235657341e-01 1.989782404265929117e+01
-5.872723859995040430e-01 -4.278572002902892635e+00 1.777902012833466827e+01
-6.610672469256813066e+00 -3.260889878889261517e+00 1.645140163589718085e+01
-6.629469167136591068e+00 2.863044043467822153e+00 1.541254120214113144e+01
-3.527568789328186849e+00 -3.883560832964958465e+00 1.801921710428095835e+01
-3.275909308460788427e+00 -3.917105793506662881e+00 1.800715048575169064e+01
-5.668980816805429868e+00 -4.468546400864878088e+00 1.797392002762361685e+01
-6.689337689982888246e-01 -4.102035271932276572e+00 1.751466216591379421e+01
-8.046251521089384795e+00 -2.806949570661789295e+00 1.650556904451103790e+01
-8.143712277847821923e+00 -2.199079772566126856e+00 1.661622414513720614e+01
-1.696544417980984987e+00 6.523692089833711405e-01 1.410283707063866032e+01
-7.799666541626437244e+00 -2.336894484483605261e+00 1.611371818450126270e+01
-7.886720989473348986e+00 -2.394279462122297808e+00 1.625598259830515602e+01
-8.035541543208145399e+00 -1.587312205733547810e+00 1.632693552057279263e+01
-8.097675592826849567e+00 -1.769758590237562323e+00 1.646293802167122422e+01
-7.776973069342824729e+00 -1.712965634019935734e+00 1.591036570031409170e+01
-2.207744364842918916e+00 -1.210597998602095937e-01 1.989614987562373827e+01
-7.824604094378028840e+00 -1.945743733984890866e+00 1.608102926298810686e+01
-7.992965743911362608e+00 -2.003071287865537009e+00 1.634394339129574192e+01
-7.737941324457641379e+00 -1.205607064804602002e+00 1.567147425301807928e+01
-7.875468272630876676e+00 -7.594032584311598555e-01 1.576227319989940767e+01
-7.885076436273680045e+00 -5.762782527940424337e-01 1.572903214635001135e+01
-1.905355628116850664e+00 1.032982687616651685e+00 1.488440235214219953e+01
-7.809315917960828912e+00 -5.510001081576441084e-01 1.556889008903164395e+01
-7.562415833961532385e+00 -3.809711424449735429e-01 1.499036289648969600e+01
-7.687151499314098579e+00 -5.595543634971599234e-01 1.533038220889013203e+01
-4.170778592986519762e+00 3.316750800770551066e+00 1.267081800221644627e+01
-7.608934384468107659e+00 6.302463965394410339e-01 1.500092492390750820e+01
-7.596032350616910733e+00 8.660246003245305468e-01 1.515874100577221739e+01
-1.617161658828223381e+00 2.878933971371276268e+00 1.829967085733123966e+01
-7.561985670156803785e+00 8.093042860886415779e-01 1.502382794677406608e+01
-3.242108427714894159e+00 3.373750315957279700e+00 1.370175279029222182e+01
-7.547023237123787531e+00 1.163933527071938201e+00 1.542145349399798349e+01
-6.809058815143882448e+00 1.076925728785654623e+00 1.399016327105216462e+01
-5.184120791922955718e+00 4.787550500333371595e+00 1.768507486029107767e+01
-7.195591698470220621e+00 1.036742841793143466e+00 1.457561560670019318e+01
-7.098907016503265055e+00 1.106597160416033621e+00 1.448855213229641592e+01
-7.553997641266324337e+00 1.806648691978523402e+00 1.620516974722378833e+01
-7.413270181324177699e+00 1.609773342326514367e+00 1.562027315607592115e+01
-7.485511988391336580e+00 1.801061185509203799e+00 1.600182743862876222e+01
-7.400423005377606778e+00 1.400237123720430521e+00 1.538306451534284136e+01
-7.137381732734498385e+00 1.211171626026154691e+00 1.463769942637631161e+01
-6.844542517747997934e+00 1.274156488741020166e+00 1.416971357691892663e+01
-6.533991757669860512e+00 1.291663099855722585e+00 1.364272541130138094e+01
-5.947071196439712715e+00 1.699010848697707576e+00 1.281888858436768786e+01
-6.063416035048062369e+00 1.470431387938520018e+00 1.296562311740833096e+01
-6.625703086427731314e+00 1.276971894594315149e+00 1.378591549203784794e+01
-7.061015580515351608e+00 1.279831038373886454e+00 1.457499305566202352e+01
-6.893855254131650234e+00 1.333635078298766707e+00 1.431725803938976682e+01
-7.387509317365262618e+00 2.039238913439246126e+00 1.599285679337854660e+01
-7.414084994737876855e+00 1.804901064586281301e+00 1.581578404869805254e+01
-7.271124987688192043e+00 1.860819512140992948e+00 1.557392486064171422e+01
-6.934813239596202550e+00 1.402535069686797087e+00 1.446029920209528896e+01
-7.148638516204703031e+00 1.581074167440899014e+00 1.505405026791976653e+01
-7.269019285018186949e+00 1.649464883243455304e+00 1.535618388708110515e+01
-7.432985362084475689e+00 2.606179781880751722e+00 1.680208927087832294e+01
-7.137030571318361716e+00 3.369974884218683631e+00 1.705531523246474634e+01
-5.489909394870004178e+00 3.002292153762492255e+00 1.370773559916350237e+01
-7.237660801996298687e+00 3.172400997953257029e+00 1.703475322889905286e+01
-4.885552790448162597e+00 3.728022458948383910e+00 1.474601267222542234e+01
-4.977246241168104213e+00 3.430222983673620440e+00 1.405486034089522818e+01
-2.693164474876866166e+00 2.680263534643156476e+00 1.343213922798906523e+01
-4.903444860152993634e+00 3.019868592677926955e+00 1.291003640294388433e+01
-6.445456370294373460e-01 -3.914973394512405225e+00 1.750829001123548423e+01
-8.410904090518096510e-01 -3.297836935754146825e+00 1.691173044444036222e+01
-7.077027404079620609e+00 1.653660914695875839e+00 1.499148648126420724e+01
-6.268321840865517025e+00 1.684352678275558457e+00 1.339364855579776403e+01
-6.530020797074805650e+00 1.598925452239232659e+00 1.384150037176434367e+01
-7.694645958042670708e-01 5.510331896404534469e-01 1.777088456260011284e+01
-5.866110064292112902e+00 1.897280091418594328e+00 1.275258667825046999e+01
-6.057492474587641063e+00 1.664688476937287387e+00 1.298422905094053093e+01
-6.163930189558846529e+00 1.722709674788173828e+00 1.321222030522408275e+01
-7.139503072821266727e+00 2.368037073497666789e+00 1.585074705816218810e+01
-6.575835980569922690e+00 1.652154127541638928e+00 1.398528858340020165e+01
-6.774741870893179474e+00 1.870855186806556603e+00 1.460249216322905497e+01
-6.528139301999797084e+00 1.817950379175266029e+00 1.403901940761051392e+01
-7.057659808604721974e+00 2.276476660898449023e+00 1.559177621651292256e+01
-6.976829321709681508e+00 2.252439059958704970e+00 1.540285955290574194e+01
-7.071651280078783408e+00 2.628573646724118085e+00 1.599972506433865860e+01
-7.039602158361250694e+00 2.852265053036594278e+00 1.618600342822868399e+01
-1.090831523867238806e+00 1.593752694603240982e-01 1.501882263673160267e+01
-6.320551216960225815e+00 1.886616072886710960e+00 1.365083421906748029e+01
-6.672168020497758256e+00 2.059002612842014912e+00 1.457080615981705662e+01
-6.785920974610307077e+00 2.457833804134093914e+00 1.522769373691114581e+01
-6.412693304876878386e+00 2.062838942590482283e+00 1.400539628136447234e+01
-7.644321743150481741e-01 8.921250316240013634e-01 1.797141061293455166e+01
-6.858926952835535218e+00 2.656336658700777953e+00 1.560436054292427244e+01
-1.960766715385449332e+00 2.182175618033585618e+00 1.547818658911527834e+01
-6.964696937999499404e+00 3.017568223888474677e+00 1.623470093038816131e+01
-6.853464474786898464e+00 3.824950039335142105e+00 1.721533585321423843e+01
-2.391145264458952813e+00 1.223355009090648871e+00 1.364636378059452326e+01
-7.023052351759830891e+00 3.401009899627002397e+00 1.685824275643148340e+01
-6.626476497461377235e+00 4.242075573423026214e+00 1.762089672448941613e+01
-6.877434364980581805e+00 3.254784303490942499e+00 1.637628960460898142e+01
-6.729933091883388840e+00 2.589930886393979836e+00 1.525826732384847517e+01
-6.230573996757573063e+00 2.288561668930857884e+00 1.381874899862449624e+01
-5.962619590866051311e+00 2.273268798064961072e+00 1.322107434647765345e+01
-7.496561095621805393e-01 -3.453213907696674134e+00 1.697020327288472785e+01
-6.661678358199331740e+00 2.678120462917596090e+00 1.521671110148146866e+01
-6.807885501372356707e+00 3.227122287725431082e+00 1.622621976215140549e+01
-6.780139980486711515e+00 3.933050959872169461e+00 1.727330114905980807e+01
-6.593184692741125730e+00 4.041732663163622341e+00 1.725442525574656472e+01
-7.258408070978417115e-01 -2.278891181489959283e+00 1.737140140415348455e+01
-6.191191646747136623e+00 4.367336732646031727e+00 1.747585967402499918e+01
-4.561200554369549742e+00 3.777677702172210328e+00 1.448375389436604266e+01
-6.569642693574149206e+00 3.553684322288511943e+00 1.646775443087033963e+01
-6.391242840621469412e+00 2.654688832444014324e+00 1.464188369301411896e+01
-6.455297767523359376e+00 2.894988573211244809e+00 1.515515078875737842e+01
-6.161106769194845789e+00 2.437242763768824982e+00 1.383811396156713514e+01
-6.329685827897236550e+00 2.606503398540798155e+00 1.444124192262180983e+01
-6.346089008401941456e+00 4.104043556600297293e+00 1.716267075191728608e+01
-6.387274506439952759e+00 3.766152954458191093e+00 1.664719946587009147e+01
-6.431760656897689721e+00 3.268049868767718635e+00 1.579796733653288143e+01
-6.363861323365155087e+00 3.582513923154335700e+00 1.629142763945415240e+01
-6.251621493769198068e+00 2.713875745484441993e+00 1.444118783301564335e+01
-3.102450392147912517e+00 3.304334331177284145e+00 1.404957933892426425e+01
-5.952839549120191087e+00 2.640071925036553413e+00 1.364528658875630995e+01
-1.861943038087303215e+00 3.280703991227353011e+00 1.847283359681400228e+01
-4.981057816750229073e+00 3.046480382217412242e+00 1.308383721452920767e+01
-1.793017143345869036e+00 3.103702771562864005e+00 1.830645721496837908e+01
-5.800824366725847447e+00 4.765951021572212731e+00 1.788895092215052429e+01
-5.989954231999303325e+00 4.581523374150024530e+00 1.769424956285822148e+01
-5.791908558374672999e+00 4.616521280533588900e+00 1.765419087534879949e+01
-5.784564242368354314e+00 4.524054765636192244e+00 1.749866703979263249e+01
-5.969408825174971511e+00 4.139530497124108699e+00 1.693813522957762885e+01
-5.960283448541866314e+00 4.351658837297087246e+00 1.731192208646647046e+01
-6.272509079077839722e+00 3.487818268722906012e+00 1.599148778102080470e+01
-6.202820711352915239e+00 3.572804332959332640e+00 1.606715825190713431e+01
-6.024399589992341042e+00 2.864648354301312594e+00 1.424491035692094343e+01
-5.563836731068995789e+00 2.634369311990305107e+00 1.284256131067774831e+01
-5.196493348874931861e+00 2.652024253377090801e+00 1.226609885523260957e+01
-4.413313081685738659e+00 4.454568127830996538e+00 1.625286691424907914e+01
-4.928552488557855327e+00 2.819185146908100847e+00 1.228439565762393570e+01
-4.960110217399222421e+00 2.853221102031854084e+00 1.246800347554563970e+01
-5.617732044824849780e+00 2.750813163989612065e+00 1.321509399269334395e+01
-5.974936946336272037e+00 3.192867907114619097e+00 1.487652447385780974e+01
-5.987846449742332489e+00 3.258882051306944305e+00 1.504241675993754157e+01
-5.951836266470098558e+00 3.947834953103452893e+00 1.652287777841067751e+01
-5.803131068838355056e+00 4.386234502104240818e+00 1.727026218171010541e+01
-5.847244810711434759e+00 4.248950684641637388e+00 1.704412201193131793e+01
-5.581224806595256993e+00 2.934136897472122030e+00 1.368123855807390399e+01
-5.822933539553518223e+00 3.096348809935570490e+00 1.442292064002913676e+01
-5.799190364544142717e+00 3.935601041822192503e+00 1.630609513321793358e+01
-5.784750576432348801e+00 4.197598036949147904e+00 1.687480245014493718e+01
-4.781824271771716539e+00 2.927314018792513739e+00 1.245798661310599087e+01
-4.991855713978949893e+00 2.943847803925319528e+00 1.283671130248077574e+01
-5.240821233196881757e+00 2.942485924769317140e+00 1.319904011244999609e+01
-5.572027034585087080e+00 3.018530492891699168e+00 1.386754245638376304e+01
-5.164507896678316889e+00 3.013372367218248193e+00 1.326210770386827065e+01
-3.257573595488442386e+00 3.347682713225351048e+00 1.350146058199630872e+01
-5.582369866540862091e+00 4.195193277582702329e+00 1.667702074650718558e+01
-5.427326126620169333e+00 3.103838416866431693e+00 1.385383576091775026e+01
-5.337901523089934486e+00 2.997743777537636767e+00 1.347471478736488493e+01
-5.582454634173017460e+00 3.185730244136567801e+00 1.426860726565936588e+01
-5.216626348010436232e+00 3.122466346190543529e+00 1.359609281819095017e+01
-5.637848023659401520e+00 3.487446251219677773e+00 1.505271725757795664e+01
-5.568746841359724087e+00 3.374235691217030819e+00 1.469076418814894325e+01
-5.354938286432957106e+00 3.400844100899919731e+00 1.446754592119561877e+01
-4.981274873642164813e+00 3.119155065443425023e+00 1.326047441696085016e+01
-5.622656561413412746e+00 3.832648130653857788e+00 1.587021701753576153e+01
-4.585346972227084095e+00 4.977141473337308497e+00 1.808067175382928227e+01
-5.170430000133052317e+00 4.691803176582425294e+00 1.750790382867213779e+01
-4.985605353554309893e+00 4.858146701779769927e+00 1.778469139775866736e+01
-5.411158568520656686e+00 4.423398427736392691e+00 1.706076239851827481e+01
-4.997823899756999033e+00 4.705001993771253055e+00 1.749930417653851222e+01
-5.166390912670851598e+00 4.408518396234796910e+00 1.689734095723934715e+01
-1.115009436684871513e+00 3.596207929757121446e-01 1.667791737793394802e+01
-5.020018555761256884e+00 3.322781571487393393e+00 1.382550737329592394e+01
-4.608055617691992012e+00 3.155240806469092885e+00 1.283575798400051937e+01
-4.987245397927101642e+00 4.543625359766248373e+00 1.710525092860801166e+01
-4.601619180321495861e+00 4.907270926366740227e+00 1.791486390559596131e+01
-5.122476055910357040e+00 3.375922368167921128e+00 1.409888490085009138e+01
-5.170178166592080515e+00 4.168955717338304723e+00 1.628515528257884526e+01
-5.099496739959417546e+00 3.555936767154378231e+00 1.454596730971192997e+01
-5.149804015311489458e+00 3.739449611228114367e+00 1.510290387108073773e+01
-4.978596429463155282e+00 3.661866370490643785e+00 1.468173698190438259e+01
-4.604932737872709403e+00 3.309428678668404178e+00 1.323700044133726195e+01
-4.353120557359583032e+00 3.229175704137895675e+00 1.267594338162070144e+01
-4.559603791969784936e+00 3.269079843991145484e+00 1.306845043022363129e+01
-3.975609455118240820e+00 3.141012778013010376e+00 1.208729698140274067e+01
-4.520021169725068511e+00 3.383950735623743267e+00 1.332500494775687727e+01
-2.044306885662904527e+00 2.522134224949331038e+00 1.627030800220678586e+01
-4.424691205051351162e+00 3.901307570562429827e+00 1.467062333624044967e+01
-4.770268836239489829e+00 4.261594011403528448e+00 1.611045497494638212e+01
-4.795435402893757804e+00 3.748897302083461280e+00 1.469175783388893208e+01
-4.579630255753526669e+00 3.629867677230421474e+00 1.408713781109998209e+01
-4.607937578204539086e+00 4.533280606347335429e+00 1.670392609260995087e+01
-3.415419740934879655e+00 4.666963675849844506e+00 1.833874296985074537e+01
-4.580926949819907001e+00 3.831687266597298969e+00 1.466219238538069547e+01
-4.535731121394822374e+00 3.578506395659161399e+00 1.388650737490220521e+01
-4.762563301690855511e+00 4.338039026866128189e+00 1.631867559114080635e+01
-4.587129011617420815e+00 4.044848400632685248e+00 1.528012149119033936e+01
-2.641424832097123421e+00 2.587489175709971168e+00 1.346074393856660478e+01
-3.161375825330339673e+00 3.288477300045967056e+00 1.368693023826368815e+01
-4.164498815488808958e+00 3.520251812040586792e+00 1.325274467813985169e+01
-4.403797829250883922e+00 4.811218066387973558e+00 1.729792365296509260e+01
-4.497663916960867425e+00 4.114637481824938270e+00 1.537388701960732007e+01
-4.081311225229821815e+00 3.386789930413615757e+00 1.275423260358586575e+01
-4.393717955605667136e+00 4.630847559581042105e+00 1.673918227707994433e+01
-1.287100431713525284e+00 -1.832200719088358798e-01 1.487359594131160989e+01
-7.802108755464983725e-01 6.997670509937695682e-01 1.784147406500539645e+01
-3.966867395310049171e-01 -3.541877178493163303e+00 1.816697387388985518e+01
-3.733906009898100287e-01 -3.090048939738402112e+00 1.811886610303919909e+01
-3.621620534030177141e-01 -2.913685586419758167e+00 1.813054440587650973e+01
-3.767234953644584383e+00 4.530948940503161104e+00 1.691787804656680905e+01
-3.477488612737021922e-01 -2.130459759762214134e+00 1.817309153111357389e+01
-4.347287045579402154e+00 4.663228005350799066e+00 1.677686277628856359e+01
-4.110188806592718791e+00 3.567476338761308430e+00 1.332250137393043943e+01
-4.191854858394120420e+00 4.824031837705464731e+00 1.730101345679894465e+01
-2.477948949788884025e+00 2.335079322884409780e+00 1.374014257671335670e+01
-2.221911586654321091e+00 3.684140044295944438e+00 1.851277459140641568e+01
-9.682665008502717718e-01 9.149627972953829902e-01 1.744240526299864413e+01
-4.150118004550290784e+00 3.878517846439404781e+00 1.429296968644208121e+01
-4.170915865776354536e+00 4.647998878213559060e+00 1.668876824823213312e+01
-3.048466272435559343e+00 3.347946446333479820e+00 1.451257745939640742e+01
-3.775727575759256549e+00 3.115800242947093679e+00 1.207099643514925091e+01
-3.782414467343539144e+00 3.308359344370681576e+00 1.246984391226216005e+01
-1.961661565750453917e+00 2.923019062050872030e+00 1.747387480283309813e+01
-3.963877328552546597e+00 3.544904952791052999e+00 1.320651641634593787e+01
-3.993784965365936745e+00 3.826543324316589167e+00 1.408497089858790119e+01
-3.583527233600495521e+00 3.393674018393419534e+00 1.289999997679773358e+01
-3.977800161414827507e+00 4.030737695188309822e+00 1.472600682995798493e+01
-3.952407923958651814e+00 4.259782223780705479e+00 1.549369064545384944e+01
-4.179379644687219120e+00 4.761572394336865521e+00 1.709670031922130917e+01
-4.177487479756506694e+00 4.922047820039529675e+00 1.772113895684256235e+01
-4.044520862280167606e+00 4.844292389862471460e+00 1.756773818738039594e+01
-1.216319456058582604e+00 -5.650940632805889763e-02 1.641060885272361602e+01
-3.184143227219647709e+00 3.061766878405305370e+00 1.249999842018854324e+01
-2.861584852209817065e+00 4.230386445731549649e+00 1.833698164431153188e+01
-3.983386020682797568e+00 4.381288102266581497e+00 1.588860907281526735e+01
-4.034453708837371089e+00 4.497252484010161311e+00 1.619512403177082760e+01
-3.575904720245719925e+00 3.608803510239074530e+00 1.368365816903228804e+01
-3.770973133124150944e+00 3.931350638408203313e+00 1.454483816185543432e+01
-7.078707097596815823e-01 -1.098543014641584437e+00 1.741523882763733511e+01
-3.793093292929810012e+00 4.032763074201303866e+00 1.488515516356698853e+01
-3.787812138322114164e-01 -2.360045424236635991e+00 1.804911471340740903e+01
-4.791604723725298443e-01 -3.697910615282014035e+00 1.790138540872513673e+01
-5.696597434128530812e-01 -3.920613285182360297e+00 1.772850418528239302e+01
-4.555446332450008295e-01 -3.319271380086935785e+00 1.791397940971345903e+01
-4.271623247568828163e-01 -3.109522473732801995e+00 1.796615092141798797e+01
-5.236110911278339941e+00 -8.452642292837340143e-01 1.447521049390188708e+01
-3.240141938564639279e+00 4.428389085603627429e+00 1.800065216201758389e+01
-1.425824500524544902e+00 4.232810327890673685e-01 1.446211356404410608e+01
-1.489618417472183820e+00 2.590291482990593197e-01 1.447596814702202650e+01
-1.121459760075395495e+00 -1.019829008878031518e+00 1.545079526536067860e+01
-7.554472105198183352e-01 -2.928308798065662355e+00 1.667111930618363047e+01
-2.773497402047528926e+00 2.851480224410448017e+00 1.365628638483785195e+01
-1.935241571520882831e+00 9.520921981242945753e-01 1.375522632611081875e+01
-1.676039651748916226e+00 -3.454222816436633980e-01 1.466759629730365688e+01
-3.599681369507048423e+00 4.736573864527122701e+00 1.812637797603678180e+01
-3.456339736542662688e+00 4.647477368384615559e+00 1.815098932968470180e+01
-4.021529938979506724e+00 4.720904649293192534e+00 1.711632586527180067e+01
-3.595040938999271685e+00 4.560291130133480308e+00 1.751304633431110958e+01
-3.430818800474408015e+00 4.487947816783305122e+00 1.770228994411533208e+01
-2.642875944542431021e+00 4.034608900428459322e+00 1.831074726511002027e+01
-2.134336648498379230e+00 4.195533583718695780e-01 1.419360641752257735e+01
-3.729003127224771674e+00 4.396709085774977765e+00 1.649204693292392321e+01
-3.818184475731477789e+00 4.520077325170960059e+00 1.674734870038914991e+01
-3.584654584978362646e+00 4.397031770122070249e+00 1.690792171014147627e+01
-2.597725012010315471e+00 3.914150035444876163e+00 1.808265538535385630e+01
-3.832658099964786125e+00 4.317670813113410055e+00 1.590569681044586403e+01
-3.804985095970672582e+00 4.340674039433647380e+00 1.606819936763820422e+01
-3.347801651690092584e+00 4.159778053823917077e+00 1.668547167338060788e+01
-3.533758930320707314e+00 4.211320867698935544e+00 1.630056729479926148e+01
-2.977315416377420476e+00 3.948677011865212361e+00 1.707782665278108070e+01
-3.535432711538867512e+00 4.017453612201980384e+00 1.549502579433968563e+01
-3.347928186533953188e+00 4.009812241933455645e+00 1.610260611087438676e+01
-3.627241438341672009e+00 3.942660097721047752e+00 1.489770179965667651e+01
-2.211573335890486991e+00 3.526307733671070199e+00 1.810218075352496570e+01
-1.827856318238822331e+00 3.082840794565485876e+00 1.808821454442529486e+01
-2.224440357850205441e+00 3.488298524750963914e+00 1.792482583561979581e+01
-6.520150501352706129e+00 2.776026673901043296e+00 1.507570186932634115e+01
-2.181129001592987837e+00 3.401322705131240021e+00 1.783480905514300829e+01
-3.051419751256913226e+00 3.907599295304741371e+00 1.672127336397285191e+01
-2.126190551834795883e+00 1.991198399091436588e+00 1.464866845105255422e+01
-2.634468611437386087e+00 3.668045341711315910e+00 1.727136044666038472e+01
-2.676924056126256612e+00 3.657678039796067093e+00 1.711009967800989173e+01
-2.804063983267863325e+00 3.722138468749509155e+00 1.690411091680624267e+01
-3.051070293972894198e+00 3.855578688757100192e+00 1.654025931159084806e+01
-2.702375714353583813e+00 2.282129307988876921e+00 1.299844361494418976e+01
-1.081086489128123551e+00 1.670228122973981488e+00 1.788223302225678779e+01
-2.454538358362213568e+00 3.492840837439252777e+00 1.731092967747028055e+01
-2.003706627050097389e+00 3.088848610825261964e+00 1.765418880220338949e+01
-1.487911852221784681e+00 2.278705850521262288e+00 1.771940726945625144e+01
-5.781732614653048330e+00 4.436725818389897213e+00 1.861178791723758152e+01
-3.509902472342167457e+00 3.665474378984782344e+00 1.407251232009561548e+01
-2.347109502617572119e+00 3.361337691941181038e+00 1.726716945382139201e+01
-3.084001749440748341e+00 3.722499969940200604e+00 1.591452191231701718e+01
-3.235870065391657224e+00 3.759939937509391594e+00 1.549293771372569850e+01
-2.808855306341144331e+00 3.549139597540840629e+00 1.629253184146446287e+01
-2.680255480820597391e+00 3.476024582109374705e+00 1.652230438508565058e+01
-3.415107439520222776e+00 3.562092720116100786e+00 1.388786232761830419e+01
-3.372556721501522414e+00 3.399574965551643402e+00 1.331131181381464401e+01
-2.663800326605202606e+00 3.316864026706686452e+00 1.610324940758072287e+01
-1.769236084316529123e+00 2.578298171618868206e+00 1.743890862945739073e+01
-1.589865131167052414e+00 2.293582429542958767e+00 1.746964489499727691e+01
-3.320388257260241005e+00 3.662876113925591870e+00 1.472859970427218101e+01
-2.678993280169733815e+00 3.282927582008521750e+00 1.592314702129643322e+01
-2.854682836754091291e+00 3.322091519097437828e+00 1.528474374092929722e+01
-2.451079753608041756e+00 3.104565310257532573e+00 1.629721702293636199e+01
-1.652690869200402313e+00 2.097518223212089250e+00 1.665301655706229056e+01
-2.117715768445719071e+00 2.830519895735090330e+00 1.683635086138165704e+01
-2.142693043170204259e+00 2.804030250101834376e+00 1.667445832074305301e+01
-1.835610864806438647e+00 2.500870483345911666e+00 1.706769919569345362e+01
-2.281642058054197619e+00 2.866300585345957774e+00 1.628911678741431146e+01
-2.755235203221341411e+00 3.197317622335494658e+00 1.528326796426904011e+01
-2.639128555211452731e+00 3.165372299239532783e+00 1.569075284406130422e+01
-2.776791905163713992e+00 3.169849338663175420e+00 1.508725401627770069e+01
-2.214774313291884678e+00 2.768651497674350370e+00 1.628466100115135262e+01
-2.438526616962699567e+00 2.951578149974844578e+00 1.587930552147715346e+01
-1.557272074269467454e+00 2.141360680359218893e+00 1.723878416915375666e+01
-2.453520451272005243e+00 2.908798926637278903e+00 1.567400769360849822e+01
-1.872750283935796789e+00 2.492597599661902752e+00 1.690697926643626303e+01
-2.976906769018398791e+00 3.213591869488253039e+00 1.427670220423714298e+01
-3.065437283534857560e+00 3.156502354974384250e+00 1.350520599156500978e+01
-2.118228433938438737e+00 2.619387260635880565e+00 1.624993345077858820e+01
-2.626504748106598175e+00 2.932917601587400558e+00 1.489902587298052694e+01
-2.535915553310832404e+00 2.814176110836878131e+00 1.486488268764314213e+01
-2.837122927113769233e+00 2.973879359375152909e+00 1.388829260949544775e+01
-1.969554957840686127e+00 2.370864651944948776e+00 1.607261017286218774e+01
-2.697228013422052761e+00 2.877405933983363084e+00 1.423083778120528464e+01
-2.440890211753024008e+00 2.734957531467704150e+00 1.503992004990530162e+01
-1.439710734019305827e+00 1.910969606801039333e+00 1.706120957230033852e+01
-2.916102434858300896e+00 2.907367161420498558e+00 1.306706495735079798e+01
-2.369857454568559341e+00 2.610708180054730931e+00 1.487617607777840689e+01
-2.318197022243013272e+00 2.629378368578142666e+00 1.525685295677543607e+01
-2.921503284722350990e+00 2.874972524757166248e+00 1.288119470145791823e+01
-2.787446979103260336e+00 2.826654226787879587e+00 1.345810855962153951e+01
-2.156688648745048287e+00 2.424992339632578542e+00 1.525596968237843143e+01
-2.665866231032643974e+00 2.753273292107045300e+00 1.381530626313601928e+01
-1.851143805794184694e+00 2.147884221219393819e+00 1.586843860623126901e+01
-2.057670343850481309e+00 2.341320182032261332e+00 1.545460816297514484e+01
-1.089677040121638241e+00 1.516714919321240362e+00 1.763239506265354706e+01
-1.233086660679940660e+00 1.696730847774287732e+00 1.742723249740857128e+01
-2.082719578827941120e+00 2.320297547895626700e+00 1.525977753529053516e+01
-1.396793299520515008e+00 1.754824608971374822e+00 1.688802454024901678e+01
-1.204264653862277656e+00 1.535934460924616385e+00 1.727158458762901105e+01
-1.266489430215570478e+00 1.546991901488149690e+00 1.706449889916664020e+01
-1.168846058746921601e+00 1.380342173913784443e+00 1.721127928758570746e+01
-9.207932264415756851e-01 7.345680128545758469e-01 1.745521942308807795e+01
-1.660108654721209831e+00 1.964255463468773666e+00 1.626454248686709647e+01
-1.123018892445450945e+00 4.726285878562692666e-01 1.669433452076517099e+01
-1.453359101945190357e+00 1.540022165247849628e+00 1.646580680946125952e+01
-1.153906736876146422e+00 1.094396394283506879e+00 1.703451312543206697e+01
-7.818767061739705371e-01 2.822301071193125122e-01 1.757109944597700135e+01
-7.951894378395577556e-01 7.946581585331624620e-02 1.741329616839599126e+01
-9.700053309704885773e-01 5.337536138943181907e-01 1.719198452610377714e+01
-2.474080892108001528e+00 1.473616007335682987e+00 1.346463580828102025e+01
-1.818433346886903612e+00 1.924320452258748482e+00 1.563088930680836697e+01
-1.476288911674096926e+00 1.324294534509873333e+00 1.622267229415342982e+01
-1.767147019459371027e+00 1.770784735946320687e+00 1.565887429043303669e+01
-6.273052082375409899e-01 -9.200432735265030582e-01 1.756893121767522459e+01
-1.250487507922973585e+00 9.091869797551218602e-01 1.660927332267045031e+01
-1.017091673474612268e+00 5.438218866227966242e-01 1.705697167233560307e+01
-9.016355989507309765e-01 3.262880705432217310e-01 1.725113188710990286e+01
-7.789086275628470668e-01 -9.717790621090399705e-02 1.736950347495274727e+01
-2.062650967889298137e+00 1.977806089414709589e+00 1.485926208587629205e+01
-1.263400791678152446e+00 7.208855667306955928e-01 1.643189732613576481e+01
-1.169894169301590070e+00 5.375101961991135546e-01 1.659996896645730757e+01
-2.870072551856828635e+00 3.858237259262550456e+00 1.711863664467930235e+01
-2.372640565115053057e+00 2.414475916424380753e+00 1.426589876842586690e+01
-2.506112145604320052e+00 2.459046210756915762e+00 1.379881634885429875e+01
-2.075611748521544619e+00 1.812473685414826008e+00 1.466713867293342233e+01
-2.586103697847967897e+00 2.446918041083503415e+00 1.347627998542678895e+01
-5.127165122369315986e-01 -9.354865975100672415e-01 1.781493834091643791e+01
-6.455370489442429083e-01 -4.993561029522039507e-01 1.758221258193610836e+01
-3.768229614353926227e+00 4.790369839503544114e+00 1.792789786105893413e+01
-5.646300371118047057e-01 -1.088661579036248828e+00 1.768382401406131876e+01
-6.274366035677273468e-01 -1.123866046213478853e+00 1.756545690467472198e+01
-5.055263238950069571e-01 -1.915600916932999276e+00 1.779302424593827325e+01
-5.656397562608526108e+00 1.522921365466018528e+00 1.250867537183543376e+01
-1.352979346504077807e+00 7.859497147635085001e-01 1.622061879705848142e+01
-6.263801111097492269e-01 -2.090742476235182945e+00 1.756664987852749604e+01
-1.416152544789995193e+00 5.266118557488612684e-01 1.601666425557408857e+01
-1.301706748298427474e+00 3.266768375065300933e-01 1.625506071902814043e+01
-1.537153049235791435e+00 9.903709189278836478e-01 1.581787705561540847e+01
-1.601522850064125869e+00 9.775360828324010098e-01 1.565295658001776857e+01
-1.872315992265546791e+00 1.379406925145480578e+00 1.505617230751922975e+01
-2.322002978470065315e+00 2.035491773639026558e+00 1.403125677640335667e+01
-2.096825294327495648e+00 1.699461603916122332e+00 1.454468750529870036e+01
-1.870268130739854540e+00 1.185075296930117705e+00 1.500705409942711199e+01
-5.539889851076307270e-01 -3.314634362761283537e+00 1.770598377602900442e+01
-2.290639128844356609e+00 3.235359900340972317e+00 1.716866726174432856e+01
-7.289553468802806302e-01 -2.075157486042276567e+00 1.736736715512185114e+01
-9.339396824691953425e-01 -1.498803025599236616e+00 1.695538601947400181e+01
-1.117664105632939719e+00 -8.511524957840683747e-01 1.658232458053096892e+01
-2.767260905629623569e+00 2.458977079654222742e+00 1.287083050478947044e+01
-1.395710673316721051e+00 -5.457379705808579340e-02 1.600280256869205786e+01
-7.407362463268659658e-01 -2.908331591438821917e+00 1.733039420410840492e+01
-1.201111439204450848e+00 -8.780364560277384989e-01 1.639171065574707953e+01
-1.567944657898831862e+00 1.466434982300487411e-01 1.560845305928530635e+01
-1.524647015991288379e+00 -3.570809646020156602e-02 1.569397568201515369e+01
-1.205895094205022833e+00 -1.055250692823822334e+00 1.636859505308551732e+01
-1.928421174078297495e+00 9.449100834917377734e-01 1.480888685022381068e+01
-1.380304400297379885e+00 -6.716659970934786283e-01 1.598325117844563792e+01
-1.563090137274608216e+00 -5.379909453678721754e-02 1.559755014873110568e+01
-2.666089986775611376e+00 2.239466379646020133e+00 1.309531582165005048e+01
-2.521536563461248104e+00 2.023322975353255337e+00 1.343880614089146874e+01
-9.012834430039576850e-01 -8.425811375427902927e-01 1.561686011337488722e+01
-2.333512021412445847e+00 1.615078280790202658e+00 1.385911118825050536e+01
-1.747818633504439001e+00 3.876273882405690818e-01 1.518838294815003209e+01
-9.214109110405206415e-01 -2.266928516777263702e+00 1.695331363457604468e+01
-7.274096050814999881e-01 -3.091489032289131522e+00 1.735438491475443712e+01
-2.083035565167040026e+00 1.203430849710952710e+00 1.444869070543674283e+01
-2.595363488159300847e+00 2.037645872214224330e+00 1.323834758752908769e+01
-2.412591357253564883e+00 1.622151552818886788e+00 1.364787562513673080e+01
-1.814026666962627488e+00 3.781590351824062335e-01 1.501875594905069633e+01
-1.276902707971780959e+00 -1.259220045526792120e+00 1.618324666429341008e+01
-4.250470270579159715e-01 -1.904804152458993816e+00 1.795445678840011183e+01
-1.462147188920368324e+00 -6.552424271106078724e-01 1.578466047073255751e+01
-1.803468785824748677e+00 1.864981263653311405e-01 1.502190532174866533e+01
-7.766536471087173155e+00 2.870569337086308348e-01 1.867138913183457660e+01
-8.290994843646363188e-01 -3.083619625906424577e+00 1.712334992842219705e+01
-1.514602862615360035e+00 -5.197694532855601235e-01 1.566841605077953048e+01
-1.460745418970766707e+00 -8.596088281618805560e-01 1.576823018617367822e+01
-1.570654062943101614e+00 2.695267922482014189e+00 1.806989677074802003e+01
-1.271589113008265493e+00 -1.459435556305796133e+00 1.617892353340308986e+01
-1.629180487526026733e+00 -2.532236541906269789e-01 1.541098276053674354e+01
-1.015283201011210057e+00 -2.459575625261683385e+00 1.672123789780871661e+01
-1.091409219968417776e+00 -2.064563169768027340e+00 1.656720080669686368e+01
-1.883953161048153246e+00 -1.800084130339302257e-02 1.479433800709371027e+01
-1.444328883048568768e+00 -1.059317512521909865e+00 1.578957462672391543e+01
-2.059279586806224138e+00 4.035459736946104270e-01 1.439661050457138813e+01
-2.230973130885462563e+00 8.269950406282763344e-01 1.400829423119464323e+01
-6.606677374223519639e-01 -3.712896802536012508e+00 1.752099145302019068e+01
-1.699129641007513847e+00 -6.327690241160019990e-01 1.519497524837828095e+01
-2.404980723939736720e+00 1.225910304929682670e+00 1.341149773865470607e+01
-1.375116668596949809e+00 -1.669504990319403248e+00 1.590103441721177902e+01
-2.964658696271243787e+00 2.662347740427714271e+00 1.230878957446954658e+01
-1.551589440187752356e+00 -1.126403011834419710e+00 1.551494333378137824e+01
-2.049758499072259710e+00 1.813353160962316579e-01 1.438617214495017649e+01
-8.047199649313048209e-01 -3.433673288623573239e+00 1.711289100665718266e+01
-1.560691280107769030e+00 -1.167659290144901441e+00 1.548645801268306954e+01
-6.742738801772490298e+00 2.771708533802897723e+00 1.549932024677578468e+01
-1.771827685513812645e+00 -6.501177446627146583e-01 1.496657917153346418e+01
-2.524624019972259159e+00 1.454964095999089935e+00 1.323425857520050997e+01
-1.376065047526837892e+00 -1.809966129195786255e+00 1.586234723705044658e+01
-1.952868444588276020e+00 -1.568451300173765994e-01 1.456640896022538456e+01
-2.204821311973919951e+00 6.062709393874851083e-01 1.400600739695156349e+01
-2.650321016244948424e+00 1.841121767560600642e+00 1.304206425930967228e+01
-3.229179646957757832e+00 4.652845055471280133e+00 1.858311551579933152e+01
-2.697444620960942174e+00 4.205803513609277289e+00 1.860961820578217996e+01
-3.524775219641683499e+00 4.370610760429175734e+00 1.899647430237331847e+01
-5.169347788218357387e+00 4.324546217154241035e+00 1.669127324478817442e+01
-4.991651482963823661e+00 5.072982864717386242e+00 1.820649297829583801e+01
-5.415567190478822290e+00 5.043885077703891717e+00 1.819588137315401966e+01
-6.727403643378276676e+00 4.271784709656238910e+00 1.775740591215555853e+01
-5.902544112404300769e+00 4.859621893205544829e+00 1.823618475847841935e+01
-7.292763547505050958e+00 3.253009885828255232e+00 1.736106734307098165e+01
-7.319629644401742574e+00 3.122608177821560194e+00 1.717924420286025011e+01
-5.911767676264920723e+00 3.750187313187593130e+00 1.894393245436314643e+01
-5.948242866473386847e+00 3.671947798992906353e+00 1.897403672739626401e+01
-4.855782561419516696e+00 2.266539981336285425e+00 1.956739273997950690e+01
-4.810116303473910726e+00 2.408469423904551654e+00 1.954828349991491265e+01
-3.771723473281251238e+00 3.015612574273847546e+00 1.183765438440044093e+01
-5.060751635016717209e+00 2.338263223465155249e+00 1.951910360965995395e+01
-6.190254831906239374e+00 2.675179104638147454e+00 1.914859131993766894e+01
-7.726788049894125265e+00 1.630291302388383379e+00 1.819325799246557196e+01
-4.918508613036390642e+00 2.629747755003988274e+00 1.185028288588729239e+01
-4.176045336302068200e+00 2.959864242100344267e+00 1.184787069003460047e+01
-4.387243859593752404e+00 1.658770231948023977e+00 1.973480468165197621e+01
-5.223848443285892706e+00 2.059599402834751736e+00 1.953480613738821248e+01
-5.297547661169174305e+00 2.124194339803936682e+00 1.950751030168080646e+01
-2.698269039619340504e+00 2.575966864971830361e+00 1.237072390496511431e+01
-1.145983501281151451e+00 1.935554386616149536e+00 1.801742034737275944e+01
-6.149998804077208447e+00 1.686073267116505736e+00 1.931334934537352765e+01
-5.555626637420140845e+00 2.280302156361905030e+00 1.242893315948327526e+01
-2.459668985163147692e+00 2.329575326509471633e+00 1.253955783422324188e+01
-5.941775329541028050e+00 8.764229254940424374e-01 1.948278606878941943e+01
-8.157341238978766285e+00 -2.350102900707097264e-01 1.641264885191109713e+01
-5.427110607722764435e+00 1.462309386915945364e+00 1.234737636744180733e+01
-6.120101043473109570e+00 3.714316110332008813e-01 1.946251221815527899e+01
-6.075936178360604067e+00 8.230821272865512794e-02 1.949755196227477327e+01
-6.296749141041187769e+00 -2.668435775345382455e-01 1.944897090405009621e+01
-4.284489199641728696e+00 9.485878888844821999e-01 1.229953829746027694e+01
-3.427019069595953482e+00 5.266940376583677530e-01 1.287441755280113753e+01
-8.387073025419319094e+00 -1.477937027401280634e+00 1.801137514681680685e+01
-6.279764715977091960e+00 1.036766216017530162e+00 1.329053355991377217e+01
-4.718248729391818053e+00 -2.112319839627581519e+00 1.979619752494793872e+01
-6.466396772297506423e+00 -2.302149507604108969e+00 1.942025213481568713e+01
-5.766844892628150809e+00 -2.442808986644775970e+00 1.960014729688696988e+01
-6.746606359428000133e+00 -2.699330214993892252e+00 1.935947595941378907e+01
-6.589343883855832473e+00 -2.463599404211878507e+00 1.939118689159776565e+01
-4.441700571925322194e+00 -2.710386047929639997e+00 1.981020636747130581e+01
-4.166906771863294612e-01 -3.516834372852117419e+00 1.859807626677654113e+01
-8.171855646935565431e+00 -3.253441634581537123e+00 1.678907660155084969e+01
-4.790926324531087133e+00 -8.578140121037507448e-01 1.470563498457724094e+01
-7.363032143969537202e+00 -1.665396416190203954e+00 1.534333782902371368e+01
-7.939749100994260012e+00 -3.262010735285838958e+00 1.635856361941108972e+01
-5.289041685249703306e+00 -2.391588232127769054e+00 1.712102935829126338e+01
-3.111321065656013296e+00 4.211878262578147236e+00 1.762470873358003942e+01
-6.173908337979702177e-01 -4.112609889506426697e+00 1.764689087527377254e+01
-3.738291220865478603e+00 -3.731018408675521147e+00 1.799214381516248196e+01
-7.778429086681502014e+00 -2.594563985072141588e+00 1.611953258853001003e+01
-7.951768001725076473e+00 -2.783670320371350648e+00 1.637017212289334012e+01
-8.001267187763950517e+00 -1.737862931240022668e+00 1.631196823935699669e+01
-7.843747579707764039e+00 -1.790676319090890534e+00 1.607555958682908326e+01
-7.686537312558254342e+00 -1.999942205485946367e+00 1.589555391756081448e+01
-7.822911719404170405e+00 -2.149234178059465261e+00 1.610467292940203876e+01
-7.919644498274954536e+00 -2.181078109517157859e+00 1.626329871593317833e+01
-7.667953324025934769e+00 -1.183447996708280936e+00 1.552607094785450315e+01
-7.773299277377483385e+00 -1.554451991078150463e+00 1.585616065471771563e+01
-7.892436838931977228e+00 -1.589469932371440741e+00 1.608483578822809434e+01
-7.977599088864076649e+00 -1.345637270431387922e+00 1.615763033325561437e+01
-7.775979969608592057e+00 -8.726391208247920028e-01 1.561648302934753829e+01
-7.655758569320918916e+00 -1.687968077908107434e-01 1.514285885028416700e+01
-7.519892276766135808e+00 -3.785443410154765709e-01 1.489315186418868464e+01
-7.554603758261893454e+00 -5.241224214287931726e-01 1.501292240970012060e+01
-7.736803959839005707e+00 7.422889240222368956e-02 1.524908199680976040e+01
-7.545001013982866489e+00 4.622695067021741488e-01 1.476859806064912917e+01
-7.562140834672995915e+00 9.922355298138864077e-01 1.521753921505289142e+01
-7.482647575678834428e+00 8.907043496253933546e-01 1.492875556696708017e+01
-6.891807239097892612e+00 1.061989427954468379e+00 1.410873948432010749e+01
-7.081836800736368787e+00 9.348021364265429733e-01 1.428433347339039372e+01
-7.032371552619724575e+00 1.106608092058917414e+00 1.437047764721227949e+01
-7.337558222072428471e+00 1.376642699255491653e+00 1.521947183027155504e+01
-3.577728992081948167e+00 4.300430836918890165e+00 1.653692416698855894e+01
-6.937922734869741426e+00 1.186150806587277007e+00 1.426643040875429946e+01
-6.298918568594214840e+00 1.299836123377577479e+00 1.328560210638088179e+01
-6.466253354115770513e+00 1.282657422494503763e+00 1.353526440413165588e+01
-5.096133576679966914e+00 2.634852510223242295e+00 1.210036504695464643e+01
-6.691466502637663183e+00 1.338441475663132429e+00 1.393362405756645828e+01
-6.715477881959752260e+00 1.407524577609673422e+00 1.404287386582867825e+01
-7.096098082917650984e+00 1.525888393140840904e+00 1.489627802524688249e+01
-7.391500178881279304e+00 2.394211922850627339e+00 1.641540649916437289e+01
-7.895150706727384060e-01 -3.655746412110336685e+00 1.698907096805209349e+01
-8.090263056961118915e-01 -2.144215855317339159e+00 1.627929392081783178e+01
-7.140794355933453907e+00 1.770147742751061237e+00 1.523359893478268035e+01
-6.853962820599097228e+00 1.656776709266261083e+00 1.455528354503412558e+01
-1.121886537405121897e+00 1.280429682441803774e+00 1.726434515213660958e+01
-5.793266298630817879e+00 1.908097372643355882e+00 1.262916206137787256e+01
-5.924536381907832272e+00 1.900794340226724000e+00 1.285857855046623044e+01
-6.106779065475542723e+00 1.603385139926031933e+00 1.304141268456026737e+01
-7.064153550850825525e+00 2.072717879874490521e+00 1.539405955849971619e+01
-6.791873584986971579e+00 2.044897522091883690e+00 1.480892412166199179e+01
-2.501560326202895368e+00 2.233105825069657158e+00 1.358455912147605105e+01
-7.245651121515147786e+00 3.008941348976395425e+00 1.683023478088279390e+01
-7.143823907472180323e+00 2.754632967646901687e+00 1.627939564594874255e+01
-6.941847903285868426e+00 2.367996881405313392e+00 1.545554926322123990e+01
-5.683673030740317600e+00 2.076851122230025659e+00 1.252024811390505832e+01
-6.621071600754911302e+00 2.021738214669470679e+00 1.442501609485855951e+01
-6.708398917995184618e+00 2.232911731935789845e+00 1.482313090140937462e+01
-6.928850531699786153e+00 2.776210936133074458e+00 1.588176545964543251e+01
-6.533424566134833356e+00 2.235459605348174339e+00 1.444281177231750135e+01
-6.278176737849812561e+00 2.134741236675074649e+00 1.377199723170629042e+01
-6.111236730158862152e+00 2.216890786176735517e+00 1.348307673379128957e+01
-5.853341619316137390e+00 2.260895732094192478e+00 1.298174234359236934e+01
-6.585108366260508994e+00 4.078157518343791921e+00 1.730277346173552999e+01
-6.235175127014440655e+00 4.444255248504471290e+00 1.761958878576198728e+01
-6.612138706540980237e+00 3.640408498805089987e+00 1.664201875239418982e+01
-6.669927584624760541e+00 3.431901199759834764e+00 1.636330918605324669e+01
-6.410331919987740434e+00 2.850268205154870227e+00 1.499592399669812792e+01
