-6.428992773729587107e+00 4.413062200834486859e+00 1.912887579549208539e+01
-6.798972986118474893e+00 -8.011445628424167520e-01 2.088352448252334881e+01
-4.951919313641495179e+00 4.355867230838563309e+00 1.601120313996342759e+01
-1.809612827895902054e+00 3.746920582588801452e+00 1.786859994259037165e+01
-7.589898116512549642e+00 -2.168339701976442324e+00 1.860754430270431925e+01
-7.344439299070663729e+00 -1.818034278411101878e+00 1.828112998813221424e+01
-4.530278798333939427e+00 4.954852514598941937e+00 1.752727424786225896e+01
-7.223296972456838994e+00 -1.447305823805021596e+00 1.791541027896326455e+01
-1.915844587920447761e+00 -1.384757130464096431e+00 1.674224746158613186e+01
-1.453813909343723898e+00 -1.169881403637384354e+00 1.640365447831428014e+01
-6.851081971297916517e-01 -2.552706566110810038e-01 1.664063538742716730e+01
-7.095670544760949383e+00 -1.118261619200493495e+00 1.764038244737511718e+01
-3.353756266166767475e+00 -2.295437876628858009e-01 2.022616323001116712e+01
-6.888041383711063226e+00 -8.547734147501557800e-01 1.748001929628589579e+01
-6.476166451996556717e+00 -7.056435734640635893e-01 1.742708232116292777e+01
-6.793242848927515176e+00 4.949153091068728472e+00 1.777413599719432824e+01
-6.676897160340376836e+00 -7.580562537143491486e-01 1.743589381091351243e+01
-4.372026065101903392e+00 3.256148697553158389e+00 1.386104356998118448e+01
-6.085071602402245539e-01 1.342900604506730988e-01 1.906485227326144383e+01
-6.111342144848292079e+00 -7.282259847162044775e-01 1.748377028666710231e+01
-5.891656089527490536e+00 -1.862324939423170567e-01 1.702356630346307043e+01
-5.615572931092993159e+00 1.393730774026165908e-01 1.673554211660197666e+01
-5.444568994879230850e+00 3.263300849149507465e-01 1.654070193945900513e+01
-6.495162973873695123e+00 1.809658935671550228e+00 2.014651736785908298e+01
-1.855175946503229145e+00 -2.315451673047864034e+00 1.733922961743740387e+01
-5.058032375048226115e+00 5.828393285262234436e-01 1.622005145645976398e+01
-4.212400194009741305e+00 5.197641539812780653e-01 1.594157403861655808e+01
-7.329466305410117677e+00 1.286082902660411031e+00 2.038419143728908978e+01
-8.123976833618748117e+00 -1.632821157942342949e-01 2.064883399811396458e+01
-2.685354654072546587e+00 -1.212898030087844470e-02 2.003685538086012485e+01
-8.223297416281223349e+00 -2.367371866080059561e+00 2.082957962139190755e+01
-4.117488004227786824e+00 4.554788718861608743e-01 1.594146398017699795e+01
-4.035684732328038926e+00 3.661203511472393979e-01 1.599444674395797961e+01
-1.311484702630167920e+00 1.299783150592454861e+00 1.937823780914928307e+01
-3.058558852698488817e+00 1.629007376152352693e-01 1.550296925094568934e+01
-2.665560802709225463e+00 6.460917089092038657e-02 1.555296994623153495e+01
-3.624185491253651747e+00 4.937469270340941740e+00 1.859297534457468259e+01
-1.805327948388558479e+00 -2.676147005094369646e+00 1.990865759393808077e+01
-1.827374421793949821e+00 2.522384447240796912e-01 1.539731086761052836e+01
-6.915945712783759802e-01 1.966199024390930195e+00 1.667923676896563734e+01
-1.587843967907736520e+00 3.118476089068444423e+00 1.892660861027128760e+01
-5.945328530988795990e-01 7.809915738038959443e-01 1.620260465708025066e+01
-4.346189393131838052e+00 2.213639983176563852e+00 1.302960956049779639e+01
-4.155147754307017216e+00 1.984035308530786024e+00 1.337973609682682508e+01
-1.061491063936847556e+00 -3.033809727796052069e+00 1.760342233965385361e+01
-9.015333489918253562e-01 -3.749775275641148209e+00 1.850234635365618630e+01
-1.802320408551025377e+00 -3.727735110088696846e+00 1.884730711077391874e+01
-2.046148736879854546e+00 -3.707437250031125675e+00 1.868543746404908035e+01
-2.772683503618149636e+00 -3.687868694677526538e+00 1.867452527258617323e+01
-1.016506892475609103e+00 1.379117239558610652e+00 1.911995739148271412e+01
-3.403738407708248204e+00 -3.677626180749703710e+00 1.887038405747830438e+01
-4.481348006777805537e+00 3.012078245863759829e+00 1.954947520454795296e+01
-8.420573791269962527e+00 1.758800584395086686e+00 1.591001233956846761e+01
-4.797539434843682393e+00 -3.765199283250621587e+00 1.945718303607493738e+01
-1.088556508586570493e+00 2.335931153587155862e+00 1.883034168874385728e+01
-6.571324673171651476e+00 4.273405435459284085e+00 1.623580516137501917e+01
-6.986271564659951139e+00 -1.410167877186761842e+00 2.100832330508553980e+01
-5.779447998214040538e+00 -3.818441776243842956e+00 1.938001389097636462e+01
-6.105866369353482703e+00 -3.860494077045824479e+00 1.954811861265290673e+01
-7.769363052830219551e+00 -3.116047349503063835e+00 1.942759992707144079e+01
-7.791412138244033336e+00 -2.893950171427356111e+00 1.924591310584565207e+01
-2.649023781595084337e+00 1.768291730762517222e+00 1.389076045064553000e+01
-7.335578596681459729e+00 -2.307180661323786186e+00 1.877866526711269302e+01
-7.286649674919650543e+00 -2.000736481689381119e+00 1.852322821250145068e+01
-5.339010318400244870e+00 7.951621796442618351e-01 2.036490504225081821e+01
-5.698194136484558747e+00 -5.165808173937809222e-01 1.733340249218203155e+01
-5.370382869050296826e+00 3.789995563466537210e+00 1.478980097550408601e+01
-5.399617406832574851e+00 1.556936260292606511e-01 1.670030329094787191e+01
-5.291923409381691812e+00 -4.405969919834229476e-02 1.688532779084544444e+01
-4.051625060687355173e+00 2.789572916471585007e+00 1.955757454883795532e+01
-4.859442333443360518e+00 2.432400020688133546e-01 1.652434112703399194e+01
-6.981062197988332496e-01 1.344204189195394639e+00 1.625863751167442928e+01
-4.411445002581269037e+00 3.758591710250100970e-01 1.624762658963879858e+01
-3.843557526723774487e+00 6.424533081510808152e-03 1.631697943966330655e+01
-7.592133074198305742e+00 4.526087339857397751e+00 1.773809118421983300e+01
-3.254912323246194727e+00 -9.290432851181867902e-02 1.599906456643800823e+01
-3.124757887590416061e+00 -2.062285403749864465e-01 1.609951094330083521e+01
-2.941150449583603166e+00 -4.191529886202144395e-02 1.575895645225659791e+01
-2.141287361917759480e+00 1.257169044935032565e+00 1.970049321226109384e+01
-7.332391448262879585e+00 -3.108651430247022951e+00 2.090362636672372076e+01
-2.797483773280928787e+00 -9.232215877150073968e-02 1.579466500548871721e+01
-2.057918014236430615e+00 8.205809909247741007e-02 1.553709145508670986e+01
-2.589824783448536838e+00 2.248740300554486371e+00 1.385391662718024008e+01
-7.777743096324992500e+00 4.510729260509433125e+00 1.815547484567838410e+01
-2.300036097573577631e+00 -4.033838210675300129e-02 1.567454939649749690e+01
-1.672532374792398802e+00 -1.278876311553134304e-02 1.562945043545763468e+01
-6.276326603970987517e-01 -2.269081806492748932e+00 1.738273057379908693e+01
-5.245199434053819054e+00 1.864143713298000771e+00 1.370417286685993474e+01
-1.044337006503694099e+00 -3.567800817881679354e+00 1.796777863526455832e+01
-1.095871757470622487e+00 1.885717453121444231e+00 1.900803128925018370e+01
-3.662825223806433605e+00 3.007446389789816710e+00 1.394783514348513620e+01
-3.374767230588481048e+00 -3.587213307160892040e+00 1.865431968484317338e+01
-2.461375490014706902e+00 3.341465695802447566e+00 1.609798597033553591e+01
-5.077128024092210090e-01 -8.619324916148600746e-01 1.757367513323433172e+01
-7.152986623982719117e+00 -1.168026822074011761e+00 2.099606718687840612e+01
-4.479646718304551634e+00 -3.713715394276053683e+00 1.911918690822916034e+01
-1.882524628488933871e+00 3.524660474385078679e+00 1.734459344672439585e+01
-5.019621549615306932e+00 -3.766255788047518482e+00 1.920403438130361451e+01
-7.209018821310254843e+00 3.174547891990272319e+00 1.514698797745628411e+01
-6.860513392153371193e+00 -3.603231046566422791e+00 1.954711741042355300e+01
-7.084808483232634124e+00 -3.649498592058073587e+00 1.970139034287434043e+01
-7.246429218859280041e+00 -3.608889133925105686e+00 1.973878140044551799e+01
-7.260852054913705445e+00 -3.431665336317710757e+00 1.956840304870951286e+01
-7.572713978908539367e+00 -3.123349808747738710e+00 1.939081113023761560e+01
-3.175873267188493276e+00 -1.825853678136573732e+00 2.032139191556238700e+01
-7.146992221197003836e+00 -2.475881863480818179e+00 1.890643151877732464e+01
-6.940885158653692599e+00 -2.499745280283474091e+00 1.889497538787736630e+01
-6.756828929953339724e+00 -2.383472626675366524e+00 1.878948149791825983e+01
-7.797507424817799127e+00 3.643774090112882114e+00 1.893884629862073865e+01
-6.703792247655075087e+00 -1.461081262901018585e+00 1.810686234633297431e+01
-6.579183819366630104e+00 -1.592134223527990500e+00 1.822139167408673899e+01
-2.444271402480233224e+00 3.938701494555314042e+00 1.732096414607701007e+01
-6.233871057751550815e+00 -1.243058130181369458e+00 1.791599746273985971e+01
-7.647476771486737768e+00 3.212118198492138976e+00 1.590539857871552698e+01
-7.804977690179566885e+00 3.947514630760994514e+00 1.715042152568840095e+01
-4.935715920686292613e+00 3.439247279108813782e+00 1.391989013646981022e+01
-6.108358262186795784e+00 -1.160071039986235286e+00 1.784964468174874241e+01
-6.119456570080361146e+00 -1.371521471700904771e+00 1.801158971198499614e+01
-5.905452610541964908e+00 -1.049644417890282178e+00 1.775950990075190106e+01
-8.713185162039621900e+00 2.542324977353431770e+00 1.827790953205524715e+01
-3.425302531255815186e+00 3.963225135886646822e+00 1.907235984773203796e+01
-5.452100003804754458e+00 4.006826693941934359e+00 1.931109926484414530e+01
-5.670598349549025308e+00 -1.069214033841746847e+00 1.776461474901328330e+01
-4.775107472724897661e-01 -1.253007286600441583e+00 1.776348040421459729e+01
-3.656749270112894301e+00 -8.745548427659242119e-01 1.719681905787931697e+01
-4.850468941744050078e+00 1.660705163783903204e+00 1.406975312550537183e+01
-5.457732871397671381e+00 -5.117875005859813253e-01 1.731434707647658655e+01
-2.206057901191750936e+00 4.387718568008366349e-01 1.988959199409467260e+01
-4.882815020802351746e+00 4.410258745978418160e-02 1.672361461288691942e+01
-4.444995096612525565e+00 1.401628581464790801e-01 1.653158089268076480e+01
-4.658391553677456720e+00 2.165359672098038368e-02 1.669857525666577658e+01
-4.293815763407664576e+00 -2.275829477241564369e-02 1.667094117064020509e+01
-6.297621886139641134e+00 2.810287412525135142e+00 1.978268347314186570e+01
-3.840160775777980540e+00 -3.216367397497874037e-01 1.672898963519284621e+01
-4.012981433693084909e+00 4.383429047461062211e+00 1.901210486398755961e+01
-3.421959503397003832e+00 4.747642676107890480e+00 1.788752281754834428e+01
-3.270928353650170983e+00 -4.106666606221778815e-01 1.646860115100563604e+01
-2.466200340697546789e+00 -2.405417474538631972e-01 1.592480326325121354e+01
-6.459975170447427306e-01 -2.034902431598281769e+00 1.726925782328470405e+01
-8.008610237957127787e-01 -1.991602163082267785e+00 1.696538989564993472e+01
-8.519946287317470279e+00 2.896515965014503369e+00 1.698726499709921001e+01
-8.645826190279033430e-01 -1.901770639875651314e+00 1.686274242575314730e+01
-5.887016348002877209e+00 1.361470933097521208e+00 2.024012157024050396e+01
-9.748981868581734211e-01 -2.200326559472796983e+00 1.700737571316258112e+01
-7.744328330352263201e+00 4.016734065600771508e+00 1.871458797921241768e+01
-1.128686045773467317e+00 -2.732779627181286752e+00 1.737863288754336111e+01
-1.269839668441065994e+00 -2.935183952460193701e+00 1.760925069152813904e+01
-5.934497645009574107e+00 1.687893314875659467e-01 2.056523823253469629e+01
-2.384639734190912019e+00 -3.442089441136026107e+00 1.823627807179636307e+01
-3.471503285982633358e+00 -3.462093829550875856e+00 1.855874260212678450e+01
-3.769927215179567526e+00 -3.474926351091920385e+00 1.858204959717032523e+01
-7.414144573351810763e+00 -3.366657340722709613e+00 1.955278101830901250e+01
-5.835750157409810512e+00 -3.583483056499948027e+00 1.915002500221421400e+01
-6.178510159783336064e+00 -3.510494580365279838e+00 1.923038203142007063e+01
-6.104116007547535361e-01 1.420199117275108724e+00 1.662361204644869872e+01
-6.432957923451225746e+00 -3.562263466581570448e+00 1.935401510105843670e+01
-6.793710920216820881e+00 -3.533048302897914716e+00 1.946591293986270443e+01
-7.389476564150186277e+00 -2.949739822582135851e+00 1.922437932146583250e+01
-6.960044279757975794e+00 -2.736780143368819473e+00 1.902825035618795368e+01
-5.286597166300313511e+00 4.019788305169745612e+00 1.527853721358010120e+01
-6.788866901800696851e+00 -2.527481622784998994e+00 1.888095066410658518e+01
-6.512317746032363353e-01 -1.447737007124470177e+00 1.695443892162310107e+01
-2.487426100738743262e+00 2.101240185273789862e+00 1.393726781774531531e+01
-6.549506264241560238e+00 -2.139027391899076758e+00 1.858559173917198137e+01
-6.540999943318202448e+00 -1.919616961652266474e+00 1.844159103247775988e+01
-6.567837613545454367e+00 -1.756370863656970593e+00 1.835814911262765747e+01
-5.545096300478119744e+00 -1.182455412654696891e+00 1.782811934600955794e+01
-5.313109880996769618e+00 -9.629765176918407832e-01 1.762968410474987024e+01
-6.591980177254209927e+00 -8.178765931170881576e-01 2.085024265263658094e+01
-4.671578662043842201e+00 -2.053468195821898656e-01 1.690670964894874828e+01
-4.085255054959830545e+00 -3.523808263267894092e-01 1.693045540069110899e+01
-4.525946329366641319e-01 1.970354935745064262e+00 1.742102244121238641e+01
-3.860095011636422768e+00 -5.336027917203309823e-01 1.696921162184388976e+01
-3.277653416874009018e+00 -4.923264007270299891e-01 1.657972186056841934e+01
-4.175478070302975020e+00 -1.917395150713529395e+00 1.797222714614890293e+01
-1.305096457704832291e+00 2.737402967432740031e+00 1.674094445886795768e+01
-3.250829158022767729e+00 -5.825521909840842838e-01 1.666665700500661274e+01
-7.564343725151814191e+00 3.362849785236184719e+00 1.596211632243519318e+01
-3.073148712290103557e+00 -4.608119787812658408e-01 1.645281553911581085e+01
-5.907197240416810047e+00 2.746533097349071362e+00 1.302397281454028644e+01
-1.267794737988475084e+00 -7.878753455079534618e-01 1.613334544639437240e+01
-6.145995398978139512e+00 3.127702515135971417e+00 1.377003395242804373e+01
-6.037238394032160560e-01 -1.836621680049440153e+00 1.732467709050203553e+01
-5.265399583864250665e+00 -2.231284314509028643e+00 2.076543993521183040e+01
-9.109705880043918569e+00 1.556882020874661432e+00 1.803623309128577290e+01
-8.529121373335228906e-01 -1.673587588741380028e+00 1.671082883758344195e+01
-9.219460952757589922e-01 -1.392762398228406084e+00 1.654798010699596489e+01
-8.694479463311616030e+00 2.966852327392034194e+00 1.771023277478505520e+01
-7.866099346125405845e-01 -1.573029344738759994e+00 1.676663052495439388e+01
-7.203740482998700401e+00 4.548203275795765776e+00 1.736964497897657367e+01
-3.707464672692601049e+00 1.538251099865218796e+00 1.990513308721678953e+01
-1.383114522787110889e+00 2.631354138961953915e+00 1.643394278805813968e+01
-1.344233342749278970e+00 -2.379164669178721159e+00 1.717966543929705381e+01
-1.527792477880371980e+00 -2.424990876563058784e+00 1.727624505110801323e+01
-1.534518843063592541e+00 -2.690810685517853962e+00 1.746809684641695526e+01
-6.775203291674790407e+00 -2.899468850601163439e+00 1.907679004149400726e+01
-1.536211403451366309e+00 -2.879090799101043707e+00 1.761071990556075662e+01
-1.574863427945057293e+00 -3.240651151357475612e+00 1.785309338401292933e+01
-1.512759418678406131e+00 -3.488697114360145957e+00 1.801369887920800039e+01
-4.830915041084279160e+00 3.414417396493765189e+00 1.945031600318285570e+01
-1.789016473813298980e+00 -3.570821695795622031e+00 1.816358293925190992e+01
-2.744845949562472409e+00 -3.403874732040423901e+00 1.833271811542244478e+01
-2.567880738601680424e+00 -1.489345775389240734e+00 2.014832256422521795e+01
-3.144908583881380615e+00 -4.357391253153995447e-01 2.020000956573048256e+01
-2.532421220695700637e+00 -3.220552457752116737e+00 1.814209520644451601e+01
-4.694683354479864512e+00 -3.681104452948465333e+00 1.893123450613624925e+01
-6.846468403187420115e+00 3.645302888562372612e+00 1.940762243703059653e+01
-5.218387804016859199e+00 -3.497227804337799117e+00 1.889545216913981562e+01
-2.396850827310085030e+00 4.153709972821606478e+00 1.786022871825252167e+01
-5.749110415418785536e+00 -3.375464690314788907e+00 1.900176199672689137e+01
-7.160410397988428155e-01 9.342579414653133796e-01 1.896709568816343250e+01
-6.089746733298742498e+00 -1.603460111934867038e+00 1.816882888888979863e+01
-5.328708142728451946e+00 -1.602376093792507561e+00 1.802949882673801341e+01
-6.737113052591031881e+00 2.602521034107625031e+00 1.375243169564377865e+01
-3.867766690443887434e+00 3.019009740528698860e+00 1.381411448756424676e+01
-5.342996523977561196e+00 -1.114328837172253506e+00 1.773498537598950264e+01
-4.940495208501474167e+00 -8.400025736500991158e-01 1.744303064642725332e+01
-5.634767279436583287e+00 5.344556403491089291e+00 1.845765192079863226e+01
-8.912834871074121423e+00 2.365652931125315384e+00 1.770154747870832068e+01
-4.685957103860348916e+00 -5.197345629371339371e-01 1.715860490126320315e+01
-3.408411918297739707e+00 3.212828256537704430e+00 1.463720172827794386e+01
-4.467452422128024736e+00 -3.943914225799515783e-01 1.705363802401080875e+01
-4.324917272954968972e+00 -3.250211426389745806e-01 1.698829893239769007e+01
-4.052440579536463083e+00 -2.858012443468775476e+00 1.836230938399845769e+01
-3.769493426943643755e+00 -6.433058310889934184e-01 1.702104551667405730e+01
-3.261238272617597467e+00 -7.207020154294456749e-01 1.681039180355145390e+01
-2.898885955322564545e+00 -5.625342858290773851e-01 1.649319262256977936e+01
-2.702411372296860126e+00 -4.438417248746096555e-01 1.627359120722164221e+01
-4.409103156792980593e-01 -4.751717494167036482e-01 1.798061449000606871e+01
-2.268662288970767715e+00 -4.645810694158271636e-01 1.608701300823685898e+01
-1.310255227106715603e+00 -1.536502955061284981e+00 1.661692317875683500e+01
-1.299629275472122147e+00 -1.774329222225538905e+00 1.676059848454924861e+01
-8.692186733883759953e-01 8.739120814160898920e-01 1.915469542914058110e+01
-1.792877593061345642e+00 -2.997122083799165893e+00 1.775631978688038259e+01
-9.383432108835487728e-01 1.598321109704628817e+00 1.596273289282314067e+01
-3.069306571388946026e+00 4.750433114485533181e+00 1.834902142141702086e+01
-2.942234465706652369e+00 -2.993632691798423728e+00 1.814505890727062365e+01
-5.388717770871863877e+00 -1.031680753831619057e+00 2.072432541994500355e+01
-4.542756328865774407e+00 -3.375876537301758518e+00 1.865551150977309902e+01
-4.733410637185420100e+00 -3.390785966070431812e+00 1.869760946520349165e+01
-6.216977374907527221e+00 -2.210892392569180576e+00 2.092347786717634506e+01
-5.383009486770488294e+00 -3.209613741463035907e+00 1.880790138215600393e+01
-5.628901447428806826e+00 2.652218122171584813e+00 1.979718529643803038e+01
-5.584868496465158039e+00 -3.306453148402854314e+00 1.891015833396645007e+01
-5.561706792134006427e+00 -2.358762660960548985e+00 1.848304670050753629e+01
-2.299117612802747956e+00 9.332537064049275521e-01 1.981312598851307172e+01
-2.619411542320482678e+00 4.502262077902486226e+00 1.862859878143185455e+01
-5.413977395533176917e+00 -2.197238296403271285e+00 1.838104010455321458e+01
-5.535177032580667955e+00 -2.070326009045925453e+00 1.834628529890048299e+01
-5.109332066746458345e+00 -1.896523224183347400e+00 1.813889110542123717e+01
-3.061641518103925375e+00 -9.906165694286668266e-01 1.696616328432357790e+01
-3.960872847096367444e+00 -1.010284981783698521e+00 1.743944787830410803e+01
-2.690773404721604756e+00 -6.216358302086040233e-01 1.645241891705642701e+01
-3.135877354388359350e+00 3.902595588035305596e+00 1.639180698679956549e+01
-2.430948186685793377e+00 -7.229848490008039530e-01 1.641759147992559065e+01
-2.579946270352842852e+00 -2.093587843595552833e+00 2.015599984734445371e+01
-4.377047650878572504e+00 -2.996300439899027612e+00 1.846436045767863732e+01
-2.003318687737741133e+00 3.770291901854539329e+00 1.886507695302314147e+01
-5.177371917639240095e+00 -2.362712825499183822e+00 1.838092725615576484e+01
-4.523631785035140851e+00 -1.107860929807528372e+00 1.755262242048361543e+01
-4.517223908004267763e+00 -1.203424147421671364e+00 1.761266180312183849e+01
-1.360096861199288298e+00 2.686394445301681255e+00 1.656382791495068574e+01
-3.706983415928272407e+00 -1.184203417625340427e+00 1.748961327631229068e+01
-4.754208547083742964e+00 2.149997241988118368e+00 1.317026671709922425e+01
-2.666354736196915542e+00 -1.770205552446213249e+00 1.738290483009279086e+01
-4.746352374358660420e+00 -2.401368120265424455e+00 1.829310678263064460e+01
-1.895215206660584517e+00 -1.741388311411380618e+00 1.699029094672274454e+01
-4.563452569406529769e+00 -2.785342968598282454e+00 1.842577155164275382e+01
-4.944952024960576509e+00 -2.156910978414376068e+00 1.821654577417297816e+01
-6.414936733661749102e+00 3.844278855636008352e+00 1.938120336115082409e+01
-4.314409929836622304e+00 -1.245745933990540122e+00 1.761423891495980598e+01
-7.188972680358123313e+00 -1.756368651016093851e+00 2.106288359982837477e+01
-4.302839861289684542e+00 -1.370629167840528906e+00 1.768998302903109021e+01
-4.108823362059663253e+00 -1.160305431871416104e+00 1.755583569830360346e+01
-3.588394759032822456e+00 -1.466970457683177242e+00 1.762518106990616218e+01
-8.134265986446571617e+00 2.960928270008459595e+00 1.635135787777419836e+01
-3.266467564662072220e+00 -1.334111613958192111e+00 1.734038639969547546e+01
-2.927455379614870346e+00 -1.427994196249731562e+00 1.724805052015408791e+01
-4.126238722351266652e+00 -2.018840420078297448e+00 1.801733467617335549e+01
-4.339940565184419619e+00 2.982339764260025117e+00 1.337885668821107288e+01
-4.803120916193208245e+00 -2.075519078263253103e+00 1.815066223126391520e+01
-4.113794191878202611e+00 -1.607773289438318987e+00 1.780964977397087523e+01
-1.553424716364291136e+00 -3.082630247648407540e+00 1.977777282704433048e+01
-4.295409231274961437e-01 -8.056803989472516303e-01 1.791569695680092877e+01
-1.399928397342647068e+00 1.644421339050947450e+00 1.520888244038768278e+01
-1.534844613496134436e+00 1.621160454708622245e+00 1.498985235071323530e+01
-4.893916624218836553e+00 3.626235320980293331e+00 1.431865253579775299e+01
-6.938252083448235297e-01 2.556091093811469594e+00 1.748195405646405476e+01
-6.792604317892149801e+00 4.844282992249842934e+00 1.880725745240771829e+01
-6.012525725813391730e+00 5.089452167328015975e+00 1.886329131853882046e+01
-6.357086967827884294e+00 4.848808936803990832e+00 1.894677274898126029e+01
-5.015908146581219640e+00 4.378648663741182112e+00 1.914372900798519339e+01
-6.761645142861665292e+00 -1.789232272313264205e-01 2.074704683609633804e+01
-4.110773730105413470e+00 2.218257072083630321e-01 1.625615056293199956e+01
-6.438364453468953030e+00 -1.803060838536753918e+00 2.096020447480603366e+01
-8.372504140743281198e+00 3.500171894884604118e+00 1.751553008091095620e+01
-3.620930145915441933e+00 3.962903140176956551e+00 1.910201596754290421e+01
-4.208615736642182803e+00 4.176862671624842704e+00 1.911333323627619052e+01
-6.834302701197222163e+00 3.472706166158999075e+00 1.948759923843918074e+01
-5.922301851143297213e+00 2.570365558121914695e+00 1.295317186647736918e+01
-6.155566767253320748e+00 4.691604387209009630e+00 1.682560537758933350e+01
-8.425955679409597110e+00 3.135292593869154931e+00 1.713617387538099024e+01
-2.806329177173576106e+00 4.541260272261537168e+00 1.869028394496714185e+01
-2.015301972795731977e+00 3.790719758582705268e+00 1.766751608837460452e+01
-2.822076545149571736e+00 4.417881348723228463e+00 1.882279333853100667e+01
-8.341727732009406537e+00 3.060967568035523279e+00 1.864933078493880458e+01
-2.800581986666744960e+00 4.169004078252502410e+00 1.891477401917006773e+01
-2.317680068713468433e+00 1.148641456841077657e+00 1.976347885085205291e+01
-6.006610847837490219e+00 -3.172584889407600972e+00 2.080840518274598594e+01
-3.634900092207102418e+00 3.379858229617831888e+00 1.929942641662780289e+01
-1.439250376083353711e+00 3.147709999463396802e+00 1.727748475545491402e+01
-5.246091631523970733e+00 3.467369170555811397e+00 1.948011330123273410e+01
-7.103258330726007763e+00 2.882234312594121661e+00 1.970849859124658821e+01
-6.547731995220614998e+00 -1.377334677210762859e+00 2.093407841925665025e+01
-2.643806832640505533e+00 2.762955662864394757e+00 1.936663693101775152e+01
-5.809066349502700177e+00 1.057716464578141391e+00 1.527769851552523761e+01
-3.034683902664799593e+00 2.962636766405371880e+00 1.934885368704153308e+01
-8.334050405383489846e+00 7.133544661731059389e-01 1.579767402934424325e+01
-3.022133502175365471e+00 1.060741438547442517e+00 1.475414668191911716e+01
-3.268994733706440226e+00 2.981693269473630892e+00 1.937050311062626662e+01
-3.875352820187398351e+00 2.813559704335650391e+00 1.951796980622946620e+01
-5.465736359550777301e+00 3.018916027780797151e+00 1.965307202178160395e+01
-5.876163341446894783e+00 2.983875943861837854e+00 1.970431719616253474e+01
-6.119431901158961296e+00 2.632559934359120835e+00 1.983885518470840026e+01
-3.760688870086046798e+00 4.610977763982257116e+00 1.884622197787294340e+01
-4.942521256283523456e+00 3.380532552732443019e+00 1.380505135159184960e+01
-8.770207548934838115e+00 2.698640240061662698e+00 1.789674678126279872e+01
-2.290551386064337169e+00 1.931133603888862682e+00 1.955242684335993175e+01
-3.229536761790019916e+00 2.347280517763121299e+00 1.955682290210255303e+01
-7.398851805138785487e+00 4.326142929436258555e+00 1.717036592018155261e+01
-1.200725948606810256e+00 2.008421954746208549e+00 1.581134751597603838e+01
-6.014504593455569648e+00 -2.223228775443784500e+00 2.088723207117797642e+01
-3.774751645578944270e+00 -1.862314041516413221e+00 2.049671961856969205e+01
-5.669676462304476416e+00 2.357858704952267015e+00 1.990452426636981187e+01
-8.673773488518474295e+00 -4.276682939508345549e-01 1.685632715060206976e+01
-6.313038610272854179e+00 2.199242038956398027e+00 2.000353362440730365e+01
-2.980500351730048791e+00 -6.576583920287777385e-01 2.017713051901899490e+01
-6.109690083708652075e+00 1.780060626800390455e+00 2.012380301109789116e+01
-4.900403331696998599e+00 9.899001773999260845e-01 2.027505539427610870e+01
-1.850211418346573655e+00 2.557871101508547795e+00 1.924485826871239169e+01
-3.237776430129243099e+00 -1.748416848952010438e+00 1.759050081416427957e+01
-4.313488418615398778e+00 1.940641050787051292e+00 1.989489425976520920e+01
-5.330501442562592729e+00 1.016747708187154764e+00 2.030529639411201259e+01
-6.585356409784342446e+00 1.023118183050097940e+00 2.042003680708828739e+01
-6.588314032238649531e+00 -3.432951818846307290e+00 1.932555381660275629e+01
-8.782196335313130930e+00 1.892081939430020343e+00 1.866895074372647656e+01
-8.710456120879438657e+00 2.303409226871445448e+00 1.850231352844402721e+01
-7.190249917868394292e-01 7.140869655218564649e-01 1.902980653899791008e+01
-6.927650024173997778e+00 2.552319354395453210e+00 1.985355547194138381e+01
-1.927306799829655581e+00 9.327973867786414353e-01 1.974039773595779934e+01
-2.895855232915682809e+00 7.352324609237758102e-01 1.995677690742650867e+01
-2.882212056947481837e+00 1.373522992304149870e+00 1.979405558509111529e+01
-3.146854569914332433e+00 1.125114498788690076e+00 1.990434225535217649e+01
-3.491800054335654657e+00 1.178253584522702679e+00 1.997266584588010829e+01
-3.901363330674669783e+00 7.913726483822249858e-01 2.017722641709422504e+01
-7.140663040436964870e+00 2.961184936737550011e+00 1.475690663128938951e+01
-4.340319647420211702e+00 9.988194915732464541e-01 2.022121362268559608e+01
-5.605744250734134404e+00 1.074317002912108521e+00 1.530767883588246292e+01
-4.541284129685479343e+00 7.812538997810807295e-01 2.030355217008658997e+01
-1.864490428700602109e+00 -7.587068070067999326e-01 1.619931658759857385e+01
-5.100495544926999969e+00 1.388488538264014416e+00 2.016623975365332200e+01
-2.171437655124484056e+00 2.272478948043691993e+00 1.460529016799920754e+01
-4.770083792731239392e+00 1.957465446850168433e-01 2.045985919887958460e+01
-6.612800819406202457e+00 4.875919403865457191e+00 1.885999361907317251e+01
-6.298703224624158992e+00 4.021342741241081820e-01 2.055455776129905843e+01
-1.937347517322380419e+00 3.547088042687578935e-01 1.983833070654034003e+01
-2.153012390149703137e+00 3.006480946794100051e-01 1.989577339735234318e+01
-2.304467922270274194e+00 1.464267747712713896e-01 1.994621131522981727e+01
-6.706876913690637210e+00 3.621604562301187213e-01 2.061868370357429114e+01
-3.327501349797329588e+00 5.337245113587179013e-01 2.008887636618418071e+01
-3.684987440148740134e+00 3.385480848384432306e-01 2.021926708177073095e+01
-5.102545887429129401e+00 -3.858563440844236525e-01 2.059351181106693218e+01
-6.508209930145032018e+00 1.991576138406825902e-01 2.063040698125999484e+01
-6.770801413185759898e+00 3.361362675736840444e+00 1.477705179695772131e+01
-3.386157735772351796e+00 2.506618679708386921e+00 1.323998058771140052e+01
-3.088413001388712331e+00 -2.517301710879035426e+00 1.794948730359163136e+01
-1.911909819897929630e+00 -2.994614459599375667e-01 1.989007311680968826e+01
-3.535399924653126469e+00 -4.341565176403424098e-01 2.030890728889843899e+01
-4.150373696357586795e+00 -4.472791935524279006e-01 2.048648802276237291e+01
-8.205758850423889861e-01 -6.176565878548423427e-03 1.620841039658891702e+01
-5.928944264009040843e+00 -6.216865641250850505e-01 2.072639270079698548e+01
-6.553868438682266984e+00 1.555583291738121821e-02 2.067557385865301001e+01
-7.134317736887657802e+00 1.722490780848981329e+00 2.021649291777402624e+01
-4.927922521191416827e+00 2.896620439766286026e+00 1.299255697581407532e+01
-4.524281397952973016e+00 3.183456623224022675e+00 1.360986590275489760e+01
-2.960772798809084172e+00 2.465611835632942839e+00 1.363344571715004605e+01
-2.158790599716644998e+00 -9.083854776667907860e-01 1.999919014885873025e+01
-2.359702307030990820e+00 -1.241107447619467896e+00 2.007497579768962481e+01
-6.940153146538935225e+00 2.230290386915046441e-01 2.068485843667102841e+01
-3.986600542509242118e+00 -8.610155535954784334e-01 2.051301815352417179e+01
-5.077890708061425507e-01 9.065027687823163927e-01 1.862724810327375735e+01
-5.367681595963682106e+00 2.310831067860258603e+00 1.293133751597679293e+01
-3.781693079381359013e+00 1.871048628519509149e+00 1.356058129230149234e+01
-2.424678929319056042e+00 2.078594777684462436e+00 1.403405924734775567e+01
-7.817306151447440676e-01 -9.699192941190204476e-02 1.933446395400586226e+01
-3.006243084312835379e+00 5.908527015532927251e-01 1.507920409557704033e+01
-2.006030655909038174e+00 -1.456415322012515556e+00 1.999873453476202911e+01
-2.375244900203251408e+00 -1.688730138716463491e+00 2.011238964161804432e+01
-5.573586007843151613e+00 -1.592954919983043061e+00 2.080352549639799520e+01
-5.243512934721191954e+00 -3.635492504744228803e+00 2.057500694818631359e+01
-6.768683214046247620e+00 -1.585260503262789555e+00 2.099938523587402983e+01
-4.944122888268929650e+00 4.289696079207661050e-01 2.042138798061216676e+01
-8.707373222173501404e+00 -1.592719602215746377e-01 2.002967366797099658e+01
-6.754804476187680429e+00 5.002849358682213143e+00 1.785499344626268226e+01
-8.679649125605070736e+00 -4.683521930317774418e-02 1.663732693335914803e+01
-2.152320487608859967e+00 2.063118150480393709e+00 1.441720507751065838e+01
-5.574998337086435996e+00 -7.928400405067088652e-01 2.071244391885515057e+01
-3.815423487954733517e+00 3.802481003318087804e+00 1.547723147727273130e+01
-2.037150816827506539e+00 1.876314803481336835e+00 1.445990120586135674e+01
-6.583663347642976227e+00 5.215845257087860176e+00 1.821197674551987689e+01
-1.769935724305931490e+00 -1.915820167647299455e+00 1.994803909725619206e+01
-4.910204676145563774e+00 7.889479712127711597e-01 2.033163668547233982e+01
-2.339845813126958607e+00 -2.623511761603082526e+00 1.772768944363125598e+01
-2.152487101079111120e+00 -2.048415104486373206e+00 2.004263700175224727e+01
-2.558350461780201091e+00 -1.845232206615619708e+00 2.016639589012164180e+01
-4.255801347724241346e+00 2.960196948790392746e+00 1.953133605151631969e+01
-3.830965468631646331e+00 -1.664236318051703245e+00 2.052296176779596237e+01
-8.277374687657111707e+00 2.984373250015358803e+00 1.665794452002506176e+01
-2.499633370423273160e+00 2.535859434086593645e+00 1.441868998691532511e+01
-4.430826469030010095e+00 -2.055378129171946622e+00 2.064980105653485509e+01
-5.630457114625365911e+00 3.578984776804494228e+00 1.947725406832287831e+01
-5.226777748459158879e+00 -3.441459966618747757e+00 2.061722879203261982e+01
-5.025758910037054328e+00 -2.225038102769048454e+00 2.072851493950923896e+01
-2.838892365445864652e+00 3.600528469085085836e-01 1.525015840323881378e+01
-5.618778646296647139e-01 -1.488745662552287685e-02 1.702509080587521595e+01
-5.399314722505538455e+00 -1.991795073359087231e+00 2.079552751410302847e+01
-6.012563670937189464e+00 -2.627042974798300179e+00 2.087602776960344642e+01
-8.060427384750525448e+00 1.368817109066164051e+00 1.526997532923866174e+01
-6.789566504842238892e+00 2.384435995639109240e+00 1.372862997372609328e+01
-6.195402589640471192e+00 1.616001533155095427e+00 1.414172108394103589e+01
-4.393279861693688559e+00 5.177930934777330130e+00 1.865870344977527395e+01
-8.607682988799822965e+00 1.845902978532779848e+00 1.904570560829393600e+01
-5.779346949462727423e+00 1.407005700105251611e+00 1.458529036939177104e+01
-2.197038537025455707e+00 -3.075609563911809285e+00 1.995371646551641476e+01
-3.025578146484359188e+00 -2.968673650971682232e+00 2.018756494757163011e+01
-4.762234797701741407e+00 4.671411939937273772e+00 1.682012413533589523e+01
-4.398055396150225782e+00 -2.625715488471668468e+00 2.058906205043450655e+01
-8.734686669891370769e+00 1.702472300551564954e+00 1.890311777754271105e+01
-4.826560487290620927e+00 -3.194359243107963042e+00 2.058956829222849905e+01
-5.816973979430428265e+00 -3.004514879104817293e+00 2.080617696622259416e+01
-6.832575290233406484e+00 -2.767350159299537093e+00 2.098416850675457823e+01
-5.997401973759372673e+00 1.315530125916145376e+00 1.472743030130465769e+01
-5.568212012721459381e+00 4.930745033440647518e+00 1.722269329911875246e+01
-4.100738060929789874e+00 3.388914259872613854e+00 1.436427225280478837e+01
-8.096474029506086634e-01 1.374979525412352688e+00 1.602492818555502652e+01
-6.373548442266280922e+00 -2.749156033287459611e+00 1.889307293423081546e+01
-3.545112573116621313e+00 3.930773046851158359e+00 1.600185565915096220e+01
-1.560373413656115815e+00 -6.743761680154456428e-01 1.981925780514939817e+01
-8.711389931870737513e+00 -2.703396771870669180e-01 1.680427148431170536e+01
-1.639496462284683265e+00 1.621697470887734083e+00 1.482689499641495701e+01
-6.153366581416693570e+00 -2.365142080470171937e+00 1.863694758865203482e+01
-1.957027776396916607e+00 -1.835638485062735858e+00 1.709087939091877928e+01
-5.368153769539729225e+00 -2.941184896785677072e+00 1.868621453561576828e+01
-2.958051298906687165e+00 -2.414633939392265560e+00 1.784727476682166269e+01
-5.182753620019309171e-01 -1.207385911076757967e+00 1.753771635534929629e+01
-4.967912735768661214e+00 4.635537134554116534e+00 1.665065916558968695e+01
-5.895398375144231817e-01 1.579694878556581639e+00 1.685134631039996833e+01
-9.492915949079159255e-01 1.822329731282345211e+00 1.600653027071729895e+01
-7.641537227329654236e+00 1.812214707616151887e+00 1.466988593347635117e+01
-1.389687063259327671e+00 -3.090128484819522736e+00 1.972935533254563012e+01
-8.534239000065593217e+00 2.486879645307988884e+00 1.659399148177980265e+01
-3.536352182793224941e+00 4.702560301941608678e+00 1.763925140576942141e+01
-8.260329695559565977e+00 3.546178350000799728e+00 1.732673239338201654e+01
-8.833014051895329288e+00 -4.380235859077020177e-01 1.703689982678523052e+01
-7.988352271353853062e+00 3.904107164495004501e+00 1.737419474562113209e+01
-7.589988589238406469e+00 4.155488913834403775e+00 1.714798781200659761e+01
-1.058183922923156439e+00 2.920448523025202192e+00 1.746674566111735771e+01
-8.252410498535354577e+00 2.883621780088756470e+00 1.890988577552644756e+01
-9.035740249568657845e+00 2.143836027760461338e+00 1.749449477677959663e+01
-7.368249829635682424e-01 -1.635769986172805335e-01 1.647519376579408856e+01
-2.533338477734556893e+00 2.327758798061723144e+00 1.403742529106349224e+01
-5.351925187174644272e+00 5.171807223905900308e+00 1.787176541592852175e+01
-2.388570796569210231e+00 2.658301100933301520e+00 1.481666331669543268e+01
-5.130029149189161863e+00 -2.452666019737576031e-02 2.053280694858161581e+01
-2.368985654014054809e+00 3.843770864464473469e+00 1.723828784392161140e+01
-2.372109984666979976e+00 3.053235310154342130e+00 1.564312240890136962e+01
-2.397162418828077790e+00 3.383082869618844857e+00 1.627360021607452722e+01
-4.220445229357853378e+00 4.374344449429614201e+00 1.904349286871786262e+01
-7.584069469357895166e+00 3.760280859926391273e+00 1.653812306986280589e+01
-8.617270352214028151e+00 2.280164264189084911e+00 1.871051018613405148e+01
-2.412682463640066999e+00 3.187540849383605046e+00 1.585689983952543258e+01
-3.212607152879596750e+00 4.636728798905423332e+00 1.786569461918119117e+01
-2.988354580964319052e+00 4.233135307014489257e+00 1.726387661393431472e+01
-2.917753683811834087e+00 2.950601005501364060e+00 1.458753367520779420e+01
-6.712093551322623419e+00 4.843043639090235608e+00 1.745336983907049699e+01
-8.185787285621408671e+00 3.851395887107274429e+00 1.757862607213483841e+01
-4.746464537188910704e+00 -1.204361051334506660e+00 2.068422027601572921e+01
-6.347254728469494900e+00 3.162091802045764233e+00 1.394793758400773953e+01
-3.385837267918991866e+00 4.442917370526282106e+00 1.724799276268139181e+01
-3.599895757142881791e+00 4.745240782733986862e+00 1.766844720413317305e+01
-4.339572790122574908e+00 3.587993270365940734e+00 1.458645844270623826e+01
-3.224593403104454303e+00 2.654914846913889459e+00 1.364845223622003800e+01
-3.386834518160880769e+00 3.599765421041161595e+00 1.547534300563680887e+01
-3.328631214477204558e+00 3.915377593705394510e+00 1.619184626044121700e+01
-4.149099434986730728e+00 2.913786357094829249e+00 1.337417722353225713e+01
-3.758531171101563650e+00 3.066744041365236484e+00 1.399966856507853663e+01
-3.564176641448141503e+00 3.276010978271430840e+00 1.462785268685060913e+01
-3.575175999312260267e+00 3.668976023070772641e+00 1.543554297254206631e+01
-7.196911878990574607e+00 -4.380928477874779237e-02 2.078629344747415075e+01
-3.968453382477657776e+00 3.079329240992761285e+00 1.384355136463165792e+01
-3.807265392103282409e+00 3.610213665407999706e+00 1.509196300551262482e+01
-9.029352344949593601e+00 -1.325411564684529697e+00 1.828326361596791116e+01
-3.569716371452789971e+00 4.056959627985798456e+00 1.623563627364150364e+01
-6.778240710019561632e+00 4.481807907471452523e+00 1.681875038773146258e+01
-4.327606407963131119e+00 3.191333312627699925e+00 1.376661422927081446e+01
-4.537409614219195753e+00 3.379545242169516239e+00 1.399038606501052584e+01
-5.173059567832203776e+00 5.172675204318489151e+00 1.789648412792592325e+01
-4.559901350439928613e+00 4.635424601233573583e+00 1.681410022956460182e+01
-3.159261585146660334e+00 2.486289928943803407e+00 1.344126816327702301e+01
-4.961748434817565112e+00 4.713557932988803323e+00 1.683101679697866615e+01
-5.768510680968621074e+00 4.981240421960593245e+00 1.732481164571819932e+01
-4.734189933335867018e+00 3.224498299869402285e+00 1.355452796749786870e+01
-4.768980695238401957e+00 3.473156709277787080e+00 1.404409475137186547e+01
-8.517975242484304488e+00 1.082131277745556730e+00 1.584111639772329738e+01
-6.579486993270749373e+00 4.674614176872410098e+00 1.699269210952114406e+01
-5.321654517424146746e+00 3.952968137267177884e+00 1.931804095825193457e+01
-6.563909407555207132e+00 4.907962711085640528e+00 1.744186488187820316e+01
-1.750260241492638702e+00 4.014423224369394916e+00 1.846509058100136969e+01
-6.133228578417452503e+00 2.930885993501386455e+00 1.341394011108081941e+01
-5.942116153005803980e+00 2.970626138462189036e+00 1.338628382797270433e+01
-6.179390983352680777e+00 4.775794970958877173e+00 1.698830132665113979e+01
-6.153435959123912724e+00 5.092063174794416724e+00 1.761631096260343554e+01
-4.933977072687684151e-01 9.416615491995181664e-01 1.702150061986908725e+01
-6.426266294483825803e+00 -3.399571141013716602e+00 2.080094339689402716e+01
-5.032229336891766103e+00 5.331907984713485149e+00 1.839186726992237908e+01
-6.945917903410239624e+00 5.020081533206706581e+00 1.857215305064198674e+01
-2.322566060019156886e+00 1.896060596015561428e+00 1.413545377477834109e+01
-7.180704585886453550e+00 4.943145447902725920e+00 1.819077775378210760e+01
-5.837480245060747919e+00 3.409382866353945385e+00 1.955355741576612161e+01
-2.382364934490754038e+00 2.277584833663163000e+00 1.424226577418109230e+01
-4.373732310331830853e+00 5.232258287880410030e+00 1.848232997802463728e+01
-4.515896322615398084e+00 -9.646923352248417682e-01 1.746029557967350598e+01
-4.565082995454607939e+00 5.301371004645507590e+00 1.845820644066720462e+01
-3.945751946190329207e+00 3.922494364040294723e+00 1.560994972079109999e+01
-4.999000023363529444e+00 5.166880894710868866e+00 1.880961893866096091e+01
-5.699036667325657390e+00 5.334700536642128732e+00 1.848721734520363214e+01
-5.982535530525138867e+00 5.319187677474164211e+00 1.819486361889648407e+01
-6.159795196573401022e+00 5.296997233452988674e+00 1.821658043578910480e+01
-1.896881483483246811e+00 2.744455412439480213e+00 1.921524656229046712e+01
-4.292536423203719309e+00 -2.409271503254045044e+00 2.058319733410331054e+01
-3.122420687910434811e+00 -1.787218764072669108e+00 1.756257457207387063e+01
-6.778684891129493018e+00 4.963569928181122748e+00 1.870374567771480656e+01
-6.976058189481295635e+00 4.818527602805140475e+00 1.873819927556532150e+01
-3.966052398650038668e+00 5.104307417712116823e+00 1.828049790636914906e+01
-4.390310854784651440e+00 5.139228926178345702e+00 1.875788705965367598e+01
-4.598371891113253618e+00 4.861374451953339282e+00 1.892879270775610223e+01
-7.423037726091330946e+00 2.399866838795052804e+00 1.984369403018895639e+01
-4.389702389071334032e+00 4.863413608915219122e+00 1.890242595706882867e+01
-5.808791998406889867e+00 5.085377168952578408e+00 1.887090152562522860e+01
-8.936881679310300086e+00 -1.522713417745023889e+00 1.980702300122807458e+01
-6.179898615713158350e+00 5.237795629013838550e+00 1.862090222252361826e+01
-6.521575953742201115e+00 4.821232055641254455e+00 1.891274430953352237e+01
-6.184425206840067801e+00 4.852588125423274334e+00 1.897810522302611247e+01
-6.608317631444309725e+00 4.480201318252268194e+00 1.905588070054524508e+01
-3.764221284739615925e+00 4.999536925132666454e+00 1.861166710510443778e+01
-4.011502458024025941e+00 4.832358244740458275e+00 1.883002568497470719e+01
-5.185663508841725111e+00 4.618276676518265234e+00 1.908183375133506843e+01
-7.966383008434394064e+00 2.168588825098157979e+00 1.532849667153062967e+01
-4.808721461593309598e+00 4.404967296908352203e+00 1.910913986256070984e+01
-5.412419571897490123e+00 4.624673642600771295e+00 1.910077237692195951e+01
-5.211182411142301518e+00 4.420549631915117850e+00 1.915273950709848094e+01
-7.052859497254591936e+00 3.492678987413616820e+00 1.943050016897075949e+01
-6.005132786808072609e+00 4.837350430727852313e+00 1.901021624325198900e+01
-7.929592295430146542e+00 2.716447157500477605e+00 1.576328682748872012e+01
-6.283899321183487707e+00 5.164185637719970856e+00 1.874072845289994405e+01
-4.326606627344931510e+00 -2.862831303021720952e+00 2.054252430269596630e+01
-5.586285467780813363e+00 4.454756262057480320e+00 1.917559704513939067e+01
-1.184410539844383603e+00 2.647540802859960962e+00 1.678484521066173585e+01
-5.775990549269073071e+00 4.404456999256363581e+00 1.920368549958267579e+01
-6.228708544954924875e+00 4.242512692302277344e+00 1.923248290740485089e+01
-6.394576206957780506e+00 4.008561410684785109e+00 1.931730513196801269e+01
-3.599136208428297401e+00 4.184770613972274234e+00 1.646755543766394680e+01
-8.364002048186257809e+00 -1.166451556728462235e-01 1.636702017584886448e+01
-6.627457060486720231e+00 4.077503433932212928e+00 1.924763964545298478e+01
-7.650221590868203414e+00 4.321727266277090251e+00 1.858977635456461996e+01
-7.573455354242674353e+00 4.490328058610264961e+00 1.855516030091270352e+01
-3.956637610118613146e+00 -2.651457023651405454e+00 2.047226868610208328e+01
-7.743998029737233502e+00 4.240853973327869397e+00 1.855090752005251886e+01
-8.130821501618385128e+00 4.073008168447260324e+00 1.780972864710942360e+01
-3.578753123777225653e+00 4.976825100998834017e+00 1.826299865761920671e+01
-6.403096837424625321e+00 3.241662557572131842e+00 1.412525560604255048e+01
-3.392521430474160660e+00 4.181348399981110298e+00 1.899601620817339409e+01
-4.026066077646842878e+00 4.167820764060329530e+00 1.908980422065182836e+01
-4.438166224070659638e+00 4.150906036762957996e+00 1.914732702956899146e+01
-5.621205906473425884e+00 4.206740969228185634e+00 1.925440608134384490e+01
-5.018161169142912215e+00 4.006677636464199388e+00 1.926121492430239357e+01
-5.589192418868414336e+00 4.100756671127631314e+00 1.928948842644160067e+01
-6.033639156788217051e+00 3.823457106961018148e+00 1.940864295653223337e+01
-5.761785932460590232e+00 3.802803577123349932e+00 1.494549660387103529e+01
-6.661560406959975644e+00 3.667819305438213107e+00 1.942685335646957867e+01
-6.585119068109181129e+00 3.546865465511244597e+00 1.948330735796029245e+01
-6.812188357010172446e+00 3.862758925584822478e+00 1.931490852185454798e+01
-5.871032080421556998e+00 2.625387894754148466e+00 1.982699358549509583e+01
-7.563754226822521964e+00 4.021107923121829408e+00 1.889729181151415105e+01
-7.466977003715542516e+00 3.903355232872164571e+00 1.902111402960450448e+01
-8.116464357632420246e+00 2.590642303272534530e+00 1.596937184716728098e+01
-6.503009903531071778e-01 2.338019269730368777e+00 1.725418518301038517e+01
-7.837054096748569343e+00 4.308700361130469503e+00 1.837632143595121903e+01
-2.807026233759370104e+00 4.488014354575393661e+00 1.878261717766812211e+01
-3.206660856149742500e+00 3.801447885548995043e+00 1.909602368231286107e+01
-3.137051388144752817e+00 3.154227138013927512e+00 1.478112269995634875e+01
-1.426885192395008106e+00 3.565642551188746179e+00 1.807859383080761262e+01
-2.832893512395020519e+00 3.751287938964887658e+00 1.906334007219865612e+01
-1.043492308444910366e+00 3.276624888775896416e-01 1.947927426198906886e+01
-3.645265296131340094e+00 3.580163932492850698e+00 1.923369668516715336e+01
-3.865100194287757418e+00 3.788282093280984419e+00 1.919289834246671944e+01
-3.867459146594148578e+00 3.547332838602814231e+00 1.927391513846608717e+01
-2.616760338590064183e+00 4.016343436321750282e+00 1.893713368260988261e+01
-4.404887029395323950e+00 3.807490079714262343e+00 1.925559525723668486e+01
-5.021740122299625853e+00 3.813807188383441904e+00 1.933384962699904719e+01
-4.705481397836501323e+00 3.744882782158001078e+00 1.931764169767031802e+01
-5.995506841299365064e+00 -9.676689616201270550e-01 2.078877201298966781e+01
-5.978765092463692810e+00 2.815965505958201831e+00 1.313572653280791513e+01
-5.257632377357506215e+00 3.806455671988862033e+00 1.936240173883912519e+01
-7.004894108077334813e+00 -1.990891985080689652e+00 2.104992626985914228e+01
-5.034425276280020789e+00 3.608329800734759285e+00 1.940734637193185108e+01
-6.046579241908164981e+00 3.672926541805695777e+00 1.946158018526946876e+01
-8.446228772431307874e+00 -1.757701950915321332e-01 2.039271326904058412e+01
-6.013399577159117548e+00 3.556496899376726528e+00 1.951027167997329315e+01
-6.872720840343272464e+00 3.250421331761270238e+00 1.957934807947469125e+01
-6.661884624409206701e+00 2.991614814754691931e+00 1.970808293054246008e+01
-1.297972136373661822e+00 -1.871829338998671988e+00 1.981818901424114188e+01
-7.052494757508192436e+00 3.273497102147485904e+00 1.953419129485244099e+01
-6.281845496177254518e+00 -3.702788219112909562e+00 2.069932066129776160e+01
-4.592292380143252473e+00 -1.823966045502195987e+00 2.068405743235447147e+01
-8.655962199237823285e+00 2.779508182572153707e+00 1.710486066466086186e+01
-1.718821127463518117e+00 6.902834304526102027e-01 1.972779213533632969e+01
-9.043783219524623718e-01 1.527501652717999647e+00 1.896019661393543743e+01
