-3.556138021113399716e+00 1.324463890110323172e+00 1.489011343281669753e+01
-7.892716928298398216e+00 -3.338392594424803850e+00 1.412745380695383801e+01
-9.376019175264000083e+00 -2.801014382780189216e-01 1.258786460153946507e+01
-7.944793063778968545e+00 -1.302580594934400704e+00 1.115993258968805435e+01
-8.489951220859632386e+00 1.984540354262027684e-01 1.116262893501608744e+01
-7.877934425069508251e+00 -3.180556874935644540e+00 1.512367515477477298e+01
-8.776391124799404864e+00 -1.825723835925587846e+00 1.530149584947628938e+01
-1.870740678972233173e+00 -1.787649702506501903e-01 1.209505736583964364e+01
-2.594534732164035962e+00 -3.584239011788285634e+00 1.558179157946568694e+01
-6.671801655752958915e+00 3.314302503433331992e+00 1.315853069240375106e+01
-7.002569944167928107e+00 3.227944588890025113e+00 1.313944010535254847e+01
-5.379688652308574071e+00 4.600024496686678788e-01 1.512179073670385776e+01
-2.212171147181436481e+00 -3.541277530020183750e+00 1.318870511798689193e+01
-5.772831418164981798e+00 1.866854221964673100e+00 1.125663961240453403e+01
-8.332976400760141900e+00 -1.379307040298686449e+00 1.129187096828706416e+01
-4.084760652426763450e+00 3.292326879495392156e+00 1.369588645273609728e+01
-2.773649951785264633e+00 -1.132395212732067780e+00 1.549497663738048914e+01
-8.287932047393891111e+00 6.290094621661324048e-01 1.121949754030137569e+01
-6.918919700981768450e+00 -3.764496895651023411e+00 1.456248846795293872e+01
-5.611553003648539040e+00 -1.186595486932298993e+00 1.559912927673386207e+01
-1.895196950527569868e+00 9.043165234435894817e-01 1.350886849937383971e+01
-3.348910753974355892e+00 -2.581441715622758704e+00 1.249720921364266246e+01
-3.150482883528141098e+00 -2.178644946545638117e+00 1.190245327730754354e+01
-6.759843613960726749e+00 2.156061637283302801e+00 1.427493887631855785e+01
-6.614876197630909616e+00 3.381561278870087950e+00 1.332856124920499497e+01
-2.726187264833680679e+00 1.184738327911335043e+00 1.459643165037361001e+01
-4.626687001616535788e+00 -1.601137739396779391e+00 1.572424630673090462e+01
-6.853266152186269444e+00 3.293271757042197656e+00 1.314299761314127579e+01
-3.303926367812560105e+00 2.520005927518591093e+00 1.289960814374894937e+01
-7.361458888373735299e+00 -7.308924631264988037e-01 1.055441883252527902e+01
-2.316677630021411360e+00 1.444026670797244893e+00 1.404580930527953342e+01
-4.375788323107168587e+00 1.550408073046099622e+00 1.106690590926353224e+01
-4.160141768899145553e+00 -3.821949597722352987e+00 1.575643969253419385e+01
-3.916132202253638894e+00 3.232315291020941395e+00 1.367075059122059599e+01
-2.374624247307630220e+00 -2.708422739173150351e+00 1.532116712775136591e+01
-4.961419704531977004e+00 1.996993385729311399e+00 1.156998084449043063e+01
-8.291824111408690356e+00 -3.320791193303769706e+00 1.413730194059179013e+01
-8.105797477836366838e+00 -2.240436028115316613e+00 1.270286130244171829e+01
-2.724291759117138945e+00 -7.345408035551708181e-01 1.541165406630455692e+01
-9.341035507884225098e+00 -3.122507769127014221e-01 1.239883282624651883e+01
-2.978376151110543990e+00 -1.133685668584337503e+00 1.072795904562673286e+01
-6.524907163128078835e+00 3.411539437113053630e+00 1.325534198545301479e+01
-4.018217577700765375e+00 -1.877450940721790307e+00 1.226988734353945887e+01
-2.493242865377983453e+00 -4.320215798572005994e+00 1.396517170509014250e+01
-2.364371704848410527e+00 -2.363806219587032853e+00 1.210903560062519091e+01
-2.917238070900873836e+00 -1.314235404786140204e+00 1.095736400705745694e+01
-2.188198434361043887e+00 -2.125906797129367032e+00 1.202925537240575693e+01
-8.914228210311865297e+00 -4.786580034150040852e-01 1.144364620097074692e+01
-4.124775158186833046e+00 3.401107952199830198e+00 1.368537657508947092e+01
-3.016374542280716664e+00 -3.205710872651887033e+00 1.582473896763956844e+01
-6.531563958720630225e+00 1.798170300370422581e+00 1.447913210646370175e+01
-9.325559333462388523e+00 -9.567190336249344895e-01 1.469606759272538454e+01
-5.689078781987909395e+00 -6.958145051022381899e-01 1.050821833950041650e+01
-9.164645469191436078e+00 1.510429028785651440e-01 1.224305338505111962e+01
-9.021148181879297567e+00 -2.728621857950570107e+00 1.336024661676451331e+01
-6.466440044221884342e+00 3.424141443462608514e+00 1.333366355258443292e+01
-2.393320323785790293e+00 -7.512418179162501097e-01 1.074258493544157034e+01
-3.852500127335385827e+00 2.950986454649267898e+00 1.324175787257858872e+01
-4.322841566242672684e+00 3.494559538041466240e-01 1.526559970164534263e+01
-4.304262752296014405e+00 3.443269351649735910e+00 1.367281955721030329e+01
-7.066226060474362747e+00 -2.259737154307221996e+00 1.325205228394131751e+01
-9.006881946549881945e+00 7.503367534607465750e-01 1.231141904089295736e+01
-7.937145358964695419e+00 1.176862872068840327e+00 1.448113824177597309e+01
-4.218216178572895103e+00 -3.225202337057080815e+00 1.593369284447452827e+01
-8.487611783933108001e+00 -1.516802606516772567e+00 1.546283441116970891e+01
-9.498714072788715157e+00 -1.526832002723048642e+00 1.285876995850814808e+01
-2.157451952099190606e+00 -2.892327945919164200e-01 1.119339982307357673e+01
-3.500563439099168228e+00 -1.284779393032227102e+00 1.083034789678066545e+01
-7.003925464167170212e+00 -1.856682500147483150e+00 1.566570461862227148e+01
-2.929731718625234738e+00 -4.510489870091513254e+00 1.508690478751110930e+01
-6.096842608492573312e+00 3.340851426621791465e+00 1.336993582088392429e+01
-2.980844452715431192e+00 -3.811846736152361803e+00 1.572483620337085597e+01
-2.068924091601866966e+00 6.481644947431028925e-01 1.413378909042437925e+01
-2.434975678297673696e+00 1.395790822153054833e+00 1.277787606778146312e+01
-5.439316404227352741e+00 -6.400820796109347732e-01 1.035354733538706284e+01
-2.657756628453676662e+00 2.107992050970878051e+00 1.406341610171549661e+01
-9.006481770276336007e+00 -1.704358718063098355e+00 1.203236962439790858e+01
-5.931812516211986797e+00 3.296631317153133622e+00 1.324042217799986076e+01
-7.411682635212970993e+00 -2.863354800433823844e+00 1.571199110310572422e+01
-8.749809424623910203e+00 8.304872257072482000e-01 1.405906022778839315e+01
-8.852890989327052651e+00 5.584975326562333642e-01 1.165647291940229735e+01
-1.991377176080383560e+00 -2.158829668239687916e+00 1.400121720267475212e+01
-1.847423480308584942e+00 3.481843653689966622e-01 1.328170790317280137e+01
-8.308334845847685557e+00 2.100863749978903794e+00 1.313345943461442999e+01
-9.472708891733724101e+00 -1.557328983992006588e+00 1.462159423866998509e+01
-3.047311394598608558e+00 -3.908767308596343693e+00 1.568344225093629518e+01
-2.116709242310566896e+00 -3.460013496888368234e+00 1.463376301820386516e+01
-2.721689872866139837e+00 9.024702369710695393e-01 1.185277688055867173e+01
-6.080329944715413326e+00 3.290158719986329583e+00 1.320766733878244992e+01
-7.635663362394762288e+00 2.797016759185336987e+00 1.305759003461089662e+01
-3.422079894996006288e+00 -2.024082528283847271e+00 1.578410872650949415e+01
-4.904429642397304612e+00 -3.102145432250592361e+00 1.381574818453821507e+01
-6.032924452877836963e+00 -2.058310104027925913e+00 1.576666761686243490e+01
-1.913191050888363165e+00 -9.290220377719999867e-01 1.372078438574795456e+01
-5.498632876424684568e+00 2.349622393838109780e+00 1.429579858181794805e+01
-7.744239241831943232e+00 5.568461331554419580e-01 1.074007634490175178e+01
-8.888687481072572893e+00 1.040521165438738516e+00 1.211204679063793321e+01
-2.388808295309415186e+00 -4.259573884346785633e+00 1.491645823622879874e+01
-3.077088101136631337e+00 -1.734684592270490100e-01 1.050616018483501080e+01
-7.671995136247030445e+00 2.701003688627567012e+00 1.283909253726912425e+01
-4.626147097059844171e+00 -2.823946697007252649e+00 1.357790510887141977e+01
-1.951437097074669058e+00 -3.162748525287811585e+00 1.367954997026113517e+01
-3.062843682989914385e+00 1.169831818082518682e+00 1.482298991710302971e+01
-6.361457907151197411e+00 -3.199011634413337912e+00 1.582130025604769941e+01
-6.799463174762841788e+00 -2.802325094608373313e-01 9.766293635029292375e+00
-5.836234023273365601e+00 -1.892896474942836083e+00 1.281721101704410870e+01
-2.516446164442843969e+00 -2.766398184796817983e+00 1.553203406562924016e+01
-8.528751502496417558e+00 -1.550755001837873959e+00 1.152096087355487697e+01
-7.688673237224501023e+00 2.724327570761949424e+00 1.299099266380843432e+01
-8.192989363645610368e+00 2.438158810852653957e+00 1.289807906647894242e+01
-3.431022497302128382e+00 -3.703353965933631198e+00 1.360463455517301412e+01
-3.969243543061416801e+00 -3.687292932018529701e+00 1.582222558628408393e+01
-4.824503289691548069e+00 -2.256195495936415885e+00 1.308059476849437175e+01
-2.543034717241273945e+00 -3.164788989997046276e+00 1.562237423108859957e+01
-2.562210505375337899e+00 2.078809949747405295e+00 1.386650018104980120e+01
-1.813336292254098314e+00 -1.706106959823597169e+00 1.327180555025749698e+01
-9.183349234174389863e+00 -2.258911228963951690e+00 1.280317320941199455e+01
-1.879641671593268004e+00 -2.651786953575533179e+00 1.299702516593159629e+01
-4.601726568690395425e+00 -9.318592612656160235e-01 1.559925590979201360e+01
-9.198477888779589051e+00 -2.548513080543923781e+00 1.318122512799651247e+01
-4.473818136658368694e+00 3.426828689356121060e+00 1.367402694535715568e+01
-9.514827661653656676e+00 -1.327226579555145225e+00 1.280127221934139925e+01
-5.260137953061327032e+00 -4.601244966193682728e-01 9.823686799088676480e+00
-6.476675149881736537e+00 3.325846110645679587e+00 1.343178141726688324e+01
-7.721564011128636551e+00 -3.566850439897023772e+00 1.471915683863966251e+01
-3.122589695467236304e+00 -4.582951023033675853e+00 1.494311561030649926e+01
-3.679736810560820359e+00 -3.859106514098368468e+00 1.390857971703981377e+01
-9.437508942199769990e+00 -4.867848621560351141e-01 1.400524855285707559e+01
-3.108557157734619825e+00 2.654539845493926187e+00 1.404274585405836717e+01
-5.845764519437906870e+00 2.956683251969191240e+00 1.272877494421497602e+01
-3.398527890257554862e+00 -2.644382699627658706e+00 1.586634401640794323e+01
-4.840887559176317190e+00 -3.241804979968503364e+00 1.389808236845556877e+01
-3.199672779968853575e+00 1.662535798640364382e+00 1.196731624649338244e+01
-4.371419262737304301e+00 1.952572258136064498e+00 1.165610658197660854e+01
-2.132363394166604920e+00 1.474312828632970751e+00 1.358376533938268693e+01
-8.362513158720663142e+00 -1.004379894725402345e+00 1.536737696468591707e+01
-9.031194504896046027e+00 -1.267784298550577393e+00 1.183276270546266318e+01
-4.301539439408219145e+00 2.618642630673581273e+00 1.425496542484368234e+01
-6.587513243197500756e+00 -1.586901039290768534e+00 1.244552144071185040e+01
-9.464266717833753617e+00 -1.330902674469652158e+00 1.267997331688906115e+01
-2.527612096897977167e+00 -1.870758937928327814e+00 1.162515397335647549e+01
-8.601850841914380652e+00 1.346900251038385399e+00 1.202306826895951986e+01
-4.152587290140276721e+00 1.070928180945826647e+00 1.499699920838042999e+01
-4.515621780618728209e+00 3.427687845438902592e+00 1.357812003550179014e+01
-8.336412539773490948e+00 2.170497479133527197e+00 1.269950464952395208e+01
-8.746239765716627090e+00 -3.977216752739445305e-01 1.499530600298499650e+01
-8.638749107445640618e+00 1.228967146966429169e+00 1.193177246867455210e+01
-4.301608144933722677e+00 3.281443898589837538e+00 1.382869153185972522e+01
-1.943017483947519164e+00 1.080320686180145096e+00 1.353036800929053385e+01
-3.960375502745099752e+00 1.576148110321464291e+00 1.479602260167929728e+01
-5.778374481131904439e+00 -2.181458767071387417e+00 1.314721557590495138e+01
-4.197343905089888416e+00 -1.184399913499856183e-02 9.368864960498903827e+00
-6.401898740155422374e+00 -1.607134416149153200e+00 1.247454334755168759e+01
-6.350260683856127741e+00 1.252236610547175832e+00 1.062414061946944344e+01
-9.412984889200766148e+00 -2.201514786975926175e+00 1.315746365831812170e+01
-7.430237013690488723e+00 -1.553785164845634004e+00 1.196075775678437481e+01
-8.731024610647690309e+00 -1.557235227850992221e+00 1.166221587449012986e+01
-9.101510473233751952e+00 -2.848669488313937403e+00 1.394782857784336727e+01
-4.731215324047895798e+00 3.414176893314375238e+00 1.363967226855162806e+01
-5.689631441967869740e+00 9.996632743157194412e-01 1.014814132023812476e+01
-9.406128457045445757e+00 -1.141820950185227002e+00 1.249846890478710293e+01
-5.646601831913892866e+00 2.894557162314010501e+00 1.260681826506180414e+01
-7.314133333539549753e+00 2.165011197784078689e+00 1.411836706031201061e+01
-4.854120022059682071e+00 3.387828071303104593e+00 1.361678952551195465e+01
-5.741807034758302564e+00 -3.220552115765524803e-01 1.536760482838585773e+01
-4.117288119995496487e+00 2.116241664141877976e+00 1.450858087069760671e+01
-9.118800278926775249e+00 -3.427565343712233314e-01 1.459931201325907324e+01
-2.010988174995703481e+00 -3.570220967106379373e+00 1.402676901556510813e+01
-3.002555227516919611e+00 -2.406620828421196290e+00 1.204631210934373797e+01
-3.297302465575548958e+00 -4.637764056365940135e+00 1.465210940724597322e+01
-1.979055327706594092e+00 1.175061227145291154e+00 1.355664951325482548e+01
-1.948810645755707505e+00 -2.632067052274999153e+00 1.273690790867522793e+01
-8.215411255872973939e+00 1.929934326684980661e+00 1.228003764645557538e+01
-6.052947786433515276e+00 -2.588829555917187886e+00 1.354465408422835537e+01
-3.350205739613747014e+00 7.688977763840751933e-01 1.085336904369329858e+01
-2.020445416482917533e+00 -2.114168294453584451e-01 1.423887374084801394e+01
-3.497747981270377338e+00 -9.781349204393916530e-01 1.041825027393745273e+01
-2.376520805048059071e+00 -3.114866159104491050e+00 1.530317721395111619e+01
-4.545111695922213535e+00 -3.932475904292684010e+00 1.563890044201467333e+01
-9.138924919860368590e+00 -1.238183804651707742e+00 1.506522435803765347e+01
-2.421824141381526463e+00 -4.241778010295877976e+00 1.389556356640841983e+01
-2.871635429783745419e+00 1.219631789597526828e+00 1.198025490012199157e+01
-2.067384611170028919e+00 1.295553812932431548e+00 1.342271364298154879e+01
-6.255024806355759637e+00 -2.675667042072707336e+00 1.362389607061841446e+01
-8.250341763707178089e+00 2.347776699279750190e+00 1.276394052098560650e+01
-2.069271887619039685e+00 -3.261128069324782164e+00 1.308059960445165615e+01
-4.760757130926431380e+00 1.822312976127457018e+00 1.136945062589586541e+01
-5.517244359002876131e+00 -3.657747580771168128e+00 1.419508238499216191e+01
-5.634709106534626422e+00 -8.416100363231437953e-02 9.381399663567954406e+00
-2.255782222122535430e+00 1.698202924907119549e+00 1.379286811035755989e+01
-9.234602443402151195e+00 -2.341537547427888999e+00 1.297904328870688317e+01
-2.473790686365001878e+00 -2.289531753238109868e+00 1.536062825898338957e+01
-5.578369014938180825e+00 7.703096784987937262e-01 1.499088923545280494e+01
-2.628211880499049524e+00 1.950999622044332860e+00 1.322372103717655989e+01
-7.894763359441267170e+00 2.442380184176226265e+00 1.342239440145755225e+01
-2.582362044442423787e+00 2.082349958166247461e+00 1.399229262023413156e+01
-6.963334869797678017e+00 -1.294486127817385590e+00 1.554513827946297511e+01
-2.421247977799591666e+00 -2.416280749609706735e+00 1.537056321865918562e+01
-5.853628378686076772e+00 -2.563196192446055566e+00 1.350759436235290423e+01
-3.986185890997841597e+00 -7.311947216546901274e-01 1.561306049892849046e+01
-8.535960322080422102e+00 -2.024170349180578032e+00 1.541659531723300347e+01
-2.182853485499995028e+00 -7.197168533467834806e-02 1.460996128721716047e+01
-7.800574604138526880e+00 -2.574567337241422837e+00 1.350928393754563928e+01
-8.825309455777142986e+00 6.862614460328080312e-01 1.410909683477038357e+01
-9.571422212824373332e+00 -2.067281919494316167e+00 1.402905904794971548e+01
-8.259905908273005082e+00 2.299016630457545673e+00 1.296387992530154065e+01
-4.580126869624058017e+00 -1.794992217591412587e+00 1.248850950174846730e+01
-2.031821266954110250e+00 1.305181829954615402e+00 1.359836666530163285e+01
-7.147333031857892038e+00 -2.824667915415100428e+00 1.576649677160409624e+01
-5.370710212386991422e+00 -9.492799435412662135e-01 1.555225451641292267e+01
-6.500304672312116061e+00 1.321132659894273864e+00 1.074551147227673908e+01
-6.808192634408761101e+00 2.758386682898046782e+00 1.249445384467569653e+01
-2.330172631187056975e+00 1.640819426793253877e+00 1.396619554291574161e+01
-3.399165152369247878e+00 -3.929363854660177235e+00 1.378689754403286827e+01
-7.849076577585114123e+00 2.600060114221729002e+00 1.317014521971063346e+01
-3.971170084853427262e+00 -3.451865202421492196e+00 1.592509868748251023e+01
-2.135141314342801522e+00 1.481559239306460496e+00 1.379468841157211045e+01
-9.307535200779224027e+00 -1.810420520750000151e-02 1.383104143454996660e+01
-9.518192308185295047e+00 -6.026670684494184194e-01 1.354930893574239548e+01
-1.889960158348068742e+00 7.085212170378030194e-01 1.352878143402632816e+01
-3.741379757895582081e+00 -1.753299231110466483e+00 1.175790978032895850e+01
-6.132488218195097041e+00 -9.434312847604662267e-01 1.109383283837618706e+01
-7.589274222387828672e+00 9.519032338349942002e-01 1.095430201296350958e+01
-4.563140810752232213e+00 1.719873669663244620e+00 1.468471646938579767e+01
-2.218725591209565806e+00 -3.373318240968651960e+00 1.496326195448756380e+01
-3.981851434604164908e+00 2.237035316618357861e+00 1.444677547058038414e+01
-5.135113294930862438e+00 1.841736082334879177e+00 1.131316579119466326e+01
-9.661579442519840910e+00 -1.726495656348717045e+00 1.400584021132817725e+01
-4.692965827662769485e+00 1.486733947758972718e+00 1.089826496067625783e+01
-7.572622247834505771e+00 -1.703523690588915063e+00 1.215897344966085569e+01
-2.215227170658370603e+00 1.508591543275217495e+00 1.389320420692620672e+01
-1.950333446787186897e+00 4.317338540497903665e-01 1.394685141203933654e+01
-7.046905320120720795e+00 -1.937068990587785589e+00 1.289553551314085666e+01
-2.204865059968544205e+00 7.749910820476051398e-01 1.423929010564826569e+01
-3.208325531215897808e+00 -3.078261654198783059e+00 1.284405725083089322e+01
-2.589369549693275374e+00 -1.537034241162051895e+00 1.538203547029203833e+01
-2.242549241553758677e+00 1.263373004840068425e+00 1.404065704196583653e+01
-3.053543533060932624e+00 -1.054945703597403028e+00 1.558839959607822578e+01
-5.983878593232741849e+00 -3.091275648548785338e+00 1.588172659834804534e+01
-7.174339420354136188e+00 -5.943617531229832274e-01 1.537042042179653834e+01
-9.657944382160488672e+00 -1.843220317366729422e+00 1.357191378076268506e+01
-6.333873911543827617e+00 1.953075364132132785e+00 1.441621501768625535e+01
-2.741696497109807673e+00 9.696580110543933095e-01 1.472268574066968938e+01
-8.744338168749237639e+00 -1.994068725985014279e+00 1.204919158450405803e+01
-3.763963893591925292e+00 2.095860087341606892e+00 1.451868141458830053e+01
-5.051170424069554521e+00 -2.489928208352884642e+00 1.336375290753512957e+01
-6.134026555413488069e+00 2.820825158252125764e+00 1.392648694081299254e+01
-2.077382161050814080e+00 1.260637951580630745e+00 1.379859017943174138e+01
-6.374062632919060611e+00 -3.541129000291078466e+00 1.537965058125822537e+01
-4.077861619052549180e+00 2.249043975131659323e-02 9.339537071294742532e+00
-7.378674900999112829e+00 -2.261339832919445403e+00 1.570947714679918050e+01
-7.943159264084854954e+00 2.243708000994853791e+00 1.360239248449199323e+01
-4.006855715846279864e+00 -5.274957199168519573e-01 1.557420361595243463e+01
-5.291119978888644937e+00 1.359070828702759304e+00 1.060115295851846895e+01
-8.648214930117287480e+00 -2.830683265579082342e+00 1.354655820452744308e+01
-7.179234759366353025e+00 -3.222606724597523620e+00 1.564694613852659444e+01
-2.553470064498813752e+00 -2.328332399137955644e+00 1.198495239628343967e+01
-7.068576044262824709e+00 9.903722340998548646e-01 1.480216452664651428e+01
-3.505779981752665364e+00 -2.133065957687265257e+00 1.211925768213038168e+01
-8.780067109116929558e+00 -8.043610314998832500e-01 1.514797528516439229e+01
-2.159314570446953852e+00 1.206943805439155026e+00 1.394521689631191208e+01
-2.412156448512313922e+00 -6.932433243227302810e-01 1.509909449422966787e+01
-2.578691823427277541e+00 -2.075202917543932823e+00 1.177103610481445628e+01
-4.355476471205244948e+00 -1.214766579012521941e+00 1.114436716687325202e+01
-5.920996036900952220e+00 -1.166242595564658036e+00 1.173310011073100867e+01
-1.952004626668468745e+00 -3.180776843547894028e+00 1.342604257628464381e+01
-5.383661034733324691e+00 -3.407752641071291055e+00 1.583546310005397828e+01
-4.489724822380846803e+00 -4.292753696095546800e+00 1.444254516089480234e+01
-7.759310278018753948e+00 -1.460832855622569593e+00 1.140146542415303799e+01
-2.928740366671223949e+00 9.519478526311289102e-01 1.485830388135252633e+01
-8.578444072226334427e+00 -2.364639542119799653e+00 1.509846856124842418e+01
-7.351864473484488904e+00 -1.257784331289584667e+00 1.124747366494675305e+01
-4.211141179280187608e+00 -1.581062030667475415e+00 1.573988584013580549e+01
-3.816755875655852392e+00 -3.230986321421929208e+00 1.592650880448655926e+01
-4.805012281041953770e+00 -3.607754241437282072e+00 1.582419030404049209e+01
-5.094566542877352333e+00 -4.106196613661733608e+00 1.440805991876779757e+01
-3.283897084452709336e+00 1.825485086043254768e-02 1.036643127782962637e+01
-7.328718060934932943e+00 -1.372193260105487145e+00 1.155118532213100480e+01
-6.765011011671828278e+00 -3.400424097278774038e+00 1.559439961885197334e+01
-2.918667258967373002e+00 1.117743205126084494e+00 1.477367403566540105e+01
-6.255741226322839132e+00 3.070486696619144862e+00 1.282476609461852490e+01
-2.547987390215420866e+00 2.086121963759360654e+00 1.365924749496129209e+01
-2.916959419619210347e+00 9.506717692773558603e-01 1.164325500754252829e+01
-7.359705301165130997e+00 -3.033325892030841242e+00 1.568333565490766546e+01
-4.339660107846278869e+00 -4.470341893435016090e+00 1.464022438019030403e+01
-9.064294664592859263e+00 5.438144381638183589e-01 1.227461179880706510e+01
-7.826291652854646230e+00 -2.117868881351284482e+00 1.286943241035005059e+01
-9.258326274719683724e+00 -1.266844703645188641e+00 1.225463944754314127e+01
-5.156686861510742403e+00 3.219647343143172691e-02 1.529698438086869317e+01
-2.103890100912196637e+00 -3.532533976215300076e+00 1.331328078245979185e+01
-2.806105713133234758e+00 -2.644044389701716735e+00 1.225344073212578877e+01
-8.920693478586304792e+00 1.046747182558441791e+00 1.233784435603779883e+01
-6.595839992678075525e+00 2.426280030819415678e+00 1.414092278011882087e+01
-4.671822439176740893e+00 -3.616673674291634111e+00 1.409371150250042604e+01
-6.337682031093495816e+00 1.524504393655085277e+00 1.461718450938281677e+01
-3.570733711137005884e+00 2.649284347382284466e+00 1.416384616645280659e+01
-3.142878677647375607e+00 1.099836015299507030e+00 1.488816454581245807e+01
-2.728826931882546436e+00 -3.184296597477020097e+00 1.270378920707377546e+01
-7.705314068432480568e+00 -3.513741588960530127e+00 1.434586708256879461e+01
-3.661784155585772638e+00 2.810258085227775648e+00 1.318980956975990892e+01
-9.020985697190699426e+00 5.696954914652212487e-01 1.210321653494087712e+01
-9.413678169381459071e+00 -1.341564448066278725e+00 1.475949845889574874e+01
-5.087131457459646455e+00 -3.448941358687101388e+00 1.403800781246785334e+01
-7.935604094203052128e+00 -1.915121070429526728e+00 1.203981305746392394e+01
-9.417575173237295871e+00 -2.402972794757494146e+00 1.334774745991390432e+01
-3.102520934344402015e+00 -9.549517635025375206e-01 1.558230436968182175e+01
-2.101289338021489872e+00 -3.714361411407671287e+00 1.357719988029327851e+01
-2.107978358398006957e+00 7.682057242362665406e-01 1.410947928924090178e+01
-9.572848143752494821e+00 -1.397424012554668860e+00 1.308371639692674648e+01
-6.870477601152755298e+00 -3.594854276406809213e-01 9.897953815768197217e+00
-9.294054514768253838e+00 -2.425764955908042086e+00 1.316129601268392690e+01
-4.150655880296794109e+00 1.577656095105422596e+00 1.478471813491258757e+01
-8.608569581368701762e+00 -1.869847664579195712e+00 1.543720025916366012e+01
-4.719869362424926607e+00 -4.144699484528596045e+00 1.521458430805046191e+01
-4.484911478329847156e+00 -4.438349756287220060e+00 1.478794549762020694e+01
-9.428063442871989608e+00 -2.435962164321088252e-01 1.358530183570206162e+01
-5.804068818076648206e+00 -3.219473200468334628e+00 1.586403615431868275e+01
-1.981588943268264735e+00 -5.907343524300450177e-01 1.434477930051633621e+01
-4.740662289805229967e+00 3.344548951260224001e+00 1.376656833469979802e+01
-6.146303498270897947e+00 -1.197931423791922523e+00 1.557521660997308288e+01
-8.902513804830592292e+00 3.483870939067332806e-01 1.434389787822592410e+01
-7.772544231178491358e+00 -2.663526752854984192e+00 1.563813927549380622e+01
-6.970966228352581062e+00 -3.245099882516301104e+00 1.568707291242027679e+01
-8.940602860620369796e+00 -1.443260345506214737e+00 1.526914568692369301e+01
-6.301441091821168961e+00 5.162196016285944822e-01 9.776641250642107650e+00
-4.148454331468895973e+00 -1.935941331962655720e+00 1.580453366454944586e+01
-2.721465210762866072e+00 -1.505556214550114458e+00 1.123119534264799313e+01
-7.917893774527314577e+00 -3.529912713899101551e+00 1.451879955556643864e+01
-6.582740860800341487e+00 -1.527522292909008872e+00 1.234210172670058370e+01
-8.705058815785319482e+00 -1.766184088842849054e+00 1.542272285033563861e+01
-6.162419620196850190e+00 -3.105454547532289222e+00 1.586538407720803434e+01
-3.870728719548014674e+00 -7.161114505092736060e-01 1.005481334992913389e+01
-2.861868792090541902e+00 1.980351884872750379e+00 1.280985853760493143e+01
-3.394347556153489709e+00 5.367946049283700560e-02 1.538844538079472102e+01
-5.490557979900994923e+00 -1.289106827280000811e+00 1.563074602111016986e+01
-7.148293741681335689e+00 -3.013836954581298411e+00 1.574381708250487577e+01
-3.391350877457257162e+00 -1.769253449338664463e+00 1.150892373391116763e+01
-8.919878896733987261e+00 4.395268341283955493e-01 1.171849510993566668e+01
-9.590571492293760159e+00 -2.012752724289530004e+00 1.342415501361912789e+01
-8.950706932533282867e+00 -1.853900824553923687e+00 1.206631096336484177e+01
-8.404374135448989591e+00 -2.044457873143707527e+00 1.549058836007360185e+01
-1.858685601000572785e+00 3.740091679378085843e-01 1.305142826475619700e+01
-5.355989915925279732e+00 -2.608242653589451177e+00 1.586127792353482135e+01
-9.363563999389141301e+00 -1.303556217988611099e+00 1.246345717996970848e+01
-1.928048075933470162e+00 -9.424091391621445268e-01 1.194499244954160844e+01
-2.753503717366176495e+00 1.729829748299735126e+00 1.435878726247193526e+01
-8.989958232492000434e+00 -1.226378227447927127e+00 1.175687431299103736e+01
-8.283740691639277287e+00 -1.187036431446685025e+00 1.119792779932359394e+01
-2.580363764140576333e+00 1.588062716492844917e+00 1.278226684925223111e+01
-8.162222469132059288e+00 -1.293305648046797263e+00 1.117671405078682767e+01
-4.927088326161709553e+00 -4.279021904805070164e+00 1.480564035878829543e+01
-2.969718589796244146e+00 -3.666565252513768858e+00 1.319491762638361365e+01
-8.120853638536734920e+00 -1.414794028170683671e+00 1.126628802660282958e+01
-8.332320594125535607e+00 -4.098407942551043348e-01 1.519282220710293529e+01
-8.649020877038770649e+00 1.408677347040895311e+00 1.342875973969815107e+01
-2.230258796733198601e+00 -2.612856982946705653e+00 1.498453666033222476e+01
-6.913208696866223413e+00 1.318225215024397379e+00 1.088786917859996350e+01
-3.568540400051644745e+00 -2.224176315321293895e+00 1.230097738322412937e+01
-8.688385697926737095e+00 -2.740863454322350901e+00 1.339123549895926146e+01
-2.216243544037357349e+00 -7.436905299505260913e-01 1.486538539556903515e+01
-3.138310510594373159e+00 1.655050168867253646e-01 1.062496275403108115e+01
-2.976801142072129203e+00 -5.388294901493457800e-01 1.548295634240248120e+01
-2.463038396635175431e+00 1.910682329831736359e+00 1.384014621655263255e+01
-6.482489996066108873e+00 -3.722640438445309119e+00 1.438507700559878799e+01
-5.432649193902705953e+00 -1.928412423110476670e+00 1.283422908993977529e+01
-2.544634984669094990e+00 -3.381830127640476302e+00 1.559558241268923950e+01
-7.657572785741471932e+00 -3.632192468167608990e+00 1.458828198436564350e+01
-3.406760641667196499e+00 -2.229468601974059272e+00 1.213123794493437657e+01
-5.355755258571441857e+00 2.130391106607408158e+00 1.163693667775226004e+01
-2.216164436931290282e+00 -1.457218247073280626e+00 1.149313494394435509e+01
-7.239826041364166187e+00 -2.336241234037176984e+00 1.333085918761489808e+01
-5.661668433176520132e+00 3.105842654710182060e+00 1.297141819025392806e+01
-7.629339074034437118e+00 -2.419739820736668268e+00 1.340100826006653278e+01
-2.195128012560682240e+00 -4.680942875626783461e-01 1.481032859922674305e+01
-8.035736939056777217e+00 1.303202174176720129e+00 1.157599942682493577e+01
-7.694838499165134849e+00 2.432220716828403351e+00 1.364584996791147375e+01
-6.400179788072810183e+00 -4.963128414275090883e-01 9.973497495595800899e+00
-2.076511452786188983e+00 -1.143140248460721597e+00 1.143053208510482932e+01
-2.120503430046035476e+00 -1.069426077770571748e+00 1.131281082729418586e+01
-7.594507684943470949e+00 -1.829087642900428801e+00 1.249667093817594576e+01
-2.641067380542862608e+00 -4.550158592093008991e+00 1.472236841369900873e+01
-1.979988383987078659e+00 -9.163442806388339967e-01 1.150141981548815551e+01
-3.155124533715900625e+00 -4.254568767168076526e-01 1.549984013479627265e+01
-8.277617150278961944e+00 2.033777950228826459e+00 1.334364984070010962e+01
-9.495038728914176218e+00 -7.519484673189902324e-01 1.272229439832210574e+01
-8.507641196730761024e+00 -2.554765937097287054e+00 1.500322755060960134e+01
-5.565044476177780197e+00 -3.392863441635079358e+00 1.581977238254098239e+01
-8.345778759128060997e+00 -3.152910228666869319e+00 1.457607309404608742e+01
-2.652514422458448262e+00 -4.538212265920357424e+00 1.451610806891770267e+01
-5.616860444849433698e+00 -3.475601237370443020e+00 1.574768715628854920e+01
-3.880607598053150475e+00 -4.552620236248118957e+00 1.459802872804005602e+01
-6.133323522974026609e+00 -1.988224039534171705e+00 1.293939374189156410e+01
-2.595819494724265653e+00 1.750209458764639514e+00 1.298288868846484689e+01
-7.715751956364256259e+00 -2.814660388016168024e+00 1.561232987638201308e+01
-2.869931838879367536e+00 1.656613231652476204e+00 1.447938899788731959e+01
-5.940944425215348268e+00 -3.247247898826215451e+00 1.583101877668273971e+01
-2.840164880451677032e+00 2.470053727585499459e+00 1.390896763068857922e+01
-1.856583316471306144e+00 -1.729601228921769707e+00 1.345663228773845077e+01
-2.465772113107191466e+00 -3.132913668008748598e+00 1.552114608708628651e+01
-6.194080749724612645e+00 -3.249928471547013142e+00 1.580615250075486244e+01
-8.318417169787437615e+00 2.001602341616021796e+00 1.243109661009002309e+01
-3.984569671437635741e+00 -3.586760806703833904e+00 1.588033026360068334e+01
-6.497739256524432072e+00 -2.243536093275449783e+00 1.324512492105798600e+01
-5.958769672950734453e+00 -7.863646227510292519e-01 1.548027503438949992e+01
-8.882972636885376971e+00 -3.016456442471538768e+00 1.396828436210480362e+01
-3.504391844549190616e+00 -6.815169954241291350e-01 1.012847518046304174e+01
-2.946238790087117643e+00 2.637029178577797062e+00 1.387614090736971661e+01
-2.489303467734697239e+00 -3.734710452583343443e+00 1.542994293544921192e+01
-6.165408094349581702e+00 -3.403511436352418595e+00 1.564291394331167595e+01
-6.130061175940538121e+00 1.672989869207160973e+00 1.456378604455470338e+01
-5.269122679359361960e+00 -3.868935891371762192e+00 1.428352133439050675e+01
-4.047565255784203231e+00 2.818844604598763404e+00 1.297101099875463603e+01
-7.375134697214303259e+00 -3.888957673173298879e-01 1.530657905187361223e+01
-8.395571244806879108e+00 2.058833746098992279e+00 1.292678196971147031e+01
-7.529375366036296313e+00 -4.678828331768007942e-01 1.042872818113171007e+01
-6.931183456250084696e+00 1.828287675143667412e+00 1.145458459585095312e+01
-6.283168181033685684e+00 -2.789098670500707922e+00 1.371486135488088820e+01
-1.906225668574343501e+00 3.446469564428586985e-01 1.273406300869270069e+01
-2.619591770182828405e+00 1.029201489808013958e+00 1.211963947225369509e+01
-9.570177227307066659e+00 -1.539010059733002311e+00 1.445569288718504453e+01
-9.090014200046489634e+00 5.621987053258985512e-01 1.249799586593557166e+01
-8.883199859235713092e+00 1.020498172514807234e+00 1.338572732361578232e+01
-9.089503600801307925e+00 1.114771364355999772e-01 1.193214513029595736e+01
-8.808187701022943017e+00 -2.101523935109435026e+00 1.221573986474368212e+01
-9.505090642045797011e+00 -1.742303685949087022e+00 1.443663272624335292e+01
-6.299332545984441367e+00 -3.723302615952632788e+00 1.437161399744671542e+01
-5.281446824401612616e+00 -1.497563201188454318e+00 1.222422120293022374e+01
-9.654543514614243094e+00 -1.866967741184710317e+00 1.401153766292141256e+01
-5.102638973120432908e+00 3.207199610550806490e+00 1.314295069905868019e+01
-4.586700281091486531e+00 -3.610801488725357000e+00 1.585122659508371612e+01
-6.937920075807205045e+00 1.936929289538960264e+00 1.436397013327114536e+01
-5.851158688446089329e+00 1.140014956940142987e-01 9.353601936836085429e+00
-7.193910052691171231e+00 2.244577242084339730e+00 1.410896845986675174e+01
-9.629594167396266613e+00 -2.032835451903978186e+00 1.358796784624894372e+01
-8.925406156395231605e+00 -1.343410376999888189e+00 1.171651395643898041e+01
-5.021908185543606074e+00 2.709095271198880717e+00 1.244521251047643062e+01
-2.074552349050130307e+00 -3.445647612016769390e+00 1.445517637076583384e+01
-2.182895340990005817e+00 2.592158963209367784e-01 1.186272654543999039e+01
-6.499986378856003277e+00 3.030355582064753861e+00 1.279275063544310598e+01
-5.190074906324916526e+00 -2.868726067160738413e+00 1.588702192065106544e+01
-3.107316190120535282e+00 -2.512953567765511043e+00 1.217798779122132657e+01
-3.956188954371816280e+00 -3.842546624284923329e+00 1.402345747056540404e+01
-7.391983633379119567e+00 8.307695917772202066e-01 1.072093494638623667e+01
-8.073832244027272509e+00 2.427493303258009938e+00 1.319127189088226970e+01
-4.531986496892370653e+00 -1.815174860599573226e+00 1.577092079603642816e+01
-4.447657697519035835e+00 -3.783999284227129944e+00 1.414641585677244251e+01
-8.732476794560454891e+00 -1.183936861447342448e+00 1.145599617716613494e+01
-5.351061515360560961e+00 -6.873015824172354904e-01 1.548828773912495649e+01
-8.664189734732934411e+00 -1.137958780130233105e+00 1.138668662269150644e+01
-8.543514481519162374e+00 -1.155011131286730386e+00 1.132649072417044778e+01
-7.675580017210842598e+00 2.621535184113273242e+00 1.342469664583122579e+01
-4.728832680108943975e+00 -4.214803032974339558e+00 1.507983784386683368e+01
-8.394891548427022343e+00 -1.144445456059588917e+00 1.125391681469548644e+01
-9.218273416035822621e+00 1.425707363918564674e-01 1.400351464643576094e+01
-4.896105649374159263e+00 -3.482381714430313746e+00 1.404528002205947956e+01
-3.837819498831274601e+00 -3.789878559656411294e+00 1.393618679059552790e+01
-8.843623859773028784e+00 -1.760589876050215885e-01 1.134622230735294579e+01
-8.880740122672596826e+00 2.979508304480371628e-01 1.442564676630605192e+01
-8.177537057216644811e+00 -1.486854113254994392e+00 1.132385453586810087e+01
-7.014780761285614119e+00 -3.155654044072168762e+00 1.572782559025518623e+01
-7.918403066056454165e+00 1.358519693186487354e+00 1.153760477432962972e+01
-5.920392164439803651e+00 -1.062756517341465479e+00 1.151837152853497059e+01
-8.519523500580168829e+00 6.218998778664919236e-01 1.136086552020940843e+01
-8.368869982713603051e+00 -1.823768647001646759e+00 1.552837234063512284e+01
-2.720728448531556598e+00 -1.384903990022028797e+00 1.111294729979383789e+01
-3.327115353546599597e+00 -2.331683445093296836e+00 1.216347632041808424e+01
-3.584299727039612193e+00 1.767479431020839487e+00 1.469533674575482962e+01
-8.482409326303194774e+00 -1.772057634926684333e+00 1.168483539651518299e+01
-2.183032494959262326e+00 -1.694107620800934466e+00 1.167176779757955529e+01
-3.647363240689752928e+00 4.849637182324531004e-01 1.015742884027018533e+01
-7.961069184814705935e+00 1.056906978633150418e+00 1.455530433675180291e+01
-4.763517022253997091e+00 -9.549735779205148489e-01 1.559283074968787730e+01
-2.487474433052107248e+00 1.494385482993632053e-01 1.489625603061020342e+01
-3.857208618335391748e+00 3.002522224332548895e-01 9.765351810233923402e+00
-7.372402025505875756e+00 1.280276741581825695e+00 1.462584702815843229e+01
-8.915104015982228347e+00 -2.925275791068004505e+00 1.414899803066004580e+01
-8.702687665854995203e+00 -1.050590679187217713e+00 1.527631052143912882e+01
-1.856277312762962595e+00 -2.692517790718657711e+00 1.332836911489884102e+01
-8.479399618293095742e+00 -3.240955539577008881e+00 1.411706692854134104e+01
-2.924501561635300728e+00 -2.972807231097676084e+00 1.580344321675922714e+01
-7.851861418491804301e+00 -2.990492622220127128e+00 1.383937775878722931e+01
-4.378192668279950794e+00 -2.044846637204545292e+00 1.581585245320730593e+01
-2.934260541317494475e+00 -2.956158884704596534e+00 1.254547174539408161e+01
-7.224134565111231865e+00 3.052193973601822652e+00 1.296153464609002981e+01
-8.114490610866550213e+00 -1.785668478065826736e+00 1.169430714122859882e+01
-6.223016678859495165e+00 2.767888394960721143e+00 1.248703810465926267e+01
-2.301188769344147289e+00 -1.707841622818118577e+00 1.159397971925410786e+01
-8.341472226722439487e+00 1.817408792832484465e+00 1.351601636534337558e+01
-3.359527108424551045e+00 -9.564398913186615836e-01 1.562320406306395881e+01
-2.014841866195842268e+00 -1.069531464061880488e+00 1.150951230100603340e+01
-2.126243874491806185e+00 -2.629412930556188410e+00 1.452121146045764988e+01
-1.874790437548355726e+00 -1.246287824819546142e+00 1.237579747328076962e+01
-2.959465406712050051e+00 -1.335194886388395563e+00 1.560260426077552154e+01
-2.933445540412459973e+00 2.454765648792802235e+00 1.406002636604874567e+01
-3.071660610531608437e+00 -3.352683636455763949e+00 1.298346249114121065e+01
-9.565214159420170503e+00 -1.783317174632388369e+00 1.320582064874263040e+01
-5.949644029819351587e+00 -3.424378766452812695e+00 1.565079278138848196e+01
-1.886225452186851115e+00 -2.905232030689721245e+00 1.330133630764470354e+01
-8.680104548643434725e+00 -3.115946240894904573e+00 1.414733280486770184e+01
-6.728987317086600584e+00 3.031263677161541992e-01 9.907083794168279667e+00
-6.573771097833446930e+00 -2.044022929253349385e+00 1.573048302754562400e+01
-4.206046939995310652e+00 -2.262169625731655476e+00 1.286273277493694422e+01
-4.092533522279069302e+00 -2.803088795119822674e+00 1.336596678101955860e+01
-3.697432717007123060e+00 4.177414305458047039e-01 1.003221013190982802e+01
-6.171991871492513049e+00 -3.476396565997207144e+00 1.550168977715031104e+01
-4.985836431618376530e+00 -1.855665177807245048e+00 1.264852423651346669e+01
-9.068975791754924742e+00 -2.304451441973238701e-01 1.178728017185881072e+01
-3.798219366940087660e+00 -2.882906140530173911e+00 1.323553354493118661e+01
-5.558240330914865801e+00 -9.722479516378501607e-01 1.128362593356438737e+01
-5.366698560401525597e+00 4.556440570021473846e-01 9.541053807076572468e+00
-2.915675021638572506e+00 1.793873353500297085e+00 1.443268878687277379e+01
-2.534726408922403973e+00 9.746813928008681849e-01 1.452657914759560498e+01
-9.030788064113586699e+00 -2.871458968191955119e+00 1.406799253529275262e+01
-1.862741905651326579e+00 -2.499149445273472825e+00 1.317241706449183170e+01
-9.476479987603809718e+00 -2.449833966300977384e+00 1.377585424237467038e+01
-7.123661364671140639e+00 -1.364952086360685879e+00 1.177363907751237804e+01
-4.493222635634180229e+00 -8.905502064997272704e-01 1.053729547630603491e+01
-3.989926058660357988e+00 2.074686211521356238e+00 1.193559267352232922e+01
-8.588285039978652335e+00 -3.198012166619369712e+00 1.405038258729000944e+01
-6.280221901655642647e+00 3.292945840213006292e+00 1.318776553136418528e+01
-2.081064158068532510e+00 -3.745415158296049096e+00 1.379053617275953059e+01
-2.678528924476108575e+00 7.832947872601310202e-01 1.477240573019588510e+01
-8.860770073184500717e+00 -2.985795392126782577e+00 1.378683496981300749e+01
-5.391733255406398584e+00 -1.247014523480991510e+00 1.184980676917616904e+01
-2.844441490967441588e+00 -3.892820503473342963e+00 1.339520890861920321e+01
-8.957616067272113014e+00 -2.187321341001128960e+00 1.482447413602000097e+01
-3.035969116164419113e+00 -2.793872130719968983e+00 1.582179093572779038e+01
-5.523719979917306233e+00 -3.973939601188951176e+00 1.460299603991368400e+01
-3.495883254781381844e+00 -4.182521199522788891e+00 1.544596103914372520e+01
-2.574378220180082444e+00 1.420716144212972987e+00 1.433737978347960507e+01
-2.961448187228283402e+00 1.470610531930371723e+00 1.210953678629183372e+01
-9.501848610850430532e+00 -2.404134149165018552e+00 1.355685662471957897e+01
-8.705449959872270327e+00 -1.356416594217666027e+00 1.149149433095414707e+01
-2.046643270001570425e+00 -3.543061928115715187e+00 1.344161841244324762e+01
-8.533237089464709157e+00 -1.364147990395314647e+00 1.136849721909433697e+01
-2.821250418384654957e+00 2.303529507182787484e+00 1.410528041621074635e+01
-3.503123782545784159e+00 -6.678874618075285596e-01 1.559837525216810405e+01
-9.116630161002422739e+00 -2.157569704654678677e+00 1.464376985032578915e+01
-7.908292218505616589e+00 -1.958375038811251745e+00 1.559765938725619350e+01
-7.709832594359987468e+00 -3.484278716276752785e+00 1.491826724480402788e+01
-8.320334085162604865e+00 -1.492415367327001530e+00 1.135606979698986407e+01
-8.777409309841058160e+00 -1.437395265368957009e+00 1.536461001922247505e+01
-2.789055956802315883e+00 -1.728760357339921061e+00 1.554738750425730132e+01
-2.769493176634703957e+00 -4.586029828612675274e+00 1.452625258835953304e+01
-9.349086171980564686e+00 -4.069089880664913395e-01 1.420440100685839724e+01
-4.155876632532764958e+00 1.343420069694167163e+00 1.487594400701689779e+01
-7.875721461252542355e+00 8.309662335980974035e-01 1.104903670620348777e+01
-8.187402519622573038e+00 2.275659982431315953e+00 1.258426855810215983e+01
-6.480210377138830857e+00 6.544649679794409813e-01 9.992052179943122781e+00
-6.947577067441466525e+00 -3.568913066049281380e+00 1.427150418467849846e+01
-7.291535954114624296e+00 -3.596521407010447202e+00 1.512568868926547339e+01
-7.088944127179726884e+00 -3.562712700011264833e+00 1.428855374719696414e+01
-3.638729705729603303e+00 -2.739893470585634372e+00 1.300174175997516102e+01
-4.003167805715497352e+00 -1.721692754427808225e-01 9.624644548805804334e+00
-5.300796726974999373e+00 -4.077293582513057402e+00 1.480657256075090800e+01
-3.417017590235423619e+00 -2.861016933846138866e+00 1.287319244711926558e+01
-7.620488905188050666e+00 -2.318500886531329908e+00 1.330012586600226854e+01
-6.630386963737290529e+00 3.387352127068523622e+00 1.325159990875502558e+01
-2.119291585537601108e+00 -1.753027900432241548e+00 1.177302467800049612e+01
-3.234259293483772169e+00 -2.259449193856323479e+00 1.200994238298368089e+01
-7.212220078675099622e+00 4.742383563573548955e-01 1.504479600801565198e+01
-4.775039921958007305e+00 -5.583832389996001844e-01 1.549607861651312390e+01
-5.744254384732966123e+00 2.720420084424701734e+00 1.406201489090332046e+01
-7.487325860710237535e+00 1.711903350956585745e+00 1.434524591354432488e+01
-9.634756575035327231e+00 -1.622850860150976349e+00 1.342980879213652656e+01
-7.368794981387986276e+00 -3.101165690049909607e-01 1.018787738795832354e+01
-6.345412346604195619e+00 -1.266835391238769315e+00 1.185845133165285148e+01
-5.356066167641978737e+00 5.931184797000375042e-01 1.507164942785053796e+01
-9.189042608641726062e+00 -1.030820943062086048e+00 1.207278706358408016e+01
-6.366267447668810142e+00 2.436370470148759182e+00 1.414302532687976566e+01
-2.186037360215234759e+00 1.598053999027340133e+00 1.381071916696542701e+01
-2.103934175101120463e+00 -1.514350875385990225e+00 1.166629858392246888e+01
-2.761295178259444150e+00 -3.782521648482164434e+00 1.563559492967152664e+01
-6.485637639096281326e+00 3.223557360667880012e+00 1.352917050083738815e+01
-3.154247466938687960e+00 -3.811014674662891455e+00 1.573550613158711542e+01
-3.954371974598045014e+00 -3.835454908454042577e+00 1.573523260932986290e+01
-8.062152051980129741e+00 -3.162177643352030554e+00 1.492821665590562219e+01
-2.562420239965586877e+00 -4.115468788117668808e+00 1.534733558074717052e+01
-5.722329861615818913e+00 -3.879693928013553172e+00 1.457494956806205266e+01
-2.303097626140394816e+00 5.465413277009170123e-01 1.447794967224466234e+01
-7.707897116322364184e+00 -4.013734911384858606e-02 1.047575415860152503e+01
-9.585312834112743374e+00 -9.144067718058335181e-01 1.367439821272056122e+01
-6.729777959126459486e+00 1.310811540927602437e+00 1.468821319149182614e+01
-6.131813471605664922e+00 -3.757072850797977370e+00 1.437771067801148206e+01
-4.770547404790186796e+00 -3.856937015955446579e+00 1.565799825526578104e+01
-7.997039102514092335e+00 -2.660354923391642590e+00 1.547193266721567539e+01
-4.946758730638426194e+00 -3.829557992999060634e+00 1.564240672341765048e+01
-5.610632219293847811e+00 -3.808276371458331422e+00 1.430582323793972677e+01
-5.777084873219015648e+00 -3.594127481172050498e+00 1.545729832478946975e+01
-8.555204658553778430e+00 1.701125394202687824e+00 1.243704071544222955e+01
-8.096447829627633652e+00 -3.449665255366305860e+00 1.433787209654745709e+01
-1.909510627151450368e+00 1.056006617002691605e-01 1.239498618651158779e+01
-9.357119917775603923e+00 -2.306477463549571727e+00 1.423680032700141140e+01
-7.299881874061012077e+00 2.673950908205729338e+00 1.368863552035035980e+01
-9.470990703501236396e+00 -9.109230199806841455e-01 1.433457177132413563e+01
-3.317220285488264420e+00 2.429485584948800181e+00 1.423730387182120438e+01
-5.147617704838968855e+00 -3.770128337288063403e+00 1.560181816881551242e+01
-4.189530682083367097e+00 -3.616056899999415819e-01 1.551200676490470443e+01
-2.260141714179504380e+00 1.041781013064081218e+00 1.417427160484012916e+01
-8.362258088088211139e+00 -1.596101010463241376e+00 1.149459800463363734e+01
-8.466031691302811524e+00 -3.227115679599061426e+00 1.429343358177966650e+01
-5.361447744446897090e+00 -1.800141080123335957e+00 1.574286183209247270e+01
-9.485929163418401089e+00 -2.020789403439668508e+00 1.316709613164859149e+01
-7.789447532354687453e+00 -2.897298228694747291e+00 1.547724304126480632e+01
-9.070289573106370185e+00 -2.873739716352109230e+00 1.374022980093558033e+01
-8.722443454306182176e+00 7.884864264128399469e-02 1.474714525372675666e+01
-6.935565557371633716e+00 1.688152606423611646e+00 1.449116188655432325e+01
-7.232840519669019308e+00 1.669034409919350370e+00 1.445402201152119659e+01
-8.080275416570490421e+00 -2.194436416538090295e+00 1.558109754267556468e+01
-8.360166162176110305e+00 -1.751053404944834302e+00 1.164739583240039877e+01
-9.246358406679982878e+00 -2.603473305819938854e+00 1.333474633601843351e+01
-9.204090899269921522e+00 -2.781410379185831783e+00 1.370532929923899701e+01
-3.773359495661015472e+00 -7.895658211392495573e-01 1.562974871777405639e+01
-5.036308793427215491e+00 -3.982708256984102135e-01 9.594806458387864723e+00
-6.159724483874721379e+00 1.101941423738544312e+00 1.481325345865055709e+01
-4.501251159915026889e+00 -6.327595874460709702e-01 9.982942085678736532e+00
-5.106824110263763039e+00 -8.409713056968519673e-01 1.073694103178325321e+01
-9.305386775736204541e+00 -2.668787050203501376e+00 1.374389845273128685e+01
-2.935689095197124843e+00 -4.152702903679632129e+00 1.549126689161201398e+01
-6.508058283171299863e+00 2.874513118668825751e+00 1.380643878414462478e+01
-6.926092385055808265e+00 -1.200282906082792866e+00 1.144549154071646768e+01
-1.902435393234246153e+00 -5.297626374737407495e-01 1.358807439587047838e+01
-4.638397420633050494e+00 -2.403135669856020673e+00 1.319040358781483491e+01
-7.466688653230834305e+00 -3.185254966095745655e+00 1.551536447770524774e+01
-6.865923177768253005e+00 3.243000526236232250e+00 1.332299342473191928e+01
-1.970213484669154358e+00 6.207844968600526592e-01 1.391868431760674696e+01
