-7.940484534246321502e+00 -1.935682195792630012e+00 1.509662245753184351e+01
-6.633569337199213933e+00 1.307672606634393553e+00 1.361709800524601377e+01
-7.895032220699754077e+00 -1.208594712265036009e+00 1.464605008974286449e+01
-4.405552575994895470e+00 -2.560985729446242587e+00 1.563733233852262572e+01
-4.017868077185271503e+00 -2.506164747988412600e+00 1.569724737775632661e+01
-3.857408875437712936e+00 -2.516214815949064487e+00 1.573069676568375286e+01
-3.401010070930916562e+00 -2.149453835222361775e+00 1.562547004604460454e+01
-5.006110726694522839e+00 2.372049986121324228e+00 1.408713879577069150e+01
-2.964706068158383445e+00 -2.243277318743468030e+00 1.580015493253647918e+01
-2.429523313806107865e-01 -1.965526351539897298e+00 1.617672096425195605e+01
-7.825473200450837830e+00 -2.250201394379377717e+00 1.487226638737416096e+01
-7.891203112385198004e+00 -6.646973669429456777e-03 1.463576034741616638e+01
-1.284256356869887039e+00 1.965336427623702420e+00 1.586147692283814337e+01
-7.247975228725591634e+00 9.334627136624868982e-01 1.636696720264913552e+01
-4.719126119261829899e+00 -3.100631991402213572e+00 1.607160056729131981e+01
-7.279041863581753091e+00 -2.991247355190843393e+00 1.510769398947692821e+01
-3.596022992908665117e+00 2.497256771340191417e+00 1.422410051511896967e+01
-5.000100017792426854e+00 -3.258839190417615939e+00 1.619628779736474655e+01
-4.840138276859114796e+00 -3.212806966867088221e+00 1.618899960644530722e+01
-3.143024092787614077e-01 -1.368540778548744008e+00 1.629233326958785000e+01
-2.989962180711289719e-01 -1.705857447616780931e+00 1.615876629700122891e+01
-2.704006961455209357e+00 -9.824778893069403551e-01 1.510224792832552509e+01
-3.273362709435851947e-01 -9.597275790042250065e-01 1.635436114378941141e+01
-3.486310921349957681e-01 -3.243094242142943173e-01 1.624568160287868324e+01
-5.076252474909834334e+00 2.896121247365375684e+00 1.491268514655833144e+01
-3.660356062959559953e-01 -3.594906515582341200e-01 1.641243094786860723e+01
-1.776559256144229160e+00 2.542936107667958190e+00 1.628970538738573026e+01
-3.257418179396280866e-01 7.844697562042490802e-02 1.611216503034847847e+01
-3.077585327947904847e-01 -4.443263370167818138e-01 1.538069158544349335e+01
-3.162798975412124403e-01 -6.237883735791349693e-02 1.587838335354778252e+01
-1.840966809826470874e+00 2.059051942247623668e+00 1.764726528127310701e+01
-3.403049481510049823e-01 -3.100988518438780872e-01 1.457841313852237874e+01
-2.889934446709834237e-01 -2.453191225125381791e-01 1.481278957073273261e+01
-2.504342013683897861e-01 -1.656864963764510534e-01 1.522555146847787455e+01
-2.544817327882846758e-01 -1.018289861411725283e-01 1.481647973169146582e+01
-4.264096464262443931e+00 3.442568535603700575e+00 1.692729167104042176e+01
-6.622873153331951812e-01 1.277768021526205722e+00 1.630587322671994599e+01
-5.217116868351840964e-01 9.204001718177110547e-01 1.603914130582829500e+01
-7.721370526893924335e+00 1.028944635840831623e-01 1.417520311002665778e+01
-7.714423713095931667e+00 7.894002359571441474e-01 1.441198952701333269e+01
-7.426034408850466839e+00 3.805479707332359851e-01 1.347501175656453398e+01
-7.567965674992898961e+00 1.415683779637681106e+00 1.446387480753850951e+01
-7.502001624064238428e+00 1.548623954942044634e+00 1.455136642741943831e+01
-7.649144110912135197e+00 1.254805403030643696e+00 1.440561116064651515e+01
-7.672132357994405183e+00 1.088577351715905195e+00 1.435586790572631344e+01
-7.226665528611513345e+00 4.322744739096506805e-01 1.309674907305361558e+01
-7.328163190097896518e+00 6.180183721385157369e-01 1.342757441810037733e+01
-2.263706598864880792e-01 4.626344707196672346e-02 1.508012841504912416e+01
-7.349800333494551197e+00 2.131084585655179442e+00 1.516470199923980289e+01
-7.429003566311808804e+00 1.988397747213338729e+00 1.513461965460102476e+01
-7.327787574114834612e-01 1.463380673246574837e+00 1.633236175602545615e+01
-7.774632717415048688e-01 1.566978704834476765e+00 1.635593039042365859e+01
-7.264338484113811667e+00 2.280010548926001412e+00 1.523137636248733173e+01
-7.350530928084193505e+00 1.974653484162134820e+00 1.492467358766039354e+01
-6.667208920537055050e+00 2.854259487846069643e+00 1.545151642377349077e+01
-5.721420755280623993e+00 5.027452511617376274e-01 1.217518303921634981e+01
-3.679897840455569558e+00 1.437170749110471490e+00 1.242529657348389094e+01
-6.997243160153099772e+00 1.763648205594234852e+00 1.435984164215216197e+01
-9.530453291218632383e-01 1.157983667113404280e+00 1.468195606702297340e+01
-6.471957783053484015e+00 9.967034281395479312e-01 1.316694202775533995e+01
-1.666990708217007677e+00 1.872600381491267285e-01 1.310122571605853636e+01
-5.909819276685928990e+00 8.574312087388964443e-01 1.264571245269376476e+01
-5.694786560657932206e+00 -1.189172342636971358e+00 1.729274541486191197e+01
-5.542298327916163281e+00 6.891290810717940474e-01 1.223103776759009520e+01
-6.946815465108588050e+00 2.504491884512637601e+00 1.520547505270509703e+01
-6.945676006191036755e+00 2.152810875024560477e+00 1.476157079414281981e+01
-6.924028070760433806e+00 1.975986578294315787e+00 1.454872499711493816e+01
-6.796454538295436443e+00 1.720012170927208039e+00 1.418025336475613329e+01
-7.013094765986449097e+00 1.643694479670225306e+00 1.423501416952392162e+01
-8.864907173431653131e-01 1.722654483508600620e+00 1.622276483591242879e+01
-3.866137970452494521e-01 6.634364363509801521e-01 1.515866418396682036e+01
-3.786986840845492086e-01 1.994042838830072384e-01 1.405953134118012571e+01
-5.582251371617878988e+00 2.079802013632346736e+00 1.384263776526783118e+01
-2.839322584314962761e-01 3.478334136408953725e-01 1.452588977195284770e+01
-5.415514912887756438e+00 3.712967316694230302e+00 1.631835583111421073e+01
-5.823878443812903427e+00 3.590143900391800091e+00 1.614458207816590374e+01
-1.244995553863395887e+00 1.155068309015796935e+00 1.432501053121581691e+01
-5.241562573872839081e+00 2.658003397143922086e+00 1.683205749873246049e+01
-6.063326126767380586e+00 3.382949477009099759e+00 1.588714129497149941e+01
-5.937074389006271602e-01 1.145942624568135670e+00 1.568829185509667212e+01
-8.281920997992200384e-01 8.261998215670907086e-01 1.420706556153002964e+01
-6.618467808727526602e+00 1.498455530098823374e+00 1.381824488835687958e+01
-6.612736133845857012e+00 1.685149901845866438e+00 1.402000995668379346e+01
-1.544663625075293645e+00 5.538856910125398159e-01 1.302604994997411580e+01
-6.696699250260052416e+00 2.520808792630105266e+00 1.501506622840329186e+01
-6.687969235254233702e+00 1.952390232624455102e+00 1.436366270974251336e+01
-6.050541794641277171e+00 1.020880693794945948e+00 1.291763228010766085e+01
-4.735778108609412840e+00 7.126060060100138926e-01 1.179610156487400729e+01
-1.505533833273841715e+00 2.532086981672119208e-01 1.293873763570010027e+01
-6.501680514266452882e+00 6.631211668875298670e-01 1.281869035960964709e+01
-1.272759919733797762e+00 2.591357054377496638e-01 1.291050172407427254e+01
-2.169805022849496279e+00 1.658849946094454353e+00 1.423789894501430808e+01
-3.670641862852972448e+00 2.017701306299674702e+00 1.338335428531245697e+01
-5.365728443382330681e+00 2.343731144085818840e+00 1.413856487901532688e+01
-5.684574964600820124e+00 1.018523556734446167e+00 1.267157497143054457e+01
-5.366169918947632844e+00 9.323877393460131557e-01 1.236601934705336703e+01
-5.306491600253790963e+00 8.915094291462875020e-01 1.228305192463190565e+01
-6.536982375851090765e+00 2.009902536526768202e+00 1.432565691380813178e+01
-5.877224679003245633e+00 1.165297802317960318e+00 1.296053510046516521e+01
-5.660404201817902603e+00 1.252100844473297947e+00 1.291103247715972913e+01
-6.078447408106836036e+00 1.369329749203061830e+00 1.331798747174195796e+01
-6.457960611587334476e+00 3.012665958397807042e+00 1.550299335839747528e+01
-4.490948912587480191e-01 8.247743943161864877e-01 1.507641820999663906e+01
-5.504714080220610484e+00 1.062208423817661895e+00 1.259947687046246756e+01
-5.470891416866567880e+00 1.190428610292483036e+00 1.271715429640326533e+01
-5.132429148297452670e+00 1.019562079204460403e+00 1.230801114879739089e+01
-6.381819874156377637e+00 2.224794881980086458e+00 1.445654677000810295e+01
-6.493648336994032988e+00 2.852857759604448429e+00 1.529236711118974057e+01
-2.106533324236814497e+00 9.727588394414468098e-01 1.316523963175296075e+01
-5.314933427649819464e+00 1.222854545718676356e+00 1.264851455520908985e+01
-5.308423005587758148e+00 6.702414139469583532e-01 1.206663306129664903e+01
-5.643900744378422374e+00 1.537890939834706039e+00 1.321327835443705823e+01
-4.914300852922255380e+00 1.076562177813833898e+00 1.223511725890811164e+01
-6.290266804979639303e+00 2.980521072913526748e+00 1.531473847101771923e+01
-6.125837715533528183e+00 2.927022289025495549e+00 1.518078888404907900e+01
-1.148661841140832474e+00 2.440597734049596568e-01 1.297398172597802102e+01
-5.440822033686454340e+00 3.349055229413425039e+00 1.566510376401574689e+01
-5.785630986411286258e+00 3.348005342207943880e+00 1.575160089146094577e+01
-5.940831305018608788e+00 2.539904244398638156e+00 1.459773458161056681e+01
-5.931660770547529715e+00 2.957543588169466275e+00 1.517188264007607756e+01
-5.780503020649367052e+00 2.630885888855269972e+00 1.467028563224974391e+01
-5.869395834216303065e+00 2.865927614291450709e+00 1.502274366983998277e+01
-5.650668855904692478e+00 3.425891587460366150e+00 1.584456994165008581e+01
-5.492193137042447049e+00 3.295687748914143178e+00 1.557622203208786971e+01
-5.853852433074851369e+00 3.277956679786903305e+00 1.563858452480787520e+01
-2.392465797238927383e+00 1.756813396849369546e+00 1.418162369568234737e+01
-5.523264573619652396e+00 2.167333734838258863e+00 1.393771638992515705e+01
-5.635583111907257248e+00 3.297268602372913193e+00 1.559690592144267640e+01
-4.748531365558591233e+00 1.109321443113400640e+00 1.218384348884894308e+01
-4.362249597990699002e+00 7.624906096187542559e-01 1.170400180532069356e+01
-4.512617763330231568e+00 9.556106944687376981e-01 1.192648708672275149e+01
-4.875538193497449768e+00 1.531211009169439308e+00 1.278652897184467463e+01
-5.311742804086851066e+00 2.915423019037461927e+00 1.497808538594696159e+01
-6.901304213216779004e+00 1.216329961835235451e+00 1.368418716054853235e+01
-4.319865111717785311e+00 1.279620450822904765e+00 1.223782511803575801e+01
-5.455641410208055930e+00 3.516778886987767194e+00 1.596937565895537858e+01
-5.088522439065157776e+00 3.216151094524697829e+00 1.541824690927632702e+01
-4.875486507690187210e+00 3.230777867427551353e+00 1.540733308808274415e+01
-4.428437742644538488e+00 3.530817256201781440e+00 1.585195337085490763e+01
-4.846090623817074672e+00 1.930129698921034809e+00 1.336287991893434679e+01
-3.963743949248138776e+00 -8.090854336003365788e-01 1.762392134696179369e+01
-4.628357156469471434e+00 2.102714973155855205e+00 1.357827447680348598e+01
-4.743292788828861184e+00 2.943074515114573853e+00 1.493756570549138019e+01
-4.718563628313392044e+00 2.781867467693437401e+00 1.467859122250915505e+01
-4.688396458146571355e+00 3.156332518807827281e+00 1.526595999725743980e+01
-6.008301214981714544e+00 1.309262042358349198e+00 1.320550046694131652e+01
-4.510475198337486447e+00 3.102444218798847686e+00 1.515254235759281443e+01
-4.466643166307541435e+00 1.671336852653321436e+00 1.285579196914272160e+01
-4.424339051503332065e+00 2.014095046616889206e+00 1.338940627325432331e+01
-4.112604331011041836e+00 1.301372072886069375e+00 1.220602942968496762e+01
-4.525219663171139217e+00 2.839490859562853409e+00 1.473521959597528763e+01
-4.361192147784561435e+00 2.416231710841188374e+00 1.402146148116577962e+01
-4.310864478447435921e+00 2.871783489170109949e+00 1.474477027032923360e+01
-4.368545352724014563e+00 2.184131395557129540e+00 1.364905639432883788e+01
-4.280817199243330151e+00 1.994543637996331942e+00 1.332400664118349454e+01
-4.086144273990519160e+00 1.376671361914274527e+00 1.230671172509372724e+01
-4.240150907283601001e+00 3.190725317820649387e+00 1.524410470329136302e+01
-4.163692777752681096e+00 2.875872925727756435e+00 1.472068380824493516e+01
-1.577274764139055652e+00 2.635732603805244878e+00 1.679429443448754000e+01
-1.449927462585655746e+00 2.439028139855585753e+00 1.652913263642727770e+01
-2.424490362604961646e+00 3.250350986589345847e+00 1.674389182020593836e+01
-1.113972457690934448e+00 1.911159073354987470e+00 1.602323298784268246e+01
-7.489089468748582057e-01 1.360669170682477613e+00 1.554360662648979741e+01
-2.209466917566722088e+00 3.094737354919533612e+00 1.670745089061404798e+01
-1.805378608893119186e+00 2.729327156597856074e+00 1.656184202130796734e+01
-2.015746626290480403e+00 2.914841918745874949e+00 1.662845781637206954e+01
-4.838180549842079348e-01 7.858522074947007496e-01 1.470845182816096752e+01
-4.536230341708045177e-01 2.303150071933721676e-01 1.391804584075165252e+01
-2.875830639532705124e+00 3.468609203186988843e+00 1.663197899742097263e+01
-2.790530402475588811e+00 3.360102621204333673e+00 1.654010819076889760e+01
-2.017251976983957640e+00 2.760575574544339439e+00 1.638253771081931376e+01
-2.224634664733815992e+00 2.940141406408308011e+00 1.645191342839187598e+01
-8.241222532631797826e-01 1.283091183763752419e+00 1.517605165929713706e+01
-7.678563914232428012e-01 1.102451748828545242e+00 1.487357897676567831e+01
-1.797685595030725336e+00 2.435670204791021476e+00 1.606874393666728906e+01
-1.358784712749928403e+00 1.937432719642766976e+00 1.570320694258615646e+01
-1.879129907705081148e+00 2.412169147110882150e+00 1.591645820625731744e+01
-7.096637654477411239e-01 1.012586936180375652e+00 1.477614559618864121e+01
-7.593618209225831972e-01 9.877152681317760141e-01 1.462287359407750387e+01
-2.840564698285806156e+00 3.315566590055493368e+00 1.639616598478656329e+01
-4.825488865760350521e+00 1.212792825963806997e+00 1.233742685977587428e+01
-2.092885351013479056e+00 2.593981112310305814e+00 1.598155260991993032e+01
-5.356439788344300457e-01 6.512213922211680384e-01 1.428872762846679478e+01
-1.691518034341585430e+00 2.059145692421007645e+00 1.546729869621546527e+01
-2.816567228801889478e+00 3.250167993586994708e+00 1.629748980267309832e+01
-2.421714335455574574e+00 2.861194136902401652e+00 1.605787716998482750e+01
-4.078383129648686101e+00 1.614606294292257438e+00 1.266507944123791418e+01
-3.905930093602838937e+00 1.372438627817956558e+00 1.227500336934804182e+01
-5.988598597308434357e-01 6.422943216801693112e-01 1.417521903951922013e+01
-3.010843914567703727e+00 3.410580574559050060e+00 1.636605566964669123e+01
-3.908393379731834649e+00 1.455590740880303713e+00 1.239813899900141791e+01
-4.042142064185681782e+00 1.764743229044453798e+00 1.289901458683459623e+01
-4.015038471715479673e+00 2.299319545211934823e+00 1.376376639625187437e+01
-3.944438594232727802e+00 2.514242900892793564e+00 1.410185282863286460e+01
-4.008862982831514543e+00 2.135640414519752284e+00 1.349395363762326383e+01
-3.836657552110547709e+00 3.548309562489354363e+00 1.582541611245432023e+01
-2.343467812085001878e+00 2.182100671073928133e+00 1.493522772392426390e+01
-2.280328956394222395e+00 2.500798232380322172e+00 1.554560928311872203e+01
-5.305368147460260975e-01 2.255136703566158474e-01 1.378384153717334470e+01
-5.271510447499342611e+00 3.206194777850202016e+00 1.542313282686524190e+01
-2.415115967011701947e+00 2.718756061639444166e+00 1.578836475441225673e+01
-8.140409003987616465e-01 6.809825439081338416e-01 1.398317255571168971e+01
-2.995207987180291909e+00 3.280510765844216081e+00 1.613041024429239911e+01
-1.657530682937874644e+00 7.824069547686267612e-01 1.329007897060662202e+01
-2.615632588783998624e+00 2.891977291898130797e+00 1.586209697515288752e+01
-3.789442070862685252e+00 2.034639159105236406e+00 1.335647217872990922e+01
-3.895406746148858623e+00 3.261112198314674249e+00 1.531549301598977308e+01
-8.411775779545824783e-01 4.694032011244981817e-01 1.359530241468750233e+01
-4.560783297131528968e+00 1.342917375365399124e+00 1.240072788970144302e+01
-1.078948227186087738e+00 3.334719813592066373e-01 1.314074071424685286e+01
-1.479426674921897167e+00 4.500821154966079263e-01 1.292379209361456560e+01
-1.315460047250881725e+00 6.845620779808845313e-01 1.346264051477460555e+01
-1.391978638653452505e+00 9.490667680015967278e-01 1.382737098180715662e+01
-1.392727142825405551e+00 1.111167688062701941e+00 1.409720836319041126e+01
-7.253089301600272876e-01 1.150567649213779298e+00 1.506203184850997445e+01
-1.636458457116746867e+00 1.040402529870430470e+00 1.373692345166346485e+01
-2.068500182921159780e+00 5.542578917328393473e-01 1.252529520699895471e+01
-1.894322907782177268e+00 7.790472554718030906e-01 1.305493335382037401e+01
-1.678661880589941591e+00 1.214792469672334008e+00 1.398439126219652451e+01
-2.350712217473682752e+00 7.048328962913386064e-01 1.248805494401028682e+01
-2.005921142726389217e+00 1.647131521938496768e+00 1.437963646178337029e+01
-2.308518908409664672e+00 2.446756887343222608e+00 1.541932056003553697e+01
-3.379443364298228225e+00 8.683866524331627090e-01 1.190613067474357933e+01
-2.951353647134702385e+00 8.085988863473989596e-01 1.209360968850283768e+01
-2.391813635591408804e+00 1.373606300273927161e+00 1.354926929718826045e+01
-2.569801857098534370e+00 2.206976052204683292e+00 1.475084012807925404e+01
-2.848873707825345214e+00 2.922389555891502066e+00 1.566168859336890762e+01
-2.720394598249853413e+00 2.702944579043397244e+00 1.542431902547756550e+01
-2.557946244758779297e+00 2.475315855026608780e+00 1.520735267349599695e+01
-2.874597634237725075e+00 1.007868968818055322e+00 1.248052340426447415e+01
-2.568565291036515763e+00 1.907359479732516405e+00 1.425752524170790281e+01
-5.122078002602810542e+00 9.608139806377069547e-01 1.717907084837101905e+01
-2.637554044250483010e+00 2.003575219417544240e+00 1.434862881182544214e+01
-3.078607013519901514e+00 3.085199402242413846e+00 1.570131618554040642e+01
-4.777291308379105317e+00 3.310607703601783136e+00 1.677119472806016631e+01
-2.775496512656505654e+00 1.487894863320230243e+00 1.336256171908200230e+01
-3.089245448357612833e+00 1.029304738451845225e+00 1.231303946361365576e+01
-3.508479105983526747e+00 9.499198991265762615e-01 1.191568313847304950e+01
-3.236761520851895391e+00 3.318322913262523599e+00 1.594001496850241750e+01
-3.301914927551438339e+00 1.203454360272136370e+00 1.238943801870775019e+01
-3.039218736418379585e+00 1.447504763008015338e+00 1.303767727109155317e+01
-2.973330761961821889e+00 1.794189506774697129e+00 1.367390345927130824e+01
-3.142619879364300761e+00 2.891914768330678065e+00 1.531720430148795487e+01
-3.082842637342097181e+00 1.776658222407905718e+00 1.353760266055579820e+01
-3.046807783737532915e+00 2.503214137187502963e+00 1.477060743681992960e+01
-3.133952483174245796e+00 2.596371785049111924e+00 1.483840322287296232e+01
-3.618797296817180875e+00 3.662580962445055377e+00 1.622873662103349091e+01
-3.465189677138671875e+00 1.265176584975750806e+00 1.233409944675665315e+01
-3.312076661661194521e+00 2.969396308962195086e+00 1.527789313912616365e+01
-3.368001694246126831e+00 2.332364600730114645e+00 1.417326861443427788e+01
-3.386482769051434971e+00 2.055538828987451438e+00 1.369907724020253426e+01
-3.504850988959800961e+00 3.421659624426997670e+00 1.584579260080604968e+01
-3.487620694784477671e+00 1.434726668144959305e+00 1.257745911762820867e+01
-3.428414550337246958e+00 1.769768905704196094e+00 1.318713744433162560e+01
-3.469568530230299430e+00 1.993593769722941556e+00 1.351544841609587166e+01
-5.895418353899457564e+00 2.077413504658736088e-01 1.707135515348476673e+01
-3.645869116781490948e+00 3.473634207001343732e+00 1.580042319934894834e+01
-3.497130219072921431e+00 2.697303003751941652e+00 1.464759494170908027e+01
-3.861938393623407073e+00 3.470722409649065643e+00 1.567780578782564760e+01
-3.770025367807789074e+00 2.418507327683070862e+00 1.398840654292964558e+01
-4.791339133197169531e+00 3.448758024853477266e+00 1.671252759993728176e+01
-5.209579018494544300e+00 2.982553132608748658e+00 1.676209970760809398e+01
-2.684338862093054168e+00 3.078250051188544223e+00 1.738933373617544476e+01
-3.090806261873945360e+00 3.356311387913052613e+00 1.729107608287833386e+01
-3.609564930409443484e+00 3.589730625995636970e+00 1.709001154191539484e+01
-3.686739177157963177e+00 3.465199963364569591e+00 1.711639339407961558e+01
-6.668364364478494899e+00 1.382110023295711088e+00 1.372259012445832127e+01
-3.838748530332368070e+00 3.411583561267327980e+00 1.708746197663887045e+01
-4.144376209759176533e+00 3.063729836311177124e+00 1.707761390743975483e+01
-4.635237459032385487e+00 2.752660510269321570e+00 1.697860945659734000e+01
-4.967652006596866343e+00 2.776572323491161232e+00 1.687818010219118037e+01
-4.782528986848375574e+00 2.891517183219213027e+00 1.690789904526057086e+01
-4.894986619593911570e+00 2.436682167548450018e+00 1.697006713491848728e+01
-1.180124551309616798e+00 7.811173666687327710e-01 1.376078900846352582e+01
-5.669507618481748779e+00 2.857690117547996067e+00 1.665055912551781603e+01
-5.947645626329420843e+00 2.828545348889253130e+00 1.654858811728630030e+01
-2.419806686341425817e+00 2.938172435601352994e+00 1.738013651464279974e+01
-3.535010791052258128e+00 3.170614338631927431e+00 1.728934561968775796e+01
-5.636205002027032229e+00 1.795104157771427289e+00 1.350275898075921077e+01
-3.841941209742677721e+00 2.975955604573050639e+00 1.722441358830486990e+01
-4.630390834184506588e+00 1.860259688711023429e+00 1.714488010670267215e+01
-4.386924046459574456e+00 2.120718549212297077e+00 1.715835213591088859e+01
-4.569828256548385426e+00 2.015148476379520215e+00 1.713259790292347873e+01
-5.053855552694225928e+00 2.247599703902396495e+00 1.696855204569234843e+01
-5.138595653004220054e+00 2.095712994938967011e+00 1.697410580102730648e+01
-6.099138826624315612e+00 2.275637682130358108e+00 1.661587907472778625e+01
-6.320845744290506829e+00 2.942297304495603338e+00 1.635090880968366633e+01
-4.335103403653985943e+00 6.736297523539658272e-01 1.160188426959324204e+01
-4.227264327275850775e+00 1.881048035451779121e+00 1.724033935652798988e+01
-4.152684574978107612e+00 1.781338339626937994e+00 1.728214896987803684e+01
-4.005407864442657839e+00 1.480532019522982523e+00 1.738179140471655870e+01
-4.203212927445544977e+00 1.430287563754524705e+00 1.733806786993861948e+01
-4.640259044704647451e+00 1.693959969655930209e+00 1.717288116240446527e+01
-4.821252103885576901e+00 1.515511073358070782e+00 1.716128447355484354e+01
-5.444862983475858620e+00 1.841281957271685421e+00 1.693762955341308185e+01
-5.313349530219398709e+00 2.015271445227099001e+00 1.694035821102672656e+01
-6.432474047460939204e+00 2.048361882614763374e+00 1.650691605668308171e+01
-6.338665032097519081e+00 1.963660793261137627e+00 1.658080368945314120e+01
-6.419846814282899494e+00 2.270528005833939655e+00 1.646292444859746951e+01
-1.828057203943567188e+00 2.280159768960453803e+00 1.747968020283346391e+01
-4.409779224779905249e+00 1.096555768119467977e+00 1.733647861720775296e+01
-4.223007863687122665e+00 1.034243118286435781e+00 1.739097800720831088e+01
-5.014209968772787462e+00 1.314642513921881140e+00 1.714777023276420920e+01
-5.224178760424599943e+00 1.114612690430161202e+00 1.712604588401817551e+01
-5.190293282563708033e+00 1.358501110900608211e+00 1.709389161481558972e+01
-5.453802129902273421e+00 1.383356833269218100e+00 1.701940524388211173e+01
-5.434391749026687535e+00 1.579550541428103472e+00 1.698847960709169769e+01
-5.514341708292890942e+00 1.182479482251882708e+00 1.703830568967540415e+01
-4.247021739036340726e+00 -1.652166803319528476e+00 1.515166930950987023e+01
-6.479099202011577852e+00 1.640097077001272829e+00 1.658990831963188128e+01
-6.617765716255188835e+00 1.894813602724103596e+00 1.643676035547174763e+01
-6.799828878146803923e+00 1.668752166648971524e+00 1.639250769532348073e+01
-6.568304273955474670e+00 2.010399412749126480e+00 1.643777827370369238e+01
-6.554349645326757567e+00 2.427478221069436781e+00 1.635143730826632691e+01
-5.386059053402171060e+00 -1.091625559734751505e+00 1.373413432742457019e+01
-3.265928598032833641e+00 1.367780883582318197e+00 1.773177951617589798e+01
-4.212737569049378905e+00 4.364690228621928014e-01 1.745295733555746409e+01
-6.595044124188912171e+00 -2.215770057890878775e+00 1.714420973130920345e+01
-3.105397744904985213e+00 7.760855959617378730e-01 1.783701930521020529e+01
-4.067971503896662178e+00 4.492855702627576164e-01 1.748535756471798663e+01
-4.812912283679109393e+00 5.063920854968637641e-01 1.730963221579487765e+01
-5.208782435006332534e+00 7.277757245325782165e-01 1.718475595522452437e+01
-4.837235564464140936e+00 3.070941338721429048e-01 1.732676737927697985e+01
-5.317804778843111535e+00 7.782677006155616084e-01 1.715100113755936206e+01
-5.120900646743264950e+00 3.864973321271012452e-01 1.724791099221011592e+01
-5.425720600690489448e+00 3.272849908000612373e-01 1.717749829131665251e+01
-5.466096225889700122e+00 9.542314568162222344e-01 1.708911914290658984e+01
-5.837961187805309926e+00 7.836604914133724620e-01 1.701589674641670058e+01
-5.505652792876121637e+00 7.533659152993301689e-01 1.710548249625129102e+01
-5.607752323751419965e+00 1.076239200887880720e+00 1.703131988618302728e+01
-5.718945846616364292e+00 3.632263452973134576e-01 1.709787697254766670e+01
-5.592428059149783692e+00 5.931696218063242654e-01 1.710257943068813091e+01
-5.693500806909131740e+00 7.284641299831005057e-01 1.705996385494319867e+01
-6.619494389018292679e+00 1.052517279762259506e+00 1.670231504224480545e+01
-3.615302018895601321e+00 2.004123084103976993e-01 1.760352972703866925e+01
-3.659072995476183809e+00 -7.456097611955758708e-02 1.761434653171237130e+01
-4.449128609076389296e+00 -3.898867787221806935e-01 1.749140904696109544e+01
-1.320666532441390872e+00 1.267634198562712200e+00 1.443815495229679158e+01
-4.813420356725787386e+00 -2.129082235473562790e-01 1.739313024655438511e+01
-3.664379938560091254e+00 9.988283866223186536e-01 1.185654547807234849e+01
-5.014498751807042076e+00 2.973522697375869939e-01 1.728499272549720445e+01
-5.157803885039704994e+00 -4.399456781571506880e-01 1.733572881994992798e+01
-5.670841625214878334e+00 1.430193093171192587e-01 1.713647184872693430e+01
-5.367663373027646401e+00 -2.686255905618573081e-02 1.723244769571522284e+01
-5.476401853199861947e+00 -8.396875108036905289e-02 1.721135825069925573e+01
-2.839016676764263281e+00 2.455257447956045613e+00 1.489601469071374851e+01
-5.853927135080443378e+00 -2.004845790802889383e-02 1.710883937616986827e+01
-6.080061426906729238e+00 3.548274295868472095e-01 1.700544825074855737e+01
-6.220876695858992278e+00 4.203749547476176573e-01 1.696103328242632102e+01
-6.054062242017135276e+00 1.627726156305380201e-01 1.703588675979219857e+01
-5.541524923362800337e+00 1.431239176410996627e+00 1.302761825659886341e+01
-6.333479023595278257e+00 4.073276031537922393e-01 1.692960855662536090e+01
-6.839691460926103694e+00 8.211373183965191558e-01 1.666461727031165907e+01
-5.021202951642601775e+00 -2.088134087276154460e-01 1.215968313577359794e+01
-2.510754531274393742e+00 3.086491345602844660e+00 1.637274235302886893e+01
-4.672594689329680584e+00 -2.740988664439205635e-01 1.257502035706473720e+01
-1.861204024250676881e+00 1.011773670207691822e-01 1.328179094063082744e+01
-1.987229453457485917e+00 8.632816560550615748e-02 1.335707505229242287e+01
-3.433162874778373563e+00 -4.958810638124750980e-01 1.768316265009703159e+01
-3.530099128343647585e+00 -5.584393946446439827e-01 1.766957946728308571e+01
-4.108640984591242606e+00 -8.463684121637715663e-01 1.760585083722522626e+01
-4.443806135527911039e+00 -6.321315189467506812e-01 1.752131839118020906e+01
-3.807181581669005777e+00 -8.346404676521474997e-01 1.764901514593956477e+01
-1.730432836532282082e+00 1.765788657317258092e+00 1.485976223189378942e+01
-4.607245006289867106e+00 -8.816815815407004209e-01 1.751330497277548659e+01
-5.359426205206391458e+00 -7.036168016017656512e-01 1.731880578590941155e+01
-5.491621146764819272e+00 -5.334355357763085337e-01 1.726393278185179980e+01
-5.444243210625332452e+00 -8.995720900835122436e-01 1.732085737661292058e+01
-5.559288229666243808e+00 -8.402731754678347542e-01 1.728684610322500248e+01
-5.879041194546892335e+00 -4.860388361037299987e-01 1.715707351986960560e+01
-6.141958968559947607e+00 -1.440972274961076494e-01 1.704900353535600033e+01
-5.900307528134460355e+00 -6.787532101071818147e-01 1.717985404814515960e+01
-6.313828335587872154e+00 -4.601419157418691341e-01 1.703265612458351086e+01
-6.538895451459132424e+00 7.827713333361785430e-02 1.690968241237789726e+01
-2.513667349455805056e+00 4.401913573274134350e-01 1.256039258433592920e+01
-1.418432374264910756e+00 9.752031734501453997e-02 1.327936538959533408e+01
-1.017679986231464495e+00 5.119283172312982799e-02 1.340837334790968782e+01
-9.197838160865658974e-01 1.255269634051463967e+00 1.729764860747081201e+01
-7.431227322088418408e-01 1.097115024606027056e+00 1.701376112084895453e+01
-1.900270935974136766e+00 8.400864664992973019e-01 1.821486065270693899e+01
-2.752111138554122149e+00 7.048268420967067627e-01 1.807776696652860693e+01
-2.884892039196813585e+00 4.890518173031281890e-01 1.796412146719851677e+01
-4.015154235110868441e+00 -1.066769215697510376e+00 1.763656456538230799e+01
-5.155226264793423496e+00 -1.291271317028611421e+00 1.742332009174401719e+01
-5.673741981021200864e+00 -1.499709709279783532e+00 1.732174842584914387e+01
-6.131988241973432174e+00 -1.246827716026920996e+00 1.719122507583649906e+01
-5.927866837110125076e+00 -1.259923510062639807e+00 1.724329337258574668e+01
-6.189836777457641936e+00 -7.851705945323246283e-01 1.711520412550271431e+01
-6.349793440782299569e+00 -1.036053487458485911e+00 1.710516372017723086e+01
-4.720549559872486256e+00 -2.586030935219532978e+00 1.750403311267695017e+01
-6.537600990252294686e+00 -7.159146151914406175e-01 1.699962539617612833e+01
-2.758381897453632714e+00 2.503230531883291476e-01 1.802739168741847919e+01
-2.532318706955805077e+00 1.926636771273937399e-01 1.818737735387006893e+01
-3.774060743569363829e+00 -1.793857403922023863e+00 1.768038026104284910e+01
-3.941142269974911017e+00 -1.816338737161277805e+00 1.765936460144606457e+01
-4.311674496868027617e+00 -1.622782208335894261e+00 1.760762467226619776e+01
-4.488272780441981524e+00 -1.383016702208098359e+00 1.757275917268349019e+01
-6.057388182803877363e+00 -1.676013475997677915e+00 1.724878155296494953e+01
-6.373531427476380351e+00 -1.862735152510997416e+00 1.718863800457988589e+01
-1.350444810774473758e+00 2.331621116482424760e+00 1.646311808012710287e+01
-6.520084603564988868e+00 -1.635061020730054437e+00 1.712674554552144457e+01
-4.858436312280058011e+00 3.149104450526594601e+00 1.527708608161738368e+01
-6.656174949850517386e+00 -8.993194220646856252e-01 1.698983006557701003e+01
-6.614112059072347449e+00 -1.442484315081554058e+00 1.707604231242116555e+01
-6.809783576026670282e+00 -1.591612718658620196e+00 1.702862533366610620e+01
-7.071878361309268612e+00 -8.665472158860403340e-01 1.682847546036171593e+01
-1.980842011355611110e+00 1.485716716192012399e+00 1.413668530439711901e+01
-6.985659715092615407e+00 -5.006920719259273511e-01 1.682281073137335170e+01
-5.987411881373331468e+00 -9.086338943278517988e-01 1.284192824599328731e+01
-5.735293342341858391e+00 -8.891416018480979844e-01 1.291548799794816915e+01
-5.774327292815121027e+00 -9.782190134700972095e-01 1.301622466761529751e+01
-4.936525691385704739e+00 -6.916706963743344261e-01 1.356336836498335430e+01
-3.200078370638834713e+00 1.738147693899119162e-01 1.320850280377712949e+01
-7.035546280987812651e+00 1.359295928022802080e+00 1.392776787484582712e+01
-9.687366466883096106e-01 2.968815819322214722e-01 1.784026725573734495e+01
-3.818907405694721646e+00 -2.034848528385635902e+00 1.766955867356847421e+01
-4.492458159106984539e+00 -1.783766647493060908e+00 1.757589867286381491e+01
-4.505598924206072553e+00 -2.009754261045337387e+00 1.756997972338297132e+01
-4.651686041120585813e+00 -1.819595153896858442e+00 1.754395877500066092e+01
-4.114242910440833789e+00 -2.228171192148536761e+00 1.761212753735596692e+01
-5.767718723467419650e+00 1.099366849744546570e+00 1.281542848275810087e+01
-4.832481020560985385e+00 -2.011135813363579494e+00 1.750698130596176583e+01
-4.971821904400850478e+00 -2.147802142761802813e+00 1.748045241199091038e+01
-4.308946926205337036e+00 3.112256229365123250e+00 1.513117561986644688e+01
-5.517157521508153195e+00 -2.345688209247448697e+00 1.737558917581204554e+01
-4.346687893769839661e+00 2.716190466534339709e+00 1.450154862014038315e+01
-3.116463311562631677e-01 -1.147883326911506074e+00 1.632104987892213899e+01
-5.762890502878846632e+00 -2.056837725722967747e+00 1.732658917523913544e+01
-5.941016928707215428e+00 -2.088245005764148843e+00 1.729451376096518800e+01
-5.954506808377596272e+00 -2.293584105615769531e+00 1.729514938699973925e+01
-7.440912519391011060e+00 -2.851225645655119934e-01 1.652120339484432066e+01
-7.632816633549341923e+00 -2.211108267934376315e-01 1.629332118897878701e+01
-5.421939338409736742e+00 -9.659807864117100351e-01 1.335302342624069638e+01
-5.394422794177446079e+00 -1.038493820760206354e+00 1.359446160806047743e+01
-4.480903044752782449e+00 -6.343487136498735524e-01 1.397857983727388387e+01
-3.708068657624311371e+00 -7.983975619933758594e-02 1.346388679808770661e+01
-3.001773401961839394e+00 -1.380583669661694657e-01 1.390142619293015969e+01
-2.786491735832801631e+00 -4.443693889983002521e-01 1.444543564053348916e+01
-1.063340010007457703e+00 -4.192262928795464916e-02 1.804144788425062984e+01
-9.751455696127837580e-01 -1.236177503871251915e-01 1.797737432816725089e+01
-1.816837692706041230e+00 1.562919684045933622e+00 1.442722648104747663e+01
-2.592969572100554121e+00 -6.937182270795778649e-01 1.801523647473993606e+01
-2.576877814012904722e+00 -9.051123350721406169e-01 1.799126822525076363e+01
-4.324049022396948772e+00 -2.658455173809853633e+00 1.755153963442198517e+01
-5.155665700294100873e+00 -2.379626668937415701e+00 1.743771696068674970e+01
-5.347751629253540528e+00 -2.561763732870920407e+00 1.740333552808569095e+01
-6.120825332625505766e+00 -2.764434049219419265e+00 1.725070719033117683e+01
-4.397625442395860063e+00 -7.540237407498064925e-01 1.424649155292976843e+01
-3.054813742237128871e+00 -4.624692549470656999e-01 1.437690223810938051e+01
-3.296514554181743328e+00 -4.145124351588158618e-01 1.421570411443501314e+01
-2.641340077932521790e+00 -5.021381634356938406e-01 1.457497581610768123e+01
-4.310459848533856331e+00 -8.267060404058561573e-01 1.440342641037922533e+01
-4.045446129100898958e+00 -8.618534067962180245e-01 1.455052061253994111e+01
-3.431312080074901516e+00 -6.892108538074692703e-01 1.454790419858498751e+01
-2.956119269839826647e+00 -9.129412276756649902e-01 1.496674734036549381e+01
-2.324613260206506382e+00 -1.971775576299663157e+00 1.798617010495455304e+01
-7.717318701970462769e+00 -1.887034985238598139e+00 1.630834230750927105e+01
-7.370183396802695519e+00 -6.813781625521375673e-02 1.329929185903858269e+01
-4.950361497376732700e+00 -1.483899909640520320e+00 1.475108207123573578e+01
-4.686313406542126359e+00 -1.507400697972938630e+00 1.491283609632323959e+01
-2.859376577512506401e+00 -1.003409909695285762e+00 1.507495115532404384e+01
-5.011448447322006672e-01 -8.299702130026815894e-01 1.476635349096364536e+01
-5.778541477354881550e-01 -1.284008386368666876e+00 1.762462617538510301e+01
-7.395394795922056730e-01 -1.205188936047719039e+00 1.788861393913546038e+01
-5.426824841653146159e+00 -1.819235199399415137e+00 1.472949325242610996e+01
-4.335827798156846491e+00 -1.359249009449456480e+00 1.492413261476468733e+01
-4.080361865077255956e+00 -1.427751058035236831e+00 1.505005481778466248e+01
-1.458560785574088303e+00 -1.149606476907139019e+00 1.507045931925028270e+01
-3.822985968910315169e-01 -1.161360850097539199e+00 1.723886067603073258e+01
-8.069320263050963060e-01 -1.695477782961897439e+00 1.795684733335171757e+01
-7.528016326243109901e+00 -2.828383600568184164e+00 1.634855100057701094e+01
-7.911796154954239491e+00 -1.829838454879572751e+00 1.586393581196772118e+01
-7.905922410287144153e+00 1.515798886328614259e-01 1.479152500538717163e+01
-6.734574504120925731e+00 -2.097326045426262553e+00 1.392993828363674425e+01
-6.106918980677517261e+00 8.026003678772486438e-01 1.271558626131213288e+01
-5.285062883578630633e+00 -2.107352312373059533e+00 1.501885382862729301e+01
-4.220085638370841608e+00 -1.884363644193435050e+00 1.529795195950720910e+01
-3.835826922302170150e+00 -1.397794130689580250e+00 1.509146253388340142e+01
-4.102773390480802362e+00 -1.777037848162080103e+00 1.526214052379928887e+01
-7.931460266633933109e+00 -1.132289669554663369e+00 1.480251158912125220e+01
-5.649432554254999239e+00 -2.197365731843989423e+00 1.487995315669540020e+01
-5.361056746257460759e+00 -2.233770662789902772e+00 1.507021479922959628e+01
-5.549872744677992742e+00 -2.303447446358685369e+00 1.502229880550381580e+01
-5.617102742996845421e+00 -2.447874744247910073e+00 1.509966464420021026e+01
-5.077359203799035825e+00 -2.417784497907669916e+00 1.532224635383929012e+01
-4.613156374827899420e+00 -2.573625619739406289e+00 1.559662123294366864e+01
-4.424279919007195971e+00 -2.185520686491752684e+00 1.542034670450200906e+01
-4.108563858063094543e+00 -1.999454347402522814e+00 1.538885843593694602e+01
-2.446721647601968641e+00 -2.142528822496061025e+00 1.591453349153928798e+01
-7.768211946387728162e+00 -9.681835570525905155e-01 1.418425804548089530e+01
-4.011641984898908220e+00 -2.370655521686154898e+00 1.561828409208235513e+01
-3.485467181125207148e+00 -2.063801913903922980e+00 1.556096310588123544e+01
-3.040199583508695014e+00 -2.167887712191623351e+00 1.573824331053392456e+01
-2.578898280161312506e-01 -1.778299481238767576e+00 1.625944709334736871e+01
-2.831412335337426533e-01 -1.870141660022729191e+00 1.615478404975980453e+01
-7.804234952273204406e+00 -2.387648561728392238e+00 1.494034806791729153e+01
-4.902766505162249544e+00 -2.850891146219504790e+00 1.572777156035800772e+01
-5.160672344083492291e+00 -3.265057843899391798e+00 1.611430136656515089e+01
-3.628320489093114443e+00 -2.892749518226347405e+00 1.613977697912017106e+01
-3.240564201863436189e-01 -1.519324343333637195e+00 1.620356212369316040e+01
-2.662436987990404180e-01 -1.578864453434012383e+00 1.639004035827338868e+01
-3.591159386489108929e-01 -1.696045080799039262e+00 1.598415499396812578e+01
-3.695105378849870004e-01 -5.586471940092359034e-01 1.643613493839527706e+01
-3.693941393014308350e-01 -1.309486758543166651e+00 1.605254355804854782e+01
-3.788532427003277192e-01 -8.822968894592948530e-01 1.595988481344137710e+01
-3.299408072669449687e-01 -4.741881352628292134e-01 1.559271116362005927e+01
-3.167231799795680036e-01 -2.585779517196948873e-01 1.583853859713697432e+01
-3.128654682633247308e-01 -3.690802700551740756e-01 1.502276810355515124e+01
-3.482050020146967295e-01 -5.961172895536694938e-01 1.538424942627516145e+01
-3.044750174119053021e-01 -4.027697508743486310e-01 1.522503163302095430e+01
-2.998241997708734896e-01 -2.053934309319460638e-01 1.457918840922442172e+01
-2.723932149297929595e-01 -2.715683927122327646e-01 1.505078368071394834e+01
-2.468811125879175616e-01 -1.387588267801467268e-01 1.504403131687538320e+01
-5.093725643384925394e-01 8.710807924527772528e-01 1.625140040355152848e+01
-4.512806037152818917e-01 7.133458394965499494e-01 1.597986188780137695e+01
-7.841336799063712171e+00 4.200153460567577213e-01 1.467312203486725508e+01
-7.796741739320481202e+00 2.178784907166795293e-01 1.445006611218892090e+01
-7.568812057393105697e+00 2.725770118929826680e-02 1.372204115298296756e+01
-7.693484784886678085e+00 6.789598245950356770e-01 1.430509265889202908e+01
-7.621555614752627328e+00 1.461820203100316462e+00 1.458265164865374430e+01
-7.505802457765653912e+00 1.181494577716979855e+00 1.411671737241137947e+01
-7.459611154363402719e+00 1.890008610791489296e+00 1.498673823404097050e+01
-6.904140227596514912e+00 4.606252131915287151e-01 1.286432245855138490e+01
-7.282192216699825416e+00 2.094629652793654984e+00 1.499658842123577074e+01
-6.831657298831102842e+00 2.804969978934966246e+00 1.551867331518067061e+01
-5.899362082519028050e+00 4.661787601569225004e-01 1.225248136064453064e+01
-5.631203964010477847e+00 3.851031620434008929e-01 1.205886695606966441e+01
-6.679581952903093089e+00 9.773776527686264259e-01 1.327669427927928325e+01
-6.863615575090229015e+00 1.134423293863200399e+00 1.356737509120402052e+01
-2.102359447703974649e+00 3.337977830311329441e-01 1.278487339105748077e+01
-2.308799979196323626e+00 4.046507317460896758e-01 1.261503325577579204e+01
-5.354925798504197587e+00 5.414549895275637681e-01 1.199171749644572316e+01
-5.465543721724156256e+00 4.631996966327021070e-01 1.200301840802016073e+01
-5.914875157696059205e+00 6.702098842912853627e-01 1.244539740525971183e+01
-6.136260757560732415e+00 8.781600636994850717e-01 1.281773142482006023e+01
-6.972628818112361238e+00 2.407814957266250389e+00 1.509977365686427930e+01
-7.021644154141996275e+00 2.035226892882910477e+00 1.468001169815382667e+01
-3.949605979652147880e+00 9.111418416662475650e-01 1.180212274157542396e+01
-6.539536191138791921e+00 1.237059439819294226e+00 1.347824478337876997e+01
-6.201715508971102686e+00 9.501066758121066158e-01 1.293999993785314473e+01
-6.243222325541975870e+00 1.122437459248096125e+00 1.315669647465526992e+01
-7.192087321080880891e+00 1.883190585911868276e+00 1.464652662873296407e+01
-2.979484518990020980e-01 4.079300724067564943e-01 1.463310311511563100e+01
-4.807975121131182750e-01 8.924140080977798206e-01 1.527263411014778427e+01
-5.577957138113875502e+00 3.634992682579390788e+00 1.620023379576068834e+01
-7.531069600418682786e-01 1.484482370401004836e+00 1.595860155891373466e+01
-5.270582399798897644e-01 9.860862001711110381e-01 1.562201260227738686e+01
-7.299483872747958291e-01 1.392390595637211348e+00 1.572293848452915910e+01
-6.022037553275185751e-01 1.145986642461110705e+00 1.546769155315354993e+01
-4.167823049558681880e+00 9.824891177862244973e-01 1.189491282948286255e+01
-6.842943049641202258e+00 1.889548160154207679e+00 1.439918319232509702e+01
-6.825625337099470613e+00 2.451423819576658669e+00 1.502571056263613514e+01
-7.100029809429743821e+00 2.442553967391614123e+00 1.526559453330957439e+01
-6.767082170831182353e+00 2.213739490012241351e+00 1.470590939678777431e+01
-6.556690774006724176e+00 1.626315849110381961e+00 1.391806739290077388e+01
-6.532248817963262510e+00 1.819210369925321480e+00 1.411343244822072762e+01
-6.284139030320938346e+00 1.409632020835620558e+00 1.349897932792548261e+01
-5.723561452974320396e+00 9.085877238312471960e-01 1.257754563864533282e+01
-3.995767311630367136e+00 9.907495235981684800e-01 1.188672225873271771e+01
-5.834851148850145108e+00 9.801933888373390857e-01 1.272989966699751108e+01
-6.208651620126065751e+00 1.913933821118150469e+00 1.400090823213414382e+01
-5.847532781527052137e+00 1.365349080246746283e+00 1.315975991191058370e+01
-6.131703065256237650e+00 1.678994437577783216e+00 1.369259722524431311e+01
-4.822584935125750150e+00 7.800622609051153233e-01 1.189730323125326095e+01
-6.352792916929687728e+00 2.349613647078402145e+00 1.457348298318996882e+01
-6.006904903881426172e+00 1.887956771372242493e+00 1.383763976708547716e+01
-5.842165143651692816e+00 1.549308975264344745e+00 1.335741538509368809e+01
-2.562828056344684580e+00 5.533753227888986714e-01 1.207357303715627239e+01
-2.515345363351656705e+00 5.083271934755115851e-01 1.206983052801145817e+01
-2.710952241905735249e+00 1.522413119753284860e+00 1.348272655566125167e+01
-1.352351290099101933e+00 2.485602912367577133e-01 1.277644808233311835e+01
-3.343281610704655904e-01 2.718287956674467765e-01 1.421587166056798424e+01
-3.098146829601406971e-01 4.120066402912820891e-01 1.445313293370927710e+01
-5.442925966433515228e+00 1.578692663685865583e+00 1.313200325108247313e+01
-2.735159282458234031e+00 2.135551755659208961e+00 1.447061101123529880e+01
-1.164564871429250470e+00 1.197430457107339308e+00 1.448557161447582331e+01
-5.306073667620463397e+00 1.363463440668389204e+00 1.279631465936268597e+01
-1.180125085799692997e+00 2.150269993442302852e+00 1.647425665533226180e+01
-1.007731669564937871e+00 1.816009181533175365e+00 1.602055959043720179e+01
-1.124497136774342598e+00 2.056952518832208199e+00 1.633284178437046563e+01
-4.626243278685053806e-01 8.176711704097039402e-01 1.489295750155076092e+01
-6.054210451782369162e+00 3.310788864003996412e+00 1.576291725205532401e+01
-6.079527240755636441e+00 3.084616243354824761e+00 1.539274995926428602e+01
-5.937089372246799002e+00 2.774504862612959144e+00 1.491051226674603214e+01
-6.028311149371123889e+00 2.882528330321585841e+00 1.509164159457474597e+01
-5.938083539225045726e+00 2.621610882233150974e+00 1.470494977980605000e+01
-5.867835770113796201e+00 3.044602350522407352e+00 1.527912348169290624e+01
-5.726428159349995717e+00 2.553655868707245258e+00 1.454905076665572494e+01
-5.605176824093353716e+00 3.498166982777088041e+00 1.596460156123029606e+01
-5.702433016976353741e+00 3.121383668093472785e+00 1.535116207842069258e+01
-5.382443009602207340e+00 2.113459944312929384e+00 1.381157993364166714e+01
-5.576075705071374955e+00 2.969764683857399667e+00 1.511214507604645974e+01
-5.559278486631965777e+00 2.568888000673040573e+00 1.452368036959612851e+01
-4.490774751960476152e+00 8.823863349085954155e-01 1.184475569942402728e+01
-4.345062908809259383e+00 9.865216287948790352e-01 1.190787293509867339e+01
-5.028127952740877760e+00 1.666626420604329972e+00 1.304084179149275968e+01
-4.662088006714810717e+00 1.493839655676271860e+00 1.264494289361589097e+01
-5.331627365213105207e+00 2.603702964889737181e+00 1.451128687397606143e+01
-5.066076207405604492e+00 3.583929642868780796e+00 1.605959943551783198e+01
-5.234908569291732761e+00 3.443278750395107224e+00 1.579797442130343654e+01
-4.767431618043930897e+00 3.639426945261208690e+00 1.615370659144971910e+01
-5.134377817926131016e+00 2.989280323464519551e+00 1.506373751993263710e+01
-4.990706461929951487e+00 2.466627711756118391e+00 1.423054486764755211e+01
-4.949683526920448884e+00 2.683163543416930974e+00 1.456070345104515695e+01
-5.013769418088637408e+00 1.910300663137773469e+00 1.338676073004468492e+01
-4.683410299033427648e+00 1.709608605816366200e+00 1.297569066717115760e+01
-4.850787845692813960e+00 1.853726909855736515e+00 1.324773079294678979e+01
-4.465254144758770138e+00 1.504683447135106711e+00 1.259451183214691383e+01
-6.437474819787150082e-01 1.146450107070302593e+00 1.526700710179385112e+01
-4.634435681926044381e+00 2.020865519707976787e+00 1.344965959201656602e+01
-4.724570302661049048e+00 3.079700191315982050e+00 1.515046457448921302e+01
-4.480470025159391412e+00 3.313228939091388270e+00 1.548236659558159545e+01
-4.542251539666020577e+00 2.694516100310844653e+00 1.450648243630340062e+01
-4.639444996110311692e+00 2.167793374996763944e+00 1.368450468295840494e+01
-4.234231969875962953e+00 3.468175809318676972e+00 1.570200042832180998e+01
-4.230439218685884128e+00 1.377281149921329551e+00 1.233818555527251704e+01
-4.337291520710866877e+00 2.488755161964105067e+00 1.413302132508023590e+01
-4.167963540184629778e+00 3.108287515214577912e+00 1.509679796822111797e+01
-1.564160780785551541e+00 2.548418883408762436e+00 1.655765990236913865e+01
-1.755195999559164388e+00 2.773532336423475186e+00 1.674863258307564706e+01
-2.279818323333962837e+00 3.199966141942000242e+00 1.684842834190545346e+01
-1.100632540951433258e+00 1.234599301588071185e+00 1.462664003822280989e+01
-2.556827513028191667e+00 3.379582459768051272e+00 1.685866965501274706e+01
-1.260306588028006214e+00 2.032031023912563850e+00 1.602881626044362662e+01
-6.893107728565053272e+00 6.431101749824712499e-01 1.303984960863154186e+01
-1.497439714869516658e+00 2.419601556164302281e+00 1.640614550091135015e+01
-9.366776863662495956e-01 1.570241900443346772e+00 1.560253867016708540e+01
-2.707888699896358720e+00 3.383181251325778405e+00 1.666618952992217828e+01
-2.148610172895421666e+00 2.991991218756481885e+00 1.661571339221043786e+01
