-5.243255375014126862e+00 9.195534815987171928e-01 1.833003369505497560e+01
-8.834954273495254640e-01 2.664885442193116738e+00 1.642933216754827086e+01
-7.304515490444405401e+00 1.191613307696754109e+00 1.788437009434447234e+01
-1.839842986389238710e+00 4.076043047957107923e+00 1.735104025731526534e+01
-2.002345541100795323e+00 3.867901228046966899e+00 1.755403823440311228e+01
-4.211860338601714382e+00 3.557875152250752571e+00 1.762201838999889603e+01
-2.368456677287246848e+00 4.384712190008731802e+00 1.729649982417738485e+01
-2.786782009095230883e+00 3.894136347502440643e+00 1.544702862826380496e+01
-3.002559889577756103e+00 4.553121658460654864e+00 1.722185651606346468e+01
-8.284525614955532191e+00 4.369365430731105282e-01 1.597011735589898862e+01
-2.890299254799969297e+00 3.236637170217947501e-01 1.875860199157002128e+01
-3.815889254714291745e+00 4.540043460401504305e+00 1.718635631476142933e+01
-3.769151603632471037e+00 4.356975942265848722e+00 1.558819247405429209e+01
-4.200943732988967838e+00 4.566892900792177912e+00 1.711219240754794058e+01
-6.250234783893851009e+00 1.508151363184542681e+00 1.796652929660926290e+01
-2.360407292900333243e+00 4.213031989955656975e+00 1.636685689678573041e+01
-5.706792587270319572e-01 -7.663849394738366794e-01 1.886981597585301884e+01
-6.842661628101160076e+00 -3.581487671194770073e+00 1.837962277282631263e+01
-5.004758848054136067e+00 4.003522049651689230e+00 1.721602539620800698e+01
-2.887769378363814532e+00 1.108390107501123323e+00 1.857785396150865509e+01
-5.038646776418894468e+00 4.394748335959143937e+00 1.702205883629705951e+01
-4.002332810533471452e+00 1.637398335322909348e-01 1.309590497671156939e+01
-5.356866530757314671e+00 4.372673157176696357e+00 1.693213769790624568e+01
-4.525391392814159808e+00 -3.633534325720499503e+00 1.793928831906150023e+01
-6.438886937079864481e+00 3.774501236824267636e+00 1.675909871807455787e+01
-4.669434597089559880e+00 -1.275883082088857146e+00 1.632699753483300853e+01
-6.965670102819188969e+00 3.154779553880786125e+00 1.682791892175466941e+01
-1.320889208266337267e+00 2.237916289269116454e+00 1.453155675020176929e+01
-2.037801465526771327e+00 1.221344875963066956e+00 1.866565872097573831e+01
-6.971903964485944627e+00 3.578365118488758156e+00 1.647919438729138264e+01
-3.010782905867202430e+00 3.256640451728351593e+00 1.791213094983706711e+01
-6.085169789335113322e+00 9.418597630922962427e-01 1.210512935297275661e+01
-4.453099806727011334e+00 -1.065690058088967440e+00 1.616200741992419054e+01
-1.356643237517827227e-01 -6.385880661064609054e-01 1.612314414322979061e+01
-6.037044275136796756e+00 3.157208749684852656e+00 1.730362519415731626e+01
-3.240274910797169561e+00 4.848367140068169157e+00 1.696233625532717681e+01
-8.371697048259402862e+00 -1.867210535802887206e+00 1.681934366314289164e+01
-7.233995738555289989e+00 3.435670252099621180e+00 1.615307424894062294e+01
-1.803240073554659872e+00 3.140937421471720725e+00 1.521503232615757284e+01
-1.109231300229188033e+00 -9.897140586409558516e-01 1.926070014787432072e+01
-5.138967765821012001e+00 1.721617064928217200e+00 1.206878209078194075e+01
-7.307192228558220037e+00 3.432355567936658858e+00 1.587631479251613698e+01
-3.190936177974236010e+00 3.874990842421007997e+00 1.514751629149663970e+01
-7.734407369603191640e+00 -3.168103057842197146e+00 1.724897210517411494e+01
-3.430621948565699242e+00 -3.308549334793926544e-01 1.483819753355457394e+01
-7.217964859908502007e+00 3.634288831934517461e+00 1.571043617133847548e+01
-7.369055278614133897e+00 3.222580844593165850e+00 1.526868516011515098e+01
-8.183818899886324161e+00 3.411360727893973932e-01 1.727587755288665861e+01
-2.539612629817276535e+00 -2.753629911469101188e+00 1.918912149728909711e+01
-3.156299109947000581e-01 8.659878732887846819e-01 1.794787281769858467e+01
-7.402940761598953756e+00 3.269701901268421196e+00 1.567310361369873917e+01
-7.777683575014361139e+00 -1.680578331581261908e+00 1.839708804257616137e+01
-2.911550016722932455e+00 8.939341903314628190e-01 1.109129282574874864e+01
-3.518868270285108402e+00 -1.893659157441058172e+00 1.912029365542297299e+01
-7.445994629553679189e+00 3.077810853314919548e+00 1.526594237158692025e+01
-4.584584147645347940e+00 2.308207478567081417e-01 1.248025265930917627e+01
-3.610384396158379250e-01 -1.157422613290754354e+00 1.862334822249029642e+01
-8.140388793212638419e+00 4.379420280258217169e-02 1.759620234819320572e+01
-3.177644287249272281e+00 2.580096186253311608e+00 1.321021038821050197e+01
-7.389425417173461241e+00 3.048601928680147566e+00 1.507311074057486522e+01
-2.173130776404484266e+00 1.009755226062950539e+00 1.138140285100439897e+01
-7.507901700295773750e+00 2.851618383857151606e+00 1.507997282646562454e+01
-4.713567047066819171e+00 -1.920315954856673057e+00 1.908470520435762197e+01
-5.358566672811411635e+00 1.146476324228623334e+00 1.147961725679551748e+01
-5.139275601476890110e+00 1.203350317102921174e+00 1.144207312100049379e+01
-7.291290789602047795e+00 -3.023819980105158400e+00 1.851446340692018921e+01
-2.869254746733880701e+00 -1.102129861439619551e+00 1.618462542578412311e+01
-1.677370914895218945e+00 1.826761829231981604e+00 1.848418744025714844e+01
-2.716941383611000127e+00 1.085531840456723796e+00 1.108514598228389403e+01
-4.326676513619162279e+00 1.090349190838556304e+00 1.109159192551733142e+01
-7.086758807043791464e+00 -2.855438311582664923e+00 1.682425531084654935e+01
-2.665813561081340488e-01 1.068286385878445044e+00 1.755975187965264084e+01
-4.339773779756161076e+00 9.617366471357572388e-01 1.102841378388204063e+01
-8.329133501594357725e+00 -1.622794346684065969e+00 1.731825072411678335e+01
-4.752486470837744559e-01 -1.652031309379187185e-02 1.471396412142844312e+01
-1.832012493931280961e-01 -2.522816584364407255e+00 1.761345861860608508e+01
-3.143883081373799016e+00 8.886350224215269211e-01 1.105488966971106990e+01
-2.436228877491220413e+00 1.991525731117937958e+00 1.279594132831447340e+01
-1.277143946887953074e+00 -2.494812439140231319e+00 1.679655420357494577e+01
-1.220840982043405187e+00 3.514992475534154615e+00 1.721366894732118524e+01
-6.500398314355119389e+00 -6.801404880869519332e-01 1.864740178016534244e+01
-7.929937748893037153e+00 1.752234163374794651e+00 1.551341374339549262e+01
-2.877620179329856143e-01 -2.159839639901280250e+00 1.846534298324439405e+01
-4.504241791402418649e+00 -1.140214647447512553e+00 1.899155167384516929e+01
-1.481675637129175271e+00 3.839050296578051302e+00 1.719794248816055315e+01
-8.713488247383089913e-01 -2.868232806926746647e+00 1.719810200968455050e+01
-9.396996307326359599e-01 2.369803050522119037e+00 1.574534620176770616e+01
-3.494535211240457073e-01 7.602737967858927970e-01 1.515121527946832103e+01
-2.424018044021262419e+00 2.869463980596706598e+00 1.811085686447216503e+01
-7.956283898072447514e+00 1.086786814791517175e+00 1.519932076626451689e+01
-1.619619987459707922e+00 3.852259373024274680e+00 1.738946657166605192e+01
-2.104388789279284744e+00 -2.646586547710549908e+00 1.738863814467284286e+01
-1.070803637813220188e+00 1.814488858848224417e+00 1.827785409743467326e+01
-1.313203597193623562e+00 -1.679937913579392372e-01 1.912640858217245565e+01
-1.806395664660500167e+00 3.695062064938689161e+00 1.761038567785631770e+01
-2.980069260669638176e+00 2.821376760950707663e+00 1.807520473495069879e+01
-2.118448841862098142e+00 -2.346603913118310736e+00 1.717019634677158635e+01
-2.719710008266093659e+00 1.178420840680613146e+00 1.146207137486067396e+01
-1.334281406685364324e+00 -1.608959593670999721e+00 1.934757084342584577e+01
-1.823054317514999134e+00 3.473535982454914794e+00 1.776218098575317939e+01
-4.420019236693950582e+00 3.328326082743615189e+00 1.769528281325596097e+01
-2.001596507617938059e+00 3.488013376821872846e+00 1.779467803883843047e+01
-7.273279109981224622e+00 -9.708500853689943089e-01 1.446417426750071300e+01
-8.080043092321698595e+00 1.432926850591950796e+00 1.620073009760405469e+01
-4.336671727687805955e+00 -3.138983936548734199e+00 1.912415801111752600e+01
-2.761582084506286616e-01 -2.534183098341152629e+00 1.825403660879561940e+01
-2.405184120175157148e+00 3.903890350048041746e+00 1.761066421058014342e+01
-2.348284860655281747e+00 4.154094753698564624e+00 1.745934455735097046e+01
-1.517704353887840529e+00 -2.779880981823660946e+00 1.925660671502421550e+01
-6.923176414425480374e-02 -1.499954223754085492e+00 1.706252343429426688e+01
-3.033371256187600729e+00 4.177249632827721548e+00 1.744776334607236734e+01
-7.727253744487752485e+00 -2.216565960362783194e+00 1.564382565237449896e+01
-3.585486663150727615e+00 4.502337913215886722e+00 1.722938384909806686e+01
-2.238586648439993887e+00 -2.764670960150168444e-01 1.443693288977253175e+01
-6.976078713947719834e+00 3.077396702261633310e-01 1.336602569744607294e+01
-7.710877920486973736e-01 -2.756551406491763778e+00 1.901396746338684451e+01
-5.762898494850895226e+00 1.598122338811312826e+00 1.220523585700939506e+01
-3.787477522439651523e+00 1.065224096723614844e-01 1.325089511804683085e+01
-4.391767347075720807e+00 4.499502945271519394e+00 1.712169056234285236e+01
-7.458929716954445510e-01 8.323594104586057307e-01 1.390159499007274135e+01
-4.460605812074097010e+00 4.851282606004150288e+00 1.687882046094404487e+01
-4.616663234112486691e+00 4.398573286918036729e+00 1.713067216579824148e+01
-1.061411853097645075e+00 2.491566993133844221e+00 1.561628705612432455e+01
-3.751651508600031271e+00 3.612041711152301104e+00 1.765406389105776341e+01
-5.272841548327774852e+00 4.167835278801711674e+00 1.705439180065124205e+01
-6.800200577167665017e+00 2.956283453881492385e+00 1.709766572365395021e+01
-7.202093245109214337e+00 2.793748696192304593e+00 1.686093752893104281e+01
-5.147466070903767843e+00 2.900667687853726306e+00 1.349931752212331659e+01
-5.784231195403998882e+00 -3.553007897587085573e+00 1.877776002874149341e+01
-7.199650406174612272e+00 3.011119210475555086e+00 1.667988878135163944e+01
-3.480998370711565038e+00 -1.305504775133162765e+00 1.639792644797010368e+01
-3.109692755402538644e+00 2.342912204896056672e+00 1.287965948344753642e+01
-7.206314219952894007e+00 3.204422887609178261e+00 1.649644361862933195e+01
-6.551974304880059385e+00 1.691584483552367901e+00 1.287354879800097152e+01
-1.502740347667823162e+00 -7.412933141312365581e-01 1.924732368443224217e+01
-2.008587314091346610e+00 7.818737181058748043e-01 1.193882044975819312e+01
-1.756577365600882068e-01 -1.337402696248454204e+00 1.643572303556477365e+01
-3.588719353875125861e+00 2.656214221996504143e+00 1.804852806114218211e+01
-4.988715097075616001e+00 -1.047040721518541773e-01 1.338294226260944342e+01
-8.726303176798650973e-01 1.604415751343459817e+00 1.827117345162946904e+01
-3.583462766293743940e+00 1.929615697370023808e+00 1.206233597288091275e+01
-7.267919439623025113e+00 3.238621115179607379e+00 1.633111453056315909e+01
-7.482907154626859736e+00 3.030955834564113438e+00 1.587660059167898297e+01
-4.334075355018247588e-01 1.899553695657817842e+00 1.720735292963639651e+01
-3.873352244684938661e+00 3.073364547342851694e+00 1.786520500606645001e+01
-8.346244427958380285e-01 -6.020661352875653627e-01 1.509170361624293477e+01
-2.101271677044923347e+00 4.181404100702910132e-01 1.886151693445338751e+01
-7.508603507718566661e+00 3.037448962438463518e+00 1.549732383932714086e+01
-7.268592871054622151e+00 7.349610444299594647e-01 1.814236846518614144e+01
-1.076063943083505947e+00 4.922348320043944403e-01 1.334907979388952626e+01
-6.013796327624028493e+00 2.616506104871778149e+00 1.757354758514980730e+01
-1.275314636384091482e+00 1.056087306870763687e+00 1.874306049614865444e+01
-8.800927257984256791e-01 2.299949265416596500e+00 1.579190535935822837e+01
-5.464483371584036853e+00 1.019917684176568695e+00 1.149900938968894692e+01
-3.377886618152915688e+00 -2.941665054313356009e-01 1.471088266658376043e+01
-1.513301442793650420e+00 3.979050355818433693e-01 1.305227453745587596e+01
-6.363263179043136653e+00 3.476439475799805834e+00 1.469454941720514896e+01
-5.902984091435205194e+00 1.096169663771856539e+00 1.188073653349345093e+01
-1.657387132137551955e+00 2.465202832800746702e+00 1.822698737268668268e+01
-5.688717799267407393e+00 1.118609511857982852e+00 1.169539298633376845e+01
-3.948236303813402515e+00 4.160420346010413439e+00 1.517847604974347675e+01
-4.535238202609992442e+00 9.710501536446077830e-01 1.107489566568353112e+01
-5.309550378940972593e-01 -2.413046235670338824e+00 1.667926920017238857e+01
-3.724052588916285877e+00 5.839937686729094191e-01 1.163396036831857216e+01
-1.308163389359469519e+00 -3.134171766253368574e+00 1.758497992347815497e+01
-8.130294181099482209e-01 2.886483474200532306e+00 1.716671160593020673e+01
-1.820384149296836007e+00 3.305241201591963218e+00 1.785780151719389508e+01
-6.737669900301028747e-01 1.454324815233101642e+00 1.815102361172427337e+01
-7.107599380300937852e+00 -1.494792063131510362e+00 1.870940561647239164e+01
-5.489733868876053968e+00 -2.049305728314388730e+00 1.675240972327928901e+01
-8.105915114967910284e+00 -3.834494272999608988e-01 1.548536193950629425e+01
-3.741202277393925080e+00 -3.851178894755896920e+00 1.832003013129674329e+01
-6.076284493420379462e+00 7.108021636400579935e-01 1.827640259939165546e+01
-5.221715626347559258e+00 -6.248811393956810178e-01 1.520560188222680509e+01
-2.205508583007808721e+00 3.275455608891706838e+00 1.793448564754161723e+01
-5.529516666611115738e+00 -1.895688087726111748e+00 1.894512376251794805e+01
-5.751125811097404394e+00 -3.075929046622154495e+00 1.892804168519133512e+01
-2.606914569936635395e+00 3.901669907497206324e+00 1.761835590612411195e+01
-2.016585409402415152e+00 -3.653521290228982643e-01 1.465345711601419154e+01
-1.328100420575556662e+00 2.991359374328955489e+00 1.574538115376489955e+01
-2.966128501986980304e+00 3.918696663369918731e+00 1.758732056299774271e+01
-4.400076713939874651e+00 4.301915400069580286e+00 1.721922789907828033e+01
-4.576346811335139542e+00 4.219216851161942117e+00 1.722599908931880108e+01
-6.322458307217480922e+00 1.885311773921522160e+00 1.290252790569718044e+01
-5.851613084534933229e+00 3.835859239895405004e+00 1.699009610790428937e+01
-3.340274905795146410e+00 2.955681643443573980e-01 1.243962690596439913e+01
-2.941090660426873171e+00 2.445078908349628932e+00 1.314764314402088630e+01
-6.608163759642593504e+00 2.926065262932807443e+00 1.722875180008916018e+01
-2.506323481079120175e-01 1.085305858065376050e+00 1.713691680326714462e+01
-4.014524082918891068e-01 -2.965140021356083899e+00 1.837386529876215846e+01
-6.834066489212958118e+00 2.345273139320686262e+00 1.745378155898898953e+01
-2.724705015031978483e+00 2.320851147927031732e+00 1.309311505623344729e+01
-7.430536097080471691e+00 2.782454822312406151e+00 1.649023575386942397e+01
-1.716532723616153167e-01 1.045551443839466410e-01 1.669700861126467473e+01
-4.798308901933485693e-01 -1.027650256851855071e+00 1.571381646405496824e+01
-7.585589481825659064e+00 2.621421215746708278e+00 1.627205761101783210e+01
-8.038545329488520963e+00 1.437536728150624610e+00 1.565747754151994897e+01
-5.222545918541241505e+00 3.554661998303240367e+00 1.736953216477195738e+01
-8.173776017422266449e+00 1.035252354220392634e+00 1.659257994718395324e+01
-7.195051666748529584e+00 -9.001036723616722135e-01 1.438487989790443677e+01
-4.746192665079052908e+00 -8.325345967500468181e-01 1.889062816427179214e+01
-1.173022380205340554e+00 3.315942693439494882e+00 1.739328666038406013e+01
-7.233097609190229704e+00 -7.422779503530525513e-01 1.429313341178729857e+01
-4.839165182431370837e+00 3.537290951796589589e+00 1.749531009038063800e+01
-7.546400362480740753e+00 2.285309145441057233e+00 1.462361919526012954e+01
-5.353666977048588294e+00 9.529690375525021739e-01 1.146207047975151383e+01
-3.185694601016576755e+00 7.005642151405844231e-02 1.325822090968181399e+01
-3.936308222190851858e+00 4.378877393287803899e-01 1.196513694338602463e+01
-4.326482659245684204e+00 1.544389339250367144e+00 1.168231181344707537e+01
-2.957932108595044518e+00 5.928690359300425872e-01 1.171105472546642901e+01
-4.555141762031650998e+00 4.522069026876485154e+00 1.565373867779186767e+01
-2.093891509680599228e+00 -1.788421316365338409e-01 1.900018194339830657e+01
-7.310862021878174133e+00 3.410522825997401419e+00 1.548195994360099448e+01
-8.385235626151175126e+00 2.144912268324373761e-01 1.657232935334232238e+01
-2.558667424420038472e+00 7.660862929962042323e-01 1.150867837975488683e+01
-7.318978066921387082e+00 -1.878515661694543537e+00 1.867564163130795762e+01
-7.451049255093682433e-01 2.742417097848656837e+00 1.718138878021942517e+01
-4.403146025231619021e-01 -1.904036928003759455e+00 1.640820614365980035e+01
-7.565342680524523189e+00 8.860070463830922449e-01 1.424733956070606311e+01
-7.403701185032405263e-01 -7.921668703696509439e-01 1.904443443252192836e+01
-7.439429577739615773e-01 -1.000109494356220985e+00 1.907456346794485924e+01
-1.268807146931336227e+00 3.446811080688297224e+00 1.739435946010980771e+01
-4.430619669338820898e+00 -2.352732038755906974e-01 1.482261592309066245e+01
-2.324800487949876704e+00 2.425675890528578904e+00 1.357321904315303485e+01
-2.954823695554932961e+00 4.502332735281409093e-01 1.208545777752114603e+01
-2.139520761347344369e+00 -3.707444947951699099e+00 1.872414108744748873e+01
-5.003289161480759528e-01 1.509421715491251703e+00 1.562608153778625208e+01
-3.151376899606503024e+00 -2.912945159108040194e+00 1.915789544632430008e+01
-1.421365371375925335e+00 3.084031685663920719e+00 1.782122247939963344e+01
-1.222844626371603294e+00 -1.456185248454840542e+00 1.585458761574023967e+01
-1.632015976578037098e+00 2.875999586213204395e+00 1.802540602224993549e+01
-1.401440883949904403e+00 1.978051484246760028e+00 1.395975756428661541e+01
-7.199696364830085571e+00 9.390579856569153394e-01 1.341115227061107262e+01
-8.370731514947888030e+00 -1.683960490510930219e+00 1.662510269933427409e+01
-2.430367590099226760e+00 3.286774675548572056e+00 1.793325128846818117e+01
-7.669289990070511820e+00 -2.053154443060865475e+00 1.848299731656605260e+01
-2.208112792689977955e-01 4.640344046989521298e-01 1.793429962822654389e+01
-2.788416753087042288e+00 3.649357289794172843e+00 1.774407139277348122e+01
-2.808591130281440584e+00 3.265464049227480459e+00 1.792251515150314489e+01
-7.417857303911643996e+00 -1.913972258245210112e+00 1.514555538062140627e+01
-3.210322706433999862e+00 3.270515791230243607e+00 1.788393214546446686e+01
-7.690630932757581917e+00 -9.380128249101942206e-01 1.490954796335426735e+01
-4.208650752703416487e+00 3.932866839138977610e+00 1.743676813685550187e+01
-5.011228875888450673e+00 -3.554074234934816445e-01 1.872334865959806294e+01
-4.415029885532967491e+00 4.138839318819964141e+00 1.729688283087274314e+01
-4.619724836495880282e+00 2.292594844901672424e+00 1.804280172213149669e+01
-6.907931876387634063e+00 -3.620232840421690135e+00 1.789762084917833462e+01
-1.285272976495036801e+00 1.638348791807602733e+00 1.847437538918206812e+01
-8.262420113736745009e+00 6.095732522495637129e-01 1.676943206366345507e+01
-4.412141198316096968e+00 3.943182850429218789e+00 1.739149845927613924e+01
-6.449257106121216943e+00 2.164862763908338650e+00 1.766668802417075668e+01
-6.646264815745485777e+00 2.174291775817672079e+00 1.761520618306810704e+01
-2.746590828818271213e+00 -3.800350370904759245e+00 1.825870839025758485e+01
-7.429035882048347972e+00 9.305507401698953629e-01 1.796090229961006557e+01
-7.277357595369677412e+00 9.502556205473009499e-01 1.802920578614097380e+01
-7.110728461238446485e+00 2.008888373375253167e+00 1.751019165899299779e+01
-7.536909135090763101e+00 2.589543721997203285e+00 1.647461678969765231e+01
-3.439026310623254368e-01 1.031869010953196719e+00 1.790196805636319866e+01
-7.569818817261534605e+00 2.079850867162105210e+00 1.459565580939313989e+01
-3.639912683908284485e+00 -4.634743513157182360e-01 1.520342606610387648e+01
-4.511135021316678539e+00 -3.464081105621241718e-03 1.358790289829519438e+01
-6.346744399300448869e+00 3.070742845516212238e-01 1.279804523567252161e+01
-3.395725899186702534e+00 3.940291866693368950e-01 1.210941614850981907e+01
-5.502150056156896341e+00 8.129607053260257121e-01 1.167800523771942878e+01
-3.217788788729183391e-01 1.185849875759898087e+00 1.593421712489702102e+01
-5.375509603159755123e+00 8.707483732711090996e-01 1.157001906448417472e+01
-4.939211873835753330e+00 -3.645552838586466393e+00 1.796532508813884377e+01
-5.148376243204679348e+00 7.378522555644062564e-01 1.159848133648227630e+01
-5.109429212470149473e+00 5.358295438043971792e-01 1.186865590676758941e+01
-6.310785536846947430e+00 -1.520594644386424443e+00 1.518373731568104645e+01
-2.710708603561633900e+00 6.523668141297389589e-02 1.885025978170058281e+01
-4.784545281229696023e+00 5.120269851505292458e-01 1.182499562531716819e+01
-4.267881189873642178e+00 -7.698561663664720278e-01 1.893286263666276525e+01
-7.471412139265733998e+00 7.700658128725301754e-01 1.801948842364462067e+01
-2.948424573065724363e-01 1.309590501636181292e+00 1.657483185012738502e+01
-7.074111290204813329e+00 -3.165563661092273051e+00 1.715299619702075873e+01
-2.867677359881759536e+00 2.956688378401972628e+00 1.804364762791887600e+01
-2.398053866873493423e+00 3.356399394588418517e-01 1.268505149817143618e+01
-4.563472429004637121e+00 3.168900278898275635e-01 1.224527649809629182e+01
-3.297752163351994170e+00 1.042892550690420306e+00 1.090568161749544984e+01
-5.220694435911867881e-01 -1.725271883387999861e-01 1.872004926902158317e+01
-1.676510833631550845e+00 9.258449954087200062e-01 1.881643613327345221e+01
-8.437839485835448627e+00 -3.936764889899933006e-01 1.672901919970995621e+01
-4.773827558538202176e+00 4.314813951215919374e+00 1.713322153371904832e+01
-7.120335519180896355e+00 2.814605830879010728e+00 1.451964921726518654e+01
-7.956123924489578059e+00 1.851899831313376765e+00 1.600885375451885650e+01
-2.046478565572775299e+00 2.405399772583762363e+00 1.828446484933066429e+01
-3.930364061750820426e+00 3.370917628223318863e-01 1.228659546113965106e+01
-6.507263694805407006e+00 -2.792151436690853750e+00 1.692017551102190609e+01
-2.137707366663338604e+00 9.375785049293131612e-01 1.152543559490654346e+01
-7.321215095894707758e+00 3.794665751080356642e-01 1.385679961876143196e+01
-3.123304918796681484e+00 4.254595208011366481e+00 1.575053259148739571e+01
-2.147492229918278817e+00 1.040178669193375205e+00 1.152931691948576187e+01
-9.337052879709046849e-01 -3.298958186289019601e+00 1.890922570403526137e+01
-4.122447035323539843e+00 -3.265154280763216121e+00 1.759347734403307228e+01
-3.767341825030698033e+00 2.553917394385283757e+00 1.291574833955457891e+01
-1.774154460621567342e+00 9.538136186413417317e-01 1.191891936910618810e+01
-3.765001412761654898e+00 2.870285745109264042e+00 1.335320745745724125e+01
-4.557976038069301516e+00 2.315111302561872364e+00 1.268685564724848192e+01
-1.520709860088941490e+00 8.602316261540550180e-01 1.230707371575594422e+01
-6.323504285719447893e-01 2.124615385957017377e+00 1.619390544745734317e+01
-1.119437959706733210e+00 -2.985714253150822728e+00 1.915570126492620417e+01
-5.251133807743626924e+00 7.120711530542478407e-01 1.838926725563106501e+01
-4.116387728784931532e-01 1.897747356576142241e+00 1.674798388186617260e+01
-1.824763221887804043e-02 -1.548911605734984098e+00 1.790743472212546905e+01
-1.207897921036712230e+00 6.710141295924533233e-01 1.296549885424640181e+01
-7.532853559050417758e+00 -3.076372047594083448e+00 1.702163456122620389e+01
-2.699493057152587916e+00 -2.905647456413114504e+00 1.756092581896990978e+01
-6.436014283703781480e+00 1.346514817027452793e+00 1.801122691136640341e+01
-4.051310740478747618e+00 2.296051528028715705e+00 1.810604952309136095e+01
-5.810446344069668534e-01 2.333861231447400542e+00 1.718551396860087621e+01
-6.434086199278579166e-01 2.502394210616264658e+00 1.718642259797081451e+01
-6.492571217642186809e-01 2.506121412130206227e+00 1.697948130815815304e+01
-7.945555770546515184e-01 2.711308992374453553e+00 1.681916886668181732e+01
-5.761840529572697100e+00 -1.497187266521126991e+00 1.610472259674341799e+01
-7.556409252852032132e-01 2.555886032779866923e+00 1.744240114956072674e+01
-4.207188784927176073e-01 5.949000791463998628e-01 1.453008185079376702e+01
-1.220036644386550684e+00 3.128222123146826128e+00 1.761011417226493947e+01
-5.805964247158201808e+00 2.976426779657162847e+00 1.746776756262054775e+01
-4.310687726434405675e+00 -3.054397811317305589e+00 1.748090720276661969e+01
-6.901899889539334865e+00 -3.278321735911057466e+00 1.860987620279992072e+01
-6.959944306513420997e+00 3.821800299018765834e+00 1.552304255394062338e+01
-5.839359316146115475e+00 2.747255218963756906e+00 1.756385418428112999e+01
-6.647122575123358246e+00 1.947242445647832332e+00 1.772006282413036260e+01
-7.510958097512308029e+00 1.011047997311734781e+00 1.784458992884131945e+01
-4.105527155942806594e+00 -2.859041992382460151e+00 1.740876563588870951e+01
-7.715195275747021242e+00 9.925171871600899642e-01 1.764247963789661711e+01
-2.993847107139397501e+00 2.379940060508586974e+00 1.301106712598260984e+01
-5.174457325093505311e+00 -1.032277779088788483e+00 1.887385228888252087e+01
-1.217045141165484790e-01 -2.978875293293261617e-01 1.672996089235618555e+01
-7.715212193131240070e+00 2.451499446385274616e+00 1.561290641139821034e+01
-1.830873146118709549e+00 -1.301390210580392059e+00 1.607236101361866432e+01
-1.799157328744478868e+00 -3.716631867793549482e-01 1.462957781493411957e+01
-6.175546815289087554e+00 9.008974491103942661e-01 1.221797353787904328e+01
-6.173902793088238639e+00 2.502318418307035053e+00 1.348011010261638276e+01
-7.304121839975550756e+00 8.950873519261886013e-01 1.363545286880999541e+01
-4.980545373749770910e+00 1.170932257689993872e-02 1.297650166804264771e+01
-4.872990187549044450e+00 -9.477813255996125896e-02 1.867882976688123975e+01
-5.555769185424035861e+00 7.221603449097372396e-01 1.182489824753374208e+01
-1.752142760379839181e+00 -3.174044672627180930e+00 1.914540266208246422e+01
-3.817044365983859322e+00 -7.398977451832942087e-01 1.569808685754640365e+01
-8.029812871099665017e+00 -4.302974323891879393e-01 1.797295733886036473e+01
-1.720222720759584600e+00 2.465536650907887761e+00 1.431907530384808425e+01
-7.870344934444847951e+00 9.033144735775775480e-01 1.495063565766070113e+01
-5.408528275672721541e+00 7.080937519106912381e-01 1.176882755369478062e+01
-1.568741697659316703e+00 -1.160722620430660212e+00 1.572753687217282348e+01
-2.212109925730255888e+00 4.106967225329343663e+00 1.637147994235458626e+01
-1.569284483276201403e+00 3.523642979762986016e+00 1.618674534045360858e+01
-5.365299342126723658e+00 3.512441967992803171e-01 1.225275916183288771e+01
-4.597226513919202340e+00 2.580851922106884189e+00 1.303123545731706301e+01
-5.987325159413909859e+00 -3.495195167097076450e+00 1.763921634857016230e+01
-4.771457458999971202e+00 2.417714292014535582e-01 1.241439720774230082e+01
-1.087132170651169183e+00 2.677251802233708844e+00 1.587500243833017421e+01
-2.730211406483291636e-01 -1.125660262066624728e+00 1.848264427436656021e+01
-7.946394528692128034e+00 1.860208273198078688e+00 1.585567940169177703e+01
-3.957606508984846450e+00 2.961454637461112815e-01 1.245678123749354071e+01
-2.794701945310792190e+00 4.154301708931341652e-01 1.226431817845238115e+01
-4.112789112106642442e+00 4.539520608576957938e-01 1.860718657194843573e+01
-6.896554523485225019e+00 -2.096532982470942663e+00 1.536495799427492770e+01
-2.725542136422851591e+00 4.960153989188827994e-01 1.207944834024705827e+01
-2.365529234082426768e+00 5.046903457606539689e-01 1.227753299988959057e+01
-1.087238031002312866e+00 6.142260526776013307e-01 1.885893826841990162e+01
-5.533687141825068601e+00 1.666868529176015690e+00 1.213021463460033189e+01
-6.684462388098522112e+00 1.143153666412878966e+00 1.807190307995095324e+01
-6.398496121344615872e+00 -1.840204521160184958e+00 1.586424320044113401e+01
-5.336975566440502305e+00 -3.617265935355345796e+00 1.884600008120443349e+01
-8.405920831793956438e+00 -1.379910688191603230e+00 1.669182533506651467e+01
-5.072842965859712727e+00 -1.147819454352918767e+00 1.891021775512327352e+01
-1.174680711963806523e+00 -2.274908524061761916e+00 1.932668388065436105e+01
-3.449535455830873509e+00 2.492148979605949499e+00 1.812200118888474165e+01
-2.170834846470823809e+00 6.445872538829535703e-01 1.210833038435238151e+01
-2.109414575532065239e+00 7.930356167424112979e-01 1.182156865313286076e+01
-6.059610502823453260e+00 1.359509055800610433e+00 1.804732299758319058e+01
-1.929400743772794691e+00 7.375357289993482723e-01 1.210588881359169378e+01
-3.009424006337663826e+00 3.971864445455288717e+00 1.540574848672183705e+01
-1.166097868082256905e+00 8.255605896204128991e-01 1.291300926641224933e+01
-3.213143371721001174e-01 8.080770189473657217e-01 1.549419971967081366e+01
-3.563774009672811438e+00 3.207961719697176584e+00 1.394445866909123666e+01
-4.795306499756486041e+00 7.867726803475916242e-02 1.285961483483835721e+01
-8.100629097937305900e+00 1.219602180020285642e+00 1.661747738535429519e+01
-6.485009907058438827e+00 1.224527228660626799e-01 1.843885290510003117e+01
-5.083320623447582065e+00 -1.986601414449901126e+00 1.679755979855779557e+01
-3.679291660758685634e-01 1.678984116101373658e+00 1.714562978088290279e+01
-8.359372413134620317e+00 2.532991801493047479e-01 1.617390075647422876e+01
3.089496833329263836e-03 -1.345843694136142465e+00 1.769817481027824257e+01
-3.346111808064992310e+00 1.579562811400843980e+00 1.163635009586792890e+01
-5.090894880553398227e-01 2.045838594698964563e+00 1.735929707043185388e+01
-9.789644938451385059e-01 2.498584813998224075e+00 1.778513343101530708e+01
-5.813967756761333483e+00 -7.228819308570515467e-01 1.477127932120294318e+01
-1.459252196999511586e+00 2.063127794460979381e+00 1.834376896384616273e+01
-7.607868571516174683e+00 7.448415183278165319e-01 1.792296595697995443e+01
-6.555047411377143085e+00 -1.699499730896046890e+00 1.882790766657252490e+01
-5.224767520720074110e+00 2.361507645526534915e+00 1.787848514406303835e+01
-2.951675252955204165e+00 -3.333158224245139856e+00 1.913103810287124773e+01
-2.508137094008995316e-01 8.567348901306577336e-01 1.776766616787989861e+01
-1.756634808541398307e+00 -5.206749635635430362e-01 1.496048779387488636e+01
-4.036914349434388427e+00 2.896850776867381683e+00 1.791819474606230145e+01
-5.541230435155039658e+00 2.464740743851341342e+00 1.310941129172777053e+01
-5.237109700080839758e-01 -1.168761099237911383e+00 1.885424727500792486e+01
-3.787261218800249907e+00 3.012597022313758366e+00 1.354625499698587632e+01
-4.470682795700717804e+00 2.706718110826534573e+00 1.793679648379529468e+01
-4.275263847120213789e+00 -2.863839782751441909e+00 1.739569933313025629e+01
-6.853475277938647636e+00 1.527910504183201290e+00 1.786997376013889394e+01
-1.340714470462522012e+00 2.784577999929418013e+00 1.537401437893646161e+01
-7.156441318705240917e+00 3.065106748470520781e-01 1.361884204994074921e+01
-7.438463328670007257e+00 1.122529514656888328e+00 1.783580194383719331e+01
-8.081236876622831744e+00 5.553322049196834920e-01 1.738828771898075232e+01
-1.455585035122792803e+00 -2.416736392087562635e+00 1.682552516803465537e+01
-8.069691283269332160e+00 8.015971203248246635e-01 1.719603823067668102e+01
-5.123218200763652419e+00 -1.694657304434734391e+00 1.899177878057257018e+01
-7.872341463856459498e+00 2.076371180865675736e+00 1.583895759247868185e+01
-5.164844350892354718e+00 1.373491123989006857e-01 1.263494940944128686e+01
-6.912743461285146829e-01 -1.212443813780156754e+00 1.571556510975687004e+01
-7.792717368458854210e+00 2.252209488581907504e+00 1.564051545449128255e+01
-7.730171222613467563e+00 2.245756172364190562e+00 1.525761954156473976e+01
-2.313639032877361945e+00 8.718609635099417998e-01 1.871331953533150383e+01
-4.331205993270122789e+00 -2.216323799860381527e+00 1.702661246754297153e+01
-5.555417969073097595e+00 4.303816892256417503e+00 1.527795297879288583e+01
-6.914671418389309210e+00 -2.678217507278572107e+00 1.667381648609856271e+01
-5.576255688121017684e+00 5.641304476538206991e-01 1.203988314045399832e+01
-3.029479541591348912e-01 -2.490900165703652469e+00 1.704233791268017129e+01
-8.017151810725287930e+00 -2.510612679625146004e-01 1.795507364579959031e+01
-7.851218647083419100e+00 -1.645363310098437948e+00 1.829578904552187524e+01
-1.166695498767574168e+00 4.394723022748407426e-01 1.330383190076140565e+01
-4.382180161214892955e+00 2.182385425892274800e-01 1.263700034725379240e+01
-7.195551467335166151e+00 -2.891126129008696921e+00 1.684159575028696665e+01
-5.081291010472187786e+00 -1.141867620221370672e-01 1.864099132872832953e+01
-3.154329072439508330e+00 9.377560389138280827e-01 1.857136451070021721e+01
-3.992903030056894842e+00 1.869944664637686049e-01 1.300579879640710246e+01
-3.589252340494952342e+00 2.418509517288519595e-01 1.262935714822226529e+01
-2.851474517003683928e+00 3.737989915404857921e-01 1.235722751973046840e+01
-3.103578435814529080e+00 -2.501571097091041196e+00 1.731650338350720730e+01
-4.679264966214767618e+00 7.155614300817714213e-01 1.849831482847671182e+01
-2.579206318663922026e+00 4.436211585126810797e-01 1.229393159809947278e+01
-2.065498586334927111e+00 8.258357622778009777e-01 1.876425854443041530e+01
-2.082829515990464841e+00 -1.989321068189876085e+00 1.685911202511738693e+01
-8.260529597991286721e+00 4.164707282697509005e-01 1.697965232375240063e+01
-4.879964196962095713e+00 -2.603062850460455380e+00 1.720820671345918740e+01
-7.923201815537547432e+00 1.468844133159100451e+00 1.526069380512426577e+01
-2.160254834247123945e+00 4.732019710897697462e-01 1.249447341820063784e+01
-2.193289448164228883e+00 5.366582984640997367e-01 1.232671015048621754e+01
-6.306758132691284047e+00 -2.869901907479136760e+00 1.705064065380559768e+01
-4.537777153787281748e+00 1.609257012521243091e+00 1.179909610785798790e+01
-8.402733919255744865e+00 -7.570029730170824145e-01 1.632335606692435093e+01
-6.464018454555282567e+00 1.469903712462797607e+00 1.795605489353397033e+01
-1.751147491917579568e+00 -2.742274153328402519e+00 1.924336399839371481e+01
-2.046772604040544508e+00 -2.108464806178315776e+00 1.694654343280766184e+01
-1.771706518320829815e+00 7.173487947566756784e-01 1.227423338889922988e+01
-3.084156135663060905e-01 1.158996872456206084e+00 1.613288692809656411e+01
-5.844228994757067142e+00 3.914890713692880553e+00 1.485739337655111925e+01
-7.959255289317086479e+00 1.794931880918954281e+00 1.623873221381128573e+01
-3.100747151663163503e-01 1.339380586988599964e+00 1.633890972699770927e+01
-3.219736357862272857e-01 1.472129989358705870e+00 1.713994227838642459e+01
-3.643586379711178935e+00 -3.947616743353044022e-01 1.504307337948171508e+01
-4.901275529902378025e+00 -4.910617998335735646e-01 1.878206797073991297e+01
-3.318415702650755250e+00 3.484086138949161970e+00 1.448827271411071749e+01
-7.184735622809448330e-01 1.867624737243360755e+00 1.791702515035687426e+01
-1.980679722696468748e+00 2.586032145321858433e+00 1.419030870747579698e+01
-1.037194660832903903e+00 1.621018314341980515e+00 1.836766966607827456e+01
-7.783298702085508225e+00 -2.644343004150552012e+00 1.815171264709210774e+01
-1.493578718580781839e+00 1.034491399978933135e+00 1.878927267323886596e+01
-5.853356094509340579e+00 1.552418618905663239e+00 1.800880841253723119e+01
-1.847941704866991497e+00 -2.820088510724474418e+00 1.745694309819181100e+01
-3.137485995812867579e+00 2.909182949521143868e+00 1.374092833844617090e+01
-7.254484961669710685e+00 3.113157415005356476e-01 1.831476838721151168e+01
-4.735343805388436245e+00 -3.130410206368186010e+00 1.909843126290457960e+01
-4.654950724367947767e-01 -2.547232236842313924e+00 1.865121500999612536e+01
-3.845276748047215420e+00 -8.145288856977763725e-01 1.580622676314092345e+01
-2.177922660297434643e+00 3.087661906113222665e-01 1.285886679002748778e+01
-5.063876411114780041e+00 -2.636075046365392360e+00 1.720989948710652939e+01
-3.685923446990724273e+00 -1.608388170773035197e+00 1.665445991847331086e+01
-7.658885969682689421e+00 1.250407692986555963e-01 1.819050628822783366e+01
-2.513213344099266777e+00 3.819379806329877169e+00 1.554974886758287411e+01
-5.039663489442089972e-01 1.876430768046928321e+00 1.623648173925336735e+01
-7.415618117013846877e-01 1.169951954459965027e+00 1.434618367551917473e+01
-5.333875633607791933e+00 1.509910032659979695e+00 1.187495152824008571e+01
-8.054796222641993353e+00 -2.949524528063751649e-02 1.780406664724812416e+01
-4.371082285305424087e+00 4.892677113403023803e+00 1.626507486355123078e+01
-7.837444106290995194e+00 -2.217707007532203178e+00 1.826030714027269752e+01
-4.148839631855288701e+00 7.618210639462330569e-01 1.128134318807368786e+01
-3.387087860136910322e+00 1.233866569565742477e-01 1.306754192527464298e+01
-8.037061725570522341e+00 1.819052117026229709e-01 1.773050568152699569e+01
-8.245983892768581569e+00 7.931850089395882097e-01 1.659376803981726667e+01
-5.980123443145242135e+00 3.127547937042915116e+00 1.404801109151835803e+01
-6.328368907734340354e+00 3.012849932962037514e+00 1.415605435088061270e+01
-8.153333391978511813e+00 1.176939250571792606e+00 1.637102119995259741e+01
-4.759255450420288192e+00 4.776538452166625426e+00 1.598798191215256637e+01
-4.744096052782296624e+00 3.690440896864073395e+00 1.450132239999825501e+01
-3.997429004516758866e+00 2.731754047152980647e+00 1.798008257073304250e+01
-7.586462667866113563e+00 -3.135485946011089986e+00 1.710926768876450055e+01
-3.511331546820940730e+00 -1.713540834719365913e+00 1.675026316009519078e+01
-8.033696291490290520e+00 1.589362075690029741e+00 1.601877986921678243e+01
-1.394546016071796846e+00 3.336303498585529326e+00 1.620735444065970299e+01
-7.928510311927583487e+00 1.838307717239586747e+00 1.565853387777518080e+01
-1.340799292951304622e+00 -2.373472446277874681e+00 1.932648899053052460e+01
-4.759886474035285531e+00 4.045504852475859003e+00 1.496364492307619898e+01
-3.539902656280934146e+00 2.963759069708677529e+00 1.359072168695318439e+01
-7.832829813210326009e+00 2.049115869779428944e+00 1.546113433702232598e+01
-3.047333519923028256e+00 -4.803094794463342865e-01 1.517959767435624130e+01
-4.621491019217491836e-01 6.312332671654392602e-01 1.833400416106310971e+01
-7.197584571256134822e+00 -3.065671880366001467e+00 1.855347655971753440e+01
-6.149334203086674222e+00 3.459242991289347979e-01 1.264573481168254787e+01
-7.428196559529531839e+00 1.684109594633515616e+00 1.383954969436337379e+01
-4.345481328823050049e+00 3.263877753610834986e+00 1.391778515433029995e+01
-3.531322042829866170e+00 1.053479363301609739e+00 1.091664043852197707e+01
-6.620540761285182541e+00 2.560200219570227809e+00 1.741820245877308437e+01
-4.998245667644521717e+00 -1.717276974712116377e-01 1.363648903005752189e+01
-5.773670922483441714e+00 4.898907006178505608e-01 1.224637022273198639e+01
-3.765591896412090911e+00 4.232762197817355521e+00 1.538516368427450587e+01
-3.863235586359397900e+00 -6.671381304152601555e-01 1.558752766918420107e+01
-2.952360584950831424e+00 -2.363984322349462985e+00 1.916542861580178325e+01
-5.736404311057536454e+00 3.588042308723423113e-01 1.241156066738698271e+01
-2.385449935823187317e-01 -2.747060908343108565e+00 1.782382701946197656e+01
-5.542704609417155481e+00 1.756251478940911159e-01 1.261709163294345259e+01
-6.182526740411329769e+00 -1.263586068725476741e+00 1.507154036393512442e+01
-5.789764730013617466e+00 -3.291346818991536249e-02 1.303684475424706690e+01
-5.640584550587122159e+00 -2.311171531975630966e-01 1.344109605400883467e+01
-7.023965145701859925e+00 2.978494228848925118e+00 1.690893496831728626e+01
-5.457897410090731150e+00 -2.143910044240550761e+00 1.682941097603957914e+01
-1.917616020123953824e+00 -2.924780253781756656e+00 1.754290415672644698e+01
-7.802674490189578371e-01 -3.459736762082917139e+00 1.807307119194357270e+01
-5.175711650607571990e+00 -3.054931557310769374e-02 1.303837492393684627e+01
-4.206408196624469298e+00 -3.404959264934452889e-01 1.502965100461847570e+01
-2.915667914402793048e-01 8.977526450853567930e-01 1.615509269118692615e+01
-5.933648030749676394e+00 1.332755252884996189e+00 1.206147005805815198e+01
-4.171538298039497050e+00 1.618411183938737175e-01 1.307833007202806286e+01
-6.359439128142226672e+00 4.004607317330692418e+00 1.532608549440368861e+01
-2.615664513024913873e+00 1.391702826052854114e-02 1.351269695007460925e+01
-3.573888253139633875e+00 7.667659460543496674e-02 1.327137649562797250e+01
-3.587232598409236140e+00 1.434628678312021011e-01 1.304070797074033905e+01
-7.955982925292879315e+00 -5.694434745447178869e-01 1.522974416624186844e+01
-7.842167284792154192e-01 4.366798433288400783e-01 1.373184259429565302e+01
-3.768936959995079938e+00 4.830091077049246451e+00 1.635538738085957888e+01
-3.344556843388192036e+00 7.414248519841470930e-02 1.324377679561048993e+01
-2.720931250027720516e+00 -3.824522646349897137e+00 1.857121232057702898e+01
-2.473981856400816248e+00 -3.453424704486234287e-01 1.897693788572033569e+01
-6.293738272417438218e+00 -3.246048203118220066e+00 1.881155226311279094e+01
-3.190011516481794374e+00 -3.138572816486684403e-02 1.361806975878714709e+01
-8.018502204743741757e+00 -3.766240579586583870e-01 1.531412636048082376e+01
-3.071311828282541789e+00 1.078455586699349933e+00 1.855314351432491193e+01
-5.264207555961588625e+00 -3.054466445941425690e+00 1.903449854277049624e+01
-2.541741708893377361e+00 2.319843634069994609e-01 1.287960335485773911e+01
-5.872330824687071349e+00 1.435562249075977181e+00 1.211449524711632009e+01
-2.184079585162604698e+00 2.232402556665394888e-01 1.305785028130791048e+01
-5.414919527431649726e-01 -3.328983949620837990e+00 1.820801327101934319e+01
-3.957257956713853275e+00 -3.892639099823144377e+00 1.872946786326554403e+01
-1.748180862618743614e+00 4.897272023944606034e-01 1.272105931341183904e+01
-1.529575456952794621e+00 5.873263255590852605e-01 1.269102037789063431e+01
-5.496392658797276454e+00 1.424312056208341115e-01 1.850664857979471023e+01
-7.098182406578619208e+00 -6.929642500663903970e-01 1.858872326625310833e+01
-1.373488467725911821e-01 -2.106596585286308887e+00 1.726262286206633334e+01
-1.349889232498040492e+00 5.776451262517188212e-01 1.289544945386554176e+01
-5.610084268604553781e-01 1.685575856117367710e+00 1.781142706966731382e+01
-5.643152531621932866e+00 -5.099487141152874159e-01 1.442466846411912584e+01
-1.243166432113466779e+00 4.806931519457977586e-01 1.315821399644638134e+01
-7.365618842052096937e+00 1.500256091498903821e+00 1.362184327651383953e+01
-8.421881760045755172e-01 5.833055562055534660e-01 1.355894879574009693e+01
-7.518102327680251662e+00 -2.491094716802048303e+00 1.853302232913256020e+01
-4.651555055211080703e-01 5.989206819727824760e-01 1.433836584409877091e+01
-1.488950127754621100e+00 1.493226751014958165e+00 1.859088190457864798e+01
-2.845648858248227775e+00 -2.775230653376763890e+00 1.748522689195201352e+01
-3.981932753665410551e+00 3.583925056460464553e+00 1.433296258532663714e+01
-3.230877997747811925e-01 9.672053263458300076e-01 1.570527877121738314e+01
-1.071811055447691174e+00 -1.818438018173372805e+00 1.612492093587448139e+01
-1.352458757108796039e+00 -3.558365810887709202e+00 1.877606779330962539e+01
-5.551629704035230262e-01 -8.806980809213404982e-02 1.465378003492608272e+01
-2.956467543289507116e-01 1.124987388559914647e+00 1.633312318557667808e+01
-3.028482126028379184e+00 -1.981381307095240185e-01 1.428556688466796842e+01
-7.614304749407558859e+00 -8.936863047062824084e-01 1.846978602327019914e+01
-3.325912047850367870e-01 1.261540847960731959e+00 1.765495052709590951e+01
-8.160010059169104935e+00 -8.462992267549640513e-01 1.777670922082001326e+01
-4.123187045775527082e+00 -3.640080278435659622e+00 1.795407674336619763e+01
-4.604341412222099361e-01 1.484515041492158627e+00 1.778099083247796486e+01
-1.733658523002090224e+00 3.423949911432687010e+00 1.574738451457721666e+01
-8.913012402657560784e-01 1.041500864150765926e+00 1.858341679911857725e+01
-2.265679580555891359e+00 -1.862626604554809218e+00 1.680674092067581071e+01
-6.524476949192496988e+00 -1.048857333503245837e+00 1.872880567827613518e+01
-1.655189475168287849e+00 6.145064775534869739e-01 1.890548747449824774e+01
-7.267642584682807438e+00 2.853215190729721407e+00 1.672523492482190832e+01
-5.318226523667865635e+00 -1.325125915747229266e+00 1.890414042390482408e+01
-2.494502365465523841e+00 8.773405804227247806e-01 1.868842335364617568e+01
-9.265392187426160220e-01 2.207729829339400762e+00 1.550977510791774350e+01
-2.357824757279009198e+00 3.225642248955234770e+00 1.476571907925164240e+01
-2.609759780345796365e+00 -2.617944622149599443e-01 1.447057802990994091e+01
-3.114470582374958774e+00 1.374786474069668030e+00 1.147071234908329629e+01
-1.302465077989863662e+00 -1.162098914385170323e+00 1.931708690586345867e+01
-1.130736572945297613e+00 -3.441631123304245143e+00 1.885360618922437581e+01
-2.907769817084572495e+00 9.973767648829736654e-01 1.860143975807384109e+01
-3.948314950460729555e+00 4.262977246915217400e+00 1.534966713790566573e+01
-4.647829165228865023e+00 1.700326373393976631e+00 1.822108437375864654e+01
-3.267747325518554291e+00 3.522974541714410712e+00 1.775595227141168309e+01
-4.796262009473062804e+00 1.651446058825081220e+00 1.821066935226138028e+01
-5.675330858277409796e+00 1.337966831415100977e+00 1.811205303234361352e+01
-6.957914866317318925e+00 -7.378474124482103935e-02 1.362002502089620393e+01
-5.880974311371136132e+00 1.115781264142430285e+00 1.815761749008565928e+01
-4.867145055030809964e+00 -2.265719485268190780e+00 1.701806641755775118e+01
-3.963946704936123666e+00 2.087943853909723924e-01 1.286985269967840750e+01
-1.992979719225485002e-01 4.782919950611587701e-01 1.690132279060984999e+01
-7.689884344301807673e+00 -4.496633203478082041e-01 1.833738364939195620e+01
-7.833326284649583471e+00 -6.756012026185387320e-01 1.826851812487587878e+01
-4.423340097496402112e-01 -1.669323926297740845e+00 1.624199402568754280e+01
-7.920544562650462694e+00 -6.286663147765887416e-01 1.815964617485822785e+01
-5.976144674636199028e+00 4.063729940930058682e+00 1.512131660215858275e+01
-8.400155580171754011e+00 -1.591538996752281276e+00 1.671902491678281066e+01
-7.124103702863830989e+00 1.503033634311776279e+00 1.324546562196065835e+01
-8.190091907317727404e+00 -2.060911870692563319e-01 1.758349256647094094e+01
-8.059194348401566899e+00 -2.390509103999121976e+00 1.630528376760056020e+01
-8.251775959775441649e+00 -6.440969905811446683e-01 1.752814293700388149e+01
-8.373053874534264196e+00 1.794819377138089367e-01 1.675413862810259857e+01
-4.666217862541883754e+00 -3.800190085652843663e+00 1.839731196317759654e+01
-8.331368899360215963e+00 4.752306759582931583e-01 1.659802099108076234e+01
-8.258847882196926449e+00 8.126362221458807156e-01 1.638205315961212349e+01
-7.264850166730303371e+00 3.512328629331251229e+00 1.589523653230802935e+01
-8.173486803714157034e+00 1.067368387973246069e+00 1.601476372673777249e+01
-7.455317609515301314e+00 1.102365291807144709e+00 1.398030651850479344e+01
-2.731843998105421001e+00 -3.161820371477210401e+00 1.916005764873780137e+01
-5.719622062010444097e+00 -2.892815595237678394e+00 1.894676735652027233e+01
-4.761033646851926981e+00 4.280575424661791639e-01 1.198835606715934787e+01
-7.328258773228556677e+00 1.729819655928075850e+00 1.361330346781141643e+01
-7.176604594663421821e+00 1.696603853144955210e+00 1.341735228200875341e+01
-6.100239172197094994e+00 2.436735818160620237e+00 1.335533113158417606e+01
-3.461637071934931420e+00 -1.494494362170289081e+00 1.657096086452426320e+01
-6.948980552964570734e+00 9.223799306408430043e-01 1.303050676395175245e+01
-4.536747385900132379e+00 -3.832607725768147233e+00 1.850359123382294158e+01
-7.237325958977448792e+00 -2.373808619224345939e+00 1.591414795843001784e+01
-6.187952271483952771e+00 -3.114736485060628723e+00 1.884896918475137895e+01
-3.281886939728932973e-01 6.769871645680669570e-02 1.835051464254796016e+01
-6.156103647307991977e+00 1.809343954435188584e-01 1.284519188916052812e+01
