-2.747462260376294818e+00 -2.106303803998314184e+00 1.674868753133766930e+01
-2.108703428835815963e+00 3.691462109137243708e+00 1.631642553567893472e+01
-1.531429684476678377e+00 2.889617712451581166e+00 1.591134895822289153e+01
-4.772243439740898374e+00 2.641729286355337436e+00 1.248374510838238294e+01
-2.865569555530816270e+00 -9.163658597617962975e-01 1.955449282445932724e+01
-7.080071610303620311e+00 -2.143970124418960843e+00 2.001603841789041027e+01
-2.108729552248450378e+00 -4.560037437388408943e-02 1.273409735253627773e+01
-7.825348737047804093e+00 -1.478456673053727854e+00 1.948398442838121625e+01
-1.278098860713470009e+00 2.006210977244052174e+00 1.519813454774741857e+01
-3.867838778129358612e+00 -6.635450720378615053e-01 1.525249842155346514e+01
-7.519899871723498386e+00 -2.729437752551600926e+00 1.582114273340638633e+01
-5.272228762947175795e+00 1.962844974004609888e+00 1.199066163429899134e+01
-7.259087630032334815e+00 -2.733165371079482764e+00 1.568284805810296589e+01
-3.873518805592354397e+00 2.673449662129547821e-01 1.947977918713512580e+01
-6.163993199943381462e+00 -2.322800141401530016e+00 1.563999889143811473e+01
-4.878120638195150960e+00 -2.484947615982102231e+00 1.715619071149171404e+01
-1.137430868223195057e+00 -4.289642985247017037e+00 1.949363125462525304e+01
-1.418804581701197942e-01 -1.377674358264054710e+00 1.938204449087625036e+01
-5.487852607913509040e+00 -1.823755267223508003e+00 1.641800951813906906e+01
-4.641475416091367379e+00 -4.038679152536210459e+00 1.987383528245409892e+01
-2.838622664083551683e+00 3.475720167867469179e+00 1.502641719152252264e+01
-5.122146405784233636e+00 -1.766447187764586424e+00 1.647102834902889512e+01
-3.058361092381938207e+00 3.739272117690832342e+00 1.854305756384947657e+01
-4.880714383184760585e+00 -1.742338420794830256e+00 1.650841393985109917e+01
-5.014888758129495194e+00 5.818171652640018898e+00 1.731627236656941093e+01
-5.691810063134150610e+00 -4.310681623701119847e+00 1.876134834067242352e+01
-3.894776653174801151e+00 -1.710757320143464266e+00 1.657465623822287526e+01
1.580694042547294842e-01 -2.887532909314862728e+00 1.597142732367472817e+01
-3.482183351270250249e+00 -1.613624193703909082e+00 1.648160495270866122e+01
-6.909188532452301246e+00 -4.317784214575628887e+00 1.880909136298810225e+01
1.006678293810565339e-01 -2.147869891512060203e+00 1.901863260618874918e+01
-5.862068985686793354e+00 -1.748973859851603141e+00 1.527893164463369757e+01
3.077247368407703965e-01 -1.102893153030336526e+00 1.707250034554249041e+01
-8.121506877621698095e+00 1.208149492057256857e+00 1.680091365516200241e+01
-8.323228055924067448e+00 -2.857634664460927176e+00 1.802939106991300022e+01
-3.059769183397804238e+00 -1.430223621819797231e+00 1.623984112368349386e+01
-4.594462620125034924e+00 5.744018015705243396e-02 1.326105086517521769e+01
-4.592608264395731332e+00 4.318982661167370729e+00 1.825908609805208371e+01
-2.713374099066336864e+00 -1.447163768539593054e+00 1.606675818093478725e+01
-2.087859792298324413e-01 -3.735659654574168265e+00 1.906917316456652500e+01
-2.488126330597555391e+00 -1.585886425652590415e+00 1.606133098108464097e+01
-7.445854759113771593e+00 -1.537986435803056828e+00 1.980142705074909415e+01
-1.898703417581740771e+00 -1.156704289356982995e+00 1.959651975812950653e+01
-2.446177095540992052e+00 -1.327970900410409438e+00 1.568638811883875306e+01
-1.282015160609814464e+00 -3.072391145619003172e+00 1.556575603250647433e+01
-5.299660687191421360e+00 1.587159352604687879e+00 1.158747820036609610e+01
-1.655520655347223702e+00 1.747792603860114369e+00 1.907566327333529088e+01
-5.914982366599543795e+00 -3.626927016426515493e+00 1.800766697075383505e+01
-7.441929417984328943e+00 -4.967947357525961394e-01 1.413915728044477405e+01
-6.938463222475558245e-01 -3.346574195401803120e+00 1.578525073233499754e+01
-1.615619446121820291e+00 3.013360383782978325e+00 1.597029108367258843e+01
-3.519680175971248159e-01 -2.766431179575924215e+00 1.953932241536675818e+01
-4.086874806472200028e+00 -1.289239843319292644e+00 1.968945814216015933e+01
-3.105323454487668999e-01 -3.274633573018598032e+00 1.575423644183716831e+01
-7.608203318655017533e+00 -2.960684734373000282e-01 1.945408559870291398e+01
3.683845807360937308e-02 -3.178615956795201036e+00 1.601231826307534689e+01
-7.825848255696593370e+00 -3.348169623194218181e-01 1.515062360049741486e+01
-5.568323451664873858e+00 5.692614570092604964e+00 1.729220935312794794e+01
8.974636429544623206e-02 -3.036353067782823878e+00 1.598027447381501887e+01
-4.448437340347111579e+00 1.908290546309531877e+00 1.121937847532337784e+01
-1.014845439199445920e+00 3.299872049480522485e+00 1.742616118408857417e+01
-5.624543459754344887e+00 1.565115589810737173e+00 1.200162126277637853e+01
-5.505464091902397605e+00 -3.506286674368537248e+00 1.999598135967263701e+01
1.717279490965150091e-01 -3.064401406554712270e+00 1.613827751089935347e+01
-2.251134366647447926e+00 3.775987732597613444e+00 1.626133881126981962e+01
3.507487432125210858e-01 -2.468692155363690688e+00 1.622436922363695189e+01
-5.642985216933273485e+00 2.085275873204399666e+00 1.907801365472743171e+01
3.064288149343199485e-01 -2.205192463590920138e+00 1.603225113965389781e+01
-7.690319463561631208e-01 1.728439975416509844e+00 1.884791243771650571e+01
-2.924712925694793242e+00 -3.249015478573249904e+00 1.752642493590815675e+01
-6.607238013130563914e+00 3.413567504450686574e+00 1.548480719429800345e+01
-2.441525747962284054e+00 3.481331364915031479e+00 1.861361072460594457e+01
-1.160146489419808358e+00 1.527657588716500481e+00 1.906583377860839690e+01
-8.288265802055514442e+00 -1.049497185584802317e+00 1.871289293798337283e+01
-3.630529970432695985e-01 1.401713114704767893e-01 1.473030293743997632e+01
-1.327490069657653038e+00 3.497030397301335469e+00 1.704963819380790468e+01
-3.253097770220891860e+00 3.314406828874990829e+00 1.870788524119973673e+01
-3.232632563599949105e+00 2.944669958571301205e+00 1.882649438946956977e+01
-4.036547100750734529e+00 3.194094712771809341e+00 1.873665045350450598e+01
-2.083307905602770127e+00 -4.370535310975323995e+00 1.879045501943477703e+01
-4.067695849467659386e+00 2.712295704130225360e+00 1.888459478369862765e+01
-7.360090446020540078e+00 2.460485555429952065e+00 1.815122791515343081e+01
-5.221874192479725174e+00 5.566364190628586783e+00 1.713208971777536149e+01
-6.000436793238044686e+00 2.138746757847968194e+00 1.903427898756172354e+01
-6.239524348367914364e+00 2.101771623421578639e+00 1.901436227997048789e+01
-6.580853600504289247e+00 2.064795505975180578e+00 1.894825456066601177e+01
-4.653583192764630283e+00 2.675209800005883931e+00 1.246779061491792717e+01
-6.622743545991912839e+00 1.747701350506905893e+00 1.906403916495555606e+01
-6.498355061327097282e+00 -1.337307290754383260e+00 1.994481978536204636e+01
-7.672750282697737845e+00 2.593985810707075679e+00 1.742509925007351868e+01
2.019090337712332039e-01 1.785017779860984533e-01 1.649356627045773749e+01
-7.824932925107487947e+00 2.160668224162407114e+00 1.740427434028442732e+01
-7.803034540687978193e+00 2.224096959951849861e+00 1.703959372365750014e+01
1.261703590274022846e-02 -3.487179772350086360e+00 1.870926695766760517e+01
-8.009735948514144610e+00 -1.503609856210238238e+00 1.925273018525786384e+01
-7.886700332411312964e+00 1.978115486228275932e+00 1.702453939922573412e+01
-7.683764655125302490e-02 -7.405221510129234019e-03 1.532110812506151021e+01
-7.954286331013660671e+00 1.701340610000748654e+00 1.677057717610837173e+01
-6.290022632481829135e+00 -2.606904727542457501e+00 1.665709027836667744e+01
-8.194534292127274355e+00 -1.751804959374349213e+00 1.616833880271319757e+01
-1.543366196921381661e+00 -3.537907963721789173e+00 1.733404847871461030e+01
-3.197766838103663911e+00 4.068274974085291262e+00 1.840395637882435054e+01
-5.691078354967851638e+00 -2.045451610756297001e+00 1.661705917821581480e+01
-1.291263247362576250e-01 -3.524213950895891401e+00 1.902546548850975583e+01
-5.473826275563945742e+00 -2.017654389531898129e+00 1.664473770538338115e+01
-3.127677867744491191e+00 -1.851867047823240409e+00 1.666262567492969637e+01
-2.697672724203580952e+00 -1.604520493209136145e+00 1.624381032440293282e+01
-2.471175280527445839e+00 -1.799941017821245381e+00 1.629863663145122032e+01
-1.478859527992134160e+00 1.247683492838507657e+00 1.920820831998340239e+01
-3.192223502349592401e+00 5.402224697609020687e+00 1.743851036511686559e+01
-8.444060841696188646e+00 -2.228310121081783723e+00 1.746323241505497137e+01
-2.487010000839333101e-01 2.291427172404390422e+00 1.800236240008785060e+01
-1.976129627118119902e+00 -2.089251175628868751e+00 1.584836282722191569e+01
1.851155185032848371e-01 -3.545449855867268241e+00 1.687768048671862786e+01
-7.607887030774253212e+00 -3.655192423669095803e+00 1.951005109066252530e+01
-1.113000856564510643e+00 -3.199229149946201556e+00 1.971521058081558309e+01
-7.315793458966501461e+00 9.025288131900670585e-01 1.440668263457477494e+01
-8.215433755168929153e+00 8.022994407925754246e-01 1.657162730959914043e+01
-1.380981969176771962e+00 -3.105219231385491163e+00 1.579955725959629476e+01
-5.406062193073103650e+00 3.211781652509036356e+00 1.392184547624828284e+01
-7.802150178931561264e+00 1.292251931470010717e+00 1.832846881869732059e+01
-1.386853521313580639e+00 1.923046356580349614e-01 1.301515523976162214e+01
3.165242380704433867e-01 -2.036415217093873409e+00 1.621615543736566067e+01
-6.667019126716192012e+00 -3.285645458532625351e+00 1.755098250812384109e+01
-1.088525643909570073e+00 -3.261873218261420515e+00 1.578909106691801512e+01
-4.410924914897283777e+00 4.894280341540890866e+00 1.803756632247760550e+01
-1.101252165443204811e+00 -2.235655929601970904e+00 1.458721156396041252e+01
-1.874770523219657425e+00 -1.904797953458571502e+00 1.964329362722441275e+01
-1.900407786939113941e-01 -3.382856307635266901e+00 1.599414581757982390e+01
-7.030184334487474374e+00 1.515895170328694919e+00 1.899747529188341488e+01
-1.271489430466482551e+00 -9.771363838333408935e-01 1.362672359358843366e+01
-7.746849409157149924e-02 -3.262190153808951276e+00 1.595394324806831676e+01
-5.026140637182197501e+00 3.030253555145031807e+00 1.330195719252064990e+01
-8.571338487650404403e+00 -1.682212504089976246e+00 1.724520039419086359e+01
-5.420822315564662652e+00 -8.334570585392895303e-01 1.458878887271106706e+01
-4.832763312675271372e+00 5.135376045765749353e+00 1.791400365461047883e+01
-2.243921581651885599e+00 2.270726266563778850e+00 1.378870401595107253e+01
8.648307652879962115e-02 -3.256260710352198995e+00 1.620010276270655325e+01
-4.310442652162640442e+00 1.967702489191043846e-01 1.312862739980380766e+01
-3.263914072374910269e+00 2.309554865007759084e+00 1.221753189061817935e+01
1.240445192632618487e-01 -3.315600630250878034e+00 1.637981041616163580e+01
-5.088157923160581575e+00 -9.403446273846871595e-02 1.961828290431710187e+01
-5.176553245600635123e+00 4.542548983406032193e+00 1.812833099639400203e+01
-5.483489993612988833e+00 -2.607790838955599266e-01 1.294028605397858556e+01
1.674178399409737839e-01 -2.446651480522543665e+00 1.572492164113417701e+01
3.446120318343453004e-01 -2.257306853399724478e+00 1.624371195778894972e+01
-5.714266651211925563e+00 -4.488239707801533029e+00 1.919338516725436605e+01
6.415213107874936926e-02 4.863135634512495420e-01 1.870589768729176328e+01
-3.442497860436320334e+00 1.500514286516655194e+00 1.919746781927937107e+01
-1.418523645085094875e+00 1.445459491632969717e+00 1.913962365553014777e+01
-3.613535627254860660e+00 2.318698925824190127e+00 1.898225547930546142e+01
-2.999702996977811953e+00 2.889855774274658895e+00 1.884115921459958898e+01
-3.809795846485261261e+00 2.481465660655356231e+00 1.893892175688865720e+01
-5.470616448730495129e+00 2.968687697400725689e+00 1.362486734457757009e+01
-6.221210743207211458e+00 1.692718808640565342e+00 1.915847245539355370e+01
-7.173340114298376591e+00 -3.463695187674759035e-01 1.366294904680678357e+01
-6.256385415287300411e+00 1.344701393342315754e+00 1.926747920103425926e+01
-6.712076180090253974e-01 -3.783626905101947102e+00 1.753190859138597446e+01
-5.886092948728709473e+00 -8.588879374019202650e-01 1.370122474358579368e+01
-7.252015954681143128e+00 9.060652479736264198e-01 1.916245872379363746e+01
-7.992706594601237668e+00 2.851029942854705346e-01 1.870605528859316635e+01
-6.283426332117865165e+00 -3.717644261600550948e+00 2.011483708904695433e+01
-4.466012733326001793e+00 -3.363071268907274369e+00 1.992349652243516900e+01
-8.087054756706246295e+00 7.841870369788391804e-01 1.818158409406772691e+01
-8.083880985837113897e+00 9.804087207259577497e-01 1.801614333397469991e+01
-2.864791992250359520e+00 -1.100412483739426461e+00 1.956957345946512206e+01
-7.973190873791292432e+00 1.324660673955599499e+00 1.798576203439942489e+01
-7.120343115025061564e+00 -3.163203066395742891e+00 1.702262812256791946e+01
-7.852028764352028567e+00 1.977693723190402819e+00 1.762421469371199478e+01
-5.700023673243255651e+00 -3.449771762602352076e+00 1.787835406267916838e+01
-7.939571101722791013e+00 1.862295801827938302e+00 1.721523983387608681e+01
-4.028871826244553311e+00 1.486503172593516275e+00 1.921405119344412427e+01
-7.888637163595685564e+00 2.002405270107758817e+00 1.720302792901351907e+01
-7.953038490365356594e+00 1.782374251719751612e+00 1.698761609857064414e+01
-5.909530262275113799e+00 1.383253445517562685e+00 1.927170909126777687e+01
-8.031701941406380385e+00 1.582194676824622004e+00 1.701688375302970613e+01
-4.963172064917953374e-01 -1.152152853232455421e+00 1.958216591609582125e+01
-6.013553684231019325e+00 -2.223945512419509107e+00 1.647587053328915729e+01
-8.057091606620581103e+00 1.402506375271269867e+00 1.680231690277082279e+01
-7.863363594630440545e+00 -2.680327778094900637e+00 1.941389217377716747e+01
-7.347398061510134859e+00 -2.513156918677496687e+00 1.992734972527230397e+01
-8.151295725341677567e+00 1.003018048977390553e+00 1.654788089817686014e+01
-5.058884154421998680e+00 2.703750599358847762e+00 1.283106547015525578e+01
-4.889658521406127889e+00 -4.315937327198763107e+00 1.916359736448992024e+01
-8.693574865824651443e-01 -1.569392225282336018e+00 1.966291811259921118e+01
-8.117398744866003213e+00 1.016034291640829146e+00 1.636134290125381696e+01
-4.507072814559426099e+00 -2.680449324328460836e+00 1.727536435776589840e+01
-6.322518079280074588e+00 -2.613700455002979428e+00 1.644150501368219253e+01
2.250711866097664937e-01 -5.675855587245055567e-01 1.857956553766055308e+01
-3.374403398409923649e-01 -4.043924280978432151e+00 1.839128225732644140e+01
-5.918390506021589559e+00 -2.367475982781567900e+00 1.687290422178145022e+01
-5.694187620758897950e+00 -2.409735462027358555e+00 1.699927272310792503e+01
-6.043112307566414820e+00 1.522385924199835650e+00 1.260628654307391727e+01
-5.100409064162456652e+00 -1.258196807826885699e+00 1.585005080065117156e+01
-5.098469041876983354e+00 -2.197361089649186638e+00 1.690773868780758349e+01
-4.468710488507404044e+00 -2.063251097104823462e+00 1.684988959359580818e+01
-4.283788844634007553e+00 -2.016079773505028871e+00 1.681915585331630680e+01
-2.684895711350273828e+00 -1.819563483091679146e+00 1.645777717705281518e+01
-2.066824575188857871e+00 1.416034984670502705e+00 1.919330578471116056e+01
-2.464934288335960844e+00 -1.968106274279270984e+00 1.646593112864490038e+01
-2.120354257824429212e+00 -1.850982214913806878e+00 1.601426303037565546e+01
-2.263828302724276043e+00 -2.553582877146837848e+00 1.968002706408277547e+01
-1.868353468178708177e+00 -2.397248873979891837e+00 1.583936520099540601e+01
-5.682798848930998403e+00 -4.409016034161304276e+00 1.965938065940015989e+01
-1.761088799305021713e+00 -2.626137500199134056e+00 1.600213779405698844e+01
-1.505610448331169637e+00 -3.031268622801747359e+00 1.600448462191284094e+01
-3.658128606023934637e+00 1.403731932756100420e+00 1.071181826445847562e+01
-5.419701149849828203e-01 -3.575674967924716618e+00 1.637749309448442503e+01
-7.416727053930404878e+00 -5.397454841825790606e-01 1.963742792069825427e+01
-4.926796958694525053e+00 5.104652718827521696e+00 1.640938622870571706e+01
-5.061276360001278896e-01 1.917513910985594761e+00 1.658787977436111660e+01
-8.034759144259469466e+00 -3.285709104558668159e+00 1.901648489710477818e+01
-3.277257132605223333e+00 7.991858870237922297e-02 1.311010512364051195e+01
3.764943362770348245e-01 -2.659693094249586220e+00 1.661402793533161670e+01
1.917963140518111342e-01 -5.052419101742797736e-01 1.869685913532567056e+01
8.587904011335908971e-02 -1.410103392991810534e-01 1.887979041577794348e+01
-2.888678874345918857e+00 -3.166702863065259610e+00 1.971526553542745930e+01
-8.899651286121801341e-01 -3.854120954388730702e+00 1.773211759396061282e+01
-2.095086972766146971e+00 -3.239465483162320414e+00 1.738761493343610098e+01
1.815001450630142066e-01 -3.622010663763324256e-01 1.870209327402156774e+01
-8.378855302276269512e+00 3.752368531379817740e-01 1.683894818037416385e+01
-1.461267745778986882e-01 1.454224140068968829e+00 1.681394510944535980e+01
1.831303294492476752e-01 -1.257453403588008056e-01 1.868356333671918534e+01
-3.451235870378617232e+00 3.298213721623034278e+00 1.384058388901894787e+01
-3.404625586744705501e+00 2.796551524342779427e+00 1.295875499385600804e+01
-7.709104407565956940e+00 1.071688702874213472e+00 1.536762512790520319e+01
-4.873934220175691223e+00 -2.108232496483210205e+00 1.983812440746793371e+01
-7.362541981030826244e-03 4.822999108351444519e-02 1.895068957201600668e+01
9.636098056974383430e-02 -1.345296433075592102e+00 1.906188454949929323e+01
-7.840650686303267669e-01 -3.287043385140591578e+00 1.569088840040747712e+01
-2.511751223065234462e-01 2.641456940736681136e-01 1.914392109283496168e+01
-7.337909199336329458e+00 -3.708466372823659540e+00 1.792558515575043643e+01
-3.537805786276377873e+00 1.725452314766786177e+00 1.105999806183956125e+01
-1.653688207730281023e+00 8.863161688436959063e-01 1.931798631237267116e+01
-2.468691477036983439e+00 -1.154001375943067398e+00 1.956742192672423997e+01
-1.194450718326451888e+00 3.324648408185224557e-01 1.342651016732874680e+01
-2.040551039619750373e+00 1.036962089937367937e+00 1.929603089630669999e+01
-6.273998232333351410e+00 1.510197102797143254e+00 1.921562392673431319e+01
-2.449135087628401819e-01 -7.930298920108733718e-01 1.446276145162135762e+01
-4.529524101412349957e+00 -3.285607620624686920e+00 1.761029710070331689e+01
-1.626909168257495986e-01 -1.768256031501597825e+00 1.490081276734035853e+01
-6.473175506289586600e+00 8.825888841201775525e-01 1.941697552009839356e+01
-6.836112607158522536e+00 1.545606670973359353e+00 1.906449352997225688e+01
-4.481729208036604462e+00 5.806481261116283044e-01 1.190476672854327589e+01
-6.669588399137248658e+00 6.184591096492700890e-01 1.947906484689725559e+01
-1.197526447030693220e+00 -4.233726138639654302e+00 1.863645567475611031e+01
-3.418228832899458780e+00 5.124799122317899247e+00 1.796352948753522938e+01
-7.420499101468722714e+00 2.727354393014471134e-01 1.934784196117856325e+01
-8.181987685001384847e+00 1.015520190714265691e+00 1.761538770078831462e+01
-8.496349900103115971e+00 9.233312750169475613e-03 1.756591908164714866e+01
-8.329968736412842745e+00 2.306922820283598963e-01 1.651305414522351711e+01
-7.636779063496030417e+00 5.808607797494635960e-02 1.928138880606994476e+01
-2.499557201128627337e+00 -1.413667207823643412e+00 1.584716203038291482e+01
-7.897992151710287345e+00 -2.847244193358388076e-01 1.914020128408906274e+01
-6.694597723235617082e+00 -9.684598405367461638e-01 1.385005415675579954e+01
-2.526010872670867879e+00 -3.448616084220432754e+00 1.759068446703451016e+01
-6.431795455487788082e+00 1.080889021639469760e+00 1.934768242925803960e+01
-8.087777852735264617e+00 1.187719845168474286e+00 1.778039501767551300e+01
-8.182108292859284759e+00 1.138601053571997257e+00 1.735666963950867014e+01
-8.133605138917275212e+00 1.265142052842314291e+00 1.698353731908391140e+01
-2.950185096374693838e+00 2.247338657000344408e+00 1.246830041084127672e+01
-8.522332874808904890e+00 -3.751180275029065703e-01 1.673715595175245241e+01
-5.118670712498128772e+00 3.167575796545387679e+00 1.359452735439109361e+01
-7.712549057011500508e+00 -2.985763765460050845e+00 1.645124566875078287e+01
-6.919333978813402730e+00 -2.997061489435219439e+00 1.641709531406950262e+01
-5.079676004017541047e+00 -2.357769414529909291e+00 1.987967566600162783e+01
-2.921861959825519772e+00 -1.392140381195851706e+00 1.959764135604062929e+01
-6.478158172547880511e+00 -3.448202549358752478e+00 1.776832290332767528e+01
-4.240820452861354894e+00 -1.047397355985537404e+00 1.580221983330105573e+01
-6.258607938524320957e+00 -2.624198739048134499e+00 1.684374686173767444e+01
-2.119280301316420090e+00 9.186792013512883326e-01 1.237443358839877661e+01
-5.717732648753137248e+00 -4.044811594515809183e+00 1.835880175028906436e+01
-5.911892963645150267e+00 -2.678991285702789771e+00 1.720771762504434932e+01
-1.898840985352951538e+00 -2.662297751905288834e+00 1.680768442394879614e+01
2.222602575763810151e-01 -3.134312895764181928e+00 1.814781872348428848e+01
-4.670941828709302968e+00 -2.614089793826522179e+00 1.724675174836012204e+01
-5.835373529571232787e+00 -1.405497127257914425e+00 1.465355836867724193e+01
-5.701915528262198052e+00 3.173401323019350073e+00 1.416191813648127962e+01
-5.916865808162396156e+00 -2.317088110608979346e+00 1.999423742509096869e+01
-8.616281964481946609e-01 1.053377139880947722e+00 1.914229268026693731e+01
-2.918420857606142338e+00 -2.677566939895482001e+00 1.721744389503815498e+01
-2.548846651064426982e+00 -2.054456965893830755e+00 1.659818315547918743e+01
-1.211392528393288037e+00 -3.356142305096153411e+00 1.627077502023599820e+01
1.996459764464248721e-01 -2.520245481243634789e+00 1.859695920791373069e+01
-2.877479439579909481e+00 -4.255704326132089932e+00 1.878067235096503040e+01
-1.095667584117229643e+00 -3.448188841321919718e+00 1.638137727963693990e+01
-5.091837734231742019e+00 7.795082541878389781e-01 1.942830639784055435e+01
-5.836139232744962158e+00 4.391888062540984627e+00 1.593025288086014157e+01
-7.235107081956000386e+00 -3.811472400724106535e+00 1.804983609676071055e+01
-6.273771953641562149e+00 1.379847022177630445e-01 1.274118345388569296e+01
3.103185179828239493e-01 -3.288524960084187487e+00 1.736416752708887756e+01
2.633138041650947003e-01 -1.919077816444130224e+00 1.859142076490437390e+01
-5.714131990209120993e+00 1.780236198622855426e+00 1.236348527230277128e+01
2.474542783810494972e-01 -1.757256280609129639e+00 1.863378772949875284e+01
2.457599172669545085e-01 -1.564517634392851075e+00 1.859343415157429646e+01
-8.188245823464781026e+00 -2.196590001710751583e+00 1.638336690461439460e+01
1.796021827462299103e-01 -1.133475462739832018e+00 1.885138099498253794e+01
-3.261997916538581066e+00 -8.420024324878727651e-01 1.543028093136817702e+01
-1.167807973258896681e-01 3.330124477761942092e-02 1.907838911124550307e+01
-6.297906762876108733e-01 -3.634880960497285374e-01 1.951229176183906233e+01
-1.897180426556918986e+00 6.623610711873824108e-01 1.936982229668280198e+01
-5.984058033620687667e+00 4.472832995019265567e+00 1.802673814124959861e+01
-3.819366933949752241e+00 1.074190624500111158e+00 1.930605870629316811e+01
-5.652697880556609711e+00 2.811995224050554132e-01 1.956147757413025445e+01
-8.506272239456016848e+00 -1.805584919105172048e+00 1.707224510737540513e+01
-6.462036287973359272e+00 3.027022970164922056e-01 1.959326253652485761e+01
-5.201049288629169709e+00 1.065643606387811415e+00 1.122630604445582847e+01
-6.481438399108078841e+00 5.090093335951184628e-01 1.953287428686845217e+01
-2.278979645996239256e+00 -2.464463506234460866e+00 1.682353292609559858e+01
-2.230851160683215095e+00 2.698973636336476023e+00 1.885133026521094379e+01
-7.251964644656291092e+00 3.562944001315161979e-01 1.940918993022218686e+01
-7.494935220207801230e+00 -2.838911339963841041e-01 1.952510120320004106e+01
-7.665880133836874499e+00 -2.436412742200591008e-01 1.938631866411435922e+01
-7.649981603623556836e+00 -8.828836468078571365e-02 1.933536853504756081e+01
-2.817350018120105215e+00 1.447740440328268763e+00 1.920744434928907296e+01
-7.989784863156092598e+00 -4.647501028463130179e-01 1.907728802048965733e+01
-2.055955893956398217e+00 -1.759749807188392356e+00 1.961803760715018186e+01
-8.088617393782991272e+00 -1.271280646393586844e+00 1.910519134674699515e+01
-1.350239336362980547e+00 9.841758114748722086e-01 1.381571554139910418e+01
-7.050647962103745670e+00 -2.836473711858744196e+00 1.581442013066417118e+01
-8.115837923545393906e+00 -6.654518257109394153e-01 1.891353615791041776e+01
-6.273368062031513759e+00 -1.670947267871562225e+00 1.996071841941539660e+01
-8.317342602586119682e+00 -6.577230172036354627e-01 1.851976508162197987e+01
-1.799798909278024661e+00 1.165032752202539879e+00 1.313844516221555736e+01
-8.384766419516711977e+00 -4.191394529912790823e-01 1.824807847810285821e+01
-7.095187408298531118e+00 -3.003709894305376604e+00 1.620309453258657939e+01
-1.114683309686919754e+00 -1.086581356472492654e+00 1.375031500754329628e+01
-7.445584030978493750e+00 -6.117876518994942447e-01 1.417720579928387181e+01
-2.430379966030138839e+00 7.972622383493177534e-02 1.945516837553875078e+01
-8.331474532554848267e+00 -7.840902591012000045e-03 1.818877847919301516e+01
2.348407956616838099e-01 -6.787997820431379559e-02 1.652263117040392970e+01
-8.338896313016929795e+00 6.084399329313727733e-01 1.718309847618862207e+01
-8.307097480380933874e+00 3.893503692971227448e-01 1.655699154462545053e+01
-5.870822270073844606e+00 2.544180660515851677e+00 1.891259244901502612e+01
-5.017402588763164140e+00 3.313375050828057500e+00 1.867600229148422741e+01
-8.566381889455506382e+00 -9.363740445153394543e-01 1.685275791513488386e+01
-2.090171859247159869e+00 2.605162581691759627e+00 1.463532622257314486e+01
-8.226477655783568821e+00 4.307244370488617635e-01 1.634121715649046180e+01
-8.077007495068150078e+00 -2.589926489662944142e+00 1.662606209567655569e+01
-7.511294602391392239e+00 -3.187552805161072644e+00 1.682976377674082258e+01
2.759953389615897867e-01 -9.213333534860967955e-02 1.709179831864179633e+01
-2.521131192394187703e+00 -1.262597640264931709e+00 1.566416558602105980e+01
-7.048483720692074073e+00 -3.077915557772881616e+00 1.663587970999988030e+01
-8.513104300495523802e+00 -4.454457793663550991e-01 1.793733106954060830e+01
-8.657826519943437660e+00 -9.931220256559154524e-01 1.712692821690045619e+01
-4.249338389364227808e+00 6.527855182901864950e-02 1.954200567546188338e+01
-6.926060031836492215e+00 -3.024457977421950439e+00 1.665659861725283619e+01
-3.399847586228768592e-02 -1.355307147502977205e+00 1.924931267475274055e+01
-7.223225627949081407e+00 1.306968327790713591e+00 1.897894381648022133e+01
-6.712005994517806329e+00 -2.947025551212131500e+00 1.683130511837910248e+01
-6.486788761381619750e+00 -2.873660197711176867e+00 1.705035516267674822e+01
-8.219203653007518540e+00 -3.031585396345895411e+00 1.875026906112871572e+01
-1.795692979122672339e+00 3.052173738278121107e+00 1.579400196988802563e+01
9.221177259420487715e-02 -2.338060408616928321e+00 1.899834957100356192e+01
-2.373194854690532374e+00 -1.180969315323312507e+00 1.485229906131563737e+01
-5.296766180463571061e+00 -2.552781219929591838e+00 1.992335886592405458e+01
-6.131861905920211520e+00 -2.629423458352411203e+00 1.705405649402516488e+01
-3.029295381971236711e+00 -7.273065403065976930e-01 1.954888305983155661e+01
-8.510495894776698433e-01 2.385481394830988866e-01 1.390059725085834330e+01
-6.600650829615008597e+00 2.263389913362279238e+00 1.424359231008935822e+01
-6.114985921151458115e+00 -2.992052261695913096e+00 1.747056984530292922e+01
-5.290578348569737521e+00 -2.868805107600061355e+00 1.745025908096242873e+01
-4.687995680590177017e+00 2.605837027302315256e+00 1.237357378015446940e+01
-7.065092445563098122e-01 1.923043931270961959e+00 1.620465606866979513e+01
-6.066482688122505351e+00 1.166303835398545541e+00 1.238513826009508634e+01
-6.065118125644370473e+00 2.742889345677082868e+00 1.881268290678171340e+01
-4.914806320005236095e+00 -2.836345479420026905e+00 1.740884543076424862e+01
-4.474977700397642089e+00 -2.840344846789190747e+00 1.735860258647430854e+01
-3.135574386181943396e+00 -3.700243239688188801e+00 1.777827380244344724e+01
-1.382971367988812039e+00 3.390616809605903281e+00 1.680793546000733230e+01
-3.646220662364825671e+00 -3.043338722120922490e+00 1.744216596988559687e+01
-6.395685652417131273e+00 1.311690032516207083e+00 1.306359089254661754e+01
-8.261740876235112552e+00 6.080800713288841974e-01 1.657954462819933994e+01
-2.508995131580634030e+00 -3.038795316191397866e+00 1.735870110724595250e+01
-2.295899659308763496e+00 -2.880765724404994454e+00 1.718386051334228526e+01
-7.100471903062958390e+00 -1.072323453524193448e+00 1.408721262874439262e+01
-2.296323255583303080e+00 -2.650051574403216481e+00 1.699199873808828087e+01
2.480369026817651756e-01 7.006454479147748993e-01 1.807780204748130259e+01
-1.918615647570907967e+00 -2.861194131281052044e+00 1.699742337845693285e+01
-2.059999034722360900e+00 -2.628569589661016614e+00 1.686454752579617988e+01
-1.079077058128971700e+00 -3.501121144407883357e+00 1.654426311558901475e+01
-3.450011372790812825e+00 4.364702981707495155e+00 1.589670099785542945e+01
-8.271100411067539682e+00 8.070875175584607542e-01 1.701093809539060331e+01
3.042908421587041667e-01 -8.713964360553574373e-01 1.730109247224291025e+01
-8.905296989947580899e-01 -3.527415708546090656e+00 1.638259130737178637e+01
-7.036002491040592721e-01 -3.690736973455950753e+00 1.680004050052984255e+01
2.484967434539789299e-01 -2.123172728849930468e+00 1.861635226106573171e+01
-4.221972343156419782e+00 4.678459772033058073e+00 1.565003730972726359e+01
-8.296895836285357317e-01 -3.749421668706556243e-01 1.953882356784376739e+01
8.274976053870704285e-02 -1.156060827761534515e+00 1.907695090187511155e+01
-2.068809108905749206e+00 2.381448609038817055e-01 1.944380519233812876e+01
-3.504462663701424230e+00 -3.065197821045301030e+00 1.745497109638173683e+01
-3.886770321398929973e+00 8.611420840510028984e-01 1.936047412662292189e+01
2.421456096806480496e-01 -8.538263825694167863e-01 1.627057359620272692e+01
-3.943414424525141015e+00 -4.217522137326007226e+00 1.910822815373250805e+01
-9.481028263545974166e-01 -3.551782656900819291e+00 1.968428766022998744e+01
-4.103987529712421534e+00 4.330927540916017504e-01 1.946304559946558399e+01
-5.668403878642513938e+00 -1.198380766808125886e-01 1.964548513918120776e+01
-6.226119351963047777e+00 -1.160638545222927309e-01 1.969453515377315611e+01
-7.721745182311481770e+00 3.950014037712567538e-01 1.900943341281911714e+01
-3.333682784076173355e+00 2.825862473769245486e+00 1.308478452266967551e+01
-6.675178638760888461e+00 -6.491769375395539665e-02 1.968468414610559947e+01
-6.619621715669134154e+00 5.427835384507018190e-02 1.966071845201082269e+01
-5.945885126899725925e+00 1.809562736522948079e+00 1.273666174185252586e+01
-3.693297618134329330e+00 -1.462422092033549559e-01 1.411149015954903163e+01
-7.277010319804557703e+00 3.232375353860157396e+00 1.626984352643508558e+01
-5.190035268393326184e+00 -2.718693537815485950e+00 1.992078869168414812e+01
-7.284836434526606119e+00 -5.040527459749171157e-01 1.969523435922960530e+01
-4.170058180001766424e+00 -3.523852745066893277e+00 1.990409383680005462e+01
-7.650712585986758185e+00 -5.082374598973207203e-01 1.949398646804026569e+01
-7.707678563961225748e+00 -9.025963981565148231e-01 1.951775790173983083e+01
-7.720244182955235956e+00 2.430326786250185389e+00 1.698868241805061885e+01
-8.261660953592853573e+00 -8.519877824879122930e-01 1.871067862679040061e+01
-4.684726278022743884e+00 2.377054581095123797e+00 1.201219276170554551e+01
-8.395031202362103429e+00 -9.028526007811665810e-01 1.844546167508413603e+01
-8.416336560025490243e+00 -6.512628001663640642e-01 1.829864535718956731e+01
3.108195885895909116e-01 -3.238558114076213634e+00 1.718244879563510707e+01
-6.664253844877466193e+00 -1.333543183134104471e+00 1.995561805967824753e+01
-1.352287129441994029e+00 3.964988096809531459e+00 1.784367460820163487e+01
-8.594451715412455783e+00 -3.716332483005359011e-01 1.755542897633698729e+01
-8.401996017996649968e+00 3.558760932377419972e-01 1.701101743417691736e+01
-6.906805226292862088e+00 -1.140453545188710338e+00 1.405353396809802646e+01
-4.071894422294366045e+00 -4.231015302966817160e+00 1.922999292328418974e+01
-5.323443948315620844e+00 -3.903678730246268991e+00 1.816165611130236002e+01
2.436154984184464023e-01 -3.652752262642542824e+00 1.760628575764871684e+01
-3.111545978526503387e+00 -6.478304288053962079e-01 1.505654666516824491e+01
-8.507598944375292405e+00 -2.056198545546613632e-01 1.671099655408150042e+01
-6.875439369865809169e+00 3.213631635948646648e-01 1.332261196067459608e+01
-8.556933381588212484e+00 -4.153144942782101001e-01 1.685103027353112637e+01
-8.569084308625782853e+00 -5.850575521688363700e-01 1.688763344659083643e+01
-8.557385094941240666e+00 -1.168893353763848175e+00 1.685875907261552342e+01
-8.232088037967749017e+00 -2.836131108851642324e+00 1.880138341454580697e+01
-4.284997895889877562e+00 -2.621254883026533200e+00 1.723046006247166773e+01
-6.343327430735628880e+00 2.359598184075491822e+00 1.396216525717573020e+01
-8.547903671695038952e+00 -1.395490435072779256e+00 1.686622077092806293e+01
-8.159224458238160338e+00 -2.347492392748457224e+00 1.644171321927558793e+01
-8.172744116510241241e+00 -2.407639822333071056e+00 1.663825620934604999e+01
-8.188103175316646443e+00 -2.461645413401460925e+00 1.683921918711983423e+01
-4.267215091737082133e+00 2.310125061149423953e-01 1.305726094607928545e+01
-1.149066775662122231e+00 1.353669725858353434e+00 1.465918246608983466e+01
-2.058980131922161672e+00 -4.160796983947177452e+00 1.958590245161259347e+01
-6.312732768253010107e+00 -3.241064634631185104e+00 1.763193013744522020e+01
-6.082749134835521154e+00 -3.217065090559978024e+00 1.766960295322984464e+01
-9.332813697908799444e-01 2.077810471409719528e-01 1.372505733991629384e+01
-8.232903885558515711e+00 9.554280949822858693e-01 1.739833145062342723e+01
-5.095758599439331071e+00 -3.035803503412496607e+00 1.755575945209436739e+01
-4.476484643810787034e+00 -3.029042232678742508e+00 1.747356311537943796e+01
-2.110955893757496149e+00 -3.468041754359576956e+00 1.755143081481967826e+01
-2.086891253641918187e+00 -3.033832636388757553e+00 1.722067185396926803e+01
-4.111153039241856710e+00 9.615942916175941324e-01 1.118429881294166606e+01
-1.669262857133066102e+00 -2.868933384492375005e+00 1.678083832056325164e+01
2.725637419566314668e-01 -3.206957531993364086e-01 1.692148572008499841e+01
-1.322326817267892807e+00 -3.425845188309593503e+00 1.676201822647857043e+01
-3.289620981156449186e+00 4.148205292021575730e+00 1.569360718713017278e+01
-1.617676423231328320e+00 -3.165805918221940463e+00 1.707192816518979939e+01
-1.394646725008794053e-01 -1.255517572345530297e+00 1.937425705276777776e+01
-6.539305738825192726e+00 -5.260417368762453361e-01 1.343045319402770943e+01
-3.310878238543444763e+00 -2.599191067521298137e+00 1.973788736883073724e+01
-5.448673699383504321e+00 3.684296855196536935e+00 1.466349061528187647e+01
-6.529815976425497048e+00 -4.313590789744663034e+00 1.875593580013474693e+01
-1.662386959733347380e+00 -3.408136917183639536e-01 1.954195548368864266e+01
-2.272272206310831155e+00 6.084644040534825660e-02 1.946219584706230776e+01
-8.059697103582820432e+00 3.385779406743898989e-01 1.853682393677428664e+01
-8.158539373594319244e+00 -1.741070876029461978e+00 1.606777966672124691e+01
-2.801416945795002889e+00 -1.741189621648240315e-01 1.949300181040542057e+01
-8.070342417361038301e+00 -9.229002136884292273e-01 1.569155862583684424e+01
-2.812798975961333658e-01 -2.219921210874573614e+00 1.499620130130750439e+01
-5.428376268828414730e+00 -3.240019481076763519e-01 1.967188845501992844e+01
-7.306478905159915271e+00 -2.506733990301809545e+00 1.543696636153571333e+01
-6.070906842497850064e+00 -5.296535989408037715e-01 1.976777461465175989e+01
-2.003456740392712376e+00 4.164335155043753289e+00 1.701406476368984855e+01
-6.700988269893565885e+00 -7.210866038657091082e-01 1.984142969496096853e+01
-7.056716149796012694e+00 -7.805182796075194052e-01 1.982860100073119369e+01
-7.919190959609764491e+00 -1.135777896674713627e+00 1.932467820234354505e+01
-2.248774661053364099e+00 1.474726303693588036e+00 1.918734585042713903e+01
-8.130845421659991246e+00 -1.498737594126855477e+00 1.906441636758543368e+01
-8.231824150010446317e+00 -1.265857576795221817e+00 1.886818033756717128e+01
-8.336191675288830538e+00 -1.287564671103451186e+00 1.868256264940974276e+01
-1.471401502514710025e+00 1.822440982786910801e+00 1.457495141475046196e+01
-8.590644009613018994e+00 -1.243481806110701138e+00 1.803644765659543836e+01
-8.632259988231188785e+00 -8.025213100714354564e-01 1.770803929811290445e+01
-8.526954903709842881e+00 -2.070661604108869902e-02 1.735290841090357716e+01
-3.266831701511632158e+00 2.527604709965508789e+00 1.260650713219076025e+01
-8.635592889348021828e+00 -6.088750992314606592e-01 1.712845775749211796e+01
-3.728369656180787750e-01 -3.937815349288764644e-01 1.418630008126302400e+01
-2.678389138349422272e+00 3.372281976352899502e+00 1.505313267989560089e+01
-7.475752511513044318e+00 -1.520595970551724019e+00 1.469937692719381417e+01
-3.414500790501644456e+00 4.072907606437967232e+00 1.839784004736199208e+01
-8.664579704178949626e+00 -7.959937073806042651e-01 1.732583819397831704e+01
-8.271054169512995102e+00 -2.598997369194373519e+00 1.743334242575395976e+01
-7.880822416913678907e+00 -3.226100621889690157e+00 1.740983721368798953e+01
-7.500191115442518708e+00 -3.353542719684998730e+00 1.740956029401052163e+01
-6.473051758831678271e+00 3.298674309328265775e+00 1.522465744426950707e+01
-4.298862323760684667e+00 -2.744789197240775636e+00 1.986223412064591187e+01
-6.492755852774894976e+00 -3.144836231954633465e+00 1.746774206058786305e+01
-6.106571384238793421e+00 -3.453592873693954068e+00 1.786200713663334838e+01
-7.633215954673119086e+00 -3.392644527168183766e-01 1.460826263146888593e+01
-2.488456122239403712e+00 5.441995812592560489e-01 1.207662788171355217e+01
-3.478281332061926800e+00 2.847424379834669894e-01 1.274074493186068580e+01
-5.682384452151893584e+00 -3.662043067284133535e+00 1.802352211263034221e+01
2.485083144092367913e-01 7.202611393727760269e-01 1.753396488443945245e+01
6.026651890323069666e-02 5.497426719129987482e-01 1.633275797123733852e+01
-5.100362086646017090e+00 -3.428229142285480258e+00 1.777608430536378492e+01
-4.805749888555108207e+00 -3.002916206513520425e+00 1.749746592576651594e+01
-4.893672382438309043e+00 -3.258299854461685907e+00 1.764864773900590578e+01
-5.249751383302372787e+00 3.662321603032285822e+00 1.446429886461687531e+01
-8.440137292150710735e+00 -1.597346076615138166e+00 1.669252887118774353e+01
-4.490204299650160102e+00 -3.420036203998625624e+00 1.767548236969238573e+01
-3.829392096378647192e+00 3.507425402546034299e+00 1.384413857560944550e+01
-3.326690983227551968e+00 -3.472740846982092400e+00 1.763594784972525886e+01
-2.097331633291305675e+00 -3.612936719919296102e+00 1.764086153515797761e+01
-6.100066054372645930e+00 -3.525510461253266392e+00 2.011210337187752017e+01
-5.293127855523797720e+00 3.732736522145893243e+00 1.460776879857503374e+01
-1.582889386646818330e+00 -3.325324672912577384e+00 1.718128626545493276e+01
-7.708656861669768823e+00 -3.680171341566118137e+00 1.795815514916978017e+01
-6.485981600235245281e+00 -2.130253695037273243e+00 2.004379974367485673e+01
-1.123696075969195851e+00 -3.749579845400289990e+00 1.717895970673336237e+01
-5.454246867363179430e-01 -1.366086692160052518e+00 1.427434027615142398e+01
1.993337995980471455e-01 -2.404196479723394564e+00 1.864925941565519096e+01
-1.876050088447880904e-02 -1.430790461639216193e+00 1.499034184513127244e+01
2.553093455142378954e-01 -2.323642586152337319e+00 1.842745800608816964e+01
-5.607539697079397811e+00 -3.515675760543192752e+00 1.791388191842806421e+01
-6.287054294728239512e+00 -7.165061320710559567e-01 1.353770620590168861e+01
-6.532548777743749091e-02 -2.365080912304115657e+00 1.923429623774612551e+01
-7.165202742430812344e-02 -2.142022462019425255e+00 1.926920708444492547e+01
-2.639416942436278446e-01 -1.545896321986913513e+00 1.948939600071393485e+01
-8.655470778699655199e+00 -8.229282876792178847e-01 1.749118135123362450e+01
-4.686519582174040188e+00 -1.743303369309329387e+00 1.978767757126862037e+01
-2.464708305710423986e+00 1.340238404533556027e+00 1.199506190729013255e+01
-4.561057849999651248e-01 -1.556958839121185267e+00 1.959621399065681047e+01
-7.137741974641178544e-01 -1.764961636308216342e+00 1.965982634744165480e+01
-5.366783986963787001e+00 -6.237056435147898537e-01 1.369310438758428816e+01
-2.476084471360659567e+00 -7.469733650205627740e-01 1.954406607769758253e+01
-2.865054201940020029e+00 -5.392288151526940521e-01 1.952799547242962674e+01
-5.098323966149609809e+00 3.246844518683237868e-01 1.215533585653585291e+01
-1.702423912261443295e+00 -4.355522044631968903e+00 1.876284605669255612e+01
-4.270762372957036312e+00 -5.297581449868888903e-01 1.963134064818943969e+01
-7.054440785408638170e+00 -9.120711053160701631e-01 1.986022780704196933e+01
-7.259293059500291356e+00 -1.115635429586192107e+00 1.984385115568326441e+01
-7.062257292911599649e+00 -3.847442299078747130e-01 1.358605924164166723e+01
-7.464457070034741903e+00 -1.923212419044550980e+00 1.983583662093107236e+01
-6.643543459194204415e-01 -2.558377078274698846e+00 1.968576209481986083e+01
-4.386801627880715371e-01 -1.796254532122320668e+00 1.459880796334511288e+01
-1.305132372719901124e+00 -3.826058935181865017e+00 1.966444316070494480e+01
2.674357182518298792e-01 2.874805568907102815e-01 1.773141121651712737e+01
-8.132892013403457909e+00 -2.069680663732915260e+00 1.908296491451777044e+01
-5.461903824624874559e+00 4.794034439289799110e+00 1.798184980084110762e+01
-8.241672498043103090e+00 -1.825465210484077616e+00 1.891248546095167526e+01
-5.193224735445678419e+00 2.085447040801546414e+00 1.206392454017760585e+01
-8.343110813955190608e+00 -1.634147411337525391e+00 1.870581358946700945e+01
-8.451737362498805695e+00 -1.670353701747589792e+00 1.845407131709985649e+01
-5.850496089825774959e+00 -2.362117554380906981e-01 1.293500319394719966e+01
-8.517819081423757765e+00 -1.449520779660825820e+00 1.827384246984091831e+01
-8.619878887038787241e+00 -1.272505810742079246e+00 1.785446177504295306e+01
-3.232550084594017825e+00 4.775434642433028287e+00 1.670655238401275611e+01
-2.456003964131706852e+00 1.153325710007465865e+00 1.192172346932079208e+01
-8.653408838904910638e+00 -9.974068948099403809e-01 1.751951398880302335e+01
-5.414461189588305468e-01 1.321569045533928399e+00 1.579551459421774595e+01
-5.449333192098274381e+00 -4.549882794945170339e-02 1.962094267048739127e+01
-8.051286156779260850e+00 4.413429319928783290e-01 1.595214620695323404e+01
-1.520604354574460970e+00 -1.311871069314535010e+00 1.386786685353655102e+01
-3.252151424270636415e+00 5.124203009605436065e+00 1.710052567434394533e+01
-8.664399513120123686e+00 -1.000773478034826969e+00 1.731574827390042870e+01
-5.429627411229599687e+00 2.893760880818725845e+00 1.347422990353065231e+01
-8.401758623434563589e+00 -2.172471820215605032e+00 1.714772148116633232e+01
-2.924934884324948747e+00 -1.661315083033985118e+00 1.642778723062442836e+01
-8.327035971174860052e+00 -2.613248704425754187e+00 1.764585793844220873e+01
-2.294289107822290674e+00 2.807007221390620533e+00 1.463262921714376930e+01
-7.954736247989908193e+00 -3.283256055068921597e+00 1.762599295786244724e+01
-7.146978702296402197e+00 3.905767824494573048e+00 1.710080864413299295e+01
-6.508444829645676499e+00 -3.582255571109182135e+00 1.788329100376435221e+01
-5.399391255192284578e-02 -1.196041783187232754e+00 1.487337757458742615e+01
-6.485772176436267245e+00 -3.694420540988174295e+00 1.799806832181392835e+01
-7.529192588582838574e+00 -9.899583918432830476e-02 1.437140332771016560e+01
-6.313917013406087797e+00 -3.843864316805198023e+00 1.816469852642216054e+01
-5.103689455414860632e+00 -3.709064492340809593e+00 1.794957164641416725e+01
-7.770481316799005000e+00 2.333188858354079187e+00 1.724452301427745837e+01
-4.100125199779716567e+00 -3.660830138058130068e+00 1.779928936110652060e+01
-1.827711023145482949e+00 -2.389890034609305047e+00 1.621697384591884727e+01
-2.298050241053729792e+00 -3.727598916390426176e+00 1.773505792236498380e+01
1.377340269405357698e-01 -2.533637018362878912e+00 1.882565142121072554e+01
-3.636556000537698896e+00 1.704049768093914397e+00 1.915129623332215303e+01
-5.873416547329434856e+00 9.487993463268549199e-01 1.196479396800235762e+01
4.781417128459274773e-02 -2.546102634997868819e+00 1.902137686176752496e+01
-4.143614504193734227e+00 -3.734519940686280570e+00 1.989377303999404134e+01
-9.136781192786200267e-02 -2.763646801082117577e+00 1.921180860468205864e+01
-8.179660778921418185e+00 -1.723986878417515189e+00 1.900159723378001431e+01
-1.095306270980818564e+00 -3.841448166661939112e+00 1.966279510384133644e+01
-6.034769348737040850e+00 -1.336759396649793930e+00 1.988606861064337394e+01
-4.830553322536174088e-01 2.070757616373251508e+00 1.850566062724972127e+01
-8.586625045702017900e+00 -6.865470061474767682e-01 1.693082089777779586e+01
-2.414924358015917427e-01 -2.153269699311182617e+00 1.945995160764238463e+01
-2.811730311232670809e-01 -1.739817212835481186e+00 1.950199812219488038e+01
-6.663503259144644808e+00 7.251695484949265413e-01 1.944446885615935727e+01
-5.656436520363406828e+00 3.564455003175307279e+00 1.852536480330592994e+01
-1.617301137819653789e+00 -1.166340789636593822e+00 1.961901165578718675e+01
-5.693400782992205755e+00 -1.338339691363869211e+00 1.984594739129962804e+01
-7.462327092458238553e+00 -2.111503914041294561e+00 1.984473749021073630e+01
-2.131558742338797163e+00 -2.291473578698684843e+00 1.658981973882321981e+01
-5.286023991064357830e+00 -2.611910505466522814e+00 1.724181753516959148e+01
-7.471974654812345129e+00 -2.295128732863866539e+00 1.983863022347553695e+01
-7.675090910226341379e+00 -2.106661731113949276e+00 1.966331294260131202e+01
-8.091428769930988807e+00 -5.497461722813035134e-01 1.574584002039687292e+01
-4.545697349478728277e+00 -2.496816443940554464e+00 1.716302081973197957e+01
-8.020813448723007610e+00 -2.265133264891616705e+00 1.924818427425635647e+01
-7.970506044163663262e+00 -2.455621090140310603e+00 1.930802266486368168e+01
-8.144730465147461018e+00 -2.473295790560066543e+00 1.904611458693723236e+01
-5.029552957486558284e+00 1.758153657259067248e+00 1.146007868930949414e+01
-3.085534270010596103e+00 -7.191138434868105112e-02 1.331445594955590295e+01
-4.040259843288112052e+00 4.973537523137626870e+00 1.630770418973500213e+01
-8.257916823941600981e+00 -2.448179823902886465e+00 1.885717509322450880e+01
-8.255915163265816759e+00 -2.091827543324685124e+00 1.889015370922679082e+01
-8.356147525635536866e+00 -1.903322251802838760e+00 1.869874381373696437e+01
-5.118471448013544922e+00 -4.385304427027487684e+00 1.911653514737727377e+01
-8.510076981253954287e+00 -1.695257179959721139e+00 1.830152144439596995e+01
-6.694127501761697019e+00 -2.953054275675462748e+00 2.011804332015244867e+01
-3.860431864642286826e+00 5.106920243171138019e+00 1.674914750578799882e+01
-3.484334006460228839e+00 -4.112999486738715404e+00 1.852623639897489127e+01
-4.271653993430220453e+00 1.228710317449298151e+00 1.928653463752072028e+01
-8.641137415996219318e+00 -1.249831033453940865e+00 1.752701198474825972e+01
-8.648616782471304276e+00 -1.195918100018134700e+00 1.728261716422548133e+01
-8.624767331384369129e+00 -1.426944118135446971e+00 1.745397091233806819e+01
-8.364918640280150086e+00 -2.632823816338977441e+00 1.782292568158386459e+01
-3.080873986014418531e+00 -3.537069450625802247e+00 1.972615027160116696e+01
-8.294940500383711779e+00 -2.820213716239492463e+00 1.784349357187683793e+01
-8.063080864150288463e+00 -3.385590238638141791e+00 1.802305925463371139e+01
