-1.212249799154572871e+00 1.889602555919383420e+00 1.485614474291088882e+01
-5.659275163249167129e+00 -3.494588379427171709e+00 1.576746890838950677e+01
-2.821546858921392342e+00 2.605766494992973747e+00 1.354235467957350281e+01
-4.429453156960012628e+00 -5.400825666929244484e+00 1.656379257197243859e+01
-3.061044002730405555e+00 -5.735998461724832964e+00 1.693533704219606406e+01
-1.838034862294565031e+00 -5.273382673221929551e+00 1.706310493329717204e+01
-1.919477187607786739e+00 -5.199578401081203616e+00 1.712848111100923276e+01
-2.304023163940683183e+00 -4.853098009839877491e+00 1.733066310009160205e+01
-2.622640224157388289e+00 -4.617523905567786358e+00 1.743998272630816970e+01
-2.843585755155596306e+00 -4.614819302675757129e+00 1.746898996054472164e+01
-5.409691727380270265e+00 -3.267035506006523704e+00 1.570775644241128433e+01
-2.923009519412707480e+00 -4.221120435655580039e+00 1.756523428193558445e+01
-6.958427942600687643e+00 3.173421066561852300e+00 1.471276336769924242e+01
-3.068425001682158815e+00 -3.825640031146928521e+00 1.765243554649320501e+01
-2.646352598683185953e+00 2.927829633974288193e+00 1.420685669601396128e+01
-3.262960825948049592e+00 -4.036334255332429066e+00 1.763319401419047594e+01
-3.860873871040585215e+00 -3.438317493605002717e+00 1.779665320026963471e+01
-4.091754598478907212e+00 -3.682724714017132861e+00 1.777347468729289304e+01
-4.921128334544293104e+00 -3.842985502649049145e+00 1.776462323804375032e+01
-4.678631399352862097e+00 -3.849132805052201789e+00 1.776688410878927371e+01
-2.882706845943591834e+00 -5.177358638960360970e+00 1.613438959127066497e+01
-5.072945597263799122e+00 -3.823091913797126651e+00 1.776640089642566167e+01
-1.666530412638118630e+00 -4.257624652769961493e+00 1.734139745490030649e+01
-5.083647529870256143e+00 -4.060690400274597600e+00 1.771622986821921941e+01
-5.372933697319434820e+00 -3.882184073627990450e+00 1.773389909012822940e+01
-9.784351356374598740e-02 -6.983286580226411022e-01 1.561383887322826425e+01
-7.155829358038181098e+00 3.530475210511754280e-01 1.285089904079008605e+01
-5.268901911603530053e+00 -4.028034158717971103e+00 1.771471432098747201e+01
-5.888519417946946000e+00 -4.617580553132130561e+00 1.750376214199254932e+01
-7.282606431799425017e+00 -4.845000344103790546e+00 1.673058815454983161e+01
-7.944760621274640222e+00 -4.362000122965466353e+00 1.646496944725875622e+01
-8.045171714942991770e+00 -3.804686923657222941e+00 1.605111309567912414e+01
-8.035604242466664715e+00 -3.569679551125052086e+00 1.589972230850211687e+01
-7.275465466893214384e+00 -3.415496446041243139e+00 1.580151846422372941e+01
-7.207302046940319507e+00 -3.194356547078208486e+00 1.573844959683340150e+01
-6.810342624675095102e+00 -3.266298079200797844e+00 1.576735472390472026e+01
-6.047035344934442058e+00 -3.830705691912797306e+00 1.585773131108020451e+01
-5.645028049179506624e+00 -4.079221084055171254e+00 1.585274449278313469e+01
-5.964129951919775685e+00 2.015359345031941807e+00 1.751529720114929844e+01
-5.446492226016572680e+00 -4.243884109013222883e+00 1.586113535415076470e+01
-5.215888463685566023e+00 -4.509229036049877237e+00 1.592242794549242646e+01
-5.521568110114496442e+00 -4.946196722752673303e+00 1.625852362359416858e+01
-4.700282876320841297e+00 -5.403592965105088020e+00 1.671406861950218925e+01
-2.053904029968584233e+00 -5.614906251463498421e+00 1.692137134500940121e+01
-3.258610210187199652e+00 -4.668993647411935122e+00 1.750123713643874979e+01
-7.468642254689776827e+00 2.224633160798862530e+00 1.665276759820634211e+01
-3.270923225527390787e+00 -4.402720315439347942e+00 1.756334577070987635e+01
-4.383303112875431395e+00 -3.911620272125617248e+00 1.774585193091536084e+01
-5.270545323105343627e+00 -4.419818555800672399e+00 1.762170956262350430e+01
-5.914676204974144369e+00 -4.824136790423239063e+00 1.741768332641821004e+01
-6.763103528346963156e-01 -4.439893836768462165e+00 1.533433427730486542e+01
-6.282826652084663621e+00 -5.073633210237411539e+00 1.706098915018730011e+01
-6.871941676717945313e+00 -4.967478257174458456e+00 1.671577245244966647e+01
-8.578385331936036806e+00 -8.774393066314178924e-02 1.669151984583691828e+01
-7.288919441698696211e+00 -4.759992789377447409e+00 1.653025592109953479e+01
-7.643018372744053046e+00 -4.028611620374168645e+00 1.605455860456816097e+01
-7.910301461484174901e+00 1.544811237288485906e+00 1.404929757588922357e+01
-7.448169812502297482e+00 -3.811949896692938822e+00 1.591499817459411403e+01
-7.064768833829289107e+00 -3.823229254643047526e+00 1.589730735300084419e+01
-8.405277878563509830e+00 -9.234239269801780559e-02 1.692599348810636073e+01
-6.842886403597352007e+00 -3.643682109907879330e+00 1.585649178723195618e+01
-5.082330622466426640e+00 3.648107056734970932e+00 1.411961398042727822e+01
-3.881447629858423287e-01 -2.600379196174937846e+00 1.648023836714888191e+01
-5.906506168317199545e+00 -4.155492916725501473e+00 1.591283443522951657e+01
-5.662022891395990243e+00 -4.759830990033987241e+00 1.613358433264911085e+01
-5.666426041717667950e+00 -4.853170044502088665e+00 1.621027664926813472e+01
-2.852715088797357801e+00 -5.690310826827588819e+00 1.700843225865770947e+01
-2.673658368214083758e+00 -5.586924738743523911e+00 1.710101386780917565e+01
-2.900076870823701025e+00 -5.240008347710739756e+00 1.730251176664615187e+01
-6.475854927582517462e+00 2.381066166499520964e+00 1.334127612439343480e+01
-2.998091464288294095e+00 -5.361095354322478634e+00 1.727066700925700005e+01
-3.275657266040681304e+00 -5.053434610408649164e+00 1.739448247520300939e+01
-4.076618967916905589e+00 -4.642846073097142146e+00 1.755075021446558381e+01
-8.795789031944498682e-01 1.601419702143505708e+00 1.513234402990898175e+01
-8.308238026791315178e+00 5.545274868364222787e-01 1.401444242478739355e+01
-4.476443888566056017e+00 -4.602870816830195722e+00 1.756753991787158142e+01
-5.078849090968524216e+00 -4.382333478172350638e+00 1.763580391070566478e+01
-4.874380529876757073e+00 -4.602093961877897321e+00 1.757201189529955698e+01
-6.771323289158652781e-01 1.208731089035650630e-01 1.400774630885765148e+01
-5.036493026257955918e+00 -4.798981953292027036e+00 1.749738337325682735e+01
-6.606981069435009069e+00 -5.044050928458479355e+00 1.689213296040511025e+01
-6.564925897853453485e+00 -5.010373811602688576e+00 1.665297860292156784e+01
-7.079556499346050913e+00 -4.705830867558002950e+00 1.636864429071324523e+01
-7.372437353713625185e+00 -4.438563435922881162e+00 1.623231137034973059e+01
-1.508633799402954168e-01 1.571731545550361098e-01 1.508239203621309699e+01
-7.220491045924793738e+00 -4.430418123481983272e+00 1.618204589989986530e+01
-6.912268806827537304e+00 2.554963982719633542e+00 1.393845992066313144e+01
-7.251971529385606630e+00 -4.202216116418717284e+00 1.605109474977917827e+01
-1.057563539291003440e+00 8.919223150016322155e-01 1.406900134384987311e+01
-7.023137768000285774e+00 -4.185879835104776348e+00 1.600536410496364326e+01
-7.112278909113944003e+00 -4.333643483591582246e+00 1.609154711501329515e+01
-5.072971514179243080e+00 -5.332835532565006531e+00 1.711574803002808309e+01
-3.896575571064233579e+00 -5.505303398471228959e+00 1.719496134835086210e+01
-3.764747881260464446e+00 -5.475463797447781999e+00 1.722340786726302397e+01
-1.802982076006721890e+00 3.526216530622472423e-01 1.763818948929306529e+01
-3.484486563470961862e+00 -5.241655226310046878e+00 1.734685592230067996e+01
-3.899857714475974291e+00 -5.003903306390702355e+00 1.743803818464882127e+01
-5.514503596234201055e+00 -4.748114414027306829e+00 1.609580984271849857e+01
-4.050759175682301816e+00 -4.805953561904326321e+00 1.750087750817816712e+01
-1.463139239885336451e+00 -2.859395008668370153e+00 1.449429550311845460e+01
-6.433315624939545785e+00 -2.449664896484969212e+00 1.784564441768867127e+01
-4.868825878908935145e+00 -4.752055974978339314e+00 1.751466027564267947e+01
-8.080091755268070663e-01 -3.630665187174280106e+00 1.699239201532351373e+01
-5.002884176993663168e+00 -5.261865688275410236e+00 1.722596535692359865e+01
-5.667232972968367477e+00 -5.193244060757193026e+00 1.714336687953617755e+01
-7.041033864937983111e+00 -4.459318734208664203e+00 1.615187728653600274e+01
-6.499248649194982796e+00 -4.380992679393282963e+00 1.603691977309251016e+01
-3.580730055064705875e-01 -2.353779064513510377e+00 1.543184529510619640e+01
-6.446206253073667014e+00 -4.661136207582761593e+00 1.619740268424547125e+01
-4.162640055604470035e+00 -3.816814951102180942e+00 1.575523072105066902e+01
-6.242762781844994890e+00 -4.409004102613886644e+00 1.603468988689251162e+01
-4.618890865394318368e+00 -3.260614210068663255e+00 1.565230548610470507e+01
-5.634192747106508747e+00 -5.269267674002451329e+00 1.698278728321578157e+01
-4.341699140121280998e+00 -4.923196980369261233e+00 1.745257663106962198e+01
-4.612624009506403944e+00 -4.916581393002421585e+00 1.744625563044712280e+01
-7.859919011284403290e+00 2.227161967120027342e+00 1.477456008656941222e+01
-5.682641301485215735e+00 4.939593673463885004e+00 1.599442465158418614e+01
-3.679826538480364562e+00 1.337673981227110565e+00 1.086329476891080148e+01
-3.532481845938814757e+00 8.345253682737793222e-01 1.051492731268339753e+01
-3.690700433698210325e+00 4.183203602503014373e+00 1.497966022587398882e+01
-3.302154652045419692e+00 9.321583900150263169e-01 1.070484962688720643e+01
-3.467109413108519611e+00 2.434805470525191584e+00 1.257092891801106660e+01
-3.265733137245865780e+00 1.132871485849268556e+00 1.089713235154316706e+01
-4.074362093770813154e+00 4.286807608670198277e+00 1.490685722727976170e+01
-4.832891230178488762e+00 -1.698020847451195303e+00 1.794294321939689141e+01
-5.869028769165508308e+00 1.117609189398842906e+00 1.128158309894519462e+01
-1.173920572610768209e+00 -2.657296993289279818e-01 1.287875630552013817e+01
-7.380553367271052601e+00 3.245173727949098641e+00 1.556986750780133733e+01
-7.491475101814907056e+00 3.008677514897422078e+00 1.540147675718911913e+01
-6.064015256936047038e+00 1.114932147634923876e+00 1.145103194389894341e+01
-1.714535421038337670e+00 -3.710608922100506746e-01 1.240411113852492875e+01
-1.019702589433316042e+00 -4.613375718162764372e-01 1.307734558488794718e+01
-7.026070546111648163e+00 -2.609304601160300052e+00 1.773690688526538040e+01
-1.499176776849616477e+00 2.382841739405733072e+00 1.501967875216633175e+01
-7.152561695432434696e+00 3.143523939459524463e+00 1.640482188861764357e+01
-7.394146946594259084e+00 2.963834235305637499e+00 1.620422184567801693e+01
-7.366449835700485949e+00 2.553718732448227779e+00 1.448752341860275195e+01
-8.091945562643477530e+00 1.686276065179148631e+00 1.445904442412570390e+01
-7.201219126674034854e+00 2.092851608464679547e+00 1.697185924535697055e+01
-7.896545814198325353e+00 1.964358196667763012e+00 1.623974417558161676e+01
-8.081171475837916063e+00 1.974911581617611933e+00 1.584985918126242055e+01
-8.281008858458907440e+00 1.319940352628320213e+00 1.441717577963910557e+01
-3.777115093797501544e+00 3.351006893286653021e+00 1.741313221205122730e+01
-4.742856307193009435e+00 3.635467940670300990e+00 1.725717596731731973e+01
-7.213872561451137422e+00 1.709977656872786245e+00 1.714255860213468097e+01
-7.735873259943056190e+00 1.503403135335884988e+00 1.680817124520096328e+01
-3.052539316292988580e+00 1.174798909348563125e+00 1.119511427582219554e+01
-7.976744518720910726e+00 1.562481360415366005e+00 1.644481212545829507e+01
-8.137767969922116151e+00 1.294660544719492545e+00 1.639750232090598203e+01
-8.188047977599190119e+00 1.587238725358983249e+00 1.603737022846665283e+01
-8.322757008919074995e-01 -1.763838974295950379e-01 1.348908859102987989e+01
-5.632634600984451900e+00 1.851901699062404871e+00 1.762100504376178023e+01
-8.328862997998818685e+00 9.061360651332237559e-01 1.421001459168502024e+01
-2.007878659576865399e+00 -3.849283751283656407e+00 1.531515474189476933e+01
-5.323465367896623057e+00 3.029397082728238377e+00 1.737558782934599222e+01
-8.186158958244607931e+00 9.286006413365108791e-01 1.661356603250448316e+01
-7.958594341008123685e+00 4.491071529903041260e-01 1.711461148839249446e+01
-6.858637451476029767e+00 2.857194069762176269e+00 1.422991002857664355e+01
-8.401589431062141955e+00 5.340903315981121446e-01 1.655787272796623810e+01
-7.203389402124548369e+00 8.471822070066514776e-01 1.743673494554795766e+01
-5.163402521244421450e+00 4.499750886941850325e+00 1.525159951340001996e+01
-7.601764190478205840e+00 4.587722857214020511e-01 1.734494886831533833e+01
-4.403611599742649929e+00 -3.242104527851180862e+00 1.562958966958794704e+01
-7.782607664057148433e+00 6.642697487040153392e-01 1.717121610890842831e+01
-2.830850425292085859e+00 2.772487022723951977e+00 1.378080643424137364e+01
-2.834686755374046019e+00 -2.048308678523678594e+00 1.475931900345986136e+01
-8.052039535621371869e+00 6.840092876445424963e-02 1.717525636314453052e+01
-1.689567110154048812e+00 -4.592318104167942394e+00 1.556766933270778352e+01
-8.756539282307691963e+00 -4.633213894771892605e-02 1.630684669866811376e+01
-7.473398942887487628e+00 -4.358119883965096975e+00 1.735040990903900493e+01
-8.879793035520904709e+00 -8.541762713342213598e-01 1.667679279891228461e+01
-7.755376371019564452e+00 6.086772672566161946e-01 1.318371606092760473e+01
-4.125602108103694210e-01 -1.633423866013896442e+00 1.450022425232989676e+01
-1.955312162656542174e+00 4.251717727114741052e-01 1.203651577698449060e+01
-3.102118437587215727e-01 -1.278600043715775181e+00 1.453533138563076577e+01
-6.999023766577866290e+00 6.328119084848498055e-01 1.755108296189304085e+01
-8.741180870577235140e+00 -6.994709243020553746e-01 1.680395201670368621e+01
-8.841198011267881185e+00 -6.847247462386467642e-01 1.664166486653380517e+01
-1.412930046060716816e+00 9.159694011023519211e-01 1.746194217408667626e+01
-1.585659250391005859e+00 7.635854427366386421e-01 1.754609474362392874e+01
-6.982261261767794380e+00 4.254935596081073079e-01 1.758659038980775691e+01
-4.304381671113345575e+00 4.930208887037843546e+00 1.580959378231644408e+01
-7.618262596657378261e+00 -3.501066213968453411e-01 1.749730141954817597e+01
-8.884784811598456233e-02 -5.880968182369612496e-01 1.583422142985029168e+01
-1.392785894157122950e+00 3.499067762674654691e-01 1.752157553758096142e+01
-1.038146044530772194e-01 -7.031593270472991097e-01 1.539201430925557545e+01
-7.129426662510307544e-02 -4.806164678553526137e-01 1.542947431986469198e+01
-1.235400390504387103e+00 -4.053588310225188174e+00 1.512178886548262469e+01
-6.622413556586232097e+00 -5.933496765786590021e-01 1.775611547825292647e+01
-5.905622162027382771e+00 4.025256491144969750e+00 1.681792543628086278e+01
-7.236978755570487643e+00 -9.886720930961525600e-01 1.766006169087718192e+01
-2.925411478512122798e+00 2.486278436102083766e+00 1.324457138229287878e+01
-7.850643073273531947e+00 -1.544226944297139914e+00 1.753429299598598945e+01
-6.915170244941058364e+00 2.922958127309634335e+00 1.436646619120019963e+01
-1.602531251366482223e+00 -8.763039039356039783e-01 1.762568777972951395e+01
-3.219152334324012488e-01 -2.142199095920194196e+00 1.545331022944136734e+01
-2.031794604823244477e+00 -8.389955760992273692e-01 1.769392922373588917e+01
-6.425698360762060801e+00 -8.159234291581911602e-01 1.780658055754225089e+01
-1.324206979598193001e+00 1.426035798647230957e+00 1.414743848614331156e+01
-6.815730809851944016e+00 -1.181293435740770059e+00 1.776129536672234011e+01
-7.041174971688270112e+00 -1.219618142818385875e+00 1.771687051380895284e+01
-5.405040018691314785e+00 4.747672348525435737e+00 1.566500888748172926e+01
-7.005127536676591937e+00 -1.397183067265076462e+00 1.773487328523742335e+01
-1.792327290234663195e-01 -6.809818721165730171e-01 1.459980950339486228e+01
-8.625103361533806634e+00 -1.082194075010852297e+00 1.437301546393568330e+01
-4.886420941855418310e-01 -2.805313823613628799e+00 1.662396472843363071e+01
-3.116890964820964172e-01 -2.003738502435848723e+00 1.642004359989529760e+01
-7.829773857119488589e-01 -2.833774575081017488e+00 1.704905778625169077e+01
-2.416543297621464248e+00 -1.030682706027912454e+00 1.773412351062566827e+01
-5.548019266596567967e+00 3.220405804767644931e+00 1.375103468779903082e+01
-6.434551813264173248e+00 -1.226822957789934110e+00 1.783244872521087743e+01
-6.037273286011043183e+00 -1.434004059314640811e+00 1.789105935881700660e+01
-6.283342542106913342e+00 -1.774802118347970525e+00 1.787470878125736462e+01
-2.416731650213016280e+00 7.310525339030005121e-01 1.157250555616016996e+01
-4.196669114428481784e+00 -2.442873522024779476e+00 1.535992196297588563e+01
-2.254075079772961399e+00 -2.047869449876629666e+00 1.770832552752205302e+01
-2.857234999962352084e+00 -4.272924217448905715e+00 1.754625397610149307e+01
-6.687054711108909366e+00 -2.406524887651557698e+00 1.780850442747109597e+01
-5.107104212878201821e+00 4.437358466432245407e+00 1.516265228312869695e+01
-4.616312660225802667e+00 -2.435799988957571216e+00 1.540599795460328281e+01
-5.196719994530234921e+00 -2.062705472901843251e+00 1.532282807300199678e+01
-3.332359616560409687e+00 3.224331715776314056e+00 1.391023015990879586e+01
-5.004294446416222897e+00 -2.215750033149995524e+00 1.536732991272671356e+01
-4.268293113570178932e+00 2.828691244032288665e+00 1.282615972496292400e+01
-3.241743681873211269e+00 -5.113404754120081108e+00 1.614637613450051035e+01
-2.867837030884360150e+00 -2.882654998619257114e+00 1.775249217275996827e+01
-4.452338923169622653e+00 -2.243389347085877894e+00 1.795199598545424990e+01
-6.947481575027428136e+00 3.357743195704538941e+00 1.493885196472411891e+01
-2.163499338319355481e+00 2.395092847370822842e+00 1.407600040273931441e+01
-3.672850450188489546e+00 -4.976760892235030376e+00 1.611079507864382876e+01
-3.276600953018076634e+00 -2.864961698188372097e+00 1.779780928029672182e+01
-7.150436091874825539e-01 1.726002138947844378e+00 1.558556353395826122e+01
-4.163705154218166893e-01 -3.137754346942137396e+00 1.560954400166236056e+01
-4.455159759258012997e+00 -4.687352641226892658e+00 1.598739944417298986e+01
-5.262184074178023252e+00 -3.256671927759225760e+00 1.784210076710638404e+01
-3.262840022057024392e+00 -3.650406556410985992e+00 1.769958419841804798e+01
-8.181845190449610783e+00 7.720335660829050761e-01 1.392966420975669806e+01
-1.696498018302940558e+00 -2.894902080934236288e-01 1.231334802662980721e+01
-7.900302561777222898e+00 9.896835167192254978e-01 1.358895397536560878e+01
-2.525270678456880136e-01 -1.914851159718501838e+00 1.569947522012310159e+01
-2.461042232152846898e-01 -1.446304216210720694e+00 1.511210092447467090e+01
-1.800138886617367318e-01 -8.514638927612530050e-01 1.476986771767081663e+01
-1.149496364937474091e+00 -8.653473637564434995e-02 1.300877738508451031e+01
-7.317981955769544911e+00 1.237376465728467601e+00 1.285518876347168415e+01
-1.984633395823816482e+00 2.016257919667546972e+00 1.383149210138847351e+01
-7.561294871340845880e+00 2.510350611747516503e+00 1.473160771273080272e+01
-4.902532833320847327e-01 -3.276719501898061715e+00 1.517699195978400795e+01
-3.724426630035340136e-01 1.444605050756770703e+00 1.597780663324165928e+01
-6.030223033014716627e-01 1.882922013076098855e+00 1.600722537635484954e+01
-1.531377358723405857e-01 -2.490352848771997252e-01 1.483490407051667503e+01
-1.251191682759859480e+00 1.058369974427533222e-01 1.296655405118750437e+01
-5.858825333419563908e-01 1.502437046150251199e+00 1.558924561598027836e+01
-7.213583028119572305e-01 1.921770656276735822e+00 1.579238848254879102e+01
-7.114819072010694967e+00 1.439187741442803148e+00 1.283226737417163221e+01
-1.075107529383043881e+00 3.039788493612167741e-01 1.344353206125833466e+01
-9.294117532482371047e-01 1.734635163769050470e+00 1.517963626655710030e+01
-4.283079155739002442e-01 -1.417374324936743646e+00 1.429615981145153469e+01
-1.088751267580837512e+00 1.217638548638375617e+00 1.435195074969069040e+01
-2.128320454390887129e+00 2.027662377094450630e+00 1.362657247822263784e+01
-6.420165238007993658e+00 -1.449091944645058971e+00 1.784511610390098824e+01
-9.925370704127387533e-01 1.715002066765734856e+00 1.504174535524036216e+01
-6.997720444197891965e+00 2.331251794079652662e+00 1.700768401922316642e+01
-6.402145716202046088e+00 1.252969430154654118e+00 1.189818832506287904e+01
-5.910566686946887138e+00 1.195640775821123825e+00 1.139936463149015466e+01
-6.901128560532442613e+00 2.183483781943101665e+00 1.350375376117072435e+01
-1.962854117495177686e+00 2.957336382963323906e+00 1.509350511803723194e+01
-1.992551067441041379e+00 5.724454211090690414e-01 1.208597608902726606e+01
-1.184294003855297372e+00 1.421294804850587568e+00 1.438944473178022676e+01
-5.924279523899444122e+00 1.363675781022582356e+00 1.159560098306508635e+01
-1.511623920156397460e+00 -9.630264503363312745e-01 1.305474011684115609e+01
-2.157891686515632568e+00 4.209258926426339364e+00 1.638751967247860719e+01
-6.093101143128683006e+00 4.552651754497693659e+00 1.578416580690374715e+01
-6.915598075899810127e+00 3.105891633086119707e+00 1.458201453627100719e+01
-4.732990419249706981e+00 1.981142411186478380e+00 1.167454390736901004e+01
-6.697262947412102818e+00 3.655989937838250547e+00 1.505761722897009847e+01
-6.775180571649845440e+00 2.624634403984715814e+00 1.388725772066203135e+01
-6.321297278115576290e+00 4.206369668239798187e+00 1.547961304072137878e+01
-5.922178941664221874e+00 4.614119175439038045e+00 1.574461404676288012e+01
-5.686977692168129650e+00 1.552325705490341434e+00 1.161243175393165572e+01
-6.276157682950666228e+00 2.032407974008184848e+00 1.272730832097708387e+01
-5.879364668619138534e+00 4.330335564889561617e+00 1.538812438237269831e+01
-7.815537433074635665e+00 1.153664693079736736e+00 1.691933799678533390e+01
-6.059196689482002185e+00 2.026236168671796456e+00 1.252888772498365100e+01
-2.030817280121561375e+00 2.147311621352707256e+00 1.393528028370471716e+01
-5.466465775960561935e+00 1.359777093803375747e+00 1.123867741923933394e+01
-2.921683629278039263e+00 4.687603376488572060e+00 1.623716746664188904e+01
-5.473036820928028234e+00 1.553712069538882412e+00 1.147661330024343940e+01
-5.906344609529838863e+00 4.060327781280937742e+00 1.507128946875784337e+01
-5.763248265820765326e+00 2.136504580546632948e+00 1.245326025367891631e+01
-5.480639713527435397e+00 1.708702623879980287e+00 1.168222676744684563e+01
-1.082596890735730399e+00 2.527181404646370755e+00 1.583292256741972537e+01
-1.890737225234875307e+00 7.935462280293279491e-01 1.247497382764899854e+01
-1.581546289086947166e+00 3.606450375082920878e+00 1.640790898307086465e+01
-6.102541886464271315e+00 2.784562946953410556e+00 1.355991122490164358e+01
-7.742500018281451624e+00 -3.701093221411573264e-01 1.353063862449398513e+01
-1.327971337527395601e+00 2.174475029226680789e+00 1.501306391601187684e+01
-3.220347702532359246e+00 2.638750696181877409e+00 1.314325455871559356e+01
-1.391665986207653027e-01 -8.818175480665801924e-01 1.518325142167672581e+01
-1.683313527463306869e+00 3.137062605799209258e+00 1.567723794337039678e+01
-2.301632373996199021e+00 4.310620844552916608e+00 1.636872749366269275e+01
-1.956491680077820927e+00 3.481328513596725571e+00 1.575619616388694411e+01
-7.465032027996328701e+00 2.502847371081094785e+00 1.457703278185450202e+01
-1.653528335935146032e+00 2.222827790467862830e+00 1.460094547058639947e+01
-1.357566727267903062e+00 -3.775351945015576582e+00 1.499919238544510236e+01
-1.709248561533854183e+00 1.630723858330536125e+00 1.376818752154693826e+01
-2.278098743892461808e+00 1.028749384820351276e+00 1.209730412086666362e+01
-2.473497303425843175e+00 8.976901259381211418e-01 1.165568810671180344e+01
-2.453453273672682844e+00 1.062955227231556776e+00 1.186975669116999299e+01
-1.893155847404702996e+00 1.694184859088606832e+00 1.355855709227153127e+01
-1.758493403736601124e+00 2.387449707860267001e+00 1.465537261443308736e+01
-1.956277349809437460e+00 3.123297852708947886e+00 1.531668000260743057e+01
-5.908343598137681063e+00 2.086024272569787730e+00 1.248611945279639812e+01
-2.153406769289662126e+00 3.684026141804128684e+00 1.575929744769527829e+01
-1.919407223885198466e+00 2.568651496397023060e+00 1.465372479115596249e+01
-6.187683615105349588e+00 1.057743570992994986e+00 1.150659342874374502e+01
-2.127310515625774556e+00 3.153657647971459976e+00 1.513315041736476374e+01
-2.069582918698177565e+00 2.679451972035628238e+00 1.459175336779677323e+01
-2.077390513884743051e+00 2.082878876253241973e+00 1.377718590788746056e+01
-2.699364324785555880e+00 1.255426356745360739e+00 1.174174423219785623e+01
-4.680750378375217124e+00 1.506038700558869348e+00 1.104591230204657748e+01
-5.475144668124708680e+00 2.042094372366867638e+00 1.215729445314353185e+01
-5.678833409487994643e+00 2.402348067786340469e+00 1.276714038929859996e+01
-5.688480120756567615e+00 4.043369213735899415e+00 1.490574651127324657e+01
-5.708266564014478739e+00 3.507437125692046465e+00 1.422602940744704014e+01
-2.113208257224535647e+00 2.284080414316304708e+00 1.399759000509078888e+01
-2.698133013743678976e+00 4.308628359341109437e+00 1.597827725189442916e+01
-1.367839564727610258e+00 -2.394818852217046601e-01 1.258819836065579167e+01
-2.700617168769571919e+00 3.970187628724544560e+00 1.555936869733209349e+01
-2.311003097207056545e+00 2.822503789117658979e+00 1.447316144083870526e+01
-2.295560787538346581e+00 2.324353361872741885e+00 1.379965348589075447e+01
-9.553553490816120153e-01 2.876417836664904026e-01 1.365291724951557129e+01
-2.646263141265525753e+00 1.465531858296075685e+00 1.209625130988264985e+01
-2.562662122194925285e+00 3.543273586386158414e+00 1.515415806701692603e+01
-2.895147896463222903e+00 4.119313598441332047e+00 1.555927445519889929e+01
-3.639374155489691454e+00 4.083349623790013538e+00 1.488217789802012092e+01
-3.079139318025518435e+00 3.280432457199382590e+00 1.426447009555621648e+01
-6.282695803580899074e+00 -1.954513825153519901e+00 1.787702899245446631e+01
-2.424415360582441892e+00 2.388262060212031912e+00 1.371678370812804459e+01
-2.504949372907740557e+00 2.841856070301945536e+00 1.425171240565169128e+01
-2.507611649843696444e+00 1.957978454892300935e+00 1.299091982006286727e+01
-2.658606138445977152e+00 1.637932748375567016e+00 1.231906559119752487e+01
-2.700830446730916101e+00 2.137636192672974111e+00 1.299485056694976137e+01
-4.896633768132468312e+00 1.920362728737079916e+00 1.167699692534791112e+01
-5.274686295076352671e+00 2.421426727290493019e+00 1.255123699201390863e+01
-8.556863515032016032e-01 8.809725839241238088e-01 1.443144794845473555e+01
-4.478966946121441417e+00 1.580187310341421236e+00 1.105801034460779775e+01
-4.894447446554714531e+00 4.616066215441052556e+00 1.534717112752624857e+01
-4.670113844474346187e+00 1.916072710637259480e+00 1.155853201718588608e+01
-4.795848725905256238e+00 4.550406531905913710e+00 1.523543123127450016e+01
-4.848735660350276255e+00 2.609840084833082052e+00 1.259019487236313850e+01
-7.940353488278284466e+00 -4.966054529544743357e-01 1.737941423176703282e+01
-4.883756032516960666e+00 4.187376021638375079e+00 1.477724157280225015e+01
-4.682272105899029313e+00 4.579196197178965200e+00 1.523355756858503085e+01
-3.468064738664925706e+00 4.605039493164579056e+00 1.575701557926109686e+01
-3.534730087972738133e+00 3.242179825611156474e+00 1.372181338919609672e+01
-3.277909605972740614e+00 4.193862790520632267e+00 1.536245573597184588e+01
-8.048161901330626478e+00 -5.296863406609924052e-01 1.732887048795862128e+01
-3.507127857257491321e+00 4.353983135312477160e+00 1.539022854770315618e+01
-4.851565276593246878e+00 -2.641859845532194662e+00 1.794583769907225346e+01
-7.565194930980244870e+00 3.398458867100528913e-02 1.745935840806872719e+01
-2.900875993721062862e+00 3.616892346076494569e+00 1.490867871446463866e+01
-3.280228456921514546e+00 4.003488193462307443e+00 1.511352639303622070e+01
-2.910722074515347479e+00 1.623981805782774401e+00 1.195691804690327942e+01
-3.016898505558236021e+00 1.345265655966013441e+00 1.144789443239598725e+01
-2.876868637819546937e+00 1.998076335180047902e+00 1.256398228625718261e+01
-6.515943200144842962e+00 -2.738058805937233053e+00 1.560233437329996420e+01
-2.963361966845260209e+00 1.576967196152900597e+00 1.181919314730944492e+01
-2.940263417706684645e+00 1.791013461302496390e+00 1.217210074494174776e+01
-2.726939515417723392e+00 8.950358823391373342e-01 1.129888394734683388e+01
-3.341071034388704231e+00 3.952959224600506971e+00 1.498660951570938593e+01
-3.750333683081745306e+00 4.518356334526573370e+00 1.541886118069202283e+01
-3.116324649764990795e+00 1.802768193999950697e+00 1.198181458118938636e+01
-4.685928620699162828e+00 4.648040936207451068e+00 1.536933859731746210e+01
-3.242760860596209493e+00 1.729629404929916348e+00 1.173424261007943770e+01
-6.034344883812148730e+00 8.778825025979462016e-01 1.772083709909938776e+01
-3.464481248368914912e+00 1.636771821125469151e+00 1.140126499285912942e+01
-3.898221377434383683e+00 4.577592115261266414e+00 1.538692283750465251e+01
-4.004193320483260266e+00 3.466724317212912965e+00 1.736965794715004208e+01
-4.897517092139723971e+00 3.024698318891385629e+00 1.318371186128836925e+01
-9.671832216816418359e-01 1.400210833679674582e+00 1.476327827553886962e+01
-4.707796939605996656e+00 3.135815272733291081e+00 1.325916621505733062e+01
-7.245877872572221712e+00 6.487332769210415462e-01 1.746385670161199144e+01
-3.433098120119300489e+00 2.813679746947033600e+00 1.317800462944921591e+01
-3.671108200295187807e+00 1.700455134485814757e+00 1.134010275088755648e+01
-2.600814922371703197e+00 3.664837853900320574e+00 1.721150522226249890e+01
-3.639686738295607960e+00 2.096628054473900882e+00 1.191588029593056675e+01
-2.935651436144544046e-01 -1.008400389051140822e+00 1.649388642662595927e+01
-3.610146473513593968e+00 2.501340567992770048e+00 1.253318271618917734e+01
-6.507487704542322948e-01 -2.639747920380457469e-01 1.373894877880244891e+01
-4.282921641397448909e+00 4.664282474839031245e+00 1.533602671088936020e+01
-4.089629649330359662e+00 4.760325711209223876e+00 1.558815931186287784e+01
-4.252363383721611712e+00 1.614185769150428218e+00 1.103549280576988068e+01
-4.081013911567813679e+00 1.687097778278355609e+00 1.114201030693905992e+01
-5.515111281967858048e+00 1.949736955980075681e+00 1.204423977745357277e+01
-2.924083765505375521e+00 4.857584334776793966e+00 1.643198359902799766e+01
-6.074303329105203098e+00 4.701257125464383790e+00 1.596974972322121644e+01
-3.668116212255792874e+00 -4.257157561129224277e+00 1.762229471282744342e+01
-6.291871665912448286e+00 4.540045284820839910e+00 1.592950192530011222e+01
-6.649438031098179103e+00 4.155328825801813508e+00 1.571054108543098593e+01
-5.663722604525342597e+00 4.366724646448132852e+00 1.530297843315283401e+01
-4.667316525489862755e+00 1.363839540856035093e+00 1.089808419375362192e+01
-4.688318322995873366e+00 1.148295158045205877e+00 1.066942696831800319e+01
-3.684095667728231049e+00 9.458387970828149305e-01 1.050461903729247481e+01
-3.460353102550699056e+00 9.839327123500565264e-01 1.064772936642380330e+01
-2.789546997996006361e+00 2.982853971565822881e+00 1.413580570970808381e+01
-3.505269181408723789e+00 1.139663376663009764e+00 1.074591939433219423e+01
-3.421281539892383705e+00 1.179901718477580630e+00 1.081791889222739300e+01
-1.118180035015625462e+00 -1.860203629709261230e+00 1.741129911700458521e+01
-3.279580386580350115e+00 7.758135163512556165e-01 1.067867542181089746e+01
-5.905622054855347081e+00 4.731408539788926504e+00 1.635209411679528202e+01
-6.395037645497464673e+00 4.446305827127739363e+00 1.621408354458341350e+01
-3.094452977031440177e+00 5.739155213488058571e-01 1.086421087524606932e+01
-2.933227525342963382e+00 7.060004246332444167e-01 1.091309459460142151e+01
-2.420285017611338851e+00 5.349830976213947320e-01 1.140426696235357795e+01
-1.780477915878731388e+00 4.007972810073453296e+00 1.660520081394776426e+01
-3.578243648070133176e+00 6.341617545757557428e-01 1.071904172225351815e+01
-4.083146521832690112e+00 3.032903999660339522e+00 1.316882048516928094e+01
-2.633362515001651527e+00 4.200242995045222472e+00 1.590577973564618830e+01
-2.677689789106112883e+00 3.311002711717365710e-01 1.122895678535552477e+01
-5.692170471643644980e+00 3.866473845610522098e+00 1.468006479767737105e+01
-1.701997873398486405e+00 3.870717552913700565e+00 1.654286696489009145e+01
-1.379263632000184536e+00 3.570865772587401565e+00 1.663647370443863238e+01
-6.727580249472874030e+00 3.489912209870484006e+00 1.662527932707778078e+01
-4.259034144518075493e+00 -4.700490342617878348e+00 1.598680727712337912e+01
-6.860522156812941752e+00 3.657930998122822963e+00 1.637664831363433748e+01
-6.965675375564029714e+00 3.357990345132611409e+00 1.647824357357944436e+01
-1.344569145636770546e+00 1.523651540372177315e-01 1.283750475675377700e+01
-7.527127058638600765e+00 3.033496677340631109e+00 1.556322236456626129e+01
-4.095847097852758800e+00 4.030041938668127877e+00 1.455688099311430861e+01
-7.585477543497316510e+00 2.877288063731948675e+00 1.536240053606428191e+01
-7.621941565681965791e+00 2.897514002647326059e+00 1.552155385338963001e+01
-5.753958713760606081e+00 9.167697074431350179e-01 1.115433055231119752e+01
-2.668559285121341773e+00 2.137223362734248511e-01 1.139406243901151683e+01
-1.568222412637113372e+00 -3.524068643868314421e-01 1.246058745731592055e+01
-1.371960083169585287e+00 -4.089830223996544500e-01 1.264643305838367482e+01
-1.500678397070672965e+00 -4.243214431485766713e-01 1.256767279623020883e+01
-2.389219437169009641e+00 2.764066013260008781e+00 1.429166771240094747e+01
-1.105947011285821624e+00 3.055582259329889805e+00 1.646778809077885697e+01
-8.748146838792363322e-01 2.677682842710516375e+00 1.643350309378059038e+01
-2.087350142904662142e+00 4.112407708566918174e+00 1.636318555497062377e+01
-4.522549896427288552e+00 4.672698824500893799e+00 1.682924378159877321e+01
-5.923721187380958320e+00 4.123032468668958117e+00 1.675823919882814650e+01
-7.192390743274079234e+00 1.877690623545965609e+00 1.707898828968101057e+01
-6.696031326243891080e+00 3.283355826822502266e+00 1.677380288805613517e+01
-1.631207342911399572e+00 -4.049136736690329030e+00 1.737909742733871710e+01
-6.801085379081301951e+00 3.330699576984855081e+00 1.665878675621585714e+01
-1.569231997637979603e+00 1.259967776442185494e+00 1.354525659637885227e+01
-6.964904948540153740e+00 3.139023330694530323e+00 1.662024590050286221e+01
-7.073800423513180391e+00 3.319231481909814541e+00 1.637722020796575251e+01
-7.156208661909274404e+00 3.356983156957208170e+00 1.623163944816026216e+01
-7.516258537555020602e+00 2.977078789832323658e+00 1.597540954759030640e+01
-2.901342863191353594e+00 1.505847463592178137e-01 1.144115272053695875e+01
-2.715306191890305421e+00 1.561187514643473939e-01 1.146770114953360675e+01
-2.892599599211269190e+00 4.762467184631802297e-02 1.160992398453874941e+01
-1.736634587896028314e+00 -5.674975530737416118e-01 1.262361404751120020e+01
-7.231479653644359296e+00 2.999185238797019259e+00 1.487830126356531579e+01
-3.539250800401022801e+00 3.957421633983040365e+00 1.479693477177166372e+01
-1.547897534332395075e+00 -5.526946708519673290e-01 1.264514171692360023e+01
-2.735609703414858540e+00 4.002946239461178557e+00 1.710551952467916337e+01
-2.893623684061593648e-01 2.232730805257980844e-01 1.481407795237561587e+01
-3.727301916016794614e+00 4.216681309530578403e+00 1.711117594555129884e+01
-7.301931272810909590e+00 2.937772718837609709e+00 1.636222910990110435e+01
-7.382676662902839304e+00 2.530136038254761743e+00 1.654837508951184688e+01
-7.522446385380523459e+00 2.764846751855464468e+00 1.616739501528226342e+01
-9.991185356729459510e-01 -2.053821861955093198e+00 1.730402652361881266e+01
-8.079503850042978996e+00 1.866258166061348200e+00 1.469111195501675482e+01
-8.176380353767246589e+00 1.705936348457538720e+00 1.463362090362669576e+01
-5.460615475827240495e+00 6.192716955005348467e-01 1.143021065199785724e+01
-2.924578794136184268e+00 -7.930340193310825292e-02 1.181698677006641773e+01
-2.707562917646664680e+00 -2.305917416966463129e-02 1.174693105137201954e+01
-2.670817729220841485e+00 2.060442082198233660e+00 1.291817984987305223e+01
-3.938864649152043818e+00 4.026118954984566400e+00 1.718153881448278852e+01
-4.314150425851789983e+00 3.902800581724752860e+00 1.720824845705695694e+01
-4.285473541581219514e-01 -2.687093035188472534e-01 1.411709788609064375e+01
-6.148200069642329346e+00 3.285677944036552667e+00 1.706753354931331401e+01
-3.587745206956076238e+00 3.580454460621616875e+00 1.417715627609983997e+01
-6.361027235697637394e+00 3.273870570415863934e+00 1.698525581125135986e+01
-6.741105376471033139e+00 2.461078890650010731e+00 1.712071422206608773e+01
-7.223885433752336382e+00 2.362001109822994493e+00 1.681597580963944338e+01
-7.341829738066878441e+00 2.066105582432876009e+00 1.686803932683864460e+01
-7.514896971343756782e+00 2.308107495603662684e+00 1.653562113089953911e+01
-7.830473384875703324e+00 1.972005783102354970e+00 1.634011239689363393e+01
-7.952528490612608358e+00 2.178387399860051143e+00 1.591218839473264879e+01
-8.131585114114162849e+00 2.001479075711481315e+00 1.566869690678075600e+01
-4.144190112843066487e+00 1.527681129275751948e+00 1.095564107787432206e+01
-8.023338780720933983e+00 2.020638745408697368e+00 1.593360415898352400e+01
-8.167203371479743623e+00 1.522938125884024663e+00 1.440078430015205058e+01
-4.081932009212305701e+00 4.365758608305008615e+00 1.500485688022090258e+01
-6.621352850021176906e+00 9.770887038128597268e-01 1.188841618906593922e+01
-6.809473407766511777e+00 1.061852516735776408e+00 1.208356699890247299e+01
-5.699347588757328609e+00 5.526417210880951725e-01 1.178918859558243426e+01
-3.289679634866835567e+00 4.897217591952563787e+00 1.620779466616611231e+01
-1.940907340305790374e+00 2.971669230112929494e+00 1.723954742834409259e+01
-3.522206454289323219e+00 3.586562718656011839e+00 1.733881125813397617e+01
-7.360974779782538668e+00 1.834347832590315752e+00 1.359430508185829822e+01
-3.725540806782876579e+00 3.624316295105096231e+00 1.732600183586748344e+01
-2.571424485207037591e+00 2.633748996443376900e+00 1.387491274563810251e+01
-3.921397134776082538e+00 3.605435527130958384e+00 1.732710417430039129e+01
-4.140869935803366708e+00 3.808544456839166870e+00 1.725196160426605374e+01
-2.437261971560115370e+00 -1.864360806395801928e+00 1.772758616071304161e+01
-4.564307035907884114e+00 3.772735064927022819e+00 1.722981109322766358e+01
-5.349557754491835126e+00 3.450007862537213477e+00 1.721536282845408650e+01
-2.593359481755789897e+00 1.688535114202466048e+00 1.248360266628530368e+01
-6.819943801661374039e+00 2.096404791752953578e+00 1.721256376871367522e+01
-7.035283852115287395e+00 1.907060736573991999e+00 1.716618769787516285e+01
-7.308165076145376915e+00 1.824283060303511617e+00 1.702287807205400938e+01
-7.745818570278344417e+00 1.696287728578801612e+00 1.667580993149924851e+01
-7.825459841921792226e+00 1.773553989508961592e+00 1.651290899530404843e+01
-1.527779108339619718e-01 -1.104688975804118956e+00 1.536707063322439026e+01
-7.743522078466354763e+00 1.944613642804080111e+00 1.649831800595012155e+01
-7.907034372159077229e+00 1.516332468522195054e+00 1.658735559166305151e+01
-4.385772723727055400e+00 1.175728890410804528e+00 1.783150253003646313e+01
-8.052205313864416070e+00 1.578007942011707465e+00 1.630514291823561379e+01
-7.820257048106550535e+00 2.007028800708000826e+00 1.445792419992477917e+01
-8.101507390374322881e+00 1.764991666801015047e+00 1.603750704246899161e+01
-8.476358992530130365e+00 1.390400145162200563e+00 1.541133383599706619e+01
-8.190489861912467973e+00 1.387414327193873254e+00 1.622106733564078596e+01
-6.818007038418490318e+00 3.751230442676230403e+00 1.532551583020832808e+01
-8.163644601124641298e+00 1.795767695163084099e+00 1.586463717832867459e+01
-8.380857143641669893e+00 1.300918601993774182e+00 1.460031619276012194e+01
-8.342754448376279441e+00 1.137997407177565146e+00 1.439324453633208023e+01
-8.408102542613118402e+00 9.302194096375923094e-01 1.436184380927136672e+01
-3.338353901152129488e+00 3.194231135492389573e+00 1.745560917248271338e+01
-6.426258173104952842e-01 3.636612246804504789e-01 1.702892832325800399e+01
-3.566546862109666094e+00 3.213478656395670985e+00 1.745398249408075131e+01
-4.757684528075188268e+00 3.441428952194099722e+00 1.731821349655223585e+01
-2.888624724824190082e+00 3.279846828165466910e+00 1.445961172782871884e+01
-5.143657350608223489e+00 3.162429526277433567e+00 1.735699001036755007e+01
-7.830336559710013411e+00 1.517276907411130749e+00 1.391532858930345284e+01
-5.542388891703611264e+00 2.983511832119797091e+00 1.734656366383903148e+01
-2.731749597732167967e+00 1.751585725382995617e+00 1.238160635375358609e+01
-6.978190513421147934e+00 1.655559847732648304e+00 1.728943308443807680e+01
-7.159585243077419392e+00 1.633089568003299963e+00 1.720409389097117625e+01
-7.020301119247257304e+00 1.490257493510397824e+00 1.732742716819796058e+01
-7.322403647448893160e+00 1.465390993343436810e+00 1.717709738769507410e+01
-7.404334626046746415e+00 1.483876396747603632e+00 1.711247460896660399e+01
-7.776798956673723673e+00 1.320907195082288155e+00 1.686761820741238793e+01
-7.692980762934275241e+00 1.256294965503980121e+00 1.698572829421057051e+01
-3.003463371081056099e+00 3.315795206130287998e+00 1.439408504579742143e+01
-7.933516834232624326e+00 8.944860111145905845e-01 1.693658180858387041e+01
-8.030279625164574497e+00 1.150556355200436087e+00 1.667691253039765442e+01
-7.965021421388427392e+00 1.328803320709902591e+00 1.664022992046478677e+01
-7.687315725153468726e+00 1.727718176304456676e+00 1.389492063072953343e+01
-8.205688468540962788e+00 1.136956450996834178e+00 1.641265952217665713e+01
-8.096297389385874510e+00 9.020165200013445794e-01 1.675555296883138467e+01
-8.252653255651921427e+00 9.974265527144345889e-01 1.645176467849579538e+01
-8.314701822710908630e+00 9.682901067331728395e-01 1.635965182929234274e+01
-8.309813104668936745e+00 1.157375088913302541e+00 1.620314058239294397e+01
-8.245227245521309811e+00 1.420216114266320551e+00 1.608811543656505805e+01
-8.307771677719617998e+00 1.369290628394341569e+00 1.600472095937366745e+01
-8.403978899113301537e+00 9.685279635001288190e-01 1.618160476318152163e+01
-8.464086738788065389e+00 8.960311552266115864e-01 1.444181322368803322e+01
-4.168662736688077075e+00 1.983198884688519570e+00 1.773723081674065938e+01
-1.334819673395047923e+00 1.956202120067032091e+00 1.726584990876760983e+01
-6.415202011910774438e+00 4.492865208713908487e+00 1.608586883998258443e+01
-1.819225482036287644e+00 2.344720932433421723e+00 1.737247308600474938e+01
-1.192725080223659306e+00 1.014565008489339171e+00 1.395155182675502559e+01
-1.987908818991557247e+00 2.382945890264786204e+00 1.741793427316101983e+01
-1.744498134615017904e+00 2.202027269221331629e+00 1.737573344976599898e+01
-3.369500144550023002e+00 2.773824238832204969e+00 1.757569073667604798e+01
-4.745126705273133183e+00 3.003538072850784779e+00 1.746172117942335333e+01
-4.969626588684310953e+00 2.836037666483519182e+00 1.748892498296960341e+01
-6.737634952221990936e+00 1.600328005839118717e+00 1.740843139976263743e+01
-7.786724151237668146e+00 2.349878597279787762e+00 1.485162537408613659e+01
-8.053065893402962416e+00 5.204473912182100426e-01 1.699933698304011287e+01
-6.899087403400733010e+00 3.454126002689934971e+00 1.501251556954739286e+01
-8.164701166329006554e+00 7.124164986316798842e-01 1.678274433480480710e+01
-8.254242893465356445e+00 7.667417750930669573e-01 1.662701655411897761e+01
-8.494454245614722510e+00 9.693419106526767193e-01 1.597809415565806646e+01
-3.914646308596356761e+00 4.156245807544759252e+00 1.479830443667635720e+01
-7.294429628065898008e+00 1.022349954193758403e+00 1.261573887682635231e+01
-7.403584170716164259e+00 8.688995281968233675e-01 1.272420515367689475e+01
-1.374223602845128456e+00 -1.868207438108582918e+00 1.373218622213031992e+01
-9.866052164860044105e-01 -1.959334143060996736e+00 1.385035108204479215e+01
-7.532563762356967452e-01 -1.374067312853286760e+00 1.366300950615051946e+01
-5.744507386119550585e-01 -1.139924457094165122e+00 1.374705261827842762e+01
-1.716727509557125941e+00 3.519763697531815616e+00 1.609089787570807673e+01
-2.326058300554735503e+00 -2.839669481002235152e+00 1.769305198274277657e+01
-5.835760629032842317e-01 -1.357105118910620023e+00 1.390599573433626190e+01
-6.528447140571725704e+00 3.350726073121157889e+00 1.458703628448742862e+01
-4.082039266543415756e-01 -9.193158549368127819e-01 1.379870355724581898e+01
-1.707083105532192224e-01 -6.368916070966588183e-01 1.477072379993493811e+01
-1.452700410803085873e+00 1.899125318618691605e+00 1.732498711894389842e+01
-1.957740761880234714e+00 9.623681485908217592e-01 1.254636741618557139e+01
-8.989129894162475320e-01 8.332819403030323757e-01 1.430189492848366584e+01
-1.768704969169717867e+00 1.989301324427565021e+00 1.742924841954633663e+01
-1.916776640415227106e+00 2.013988362053684256e+00 1.747492857720773785e+01
-3.902863497059708919e+00 -2.269828923396438825e+00 1.791259483740747172e+01
-3.429559781688573672e+00 1.386714875735909125e+00 1.108945365974715358e+01
-1.762929481346765748e+00 1.801223337492862342e+00 1.746412692287819723e+01
-4.831057694538678504e-01 -1.903609273951410108e+00 1.445963214269431418e+01
-4.984152803560229827e+00 2.604529967510212263e+00 1.754880296600501666e+01
-5.372051787336920903e+00 2.412452888288331820e+00 1.754136805160584700e+01
-6.029648254888933856e+00 3.239124009064748400e+00 1.409880212685802903e+01
-5.568602973064069594e+00 2.406998907149178635e+00 1.750889235685361811e+01
-8.577938344042268515e-01 -3.277636389964544428e-02 1.353951553440304068e+01
-5.768863297061634476e+00 2.012414711339252094e+00 1.755899809507359421e+01
-6.180551518327746408e+00 1.837985214138379231e+00 1.750683524922390788e+01
-6.515425123217395420e-01 -1.724042788024882755e+00 1.397400404202373281e+01
-6.318523400560281722e+00 1.968792877891442306e+00 1.743761776516693018e+01
-7.050654931681009430e+00 8.945265408085816272e-01 1.748424293344909231e+01
-7.367745411340782091e+00 8.489172552829516993e-01 1.736118934549867632e+01
-7.990610628133143045e+00 2.734151528354067384e-01 1.715081441317665067e+01
-8.260800235165106642e+00 1.180337485015696686e-01 1.698048744884019712e+01
-8.365111964525890897e+00 7.090074656275113796e-02 1.689274723297134173e+01
-8.443114334433683865e+00 1.392140857484229777e-01 1.675350540263609034e+01
-8.405946975153437251e+00 3.003459552843079639e-01 1.670987598052606060e+01
-8.652941414254620156e+00 1.923560701975777221e-01 1.633596921541974822e+01
-8.746924254649243835e+00 1.873874380590829780e-01 1.610678381128395742e+01
-7.394356709716515930e+00 -2.359150587767676832e+00 1.537708816927343136e+01
-7.549203047040077941e+00 1.000678777663582597e+00 1.297829154750397507e+01
-7.466514584939003107e+00 8.286282487604386127e-01 1.279813765262892034e+01
-7.628500091830560770e+00 7.994048680730193590e-01 1.301747867536804293e+01
-6.906411776607256137e+00 4.984232370144110469e-01 1.262123736044669542e+01
-6.322856881135836993e+00 2.605449686347225402e-01 1.277258700504200917e+01
-1.863416542453756097e+00 -4.044188885185678650e+00 1.743950820100308974e+01
-2.141871111304841868e+00 -1.513570476999647196e+00 1.369981362511137846e+01
-1.366464991647389882e+00 -2.318546236254032777e+00 1.408302327260087239e+01
-6.190308713473859914e-01 -1.564412706146764753e+00 1.394968304784413604e+01
-4.939628288257458255e-01 -1.419514611855103636e+00 1.410018429958258324e+01
-5.244564516310993518e+00 -2.652230643327238901e+00 1.554080782129502225e+01
-3.548650569158341428e-01 -1.222654369886576609e+00 1.434233854959613907e+01
-3.614793231428453657e-01 -1.444445532318554326e+00 1.451871828444265944e+01
-7.971172299463979982e-01 8.042257936605430313e-01 1.711992812772120587e+01
-1.379205989765623253e+00 1.376434992771613741e+00 1.738344402701047997e+01
-1.584535907978689817e+00 1.573412295559207363e+00 1.743833983445974312e+01
-3.652611533861805704e+00 3.538494457555390049e+00 1.405519342510880776e+01
-1.351850942116070264e+00 1.193488011495757117e+00 1.739571439708726430e+01
