-2.971050424009610946e+00 3.407511638403585508e+00 1.636613371705011488e+01
-4.301675437386188960e+00 1.699357464150746733e+00 1.251965906265500550e+01
-1.928063308603740644e+00 2.634929873180549720e+00 1.628429862430132502e+01
-4.479882179190579627e+00 1.853005417639442376e+00 1.268928245354695505e+01
-4.651510548794883348e+00 6.645631009637931186e-01 1.266033585874574996e+01
-5.111098988271740140e+00 4.171530937746390499e+00 1.635703402175110099e+01
-3.765913898438688179e+00 4.346949674481623838e+00 1.878119229003761248e+01
-4.543423425327669740e+00 4.103112613867557101e+00 1.874250547742466111e+01
-2.619683698016682882e+00 -6.378904503671395387e-02 1.487428429405714425e+01
7.989584619369096696e-01 -1.246669419491636788e+00 1.761862833335728240e+01
-2.901051978778053098e+00 3.120939665464025126e+00 1.927848472410655845e+01
-3.921492382773887897e+00 2.986448122727396459e+00 1.920041202979233574e+01
-4.640601504880438100e+00 2.665030299186221363e+00 1.921895131427183046e+01
5.354687385174855541e-01 1.210627500793211020e-01 1.643398623085291277e+01
-3.662564074076333220e+00 2.569241292048078051e+00 1.937650765831414290e+01
-2.577818385408505719e+00 -1.267430541384291010e+00 2.026783587849549306e+01
-4.287211692778337913e+00 2.720852261834847852e+00 1.925528803746069073e+01
-5.058775899192868408e+00 4.839189509531411026e+00 1.747974644964702762e+01
-3.243060151229865351e+00 2.128823597164346992e+00 1.952177744263344650e+01
-4.099343035876668928e+00 2.104277912635267533e+00 1.945788290365397799e+01
-4.280587150147018072e+00 1.718211913940280944e+00 1.950790254789099620e+01
-4.281308048792786813e+00 1.374067356457714828e+00 1.956364703845350661e+01
-7.840537322542119547e+00 2.078183709256410161e+00 1.575315139809739762e+01
-8.042652291280766974e+00 -8.910702997596411379e-01 1.643044358077733236e+01
-6.090017117916638689e+00 2.690401390585247299e+00 1.885278983434702482e+01
-5.041919638062244857e+00 1.307299287531276999e+00 1.947294478850213650e+01
-5.092241854537265411e+00 1.898595863890273572e+00 1.935634018247420940e+01
-5.268611289609557602e+00 9.094258930996026447e-01 1.950428139307063802e+01
-5.434297020007933021e+00 8.879562196572405863e-01 1.947695971848954954e+01
-2.825304767121300298e+00 5.444743072852915589e-01 1.983191810076237616e+01
-3.814550300346473577e+00 5.152264106674221411e-01 1.979342625875908723e+01
-4.617596079653063512e+00 -1.091157931360412281e+00 2.011112023496829337e+01
-7.603742773201209282e+00 -1.113768947489524264e+00 1.561643718858878671e+01
-2.827528163755888890e+00 7.440406157607704074e-02 1.996229231943386750e+01
-3.445958903894732916e+00 -5.049824091076104970e-02 1.998278687003212539e+01
-4.029953229528375758e+00 -2.583238696472650586e-02 1.991854016608236932e+01
-4.850774652897738903e+00 -9.469391702233326269e-02 1.981422941959757011e+01
-7.746553758231654818e+00 -8.462521579465702715e-01 1.560816760400144787e+01
-4.152081906265148170e+00 2.396956068423063080e+00 1.378162226548458946e+01
-2.418271982095060224e+00 -2.509534628556424618e-01 2.005273533357675930e+01
-3.411901744269318026e+00 -7.232187091874444640e-01 2.016307457269791925e+01
-3.832599697781353676e+00 -2.856225225015908142e-01 2.001639728468484591e+01
-4.239791721417163650e+00 -7.002677249544680960e-02 1.990366336563548444e+01
-4.724717114316273836e+00 -4.709804774844831288e-01 1.994002976871859190e+01
-5.004472510640942673e+00 1.279203904959847815e+00 1.195833409942947512e+01
-5.217503780864326757e+00 -6.632967461451464430e-01 1.990900812652357033e+01
-3.192884677840745589e+00 -1.248108972302911956e+00 2.027774283973959868e+01
-3.606323478257769999e+00 -1.270179279014227225e+00 2.027320105049979659e+01
-7.909836316732227424e+00 2.124218277314654735e+00 1.588952345279896505e+01
-5.654193172712879800e+00 1.480602633315040384e+00 1.932748846941590060e+01
-3.799075644200188506e+00 -1.087805015112768725e+00 2.022576009924439333e+01
-4.417831029701191348e+00 1.562682306344528871e-01 1.421824192390711872e+01
-3.981219644300816540e+00 -8.906600932548554006e-01 2.015979925762927749e+01
-4.601553024091820987e+00 -9.021653460333207697e-01 2.007078485580978722e+01
-5.357637267630435574e+00 -1.328033432608164643e+00 2.004549154409644629e+01
-7.372345313009057932e+00 9.586525988816114729e-01 1.414249114968825793e+01
-6.000061264533449901e+00 -4.448967491299364863e-01 1.972700770690669358e+01
-6.207013986546163764e+00 -3.192942459748074890e-01 1.966318613152012418e+01
-2.425958998205975714e+00 -1.037232513704194226e+00 2.022687434598686806e+01
-6.157554718862805920e+00 3.972777781985833201e+00 1.612729926607454090e+01
-5.731645325193625240e+00 3.114426732899991279e+00 1.879145767922640786e+01
-2.644222421401366319e+00 -1.554390412396628340e+00 2.031339520764194262e+01
-3.205611350062899323e+00 -1.709053023645901837e+00 2.035219078463211062e+01
-6.429353324406778647e+00 1.374479821557961889e+00 1.312165718647890245e+01
-3.548515791485171711e+00 -1.715944365540641892e+00 2.034231028024466426e+01
-5.330441364798059745e+00 -1.727243060266567154e+00 2.012842169791205649e+01
-6.409323301907443593e+00 -5.225440919035070353e-01 1.971472702956166856e+01
-1.240295591935883346e+00 2.479556150065574727e+00 1.955310413865203500e+01
6.813735652661324638e-01 -7.487710064996206949e-01 1.958697621949132994e+01
-7.362748311764440778e+00 1.628378176717114822e+00 1.461738382225760446e+01
-2.148712614095934725e+00 -2.033362706527420904e+00 2.036145305341673506e+01
-2.743675398965245815e+00 -2.883799092216512427e+00 2.045744348244371835e+01
-3.143946527154944715e+00 -2.661131068347088124e+00 2.046286366120203937e+01
-6.384292373047796509e+00 -1.739065823576541936e+00 2.004561537551635197e+01
-1.173023605226204635e+00 -2.203026351940661876e+00 2.037106380077755929e+01
-7.846553387953574266e+00 -1.354150175204617002e+00 1.638856268184234111e+01
-7.986085530324216641e+00 -8.833865252083319408e-01 1.627780453555959994e+01
-8.072137967571030970e+00 -3.063285317890416248e-01 1.603608144055467832e+01
-8.073894451023811314e+00 8.247488174629152846e-02 1.583288146333773128e+01
-4.152182196840153772e+00 2.948177612099550871e+00 1.918491449638303337e+01
-7.995019076174613382e+00 7.155874432363371063e-02 1.565937733992255332e+01
-8.031452735428285195e+00 3.040227466501667641e-01 1.566170095885042812e+01
-8.050330191941050373e+00 9.113334228275277171e-01 1.568180425088573671e+01
-4.064261967475531812e+00 4.029873265168992802e+00 1.666061325257546244e+01
-7.747846900287725269e+00 7.065525088078774552e-01 1.486370483187832647e+01
-7.469440377627246441e+00 7.438554686157934359e-01 1.426193024161730349e+01
-2.624811697085478901e+00 3.457293562521256192e+00 1.682822173171609492e+01
6.480829308157021185e-01 -3.285197101791968999e-01 1.923620459801749760e+01
-8.090398003312017750e+00 2.496560076363165237e+00 1.650456095878825025e+01
-3.097154701444655434e+00 2.818728344723386847e+00 1.531401223064423434e+01
-8.079098411844420013e+00 1.893750278729233294e+00 1.609839004178873623e+01
-2.289447655285626215e+00 3.116852978485385783e+00 1.665853657494827544e+01
-7.630877564404419111e+00 1.121665962608089151e+00 1.470560847593150910e+01
5.897119303911310118e-01 6.316712245890032662e-02 1.903723589936747729e+01
-3.629457941993840642e+00 3.122658233453472931e+00 1.542045998079789726e+01
9.043840051870769559e-01 -1.935580444398898647e+00 1.819375039907223979e+01
8.948840365779908712e-01 -1.683799407751536359e+00 1.780257044882203488e+01
8.016614261512875483e-01 -1.113163088986683036e+00 1.879458317275981116e+01
7.092550025277362113e-01 -5.510441565570427525e-01 1.879874780899092102e+01
7.893127857862343166e-01 -1.274154512116393301e+00 1.739528538831821081e+01
6.436724368296333765e-01 -1.750935217898952345e-01 1.867402788700483640e+01
6.667326092283553107e-01 -3.266580154294025373e-01 1.801855742060752519e+01
5.619267044323189575e-01 8.867469651040352230e-02 1.685404158154395660e+01
-5.180816358568228530e+00 4.931238057615522585e+00 1.757574651418559952e+01
5.155530263245714506e-01 4.643647783002816665e-01 1.762869510792486594e+01
-3.923538085377111351e+00 -2.712465263316381936e+00 1.810328581371582501e+01
-3.867463089015602762e+00 3.868855636607050563e+00 1.650305993703602425e+01
3.017487166249386288e-01 1.259956551300454031e+00 1.848763696387024780e+01
-1.976692303452858290e-01 2.295422217260669306e+00 1.848227960597040820e+01
-2.068800922555971589e+00 2.174008775210336086e+00 1.963841201129994474e+01
4.278032587749090454e-01 8.216680102465567792e-01 1.810788516320717534e+01
-6.807719733427518349e+00 3.806770023527496605e+00 1.643843321814208380e+01
5.268751362057653154e-01 3.297526770101738003e-01 1.665687962742989825e+01
4.777964162110110991e-01 6.435090005493162568e-01 1.744949653921056054e+01
-5.169416971578366660e-01 2.599174718625548941e+00 1.813629220178253476e+01
-6.105629806776420310e+00 3.898256802620521100e+00 1.598857220785877686e+01
1.550371953661834334e-01 1.677262507161401572e+00 1.845022301911893337e+01
-2.820343303296404702e+00 1.169036485348687648e+00 1.282462318996312334e+01
4.047572492829859536e-01 9.039438842224770676e-01 1.744997968744978678e+01
-3.681672714712532546e+00 2.489791531691587956e+00 1.428857915569530590e+01
2.833147156775763231e-01 1.283702078831164162e+00 1.726458966178209309e+01
-1.092196326505438186e+00 3.041271906698316485e+00 1.811039956189491917e+01
1.318006390754018486e-01 1.682584464221444032e+00 1.787036508346342245e+01
-5.576604873974211340e-02 2.058514906239714115e+00 1.827665028576230455e+01
-5.045493681288405696e+00 -7.312299350125492925e-01 1.995230443478815019e+01
-7.882918162076502533e+00 1.910087789679218773e+00 1.569723230588636298e+01
-7.272639511120946310e+00 1.176584573413124168e+00 1.408087016539177583e+01
-7.542526188551319954e+00 -1.254879318439401592e+00 1.564802021690771383e+01
-7.924895455503263797e+00 2.326479749084323423e+00 1.606270747365091367e+01
-7.734206230757906475e+00 3.482416831569490334e+00 1.691150557377893549e+01
-4.816777210081002458e-03 1.922765433805223134e+00 1.787203355442635555e+01
-7.720340215821635432e+00 2.903333301843673553e+00 1.633459757193676509e+01
-7.689136831618504253e+00 2.322070327774800269e+00 1.575521862951819330e+01
-7.718186415212382023e+00 2.686247728022210346e+00 1.612995059982567980e+01
-7.603698335565154842e+00 2.251837591160620100e+00 1.556651082669901243e+01
-7.299361176121296424e+00 1.573055163037318627e+00 1.446892571932560756e+01
-6.230066498985655343e+00 1.393656580276245283e+00 1.292627470346740282e+01
-7.419103990748827648e+00 1.899104915337855637e+00 1.495859663822404073e+01
-6.558731004757908600e+00 1.839203068285646392e+00 1.380857758703210791e+01
-6.618378341896908879e+00 1.363026762992100904e+00 1.331851707345462543e+01
-7.318827453292255925e+00 1.777883419474822979e+00 1.469181021409596966e+01
-7.487723563140890271e+00 2.534713084385535886e+00 1.567381236887220197e+01
-3.196162978218478834e+00 3.218876179243173929e+00 1.920407791930563590e+01
-7.527197589696377200e+00 3.123106666680464549e+00 1.631367460775874534e+01
-7.540679040147547418e+00 3.510266588245291253e+00 1.672159515127676954e+01
-7.357441958568474938e+00 3.884151488727605184e+00 1.693727594337910247e+01
-3.267509155898103312e+00 2.654543727556426980e+00 1.489697463666893285e+01
1.034411366064361681e-01 1.676845304850804075e+00 1.747496157240106029e+01
-3.918874088157627611e+00 2.814553268027480293e+00 1.469513550357379117e+01
3.409885696178175385e-01 1.126168386173084457e+00 1.687541942654248928e+01
2.952159708560602169e-01 9.203671297509233851e-01 1.625994979619829550e+01
8.912905268160080663e-01 -1.698767978139399837e+00 1.739412991816071141e+01
-4.312402566889163014e-01 5.644940431190426100e-01 1.467960175032735393e+01
-7.459232426240480329e+00 3.069988548480568014e+00 1.617425697693802888e+01
-7.468683892361810628e+00 3.442225708709199417e+00 1.656253252925919028e+01
-7.348931919940290491e+00 2.152954029235165656e+00 1.509829700916396789e+01
-7.045437719481510541e+00 1.793216298496958627e+00 1.430216752259562085e+01
-3.255463720951410789e+00 2.260848138723870804e+00 1.426419145491930962e+01
-7.259777784833904235e+00 2.512590942454811405e+00 1.534385926553209956e+01
-6.696499293672114383e+00 1.612839035009429933e+00 1.365629283933404636e+01
-8.608944884240252726e-01 8.591641940453450532e-01 1.447695492047303034e+01
-7.121289076553376951e+00 2.212816030045210880e+00 1.484814320325707016e+01
-6.107575173638338129e+00 1.450020242001549553e+00 1.287139516947690154e+01
-3.496841237864972918e+00 4.829371180772374039e+00 1.812445928900060110e+01
-6.485969103326949536e+00 1.634359926375054561e+00 1.347027738129390784e+01
-5.673216906529839676e+00 1.425818508030630039e+00 1.250899800737379408e+01
-6.068263128897667613e+00 1.640531920034575153e+00 1.309165914181999213e+01
-7.066534523505101362e+00 2.338200310443559360e+00 1.492817387674896779e+01
-1.244832280786251077e+00 1.912588030572379028e+00 1.588459263125695387e+01
-7.338196246183281701e+00 3.146667727927128233e+00 1.610527307618957238e+01
-6.893252853613141440e+00 2.136747916328278318e+00 1.450901917833411048e+01
-7.052378349126914969e+00 2.521874489100346395e+00 1.512420775712726950e+01
-7.112474589184003548e+00 3.158939585010886120e+00 1.590842883000137320e+01
-7.280846775854072028e+00 3.466240230744063844e+00 1.637330568407611864e+01
2.784744563969682174e-01 1.247572704717257341e+00 1.690491381292866535e+01
-7.778250320050834610e+00 -1.337710659890280374e+00 1.621828332660406247e+01
1.583117349405678831e-01 1.477702865365694063e+00 1.707014983992538149e+01
-6.739516242473893470e+00 4.557415000866027022e+00 1.732683342830078388e+01
-2.797623284675903932e+00 -4.201262687266610341e-02 1.484890082699657299e+01
-6.934867160380447260e+00 4.233398952438881757e+00 1.700342617400660217e+01
-7.090929916357989526e+00 3.551638704433698557e+00 1.633407755471212042e+01
-4.133071206231972106e+00 4.806777871250190515e+00 1.770958482490344821e+01
-6.612814074608421855e+00 4.594573995832234026e+00 1.728664859303710344e+01
-6.728108941748869753e+00 4.113125161614541447e+00 1.674883929703744556e+01
-6.890726755731633624e+00 3.146125228842378441e+00 1.571238707569102999e+01
-5.700348341588195922e+00 -3.588595912624709783e+00 1.830133141294124854e+01
-6.651873660914542796e+00 2.183853104042674076e+00 1.432250664155115416e+01
-6.276611081143447457e+00 1.814132076013595940e+00 1.350625530501908500e+01
-6.260089166055324839e-01 5.164591718277098398e-01 1.444385099771516323e+01
-5.889137245106275564e+00 1.613939649487420969e+00 1.289982698491695956e+01
-5.496790896045370189e+00 1.452556510991103389e+00 1.243166605925940971e+01
-6.539715960938821127e+00 4.536564098890822905e+00 1.716766533992393917e+01
-6.744039537642111171e+00 3.570839140253217359e+00 1.610979936343594332e+01
-6.494624804775462223e+00 2.218350631680880092e+00 1.421209091570329619e+01
-1.930526159114859919e+00 3.451290937966714267e+00 1.918695516529482248e+01
-5.867710025427977705e+00 1.797534181428713351e+00 1.310909445362196024e+01
-6.739228594597792110e+00 3.396917878027234217e+00 1.589379410389342340e+01
-4.201893268641014423e+00 -1.484511090600283190e+00 2.025343987273718582e+01
-6.730195960941338207e+00 2.934921204026540664e+00 1.531672374926349178e+01
-6.333408622524182796e+00 4.575411419046218064e+00 1.708006833831626992e+01
-6.531431941295144483e+00 3.119272658768783124e+00 1.537052960387283562e+01
-2.057167898068885226e+00 1.541485958951616109e+00 1.428728048986371491e+01
-6.522039331975818754e+00 2.608390115216217886e+00 1.472181458855851943e+01
-6.257585293692153883e+00 2.382805330857488357e+00 1.419809151604569664e+01
-3.584807792576659713e-01 5.740066154871670268e-01 1.477592152648617585e+01
-5.456178756741320690e+00 1.617763700037105012e+00 1.254927427576661714e+01
-3.378955612043927026e+00 1.191049436384192806e+00 1.238328060052794299e+01
-6.540595521177099414e+00 3.736993440837721892e+00 1.615381532194426129e+01
-6.497811271866675398e+00 4.092309840859996939e+00 1.656224322949202943e+01
-3.996914793465804472e+00 -1.294291661804537474e-01 1.995287269396594709e+01
-5.713157116900855925e+00 1.878055992232727345e+00 1.307080097639108729e+01
-6.515315461119565832e+00 2.762332273964349660e+00 1.490812447630590398e+01
-6.525738763596453218e+00 3.209926483838789757e+00 1.547960263997003594e+01
-6.363471973822614203e+00 3.795606093278242277e+00 1.607928416894211310e+01
-6.330271978207758110e+00 3.368428893582829708e+00 1.550812992794634582e+01
-6.631806346011748232e-02 1.908360568822838443e+00 1.750128740540801076e+01
-1.723796673531815316e+00 3.821069361464308756e+00 1.874621852784535392e+01
-5.507257291182021675e+00 1.857594043704497322e+00 1.286906478796656828e+01
-5.286725423419320613e+00 1.653039644458575097e+00 1.248121137514918999e+01
-4.296939827183682503e+00 -2.102554176246801410e-01 1.993584466152265477e+01
-6.089165073101919567e+00 2.963715149439337893e+00 1.478135670531065315e+01
-5.905684418918009548e+00 2.584122217343214345e+00 1.413650159716147314e+01
-5.712673891908637280e+00 2.215183073568647742e+00 1.349627325800626565e+01
-4.368825300102365361e+00 5.097232322031904239e+00 1.797756125399208216e+01
-2.211930605137326644e+00 1.376578853784497181e+00 1.382896889723999223e+01
-5.493700157028469366e-02 1.700092804422208337e+00 1.704756716899425939e+01
-6.112505415474058346e+00 3.726152838868726391e+00 1.577412625311777461e+01
-3.713735636276257246e+00 3.138948486293567264e+00 1.916817556551373869e+01
-6.122330524653484929e+00 3.366116485922233004e+00 1.532253862648787290e+01
-2.907331404037638567e+00 2.830208040773138478e+00 1.551701674471136627e+01
-5.468980671207763322e+00 2.048902868370066521e+00 1.308640883151793233e+01
-5.713921011131202654e+00 2.382436255951366988e+00 1.370958427063954232e+01
-1.657959000291791440e+00 7.031770685786706832e-01 1.347867921537723035e+01
-1.311614673362138772e+00 3.476046892323043203e+00 1.871120795383062685e+01
-9.050635493931711295e-01 2.993155637008177550e+00 1.830206117694748613e+01
-1.436587768216323058e+00 3.490508555779510580e+00 1.847837544159525081e+01
-2.640875682808678793e-01 2.085832421772809475e+00 1.748583789512651876e+01
-1.978815806797448396e+00 3.963374447694364200e+00 1.858201957324429188e+01
-1.494913702837516123e+00 3.460558476422833429e+00 1.832594031958488401e+01
-4.299840542835796420e+00 1.911325611593009066e+00 1.947150807408396744e+01
-1.927094286687542013e+00 3.786652229939754477e+00 1.830049951226564886e+01
-6.424741008688168442e-01 2.483782913698534323e+00 1.768941711254587901e+01
-3.565413487173122453e-01 1.990172778044818847e+00 1.714520713676111185e+01
-1.457187707699294510e+00 3.307605406443548723e+00 1.808175491545114610e+01
1.168648056209393715e-01 9.145017440724559910e-01 1.585919367459019824e+01
-5.038288555330194818e+00 -7.094277281083133380e-02 1.977475239131251428e+01
-4.541110746714110968e-01 7.539415458094111955e-01 1.481520259420981844e+01
-2.983542893185098244e+00 4.712850588447369482e+00 1.859657950227894574e+01
-5.454671705771385604e-02 1.112639396034721395e+00 1.590142430891421910e+01
-1.783480690057488438e-01 1.573817182216386223e+00 1.659675033765482155e+01
-6.768064721889237578e-01 2.302130117566131950e+00 1.728985595314248158e+01
-4.272804300980090897e-01 1.339142916513315962e+00 1.584907146308661297e+01
-1.188983570386275668e+00 7.862890677249545490e-01 1.399672955950031294e+01
-3.656112691555418515e+00 2.975528306915508736e+00 1.923833626945554087e+01
-8.220543335900283299e-01 9.344616176518281137e-01 1.465594943244333948e+01
-6.032290883282853677e-01 1.571331300535169451e+00 1.605888628999128898e+01
-7.181900726779488764e-01 2.026952850665202810e+00 1.673591648666470988e+01
-8.767692798799844311e-01 2.449887066891971443e+00 1.729574626355598710e+01
-1.328153488588509346e+00 3.010603898323607197e+00 1.770980109456656137e+01
-1.683707004509667815e+00 3.481650869833174511e+00 1.807908402274622617e+01
-2.147711170373346690e+00 3.972309761898755731e+00 1.832465630244266563e+01
-7.746322034081377872e+00 -1.481918507887656888e+00 1.623874588976048372e+01
-2.690086830215439928e+00 4.404294188082441330e+00 1.836828309320575059e+01
-3.165042897580462977e+00 4.751328335600143227e+00 1.835430346114129563e+01
-7.068868108588395316e-01 2.377674101200877743e+00 1.739050619489919214e+01
-1.686152673139579505e+00 8.725548903989046590e-01 1.354933993595843944e+01
-1.716577869596694228e+00 3.425696960236499500e+00 1.792571070079817375e+01
-5.662758180043144129e+00 3.192327440194145383e-01 1.955474647950753919e+01
-2.520733214245354237e+00 4.175550741166548896e+00 1.817390072601864759e+01
-1.077633025196316874e+00 1.106908335101819851e+00 1.466966612969563144e+01
-1.288877492143887915e+00 1.251129399839973289e+00 1.468074152795714937e+01
-1.080090510556577899e+00 2.254994054536274994e+00 1.668507123978514173e+01
-1.298409622160487276e+00 2.662572224043149305e+00 1.712017705760171893e+01
-1.661839287847606261e+00 3.113564198565369701e+00 1.743739690911271012e+01
-3.716304747373493811e+00 4.241903453201033791e+00 1.711691859597668142e+01
-1.264315745234344979e+00 2.264881423638571256e+00 1.646839359931857061e+01
-2.037035705556486942e+00 9.206545317747195645e-01 1.326751061266066856e+01
-1.619129889307367343e+00 1.106400481736449670e+00 1.403867421754700118e+01
-5.339747380540877941e+00 3.428866135214878597e+00 1.510887120553062246e+01
-1.449295353672935827e+00 1.339035803447419015e+00 1.464687968049137012e+01
-2.444284518026531572e+00 9.100591247256760719e-01 1.286583302536099538e+01
2.122597764148086985e-01 1.340311708491748632e+00 1.689061934566794676e+01
-1.856034305112092664e+00 1.058309541774977269e+00 1.367831740319761380e+01
-1.452498561363656737e+00 1.930973424340131084e+00 1.566320118993427357e+01
-1.602453556317947392e+00 1.554607529405181099e+00 1.483776118186293402e+01
-1.876882844109801329e+00 1.317233411672740218e+00 1.410659550369365078e+01
-2.230507021043051541e+00 1.171477807382181879e+00 1.344662935723982500e+01
-7.816522592830437155e+00 -1.518604249735814316e+00 1.640572499159805275e+01
-2.665359785001770732e+00 1.087775086008560876e+00 1.284657072676105471e+01
-2.883739413743323432e+00 2.950180890076456564e+00 1.934236234612457750e+01
-1.940931046140878635e+00 3.378440710601089414e+00 1.753848799910667466e+01
-2.289465091595496382e+00 3.853292983733889621e+00 1.791369191228183766e+01
-6.679845058735334185e+00 1.799585336377973022e+00 1.387819885413790288e+01
-2.890651532719517469e+00 4.411709997068570033e+00 1.810805205694719078e+01
-2.300379189712142391e+00 1.243993525715008541e+00 1.349808767630405626e+01
-1.563192869808541996e+00 2.396730594743446296e+00 1.632569396542843876e+01
-2.502447232937612842e+00 3.887265807264430606e+00 1.770012279508044273e+01
-2.729310155536991189e+00 4.195599762920510400e+00 1.794217800690297437e+01
-1.683820429997820334e+00 2.019790953201225925e+00 1.553642281099692823e+01
-1.664614487550478916e+00 2.440849444244800104e+00 1.627655042909345795e+01
-2.078800419010594425e+00 1.454041924526495499e+00 1.411281260935380644e+01
-2.249051367106558175e+00 1.302615824512872500e+00 1.365802091742526514e+01
6.849361164936004220e-01 -4.708227953571024749e-01 1.900995606412790906e+01
-1.890955366819931260e+00 2.494931061164461283e+00 1.609273690041037597e+01
-2.315583309369591003e+00 3.426410524825062254e+00 1.714798922857823626e+01
-2.489232140901966872e+00 1.833331884693488956e+00 1.433201856748213388e+01
-2.111942638636363778e+00 3.014150476934933209e+00 1.670053619487338992e+01
-1.873190651414102792e+00 1.884409125446773192e+00 1.508278616823061569e+01
-1.886912930004719602e+00 2.243581829357473190e+00 1.567319544969528167e+01
9.542416516393820158e-02 1.640757469961360737e+00 1.729438942730879702e+01
-2.699016951021576904e+00 3.801112100229453006e+00 1.731054522530214612e+01
-3.332672158789943051e+00 4.639711796849105951e+00 1.793799990965639424e+01
-2.063164774680594338e+00 2.495178612663327300e+00 1.588710527202550438e+01
-4.148434996175630829e+00 4.006535781193734991e+00 1.882330353192923056e+01
-3.276120176763667846e+00 1.311421795230103715e+00 1.266399996125501914e+01
-2.059190382047784595e+00 2.119064923221012808e+00 1.526334787438919349e+01
-2.133068494746011901e+00 1.830382807923271793e+00 1.469566192700186846e+01
-2.679836949975141547e+00 1.335704405034498610e+00 1.326399434763836283e+01
-3.105657618950189658e+00 1.248394190766423772e+00 1.268444323520376216e+01
-2.896985066743687387e+00 1.352041878039739631e+00 1.308410310162481593e+01
-2.290068216332156847e+00 1.684155232905702348e+00 1.427932546159408744e+01
-5.040585279329616419e+00 1.786895721347271815e+00 1.254281128758175257e+01
-2.235249285749926429e+00 1.980287847191416928e+00 1.483951906822770539e+01
-2.461039272544807144e+00 3.282478284800026458e+00 1.673137085892836851e+01
-3.100204019622018858e+00 4.216726505796069446e+00 1.752169592339346949e+01
-6.313597526334087995e+00 3.900714630313816933e+00 1.616975712617229632e+01
-2.297106855246571211e+00 2.030236584810594103e+00 1.485852207543064551e+01
-2.659526848820798595e+00 3.877492516912915299e+00 1.748729253787024263e+01
-2.294419355478963141e+00 2.412818872497362044e+00 1.549255246370998762e+01
-7.784465623043314686e+00 3.431074311274311950e-01 1.504361667022790172e+01
-3.222300993963543192e+00 1.376266634418080503e+00 1.283219656999228775e+01
-2.835734257464808561e+00 1.525084109777964381e+00 1.346284473338731758e+01
-2.690718760502446294e+00 1.923341577570408800e+00 1.427971946685195448e+01
-6.644561119739236688e+00 1.837587864067714349e+00 1.903635347015346113e+01
-2.442803040370596701e+00 2.113027688064147647e+00 1.484423628430790743e+01
-2.450532254623812634e+00 2.509939327195362502e+00 1.548321008123083331e+01
-6.950959509489572419e+00 3.956020306839122647e+00 1.670199657174897467e+01
-2.484667822374258428e+00 2.905453097991322231e+00 1.608719858470176334e+01
-5.796197250718212679e+00 -7.539519658405540170e-01 1.984474125255922772e+01
-2.698334911306151884e+00 3.431048262920537439e+00 1.670088838888614546e+01
-1.798829789399324142e+00 9.899990845618097390e-01 1.362292090799754973e+01
-3.638622865511085713e+00 1.349911703712561195e+00 1.244609307526949138e+01
-3.272734092963057506e+00 1.535101651180832416e+00 1.306314714727897197e+01
-2.895071216952417981e+00 1.692204855648896888e+00 1.369273373780812975e+01
-3.831690176191894004e+00 1.729838718209967263e+00 1.286422017930393125e+01
-2.560644162999857532e+00 2.222494839632536134e+00 1.490095033672375635e+01
-2.530540808984107048e+00 2.594730050929926257e+00 1.553450816977424509e+01
-2.589443193131577559e+00 2.991101759271045601e+00 1.610977217252969851e+01
-2.721474168861029330e+00 3.202482770735479711e+00 1.630641314504734751e+01
-2.645380191792943592e+00 4.086332292716066128e+00 1.786072937919807302e+01
-3.442994539970273937e+00 1.515699257240821218e+00 1.287181315399414316e+01
-2.884825938333355655e+00 1.919955072148656905e+00 1.408000091102739404e+01
-7.841985899077708488e+00 -2.385463474037847753e+00 1.738402787669864225e+01
9.324136265918845368e-01 -2.551520709185752800e+00 1.818804926434853897e+01
-2.679720891834929120e+00 2.294032006978997451e+00 1.489313537935298726e+01
-3.496692512100178618e+00 1.682996932956870140e+00 1.309361611356650101e+01
-3.118539858817590105e+00 1.830918778935673563e+00 1.370351711223477409e+01
-3.039539725629758937e+00 2.130099583663862539e+00 1.426548677774374241e+01
-3.030665916456789066e+00 3.868465833753575112e+00 1.703670849813421384e+01
-3.737939035094863804e+00 4.817608425090565305e+00 1.789804925396762414e+01
-3.332753818044908556e+00 1.846641751315689195e+00 1.351919655463757053e+01
-3.616312194955693116e+00 1.730209260734401067e+00 1.305564757314287405e+01
-2.923895297737526988e+00 2.987546527812205532e+00 1.574966583705542789e+01
-1.260424535592055806e+00 4.008403664155982815e-01 1.394066224518862995e+01
-3.104418998229573567e+00 3.446498315662768874e+00 1.629617950530472470e+01
-3.433195273051316665e+00 2.115521914718197394e+00 1.385931020435824834e+01
-4.753364337314007759e-01 1.490746643576858821e+00 1.606657941503125997e+01
-3.138003853859425263e+00 3.226936293892395113e+00 1.592620794189642552e+01
-3.177449405893843171e+00 3.547773240455935451e+00 1.639310448523826480e+01
-3.535035075007490590e+00 4.030733333702336552e+00 1.690005392805950279e+01
-3.299775778089801825e+00 2.433738627030346713e+00 1.450497687029890059e+01
-4.353659912779352936e+00 4.747292693947850140e+00 1.755743384699071541e+01
-4.154624960124044364e+00 4.373971787002528977e+00 1.712914731178105754e+01
-3.467811691325936696e+00 3.490321611052088713e+00 1.611792454572119127e+01
-5.102935406490697545e+00 1.483372845675390961e+00 1.223955605737683427e+01
-3.692115308113480765e+00 2.043077402783181284e+00 1.350554122686157754e+01
-3.858564021251884135e+00 1.884047416535344244e+00 1.309145194288691627e+01
-4.927500354000749816e+00 4.910340359478697181e+00 1.760437039353096722e+01
-7.893028643885853235e+00 -5.692095493502641324e-01 1.576431991077735617e+01
-4.190432274076105301e+00 -4.843219744525195658e-01 2.002675813164888652e+01
-4.759286017814955194e+00 4.702728044575437139e+00 1.737771514488885671e+01
-4.180686750440621324e+00 4.299865205516531397e+00 1.701422666808224804e+01
-3.225455245164537299e+00 8.077379451282608036e-01 1.975758151368399851e+01
-3.709320424350186940e+00 3.837965660168828563e+00 1.653086563614052196e+01
-7.338066055816607758e+00 4.995282226389413660e-01 1.401858600721542913e+01
-3.451881769017698165e+00 2.738930604974473937e+00 1.488674233927796919e+01
-3.508174456222379334e+00 2.415111034918638211e+00 1.429242846326810579e+01
-3.731084577411214021e+00 2.190764426608222237e+00 1.372671235976189408e+01
-4.919731982560479722e+00 4.738936066073252462e+00 1.737956000855774974e+01
-7.325923172156975305e+00 2.251522367303368632e+00 1.858295412841260585e+01
-4.351919944397164564e+00 4.329718174528056629e+00 1.699216751503710654e+01
-4.729235974611950333e+00 4.527348114125769207e+00 1.713666357932654094e+01
-4.172385329459070036e+00 3.967061091992998278e+00 1.651329611209635218e+01
-4.059143262242429273e+00 5.041107456314908752e+00 1.806140440888800569e+01
-3.937799340288747452e+00 3.630754078974523402e+00 1.608938626223093493e+01
-3.899881899203050395e+00 3.260518606907703010e+00 1.548884255437749502e+01
-4.956040933590307063e+00 4.567613214337410632e+00 1.710870363596605515e+01
-4.072417759661036030e+00 1.633119013443137924e+00 1.251912547136156562e+01
-3.716038704335523413e+00 2.410331595071575350e+00 1.412429242361235637e+01
-4.030086158852357769e+00 1.949833987221826215e+00 1.306321085229713574e+01
-3.721386277595141401e+00 3.214089012494850905e+00 1.551769482243033949e+01
-4.543721088178949152e+00 4.122068172532469710e+00 1.658440614238568500e+01
-4.911291990446319922e+00 4.427965662604671060e+00 1.690398032490649527e+01
-4.295089152012026013e+00 3.670671160600505800e+00 1.595882411244990706e+01
-4.330896453680317393e+00 3.555010599882834299e+00 1.573630486312349674e+01
-4.098019479657005526e+00 3.232154161695386385e+00 1.531549421464160687e+01
-4.132620449888808167e+00 2.579041008644635369e+00 1.412188996993706169e+01
-4.105244340395457492e+00 2.225522732839461781e+00 1.350582144312564381e+01
-4.080969216161032698e+00 1.872664045494583762e+00 1.289297664895214623e+01
-4.231766796766125438e+00 3.300637754380558953e+00 1.535068612454254477e+01
-4.529949748440138535e+00 3.740227907893075354e+00 1.593982292712250270e+01
-5.169301633520772654e+00 4.525555991737805428e+00 1.694075132144871176e+01
-4.359284771662075286e+00 3.330492331432977515e+00 1.532139281570067979e+01
-3.938263425998596468e+00 5.052584839083413826e+00 1.815898074820677621e+01
-4.339194571376194354e+00 2.988798778551924329e+00 1.472219482915221178e+01
-4.298271580344780851e+00 2.196526857836836211e+00 1.334375283713830029e+01
-4.677890068337740459e+00 3.659321363492697543e+00 1.570736296978870783e+01
-4.347976465086595077e+00 2.789380341664043250e+00 1.436261510836467536e+01
-4.480322671107104249e+00 2.093987206843447524e+00 1.309128030356488992e+01
-4.291026641045957213e+00 2.497793089961179547e+00 1.387950074996642158e+01
-2.562190898212034273e+00 -2.615588428909897623e+00 1.817629440739316848e+01
-4.667241363651657871e+00 3.288695623938084012e+00 1.506472583841407342e+01
-2.506732470146691316e+00 3.429752439505893591e+00 1.692158950117657312e+01
-7.526900479584514692e+00 3.324934829795201274e+00 1.651421440915290262e+01
-4.684132846195196542e+00 1.721359488819647066e+00 1.247299534564541190e+01
-4.912290821611028591e+00 3.731891112115520492e+00 1.570289325300289462e+01
-1.647732876107335542e+00 6.058499205618887995e-01 1.351089559598988288e+01
-4.674380500932728388e+00 2.478065231889948983e+00 1.367908896899388438e+01
-4.707826066753584726e+00 3.221728401050675039e+00 1.492939626756666271e+01
-1.400941590870735887e+00 2.353902721756813143e+00 1.645213807211774437e+01
-8.186090471336928687e+00 1.121703142904990180e+00 1.604756405943357933e+01
-4.985724544687720083e+00 3.700419772147215625e+00 1.561020315415094117e+01
-4.714652538869487763e+00 2.983406156412350185e+00 1.451891651491551372e+01
-2.558984341273522478e-01 1.884863464224479701e+00 1.708750389480496423e+01
-5.330117233911855656e+00 4.359345046109729616e+00 1.656204276413913945e+01
-5.093958445884068098e+00 3.698774757424540205e+00 1.555235049471432873e+01
-5.322114979898683096e+00 4.114293513949193404e+00 1.614515343507106948e+01
-8.148340769104830628e+00 4.047703648848990921e-02 1.840598006329232916e+01
-4.886424585910347673e+00 1.891275840046999557e+00 1.268789337137872408e+01
-5.730898690905656068e+00 4.103518940817942884e+00 1.852072026892907886e+01
-4.802845592089532545e+00 2.150162606548710720e+00 1.307277036694145878e+01
-4.867304135906273643e+00 2.874597360559998371e+00 1.427178321356034374e+01
-4.867311895204253780e+00 2.440515616414288935e+00 1.353835919826399348e+01
5.758944858885465257e-01 1.048626262750975702e-01 1.743044686143853639e+01
-5.925169269560312202e+00 3.004017874550799050e+00 1.468890357627350696e+01
-1.680687766450713827e+00 3.270376984683017518e+00 1.769171659113317574e+01
-5.713516901110137880e+00 2.672205134460689635e+00 1.410808792253275712e+01
-5.522454075283772745e+00 2.357143438225199894e+00 1.354049355368141860e+01
-5.861106075863339981e+00 3.106750447752729016e+00 1.476808749713525870e+01
-5.097519674119625144e+00 3.279118409921816024e+00 1.487960715619437124e+01
-5.725780319083662917e+00 4.534935522019156728e+00 1.674320382991880152e+01
-5.928753939777545057e+00 4.675004323549865504e+00 1.699966276542706467e+01
-5.104833358472365745e+00 2.182272002668323552e+00 1.314444067276635408e+01
-5.127747268586332119e+00 3.325862041215885689e+00 1.495296265659183277e+01
-5.529607363550273824e+00 3.831940927340285796e+00 1.571302883658619365e+01
-2.823651106179392745e+00 -2.735206676156339833e-01 2.005821041955011097e+01
-5.262911580877822182e+00 1.929970533415151124e+00 1.280133285780580721e+01
-5.335726558938785224e+00 -2.918802172119709937e+00 1.791780835263113048e+01
-5.076145994499616343e+00 1.692675523798773618e+00 1.243052229904729344e+01
-5.757912089816377588e+00 3.939731991969824598e+00 1.590687723468485260e+01
-5.740569909918690428e+00 4.128466532043308490e+00 1.616334358923733916e+01
-5.314610364923930241e+00 2.324115839024205599e+00 1.341364609584912770e+01
-2.399824574185899007e+00 -2.714192230523069682e+00 1.824758555094012635e+01
-3.294023568719699480e+00 1.051665629193278662e+00 1.228729567332214501e+01
-4.648698009425461741e+00 8.934810444271479302e-01 1.226799145722013762e+01
-4.468551496564276526e+00 7.515541220427189861e-01 1.247958123061163960e+01
-4.282349196638207900e+00 7.342679052512026683e-01 1.250122616229568351e+01
-5.613551769608099207e+00 2.416145904263718447e-01 1.958357443616371185e+01
-4.431841287329275403e+00 6.525376935412415813e-01 1.266659191311692823e+01
-4.851150017970095263e+00 8.897352634457101894e-01 1.228512748713977842e+01
-4.865098125295061138e+00 7.860741926690621995e-01 1.244890597402241283e+01
-4.846755500376233705e+00 6.613798752630690725e-01 1.267063111067139047e+01
-5.143695654743630108e+00 4.768225804850092509e+00 1.735856047461127716e+01
-5.066542071103009803e+00 5.744782025210620757e-01 1.284030532122170953e+01
-4.652845113550075240e+00 5.905383127974936919e-01 1.282154805762953131e+01
-4.214602380834714168e+00 5.922715375325977583e-01 1.278255920014847291e+01
-1.790558518638319274e+00 6.822531716309588878e-01 1.338048092388604360e+01
-5.442575277589692284e+00 3.769721775940124697e-01 1.322627922327748351e+01
-1.248846852894734294e+00 5.140083085088349435e-01 1.385972669177471417e+01
-2.369774391714936979e+00 3.949800242075927947e+00 1.797700943323519240e+01
-5.028749955677985994e+00 2.427772826528555583e-01 1.363311658211909716e+01
-6.086744539805009957e+00 4.864451083637552742e+00 1.807034406802642579e+01
-4.819313524253953318e+00 1.971895820601383686e-01 1.385563296704737368e+01
-2.664355671478689569e+00 9.038335282531806403e-01 1.266743190350052473e+01
-2.311564307000368856e+00 7.772865568218276788e-01 1.290413501194518986e+01
-1.518127827084033932e+00 1.637780167407645537e+00 1.508115701039701051e+01
-3.331330931410632523e+00 4.570849512759915356e+00 1.876402407004422557e+01
-3.712557619218625149e+00 4.725771951454531106e+00 1.867677671902483283e+01
-3.761686715291410188e+00 4.583958079012194986e+00 1.871303998574233773e+01
4.718749200228660179e-01 6.421296271300238612e-01 1.805723533059117258e+01
-5.343749095837582175e+00 -3.650366448975216116e+00 2.026940702813203288e+01
-4.886624735981925483e+00 1.085109560114343730e-01 1.409913954607214137e+01
-4.248636198900889838e+00 1.637401979083868142e-01 1.423373119007809251e+01
-4.028546292814708885e+00 2.060452347898319436e-01 1.404516904897959861e+01
-3.317036531055717941e+00 4.394449135278017948e+00 1.881226432282999994e+01
-3.537636340110771549e+00 4.364569802002081111e+00 1.880067244929199788e+01
-7.165746274711877639e+00 4.339117139722945993e+00 1.733813871663147310e+01
-1.458532890388200220e+00 1.483889700492910357e+00 1.488700332916386415e+01
-2.993667050234041227e+00 4.711449858220232656e+00 1.870081416013484343e+01
-4.148324097763212315e+00 4.144909233452102271e+00 1.878726937159345667e+01
-4.541850465882212085e+00 4.322705715688703876e+00 1.868307229925108359e+01
-4.338709345502885562e+00 3.954636147734493790e+00 1.880890767618458526e+01
-7.754989644523081260e+00 7.601929285654697166e-01 1.489537989111328997e+01
-4.948006186389323879e+00 4.332377053629005381e+00 1.862365617927421013e+01
-2.742657267591440018e+00 -2.381190445355644059e+00 1.802452137800076670e+01
-5.962046060186396268e+00 4.696141940231286505e+00 1.821314737814360640e+01
-4.827000599667175429e+00 -1.088357146791336660e-01 1.472186191761710106e+01
-4.647067827247612470e+00 -2.395456430432818529e-02 1.463254218711054122e+01
-1.737505757589320687e+00 3.763203811411724331e+00 1.855798152675550128e+01
-4.614612715715950664e+00 -9.848171939994249113e-02 1.485307860931553492e+01
-3.367250336415035683e+00 2.632961003550003731e+00 1.477480075723091701e+01
-4.647863377012691366e+00 -1.815213564889349152e-01 1.502349228344835907e+01
-5.309039971986646123e+00 3.031980261663973941e+00 1.451087482483193369e+01
-5.669572420295730275e+00 1.675374287268084350e+00 1.928446844975042396e+01
-2.434830147011238122e+00 8.008748468693349665e-02 1.442186219422773164e+01
-7.977510120704971008e+00 4.834793280395370818e-01 1.550026927487141748e+01
-4.519766798855268775e+00 3.902996668900756028e+00 1.879754963705972770e+01
-4.946818379561102041e+00 4.122272157521367220e+00 1.868220562109147309e+01
-4.926327536790960693e+00 3.727832060244464785e+00 1.878355838277424894e+01
-5.806313375063244742e+00 4.346141367923189058e+00 1.842453592657195927e+01
-4.840590370452358293e+00 -3.402500568371115142e-01 1.523730747846237321e+01
-4.607557216051207938e+00 -3.625917634144649737e-01 1.545304198947361485e+01
-1.458102941345235992e+00 3.099582777426849844e+00 1.769090223030723408e+01
-3.781749820528037098e+00 -6.716156664363537310e-02 1.515404137436818033e+01
-2.846804569786640204e+00 -2.246114479126620767e-02 1.478667092080747736e+01
-5.743578001352046769e+00 3.371391176538685919e+00 1.510459774701329749e+01
-2.635415829682967725e+00 4.605879897432552106e-03 1.465603101390636098e+01
-3.017306537307480774e+00 -1.397853764552042799e-02 1.481711882671327984e+01
-8.183346197489353102e+00 1.234570205961277312e+00 1.805192374348608908e+01
-2.929008996576730528e+00 3.346679038737930156e+00 1.918631988338689709e+01
-7.337868574722459236e+00 2.557529557596806669e+00 1.549133268904479976e+01
-2.710409919329141104e+00 3.402563507324575021e+00 1.918771658516215339e+01
-3.138675209457979953e+00 3.362191077004921702e+00 1.915551379454241854e+01
-3.687422191393372017e+00 3.490204924066655501e+00 1.903809974726889109e+01
-3.935221495105615475e+00 3.549601252134407581e+00 1.898352005638264117e+01
-5.685974868278677263e+00 3.897111421588006941e+00 1.858839171401132617e+01
-6.396019480813199820e+00 1.906695721867766480e+00 1.373520243098576188e+01
-6.116660102631763962e+00 3.874228559576617492e+00 1.847655526719964669e+01
-3.604082426420105456e+00 -1.173695591289450890e-01 1.525613597301387969e+01
-2.821220441505801091e+00 -1.023642474575330863e-01 1.504282914115915659e+01
-1.823053864960593184e+00 -3.184117719701516913e-01 1.505124221205758417e+01
-5.968814311110462789e+00 2.688742200125715520e+00 1.432541077259999796e+01
-2.628747819285391918e-01 2.448366018657466725e+00 1.870527051121871764e+01
-2.706871922787826623e+00 2.985212016744751118e+00 1.935677180214514337e+01
-1.122131813668994615e+00 1.236562503406752445e+00 1.484949920182113559e+01
-3.912312227780645468e-02 9.556574806055156968e-01 1.566335851925975575e+01
-2.508016819347890003e+00 3.156175420934998144e+00 1.931457977252039981e+01
-3.921229620431581075e+00 3.128997486279829765e+00 1.914390417545782341e+01
-4.510223909640256323e+00 2.924015552114008543e+00 1.913796736434491308e+01
-5.739372601859674461e+00 3.739903404027375089e+00 1.861318809495513094e+01
-4.924931447601781365e+00 2.164161500531405213e+00 1.309930487371033436e+01
-6.594424499093101133e+00 -4.748347715619387621e-01 1.440706441971226681e+01
-3.810576345374061979e+00 -3.669291670890192369e-01 1.581829458731163029e+01
-3.610327097390241491e+00 -3.871616818769385571e-01 1.586000408979611009e+01
-4.700980905020692546e+00 2.388885260216618178e+00 1.351693500181698582e+01
-2.818781301155436125e+00 3.947232371310585464e+00 1.740992338598010392e+01
-3.031011721115064006e+00 -3.025084253359231479e-01 1.564162255084506725e+01
-3.705274735347638959e+00 2.769916784332295379e+00 1.930276492243221398e+01
-3.493973880612879057e+00 2.605042328607209079e+00 1.938511895205855140e+01
-4.091449613370659044e+00 2.768410494192440119e+00 1.926191202027233018e+01
-3.895672263252595080e+00 2.518226374857109207e+00 1.936876023812852665e+01
-4.662325136870989262e+00 2.520679731674274393e+00 1.926593002758897555e+01
-4.480409422723593771e+00 2.510568241478236651e+00 1.929965990817757771e+01
-7.316481629202193915e+00 3.813688234381758524e-01 1.398601596494365751e+01
-7.357235645711280192e+00 3.276670092254293509e-01 1.405337708013347608e+01
-4.619282065408012450e+00 -7.784717351475185509e-01 1.622473835204724324e+01
-3.415942254359503494e+00 -3.845887159056258220e-01 1.585065347594183649e+01
-2.852323497189452439e+00 2.373055558573128998e+00 1.951476825162599837e+01
-3.108879436885619185e+00 2.341188145726138536e+00 1.949129535862445195e+01
-2.865795211668929809e+00 2.106936683425005175e+00 1.956430194322161142e+01
-3.469194499428758238e+00 2.523776235975654814e+00 1.941174729466352389e+01
2.399328766188577045e-01 1.386035655347044981e+00 1.721064786411089287e+01
-3.669303327497662082e+00 2.136810461350072021e+00 1.948202466888789886e+01
-3.881105774466239389e+00 2.314897505925008758e+00 1.942574098616234224e+01
-4.275744020871773188e+00 2.528918356386781419e+00 1.932402123697724150e+01
-5.292408808044541502e+00 2.106453741764664045e+00 1.926083924998311758e+01
5.877999468863815968e-01 -9.080077456563040439e-02 1.702527945583386426e+01
-5.492675115743082870e+00 2.067804640779916880e+00 1.922820013498915515e+01
-5.499791319681398782e+00 2.876180672787042703e+00 1.893368720594534338e+01
-5.708359937251264782e+00 2.702635444131527898e+00 1.894932438950938192e+01
5.116159352361562274e-01 4.518875993627686771e-01 1.905173076357447925e+01
-7.472103857419861050e+00 -5.850685388397347531e-02 1.444838321047921070e+01
-3.130091147367100035e-01 2.437024049305945184e+00 1.848461273368846136e+01
-2.601330907029641981e+00 -8.532925151915897732e-01 2.019616550248266762e+01
-1.845790066994241307e+00 -8.045765908540754019e-01 1.622681542302265356e+01
3.082367506891424691e-01 1.267302003470786698e+00 1.891001863039824471e+01
-3.101188494392794759e+00 1.806041170440212396e+00 1.958268810866303156e+01
-3.271297459414193476e+00 1.552042506074124750e+00 1.961594346459086680e+01
-3.674201310210914784e+00 1.735143189197692948e+00 1.956123004633171902e+01
-4.159158237284732884e+00 4.983675433302398261e+00 1.791423428732969469e+01
-4.074085528074562923e+00 1.929155336194972703e+00 1.949332974772276472e+01
-4.069024120893965701e+00 1.740272579689453814e+00 1.952648138788771703e+01
-3.585915302558931650e+00 4.917195419478396445e+00 1.820311514651821128e+01
-4.692475833735045398e+00 1.930599739847995933e+00 1.941614792019458591e+01
-4.950594777821021530e+00 -2.728856291576891024e+00 2.030068344250500800e+01
-4.854534531927097163e+00 1.874222780936010357e+00 1.940362069251855459e+01
-5.278086959631381525e+00 1.495478919823247654e+00 1.940049251603783986e+01
-5.674619835277279201e+00 2.480484962461609655e+00 1.904683052276137190e+01
-5.896183927298065619e+00 2.690346809141616724e+00 1.890369727752525719e+01
-1.554411433540081600e+00 1.810451146437641823e+00 1.533376260424175186e+01
-5.880549015713984140e+00 2.857940205321730431e+00 1.884014059913922168e+01
-7.567664703713714580e+00 9.240997368601892026e-01 1.450011991867017613e+01
-5.892915795010467583e+00 2.941063126067918532e+00 1.880491075603938000e+01
-6.306821837815675735e+00 2.755121322886838087e+00 1.876924876646713969e+01
-2.088318421404981251e+00 1.983939459333197153e+00 1.966361818892218238e+01
-1.878262510801058660e+00 1.739559858633519918e+00 1.972483083622936206e+01
-2.851858744327721240e+00 1.367644109754070803e+00 1.965649363167067420e+01
-3.031067900149981842e+00 1.169006771855278126e+00 1.969390507947452207e+01
-2.856614354328385286e+00 1.156991313096394247e+00 1.969511501604064918e+01
6.358542023686724054e-01 -6.918086187073771987e-01 1.681175671761308266e+01
-3.243371420628823998e+00 1.348068755319023815e+00 1.964905302830871747e+01
-3.432169950343798792e+00 1.354552199962429038e+00 1.964001466149668218e+01
-3.821665007854845086e+00 1.467625742141172696e+00 1.959342005751167548e+01
-4.056404945548677254e+00 1.330940502841067019e+00 1.959228511183933463e+01
-4.409398345574885525e+00 1.101243009057453204e+00 1.959747309161879159e+01
-8.414534990576736373e-01 2.303669346157628972e+00 1.707774048185110516e+01
-4.437190535252007351e+00 8.938210152158541089e-01 1.963279350422655156e+01
-4.644549567503829302e+00 1.329963504572591493e+00 1.952425450067925183e+01
-4.901592756951789198e+00 1.525381648696263470e+00 1.945720374528314878e+01
-6.104947970696165349e+00 3.202542094268254758e+00 1.509903688693404789e+01
-5.063854959540257994e+00 1.517111457826396670e+00 1.943534263357754455e+01
-5.262953425397714824e+00 1.264497440785861571e+00 1.943989919070496697e+01
-5.455484532446039481e+00 1.104693456209298930e+00 1.943359544128714944e+01
-5.590227533949918559e+00 1.246117893524040898e+00 1.938149865608205502e+01
-5.694791472469741933e+00 1.320946541118777962e+00 1.935301898938419995e+01
-7.432694047790853631e+00 2.903484609882257317e+00 1.596981643336095757e+01
-5.875987670262198925e+00 1.683713907202227578e+00 1.924410702999227496e+01
-6.061242264024904181e+00 1.681249800103488790e+00 1.920927887456510419e+01
-6.069882486389238885e+00 2.231202749833940402e+00 1.904072732907166809e+01
-6.933379979241892421e+00 3.768183804090970312e+00 1.647910371695138920e+01
