-3.515080972685444394e+00 -4.617952857333568417e+00 1.635353911822263839e+01
-4.912968664966918197e+00 -1.520167546923475888e+00 1.370144282709888373e+01
-6.522475689686567435e+00 -7.686035786317837459e-01 1.740981877182265336e+01
-7.905561934646639699e+00 -3.920962523065083527e+00 1.672201828605479434e+01
-2.461973727766833875e+00 -3.654093902498967705e-01 1.194134839557644412e+01
-7.429018625157496558e+00 1.991251655274213217e-01 1.663571220870230505e+01
-1.217519571666732858e+00 -3.449799374865628598e-01 1.212937442754995843e+01
-1.240724976332741480e+00 -2.804454292636699431e-01 1.202597771463706167e+01
-6.231541736385693753e+00 1.258705657560226898e+00 1.322369430643972876e+01
-3.689881666338819866e+00 1.894895415783144355e-01 1.779316599465950688e+01
-3.681827438397830665e+00 1.555476910392272760e-02 1.782232470357925891e+01
1.574668747625342369e-01 -2.836880552902190988e+00 1.441373737958452850e+01
-6.136919811425855187e+00 2.306489510473143767e+00 1.662019309738620976e+01
-7.003562695894085977e+00 -9.493796869742099354e-01 1.247415639748735217e+01
-3.724865450439442061e+00 -5.279973278567576145e+00 1.727065205704707651e+01
-3.603364219554211711e+00 5.488904106244796299e-02 1.156734958208535957e+01
-4.232200586776384554e+00 1.030616072835726982e+00 1.070204105959403762e+01
-3.417754783079017145e+00 1.296426853558960701e-01 1.141313270973119742e+01
-3.947547816338516480e+00 -3.544720500257194651e+00 1.569687690327539187e+01
-8.251355178804447021e+00 -8.997968920141823368e-01 1.543993998191089290e+01
-1.774427489452590878e+00 -4.197758851269009384e+00 1.579024710628550920e+01
-1.877413997286322633e+00 -4.472494539316342888e-01 1.793039838149218568e+01
-6.688014015123460609e+00 6.727291644803501391e-01 1.695694590160220017e+01
-8.134116212688759617e+00 -4.803451036938808927e-01 1.523627959847756941e+01
-5.730506037245884698e+00 1.929015325281891347e+00 1.356430684921400243e+01
-7.673602559899402209e+00 -4.621582024308267478e+00 1.633508807478868263e+01
-1.357455391681023471e+00 -2.767210048832079661e+00 1.475158499318760263e+01
-3.673004149925907402e+00 3.042431526822893861e+00 1.698378269732584656e+01
-8.212469687229337012e+00 -1.085180024077233574e+00 1.505716625372788187e+01
-2.120686366460991845e+00 -4.843735764225307605e+00 1.779775428043156538e+01
-2.653055458507731945e+00 3.478651021787019904e+00 1.625414631869320559e+01
-7.101489619487281857e+00 -9.468296054681182294e-01 1.727565260181836138e+01
-1.792897660544537475e+00 -1.245287832722441923e+00 1.799306764270684411e+01
-4.334995717847595631e-01 8.952713131946055114e-02 1.297199948718672502e+01
-5.072537785260781362e+00 2.497138106036177252e+00 1.397970733668290322e+01
-6.938359665579563185e+00 -7.763955023337386629e-01 1.729516341458895212e+01
-7.054725762398534883e+00 -1.213904256503504975e+00 1.732908963051232476e+01
-7.553880114598859663e+00 -4.588342570752406147e+00 1.621011894071536474e+01
-2.168408341598240252e+00 1.956175524048274550e+00 1.383359145509662014e+01
-2.912199958102943853e+00 2.589017474697916654e+00 1.425579478207970041e+01
4.856359898553462839e-01 -8.074874900264041866e-01 1.707622852008685399e+01
-5.510831513757029398e+00 -2.735665351384592991e+00 1.779338909141983649e+01
-4.733121036431514383e+00 3.084564476882409867e+00 1.474761159828087287e+01
-5.685654536616944199e+00 -1.363793971118304249e+00 1.285939423744956756e+01
-2.261923358458012956e+00 -5.442249683227223800e-02 1.787601532334396737e+01
-3.346272404388950683e+00 -2.850197431841830387e+00 1.530595721361470751e+01
-5.244971787208051239e+00 -2.625332648970217786e+00 1.781698323770813985e+01
-7.962189415927271696e+00 -2.724183196155026021e+00 1.676730586671046908e+01
-3.286711662898611053e+00 3.159453804281222133e+00 1.509708313865091966e+01
-5.087240503091546628e+00 -4.563822189512398708e+00 1.638388705649178334e+01
-2.927989897972986366e+00 -1.815873623824547645e+00 1.434029513895832153e+01
-2.793908020266776315e+00 -1.951890626519883210e+00 1.443562332771204026e+01
-3.775798723249645050e+00 -4.033684416679758300e+00 1.791012796696761100e+01
-6.921522863039624163e-01 -5.314684425625543440e+00 1.673448747308338014e+01
-5.485045844473410703e-01 -5.190460175589871383e+00 1.650718267319009058e+01
2.389873822597736730e-01 7.931582485034753827e-01 1.672784370592649950e+01
-1.263924736401612403e+00 -2.360079716024066077e-01 1.787696022770834148e+01
-3.733239689146726770e-01 -4.581509508596175451e+00 1.572278137255096553e+01
-5.359359361970636115e+00 2.206532888126271796e+00 1.371950067344263502e+01
-6.118656746178037231e-01 -4.643071227158515057e+00 1.582557735189053361e+01
-3.620846132832865827e+00 1.586048221968912486e+00 1.130017411481759737e+01
-8.302445044964908760e+00 -1.873528298348869914e+00 1.584886767156422493e+01
-4.252133993942164736e+00 9.076427412525767124e-01 1.058609907985496079e+01
3.688355691202477304e-01 -4.058989321730366306e+00 1.540109040004543672e+01
-6.041935725244268474e-01 2.259404616092451246e+00 1.683225964895590820e+01
4.380737054325607449e-01 -4.308929893105373665e+00 1.570185817740344092e+01
-7.256230287544391810e-01 2.226502128107413991e+00 1.643369378171056283e+01
4.731899673346828816e-01 -4.140010994418457102e+00 1.574525638703875430e+01
-3.736721193165881139e-01 1.041551627238596955e+00 1.477375427120325568e+01
-7.865713441954767404e+00 -2.545265971417413287e+00 1.692814801965770144e+01
-5.902042980503097169e+00 -2.995259051947563478e+00 1.772882991533441910e+01
6.526158609978969238e-01 -2.416000694063053622e+00 1.574598908064708169e+01
-3.104850910482921389e-01 -3.862146331113723630e+00 1.793079123581003032e+01
-2.452679705810182575e+00 5.271745941896410770e-01 1.063677883864798446e+01
-6.949083595840239269e+00 -1.056557030781264839e+00 1.248355930386036405e+01
-4.781939762663584559e-01 -4.247992870937980392e+00 1.786603417337407862e+01
-4.083759154181185735e+00 3.675205298586571967e+00 1.554953715710967188e+01
-4.793606826010827215e-01 -3.626301713125836823e+00 1.796941251397454309e+01
4.843884468851380465e-01 -2.530879518656652394e+00 1.497413678505223444e+01
-5.287971010561530960e+00 -4.193258294297371513e+00 1.775451498319478461e+01
-6.281769629268628918e+00 -4.062032851641694808e-01 1.741511497761128524e+01
-2.362336085151380161e+00 -1.996416152653379239e+00 1.428580629922435818e+01
-5.133366483572437744e+00 -3.454145487247979318e+00 1.780970762670736107e+01
-3.132600527403083479e+00 2.569907630705400958e+00 1.388474081301167118e+01
-4.175460613193559212e+00 8.662457689344229550e-01 1.050044406929205110e+01
-5.451489588688973598e+00 -3.197573324306431264e+00 1.778946492559412107e+01
-1.847649027111997189e-01 1.487158245829305336e-01 1.352294628222415795e+01
-6.126538938231210096e+00 -2.068957335119046448e+00 1.349318397333876263e+01
-2.699880338414132996e+00 -2.232372631572095756e+00 1.797897757603016444e+01
-4.724586974508559578e+00 -4.807291405320201605e+00 1.774537226265919898e+01
-2.303801434685856631e+00 -5.415862435354247495e+00 1.770143572758491857e+01
-1.715602563214185583e+00 -1.541434218860218808e+00 1.357815627341760134e+01
-1.304703252620017961e+00 2.270637409328181811e+00 1.561906880098129946e+01
1.617260089190062367e-01 -4.832319052873209841e+00 1.734225011277788653e+01
-5.118556020136677986e+00 3.323710262847305419e+00 1.665442643386193211e+01
-5.497305829722566983e+00 3.711710654301498824e+00 1.619920263047860587e+01
-1.126191936714483033e+00 1.701299899895559076e+00 1.480522696906755797e+01
-7.122531355458077584e+00 -9.156500613378658615e-01 1.251719549231164663e+01
-7.355485674626800474e+00 -3.476481582492009892e+00 1.489002260294164515e+01
-7.186018038474575320e+00 -3.376969070248863503e+00 1.480491902033075391e+01
-1.665035462182441028e+00 2.178667457461941570e+00 1.495250362843426828e+01
-3.086642468205116785e+00 2.245743102567299143e-02 1.785419000864190409e+01
-3.263012266524216276e+00 -3.777416189870865804e-01 1.789395024039479765e+01
6.565551856328440961e-01 -3.021046759321960096e+00 1.602023061282444516e+01
-7.576285691736396544e+00 -2.769277830406513541e+00 1.722349896374326406e+01
-8.044963828988429100e+00 -5.042109561514976912e-01 1.586326845124598961e+01
-1.520502161765250104e+00 8.570382812345247459e-01 1.247932567825957406e+01
-2.753500611964946998e+00 1.828579462843360037e+00 1.263443941965092066e+01
-7.987593499154321819e+00 -4.954892269970800900e-01 1.604920699110315851e+01
-6.014466217538023685e+00 4.804191778135675772e-01 1.203916170141689079e+01
-7.775214899524572232e+00 -8.702553988650202355e-02 1.629530851994221408e+01
-4.742744592450366170e+00 -4.446841250108601429e+00 1.778005749880054154e+01
-2.977967648668111700e+00 1.649660193318204904e+00 1.182854456030675649e+01
-3.722926425043902032e+00 3.113555571423368473e+00 1.451162474950532655e+01
-4.444783436706018165e+00 -4.792552197955995963e-02 1.148130862318982182e+01
4.807808889143566633e-01 -3.208703264921989984e+00 1.713974942157093651e+01
-4.688486958344224576e+00 -3.422666945283000750e+00 1.785122469504979037e+01
-5.508906786954639756e+00 3.537270924634259739e+00 1.596923356704229136e+01
-4.705270574826716512e+00 -4.058501837864499251e+00 1.780998306713126667e+01
-7.838681103698464270e+00 2.908086164313654631e-01 1.514690874324091752e+01
-7.087097326773156070e+00 1.555827682485023900e+00 1.473885674844256144e+01
-3.046864615856930136e+00 3.718738197876926943e+00 1.680602920804690470e+01
-6.513855097357957646e+00 -4.600609263946140004e+00 1.618465292610263262e+01
-1.782444877118378068e+00 -3.985828986495673298e+00 1.569799085160633823e+01
-2.738243992316317321e+00 -3.923707129495390689e+00 1.582416061238335558e+01
-4.190711856486918907e-01 1.808040537574589379e+00 1.705613915569079708e+01
-6.717806654194624638e-01 1.984444931388532840e+00 1.714042982666839166e+01
-7.394976261758326785e+00 -2.839182162426063805e-01 1.693857825828169084e+01
-6.347749111008011980e+00 2.590384067723334738e+00 1.507498456027662925e+01
-7.166305049060976984e+00 -2.358416095105710042e+00 1.362743075363802703e+01
-7.386116230177648845e+00 -2.276014524371323233e+00 1.350698277756356802e+01
6.634249939962063580e-01 -1.430150730243747947e+00 1.683657929818435051e+01
-6.498626511392815885e+00 7.184575964863093578e-02 1.723354181683756892e+01
-3.752473763699584186e+00 -2.707652832357192008e+00 1.521634734013770540e+01
-4.730219750422559599e+00 4.082073763203328820e-01 1.092129421231274122e+01
-2.541229626355145932e+00 -4.492277663479458560e+00 1.604585463572776760e+01
-1.913275651395684562e+00 -3.216160345433802803e+00 1.795781002148121175e+01
-5.694729624213078267e+00 -1.395076471579367317e+00 1.770074397541798916e+01
-7.690896163520982709e-01 -1.003172813436843835e+00 1.290175671105604138e+01
-4.372257044790716307e+00 -2.770507442037460244e+00 1.521477838232433655e+01
-3.977454258248787067e+00 -1.437262507341844575e+00 1.394279316994993323e+01
-4.232070912544438457e+00 4.755973737627828823e-01 1.078157160700877881e+01
-4.470979827590078060e+00 3.416779183634232275e+00 1.673784422932812888e+01
-7.202598011920176901e+00 5.567331068217995504e-02 1.287997924945472406e+01
4.214819000942346960e-01 5.407897067694145132e-01 1.646232555563083721e+01
-2.476995691693486101e+00 3.433545538968717281e+00 1.698172858594712764e+01
-1.164514567244554266e+00 -5.594966659105928386e+00 1.725111637186467206e+01
-2.640727363032273178e+00 3.737221732512541639e+00 1.683989070647572461e+01
-9.439022234939732359e-01 -2.674269813334638091e+00 1.801555092550139747e+01
-2.462546572044890247e+00 -8.648660505167168333e-01 1.794362840772506829e+01
-3.856855821531718354e-01 -5.395582021797382666e+00 1.683234906246917362e+01
-7.216372141909634941e-01 2.375130814111949817e+00 1.681092630748632288e+01
-6.497585688325405728e-01 -5.479052563742737192e+00 1.698471331877135881e+01
-5.555196048929168517e-01 -5.341178969952270705e+00 1.675387036291828124e+01
-5.386831648957130625e+00 -2.424094004492768129e+00 1.467837080112711234e+01
-7.071514501429691180e+00 4.323539175572409521e-01 1.684814274558770464e+01
-1.932035986074793765e+00 2.635523272012268325e+00 1.549527731113608908e+01
-6.439553997107905658e+00 -1.023357523399660574e+00 1.231768445075952556e+01
-2.352855939536671492e+00 -4.677604363151141698e+00 1.782474293350557204e+01
-1.468386749006584724e+00 -1.129179306693001816e+00 1.798902254643077114e+01
-7.972541062644525667e+00 -1.601030610354026607e+00 1.360651420457385186e+01
-3.607150110066986493e+00 -8.976139949472337065e-01 1.325248750633964434e+01
-1.638957634344265779e+00 -1.190907856595683212e+00 1.799479447107593089e+01
-1.903449238658436737e+00 -1.056014458269127765e+00 1.798013248781496642e+01
-1.923602008584212708e+00 3.856275246020024472e-01 1.102762587865634103e+01
-6.535306557560948804e+00 -3.584302018257582656e+00 1.756090521211450906e+01
-7.582810852072674024e+00 -4.366154684665186636e+00 1.586160320254550626e+01
-7.439529490013795154e+00 -2.580413905986869150e+00 1.376586055833638866e+01
7.342236183960498819e-01 -2.387198799144129246e+00 1.617795540877845539e+01
-5.153059565240686979e+00 -4.685721868913118371e+00 1.664573146822075600e+01
-4.980710085380991359e+00 -4.652038435909288339e+00 1.657851864067859893e+01
-3.730108376018006044e+00 -3.814914130496487310e+00 1.792855800286757173e+01
-6.456583098800448894e+00 2.822774936365200382e+00 1.609164902703517086e+01
-4.843426818098439668e+00 -2.078958440867961777e+00 1.782692773713909773e+01
-1.352098243943919753e+00 -4.191989072225697832e+00 1.571370861938976660e+01
-2.602425527471943223e+00 -6.798264554579698249e-01 1.246660513566630257e+01
-6.813437860877042951e+00 1.804036243590271926e+00 1.465000603999176221e+01
-1.176888122760062716e+00 -4.220367966824719375e+00 1.568679264568785570e+01
-6.526027444209953066e-01 2.241642042757855613e+00 1.660492783615888257e+01
-3.591509263319665024e+00 -5.818456258998736530e-01 1.272190275387873371e+01
5.483922479085473478e-01 -3.004134176832207626e+00 1.699014858215238988e+01
-2.270879657368107374e+00 3.588075589662104159e-01 1.780656457794026792e+01
-2.771734310162752291e+00 -2.764517400674234349e+00 1.519151585929371251e+01
-2.504381009402356195e+00 7.956180065253013467e-01 1.771886290972996036e+01
6.080660564031736826e-01 1.538078189540368346e-01 1.607187440113567689e+01
-5.407062487427873876e+00 -1.358098161020915851e-01 1.159698708926949351e+01
3.992276071092514811e-01 -1.005686748856877255e+00 1.731875933341776275e+01
-2.559613202985797642e+00 -4.687476535575969550e+00 1.622857377545868118e+01
-1.767076715723486791e+00 1.210891862068784075e+00 1.278458100244876405e+01
-3.532530397226658625e+00 -3.943534950328681621e+00 1.589727178396778484e+01
-9.548724893669716662e-01 1.806107815554946594e+00 1.523914315807481401e+01
-2.267160371920053485e+00 5.537927322657336671e-01 1.776787342218885968e+01
5.330220523572996028e-01 -4.575629071864513620e+00 1.654143193266896006e+01
-6.611033963167949778e+00 -7.219206099326711534e-01 1.223408799182252338e+01
-7.127327118058990330e-02 9.057044578796926704e-01 1.512164641465743742e+01
-6.442716783112734547e+00 -2.769754081350664254e+00 1.439669171319676977e+01
-7.058984773046944383e+00 2.705984535496208654e-01 1.299457728337502616e+01
-6.917364182423062502e+00 -1.559950619632302748e+00 1.740737761093356184e+01
-4.010841745400031577e+00 2.350166610097507158e-01 1.114990011021014382e+01
-5.145083102070454828e+00 -3.896014557777653486e+00 1.571662852583726888e+01
-5.733632946262458674e+00 -4.386359307602152313e+00 1.597225578617553410e+01
5.761142063150023751e-02 3.096905617424339230e-01 1.722602132085437532e+01
-3.112775068503248921e+00 -2.432398780765659296e+00 1.797685937031045356e+01
-9.483790688929979451e-01 -4.013432486790758702e+00 1.549109180700516575e+01
-2.055280083586986883e+00 3.413527687434503299e+00 1.671027001729261841e+01
7.267442207406871191e-01 -2.800515277651457247e+00 1.657770094402380678e+01
-3.560076207537022697e+00 -4.743057420073355956e+00 1.655310565927385724e+01
-7.517883797302562954e+00 1.102779486851856339e+00 1.550842308831045457e+01
-8.950381308158874560e-01 -2.259175490088844995e+00 1.408698937238270688e+01
-4.028312322677299329e-01 -3.151373122851918840e+00 1.473007131420098759e+01
-6.559210571576560511e+00 -2.902955751066944590e+00 1.450341955086007673e+01
-4.704314462174796319e+00 -2.687251205180374303e-01 1.770916720918358678e+01
-7.492334491774073513e+00 -2.777354082632620624e+00 1.727165900263016951e+01
-1.807795456731650763e+00 1.550615505514289172e+00 1.751829297605276636e+01
-2.019633534557788046e+00 1.543706025791948377e+00 1.753173167692694179e+01
-9.444005060972157084e-01 -5.372149545046893238e+00 1.760012419642781722e+01
-2.099578282990909539e+00 -3.625875116856988711e+00 1.792368482176963695e+01
-1.342437438347586998e+00 -5.403060410817435155e+00 1.763096290120636311e+01
-7.873554868081837910e+00 -6.661819662357931771e-02 1.468656018883110548e+01
-2.541736086646582571e+00 -5.025203061950884731e+00 1.779330974140414057e+01
-7.814755026396555948e+00 3.803224737555348511e-01 1.526013122420895840e+01
-5.865844709157640224e+00 -1.582364463030387913e+00 1.768207298613650025e+01
-7.809596683678785567e+00 -1.467794305240253561e+00 1.687037837115491712e+01
-4.723369689610711575e+00 8.523696435762877499e-01 1.750072031670745432e+01
-5.075389376625851767e+00 1.031509977943821932e+00 1.741153315509837185e+01
-1.319608355788138426e-02 -1.834519638308717893e+00 1.790312725706427344e+01
-4.679291887613103995e+00 -2.189600988250104407e+00 1.784358284629197655e+01
1.591312520450491319e-02 -3.803415799322726443e+00 1.505094619215438101e+01
-4.527466431172657124e+00 -4.195127677873268013e+00 1.782087733409136732e+01
-1.653257078286751725e+00 7.472727760975903522e-01 1.770057888952271341e+01
-3.147080526654942645e+00 -4.826037955958714099e-01 1.245921546647065625e+01
-4.308341233753013810e+00 -4.222887272841827411e+00 1.784466181845857946e+01
-5.542392851894518913e+00 -2.307057781450414957e+00 1.449600161093195894e+01
4.055454440147967521e-01 -2.284446550145184052e+00 1.750702376679616279e+01
-5.414459482985343186e+00 -4.450840116918533540e-01 1.189255837503025859e+01
-5.899752275791156464e+00 -3.984768743753895670e+00 1.768472135196921968e+01
-3.446320130634169754e+00 -5.309115373407987448e+00 1.724830309823942187e+01
-4.295737564754169568e+00 -1.222024336427182334e+00 1.782832040393971695e+01
-3.615868609480915818e+00 -4.034501786542716850e+00 1.593838856175056051e+01
-3.798135113127528051e+00 -3.912232296651848351e+00 1.588262326900452948e+01
-1.400735941664467132e+00 5.898814016353255418e-01 1.216234820937168948e+01
-1.954087293178157880e+00 -2.867573762244891800e+00 1.503991883278638753e+01
-3.074305985840724897e+00 2.590257211640140333e+00 1.722127822299552591e+01
-5.014303237764627497e+00 -1.121408302403734680e+00 1.300160060352886759e+01
-3.491874001409314143e+00 1.400671981392149323e+00 1.752015855083557128e+01
-1.211024047771910306e+00 -1.358160222881521495e-01 1.170427276454647014e+01
2.970538894812848607e-01 -4.747156435162033228e-01 1.364039378467070307e+01
-6.002771509459760679e+00 -2.205209382967406206e+00 1.392303900189127219e+01
-5.797955646730112989e+00 -2.190072286108672550e+00 1.415357385685019054e+01
-2.307932151184855840e+00 7.845721776667700098e-01 1.105016584901727583e+01
-6.171876199198345958e+00 -2.434433964107894255e+00 1.412678946853170103e+01
2.639711530994752475e-02 -5.113452021316074791e+00 1.628547436166958207e+01
6.125002258505342079e-01 -1.808060785026696538e+00 1.704422213364261651e+01
-1.325355104929907712e+00 1.026146480566501706e+00 1.315091661752419228e+01
-2.839201704472297472e+00 3.542417684152950885e-01 1.087086950165759802e+01
-7.850963284548946319e+00 -4.480724263020599452e+00 1.661621574358241915e+01
-2.287994801271501455e+00 2.208544058120703202e+00 1.737866368669468287e+01
-2.833812044524228746e+00 2.817230658993138404e-01 1.097400176929546589e+01
-4.989424197087233281e+00 -2.105723595517091873e+00 1.447069690231302630e+01
-1.290921746812074167e+00 -4.625259828415400065e+00 1.777792794014802880e+01
-5.575745928197555656e+00 -4.160873693676911955e+00 1.581215195638616322e+01
-6.212722792989220366e+00 -2.972689789282318973e-01 1.190270235631147600e+01
-6.821830030146490031e+00 -2.947788655495695576e-01 1.210726382340296325e+01
-5.335410217023655477e+00 -3.923524532163553236e+00 1.570621240957112619e+01
-4.281268723582853042e+00 3.467907123575079797e+00 1.674466421388613568e+01
-3.578444577418041228e-01 1.243036260676537497e+00 1.516609533851419300e+01
-1.823839976473501379e+00 9.758657793575205019e-01 1.220407629046160380e+01
-1.061415501698727670e+00 1.980848506817209920e+00 1.728409126513175309e+01
-1.229184614374790652e+00 5.389693339925303306e-01 1.236447894716549101e+01
-5.154653725680745424e+00 -2.849010027689783175e+00 1.511481363900245256e+01
-5.773363937230602261e+00 2.744464370802302877e+00 1.665067529438508487e+01
-1.703057494245967307e+00 -3.070096605616905006e+00 1.797082452667929076e+01
-3.255477765454887429e+00 -3.211558875393186963e+00 1.553859745245849311e+01
-3.371814021285124863e+00 -3.495261842369713712e+00 1.569308900870514023e+01
-6.917145351650972884e+00 -3.314403410644748416e+00 1.486999995259467866e+01
-5.992534294048553534e+00 8.705752378375748446e-01 1.718353454486230802e+01
-3.299011624622505412e+00 3.996946938159690044e-01 1.778872019980749641e+01
-7.652964746428335019e+00 -4.099360942955268428e+00 1.701173658694218815e+01
-1.062091613924480260e+00 1.396817437204466161e+00 1.431016262745859180e+01
-6.791317748479718475e+00 -6.652586638652003836e-01 1.731675742364934578e+01
-4.374237107647143574e+00 -2.021534765594393601e+00 1.456204870955619057e+01
-2.305669631389099639e+00 -6.391309008016146098e-01 1.793750705264579537e+01
-4.427383969083349413e+00 -2.191841848330501108e+00 1.472959370275005497e+01
-3.397654238779256541e+00 -1.979214796549695121e+00 1.461983033761807249e+01
-3.542125636712688319e+00 3.251070820645365789e+00 1.495854658438601703e+01
-2.108360707103699827e+00 1.194361713136666170e+00 1.761703112481005107e+01
4.334621907337254942e-01 -4.758435165461659011e+00 1.591507794224891015e+01
-7.723858391753674724e+00 2.834672108817847258e-01 1.610027928777536133e+01
-3.070660476297178837e-02 -1.033069489640034422e-01 1.334272733337367711e+01
-5.788765600299299763e+00 3.461018887171133596e+00 1.629395518421238975e+01
-5.067411552688261267e+00 3.228616746972199358e+00 1.524144246422929783e+01
-4.531200232355963919e+00 -4.646153706789018401e+00 1.654452025956556227e+01
-2.838410736006355073e+00 3.705107749274966888e+00 1.651596462494949336e+01
-6.087275364677564582e+00 -4.391640919199391924e+00 1.758536516213748158e+01
-5.736795296317778181e+00 -4.386453597578425345e+00 1.767752405772569446e+01
-4.069043467428754113e+00 -2.425734944987793185e+00 1.792154894592627912e+01
-8.065233761453169947e+00 -2.323649687540861652e+00 1.656433312205994568e+01
-8.015835642952456652e+00 -2.319676895442585263e+00 1.666519300702354300e+01
-4.235834711138657838e+00 -9.426311035244013814e-01 1.298740452917918375e+01
1.406372910358042738e-01 1.198590810374023263e+00 1.654927787730002464e+01
-2.747308976744263109e+00 -4.984344495485240500e+00 1.780103283618408838e+01
-5.707209285061320969e+00 -4.624015638794110927e+00 1.764640363382607902e+01
-7.173773261905266097e+00 2.069531463830123208e-01 1.308127541706020125e+01
-2.568699515661935440e+00 -1.545371482952182296e+00 1.383539025078937712e+01
-6.670299940764241597e+00 2.294792086003159870e+00 1.617917130805470194e+01
-7.975662196365174150e-01 -1.190491428819097974e+00 1.796945393264677548e+01
-8.280349162886619041e+00 -2.287399018066632372e+00 1.501324764716140336e+01
-4.322991175760407145e+00 1.029323018691822300e+00 1.751335461985438613e+01
-4.499580645995834516e+00 4.016620999655440727e+00 1.624580861093165751e+01
-7.350301052426581050e-01 -4.421093030673668878e+00 1.568130328438168064e+01
4.344375168102627693e-01 9.357766779827780823e-02 1.470703582315464431e+01
-4.207503757698107805e+00 -1.814729884978490970e+00 1.437014852637831908e+01
-4.173148908077934038e+00 -1.608865318830766666e+00 1.411607089686144079e+01
-2.673705525600658994e+00 -1.242765307672044184e+00 1.794733435337744609e+01
-8.250698223828871747e+00 -3.046001898552604725e+00 1.587702144726523201e+01
-3.959267687855080986e+00 -1.787161441023216391e+00 1.439865983547954542e+01
-7.869153809675031752e+00 1.071466115342757375e-01 1.585450253926307695e+01
-2.719369958602195769e+00 3.749817852106379856e+00 1.661323045270470189e+01
-9.970004021791621929e-01 -3.350464781116589408e-01 1.210160135023328465e+01
-2.732223684356469562e+00 -2.454269123318010060e+00 1.492016582913289469e+01
-4.788859843250774517e+00 -1.049991052273240522e+00 1.295335009155801842e+01
-6.411193484619786886e+00 4.550894297513782272e-01 1.245497109199683550e+01
-2.499002990153220249e+00 2.770341659978378779e+00 1.722006055911624500e+01
-8.231904967496442183e+00 -1.025049422619949357e+00 1.523129284144640749e+01
-2.434513827884100312e+00 2.411065260363729479e+00 1.732638487252502202e+01
-8.928469441635369375e-01 -1.279968056409061195e+00 1.798400236577862543e+01
7.675318561919139415e-02 -1.639441972273768311e+00 1.780977047822808501e+01
-3.183049592697684282e+00 -1.158985973253331636e+00 1.358730230426282404e+01
-6.250137828613377522e+00 3.016181071045460627e+00 1.567031933199914207e+01
-3.161114154993309722e+00 -1.403599679322962590e+00 1.392338687059685398e+01
-8.886894788699113701e-02 1.579963427085349981e+00 1.677577255592143857e+01
-4.353750203537124719e+00 2.583026769098551778e+00 1.350948907777813801e+01
-3.605984901982527191e+00 -3.199862123509100709e-02 1.173270688974798404e+01
-8.033177734228313938e+00 -4.134529436950217018e+00 1.639282089140965226e+01
-2.972388638957975893e+00 -5.262869357121466862e+00 1.710051623754680961e+01
-2.296891615993900349e+00 3.202403582692627815e+00 1.708195752414608748e+01
-2.438612396486261158e+00 3.008761510997919775e+00 1.714249430999542412e+01
-3.694724927579793761e+00 -1.835375440530564006e+00 1.793614125518176294e+01
-5.937388091812751512e+00 -1.871504924453775143e+00 1.334650214290389769e+01
-1.981531233570721362e+00 -1.985547593826322954e+00 1.413450794614317019e+01
4.479631243862374212e-01 3.875627561554535472e-01 1.652411122527160003e+01
5.595080648763628428e-01 2.465928585436136800e-01 1.628879607169516319e+01
-7.438625119084258941e+00 1.269000646298145796e+00 1.535630891640520801e+01
-7.399323399842883120e+00 1.369392625178851519e+00 1.553758937175527777e+01
-3.026925880566473381e+00 5.821754726083305798e-01 1.776245852391935287e+01
-5.469396888066262008e+00 2.245675364038182575e+00 1.698928397493876119e+01
-2.064111386197788889e+00 -1.633938163046344760e+00 1.799043366931547538e+01
-2.233789201952944392e+00 1.508440130059056639e+00 1.269667412901508285e+01
-2.426527770402105322e+00 7.170498349499809798e-01 1.080739238029405769e+01
6.602065309109013125e-01 -3.378323709103917771e+00 1.612887566579606258e+01
-6.963710023257258186e+00 2.169107118372401999e+00 1.552739840491821255e+01
-3.740977245878463808e+00 -2.175626945512441068e+00 1.480949443892543727e+01
-2.862567562741519467e+00 1.193112174680920567e+00 1.762096721573169944e+01
-3.464322970899269993e+00 6.166686879164873236e-01 1.056967582386278082e+01
-5.263740121873337063e-01 2.179105235905530957e+00 1.691789205196494450e+01
-5.706655516841633302e-01 -4.193176634410261450e+00 1.547231773141220046e+01
-6.427721142400425691e+00 2.043900378831530862e+00 1.444147075212606879e+01
5.067953041699126970e-01 -1.509754735300377959e+00 1.441848261926739028e+01
-7.119259782116806434e+00 -1.757317043956321934e+00 1.737139920590129449e+01
-2.392723586363262100e+00 -1.862684635004287603e+00 1.797786907317234650e+01
4.013004124082867330e-01 -5.251989364480291744e-01 1.712159164512169340e+01
-4.114535197035539826e-01 4.941389855456691516e-01 1.374061579201364580e+01
-7.306955052711165521e+00 -2.547331042641818311e+00 1.734887582938084805e+01
-3.932795436364124875e+00 -1.544152071541080140e+00 1.410719665712237614e+01
-7.604394236241015292e+00 -5.551125068412164909e-01 1.287221917286166573e+01
-7.702169445555403726e+00 -6.291822747421788042e-01 1.309267994848358185e+01
-5.039719979968670938e-01 5.828484016962776071e-01 1.372747592225627855e+01
-4.968029094251603439e+00 -2.481435724660676190e+00 1.486553799220614636e+01
-4.960545570367406398e+00 -2.314007164926167093e+00 1.470458016515548039e+01
-2.014787062022621367e+00 -1.541208469780643409e+00 1.365271983133551359e+01
-4.318458522652777631e+00 -3.382516976768611183e+00 1.557242499948094760e+01
-3.133185343726748062e+00 3.075928867823377377e+00 1.510388497224510118e+01
2.961372262615739603e-01 -3.537866761806681026e+00 1.509209025849400732e+01
-3.972886309545918815e-01 -2.399886638696345109e+00 1.406387458526670642e+01
6.468244635042327828e-02 -2.594703667039666151e-01 1.744953900722434881e+01
-2.982801457632874520e+00 -4.657660359121999605e+00 1.629003409732726126e+01
-4.876189267136981087e+00 2.239078353722818271e+00 1.710349630365031359e+01
-2.157043168769219588e-01 -6.199158928426699022e-01 1.775642162130759161e+01
-6.524898886733391024e+00 -4.457698439278834357e+00 1.593352229498977479e+01
5.153732750675248386e-01 -3.178770162183548909e+00 1.555183815079965726e+01
1.644964322815717916e-01 -1.438523480730003135e+00 1.769665317177974728e+01
-1.309819079292349420e+00 -5.100144861602419866e+00 1.655721021780815150e+01
-9.559771385652778841e-01 -5.132343997810862035e+00 1.650974162260887468e+01
-4.981525080021654617e+00 1.359994128784743905e-01 1.127217052054565016e+01
5.904855724995325961e-01 -3.586039988254887234e+00 1.668477618990342037e+01
-4.124104183404337931e+00 3.075503720391431717e+00 1.436031702203589688e+01
2.655672819900994908e-01 1.132638762464308613e-01 1.428857475263258081e+01
-1.288677468863308029e+00 1.589034332723913590e+00 1.434695746720438692e+01
-5.022051279729229378e+00 -1.739513343308367044e-01 1.160674722114831425e+01
5.249355929087377026e-01 -9.051781146023770708e-01 1.444218222243620531e+01
-1.973644549650170443e+00 8.802368456381344242e-01 1.175869229766488289e+01
-7.335072923462268690e+00 -3.342696509262168991e+00 1.465402658452255125e+01
-4.087224437422481316e+00 -2.550613541005473994e+00 1.508952622025804047e+01
-4.420304731711117152e-01 1.371944829268650690e+00 1.722888303917089203e+01
-4.748260426151452163e-01 1.734463785885797638e+00 1.712336858622021296e+01
-6.107741420380248698e+00 -3.761556535864871709e+00 1.765400016177804687e+01
-6.385156951349186372e+00 -3.955502964704243674e+00 1.757074589594336445e+01
9.868703329189829065e-02 -1.849449089840325966e-01 1.350346712597225363e+01
-6.518760643233800778e+00 -3.783186157054342136e+00 1.755108092315564861e+01
-9.209931326487431624e-01 1.526108561847085543e+00 1.476741194701161319e+01
-3.815291585618322406e-02 -4.512935850925417824e+00 1.560724947135225094e+01
3.436823724052880114e-02 -4.365468095396828119e+00 1.547690505538097838e+01
-3.282157553481264589e+00 -6.499962324823538307e-01 1.791174468081621640e+01
-6.363169616593312483e+00 1.194480371716178047e+00 1.331248197944008993e+01
-9.092926850558786800e-01 -4.607745505836884803e+00 1.778154161964998892e+01
-5.235936035167304547e-01 1.075242499875926461e+00 1.455909065865693108e+01
-7.829679669915028839e+00 -7.363956828829683054e-01 1.658046544717135973e+01
-6.745427311490427513e+00 -1.294017007099701688e+00 1.248492107144787511e+01
-4.475409396629085990e+00 1.354979325768961296e+00 1.140392408043642192e+01
-7.198965619426124229e-01 1.569221476906421220e+00 1.731078914418241155e+01
-8.459785394086611898e-01 1.810120298201740585e+00 1.727754348784926108e+01
-2.979410730940803553e+00 -2.161739878991268515e+00 1.797280640088542114e+01
-7.196414846480573502e+00 -3.004517258404027835e+00 1.418553493029945756e+01
-2.487026953747821789e+00 8.153299779080842580e-01 1.083336550156108302e+01
-3.777103983171059998e+00 -2.748057041396374078e+00 1.796242809806068053e+01
-1.386429257930841707e+00 7.825141455378223920e-01 1.256212536904629573e+01
-3.707959257663524522e+00 -3.050077797738854457e+00 1.796495426801366690e+01
-2.701083639799595204e+00 -3.830057615733907905e+00 1.792055578815748262e+01
-7.047568262922968785e+00 -3.692570233671264468e+00 1.740489352585413840e+01
-4.599122020093041385e+00 1.068778375465676778e+00 1.107905384181060526e+01
-1.383780232005638933e+00 -4.958813419752935658e+00 1.634327698882409052e+01
-6.152322826173588055e+00 1.578546359719619652e+00 1.351691007866443428e+01
-6.103780345545313679e+00 8.505005295250809283e-01 1.714364913421923475e+01
-3.099545337970440073e+00 -7.944600925083111775e-01 1.792153906274571185e+01
-6.294707073863424540e+00 4.254615859105282949e-01 1.720044913974244238e+01
-6.062434260015141518e+00 6.044927597399800678e-01 1.723504161707510107e+01
-5.287249465050399166e+00 2.449546405817109918e+00 1.696547766242904132e+01
-6.863776728112586767e+00 -3.366650625423591059e+00 1.497576559986653777e+01
-3.070520292014879971e+00 1.044495492601759334e+00 1.042895721266855347e+01
-3.825398540754104459e+00 1.322407579710819459e+00 1.104488149574293843e+01
-5.001472531082821193e-01 -4.729944218659974942e-01 1.781040603443344494e+01
6.756680851625319617e-01 -2.227857501969798371e+00 1.679822827877799440e+01
-6.573986026243582970e+00 -4.810433914954838075e-01 1.211396383863703718e+01
-5.643381319777724059e+00 -6.018649560465603177e-01 1.761870125501146944e+01
-7.425037405340251695e+00 -3.189142697424033890e-01 1.261751304129664319e+01
-5.583644148044749400e+00 -9.519733254505926556e-01 1.768029364975741302e+01
-7.597007597858102201e+00 -3.736252336954458131e-01 1.306607960449930417e+01
-6.690454906909586441e+00 -2.017991428560237832e+00 1.750737799131093553e+01
-2.964426737676620238e+00 -4.815122639636957302e+00 1.653972585012066432e+01
-1.682204421849360809e+00 1.425667432612402363e+00 1.337210890804446350e+01
-2.328615767122460323e+00 -4.493561686046416703e+00 1.784401587675574419e+01
-3.261971176350562551e+00 3.876074961774426786e+00 1.672406960477850291e+01
-6.297637545068925036e+00 -1.594482017813502850e+00 1.757466000219879376e+01
5.638225238880864021e-01 2.576638564864682790e-01 1.587798379095182000e+01
-4.194822934474080611e+00 1.984183724451928477e+00 1.228004615383389719e+01
1.105930495668458469e-02 4.902847200897121338e-01 1.451490068827121505e+01
-3.012132934808260387e+00 1.306386963248332700e+00 1.102842752781331370e+01
-5.770858528424261280e+00 -3.519662692464158305e+00 1.542550291222329761e+01
-4.687476089207912366e+00 9.325481599947562650e-01 1.099641241254082402e+01
-4.693829279844960567e+00 -1.401228290678431687e+00 1.780012295871580008e+01
-1.077219516118604226e+00 -1.828205784948192081e+00 1.801746570408928605e+01
-4.689555355705468997e+00 2.675157599180483459e+00 1.396202468036508648e+01
1.773191396818341592e-01 -2.953412780802082138e-01 1.351076829079068986e+01
-3.502863282547966417e+00 -1.223754916185354258e+00 1.792267758911831166e+01
-3.874936503338895388e+00 -1.252544994014315183e+00 1.788841882273332473e+01
-5.271129980390599101e+00 3.836102414173314212e+00 1.621811694907217216e+01
-8.265428828847149134e+00 -2.695488308784323994e+00 1.492267988759237696e+01
-4.716157890141065678e+00 1.435958959067068941e+00 1.735758357344309033e+01
-3.286348502689314444e+00 4.053202353109654155e+00 1.661246797628411898e+01
4.836097668036457575e-01 -1.708335746699223945e+00 1.441779608306962857e+01
-6.274230889566727143e+00 -5.672383549637242117e-01 1.744537649928193090e+01
-6.094391287309631977e+00 -4.002468501455347383e-01 1.746583914137086069e+01
-1.134092757905258431e+00 1.375236620802088972e+00 1.415874733066531732e+01
-4.320346076135804125e+00 -2.030425565209369676e+00 1.787097618930914322e+01
-3.865135494203609134e+00 3.376129095589014417e-01 1.100158067334016465e+01
-3.267847439316067693e+00 2.820916473692216542e+00 1.711648942826912290e+01
-7.687943292008455387e+00 1.201999067595759252e-01 1.414503545021564079e+01
-2.168177504087317686e+00 -9.170050472778872308e-01 1.279429024702747952e+01
-4.219373040982416612e+00 -1.375918044623237080e+00 1.376030581342038417e+01
-1.514064788373585602e+00 -2.851831358213163359e+00 1.799077144802388162e+01
-1.294092449996318006e+00 -2.430146205170372831e+00 1.801244956398331354e+01
-3.010101584516521989e+00 -5.819280658936598627e-01 1.253831694065549485e+01
5.158750278459092176e-01 -3.435051022034587564e+00 1.694152316465160268e+01
-4.231386094638772022e+00 3.050255691951026638e+00 1.690683733917796516e+01
-4.747041049644103339e+00 -4.126003478968802263e+00 1.589054995181677654e+01
-6.486928385728829127e+00 -2.161425569515349476e+00 1.757035060269874194e+01
-5.552219202502827855e+00 -3.645544885495207499e+00 1.552966505408513953e+01
-3.686041730070554578e+00 3.637571510516463658e+00 1.676035188675244214e+01
-2.305663603281331575e+00 -3.385644849408973034e+00 1.794738349269006150e+01
-1.330952743178063002e+00 2.914741017109226728e+00 1.672600638305867093e+01
-3.020457955726436605e+00 3.162201635288768742e+00 1.542993656701215244e+01
-3.106692392773772404e+00 -2.018581592831035110e+00 1.796678076231334487e+01
-1.451214208256170313e+00 -4.132831196077352942e+00 1.785699981279462278e+01
-3.304667113341264617e+00 -1.637770142238043070e+00 1.794978515544564956e+01
-6.696108753853842188e+00 -7.252413161612867309e-01 1.735521316001257830e+01
-7.753433755881898648e+00 5.586687087394699436e-01 1.530157166353699338e+01
-4.502473782345575160e-01 2.376504325097290593e-01 1.760497192178019432e+01
1.926666012503535086e-01 -3.633030826142701120e+00 1.764879161499473170e+01
-3.241366582304054944e+00 2.088099733388131263e+00 1.735687899277896307e+01
-2.943407626597828841e+00 -4.990207078659288698e+00 1.676856584018755214e+01
-1.974227509014126580e+00 -4.829094877089316284e+00 1.629273609501604980e+01
-1.006713128676684388e+00 2.649303409055296932e+00 1.684850737776402596e+01
-1.262149694508835296e+00 -6.476194216669221015e-01 1.793276408016474122e+01
-3.876558804055920238e+00 3.652467151564551262e+00 1.672809785069886956e+01
-1.663942133890368824e+00 -5.170917068873315259e-02 1.786510206562411796e+01
-4.313445427986158265e+00 3.481142997580091158e+00 1.514816570469583112e+01
1.218187331660521566e-01 -3.125580220616919203e-02 1.730259662062087855e+01
-5.565095790223990591e+00 4.393484777843804645e-01 1.149473607918066520e+01
7.092579425027073503e-01 -1.968582770197464082e+00 1.578888032040611122e+01
-6.557332813422354079e+00 2.114288036751103661e+00 1.639827839443289648e+01
-2.673308042353619296e+00 -4.174177090369131093e+00 1.788940918168227867e+01
-4.068039082151104324e+00 9.552991995550699222e-01 1.756887453800825583e+01
4.801375527155977707e-01 -3.845701284150621291e+00 1.691758888271165162e+01
-1.731315313847214821e+00 1.766067849062649575e+00 1.401674141163245579e+01
-6.474778687740444738e+00 1.242489341661763280e+00 1.684479243515850655e+01
-1.701922874250184847e+00 -4.133062990552957672e+00 1.786292411444397388e+01
-5.974715381306547002e+00 -4.192396160083514012e+00 1.577808537624465757e+01
-1.685875156436479783e+00 -2.055057118327636267e+00 1.800744784312638203e+01
-2.872169965903467848e+00 2.635790162746354248e-02 1.785580445765324598e+01
5.122551784477427095e-01 -4.217788540065971148e+00 1.671046951083425469e+01
-6.485889738969309093e+00 1.895018074900009619e+00 1.657114579916817476e+01
-8.142022058471862778e+00 -2.918168568881929659e+00 1.634770457424245294e+01
4.805673265609720080e-01 -1.183591155673630602e-01 1.447546954071932745e+01
-2.989115428711762501e+00 -1.046031731486845917e+00 1.330401573680575567e+01
-4.260111453099627354e+00 1.839433336810140318e+00 1.730287014827606029e+01
-7.243449806556412796e+00 2.615953540766990937e-01 1.328449817634659169e+01
-2.119548859424699394e+00 -3.852556712462604338e+00 1.790291139356847694e+01
-3.671552324450047422e+00 2.232498539943416294e+00 1.726071111265601488e+01
-4.782411662202743940e+00 2.046917049042254355e+00 1.289985251069984074e+01
-4.544880359994944996e+00 -4.793906894371597005e+00 1.678240443509141144e+01
-6.499491198844586037e+00 -1.576003830605052114e+00 1.752006185615756451e+01
-7.860471215308933779e+00 -3.732264896743776816e+00 1.684170297319085918e+01
-3.874982948575349528e+00 -1.620564395906350041e+00 1.790439263425328775e+01
-2.764511522904935958e+00 2.167630716789654244e+00 1.345102562672260049e+01
-2.532847039248258714e+00 -1.830965545155545326e+00 1.797229522207102903e+01
-2.927682441473987485e+00 2.767874970696823311e+00 1.466006224630189436e+01
-2.686484978603526752e+00 -1.415825777486607429e+00 1.795296353617527885e+01
-3.144881680667556356e+00 -3.734500826251454075e+00 1.579187196906373103e+01
-2.181281930523187196e+00 -6.139478840006473703e-01 1.232409709000122788e+01
3.241897001167788894e-01 4.909041447671762537e-01 1.528658814134709942e+01
-3.118403262895745875e+00 -4.024631147777352425e+00 1.791486957648546152e+01
3.632907802660320096e-01 -4.037373916614855673e+00 1.718834320801251536e+01
-1.280234332029088984e+00 -1.454848168790904950e+00 1.800602185863095528e+01
-3.857424238518931681e-01 -2.061641746702229661e+00 1.379747704294743116e+01
-5.691337930154471536e+00 9.594003451707688868e-03 1.750025689994985711e+01
-1.520490189644678969e+00 -4.243868490405071192e+00 1.784032829020622657e+01
2.458217028264904624e-01 1.000852970127427577e+00 1.634713052905042119e+01
-1.087509578719445980e+00 -2.060255565629174335e+00 1.802109354085002835e+01
-3.500316730283902888e+00 -4.939543543715895879e+00 1.680378770384381326e+01
-4.812659053338908421e+00 -3.821191781762145911e+00 1.572431546762472365e+01
-5.198483543252148564e+00 6.545662431583061380e-01 1.127545231367169976e+01
-5.076877078157300716e+00 1.976621790036851012e-01 1.758791024989514185e+01
-6.870025329091534516e+00 2.318099239294633573e+00 1.553915551044811494e+01
-3.874414557100458456e+00 2.351727235332493837e+00 1.719805804393461202e+01
-7.603229855726484132e+00 7.575706350678206302e-01 1.491878145553551249e+01
-2.629363510447288554e+00 1.027897817996900276e+00 1.100633359077978923e+01
-3.205160956215667767e+00 1.788011120570750734e+00 1.187055330929446129e+01
2.551990948447362961e-01 -2.090382276633078185e+00 1.397923369735481103e+01
-2.988272242547909130e-01 3.464543009273148844e-01 1.748965739978273959e+01
-3.081146938021150361e-01 -9.440574723331707219e-02 1.764138515887267644e+01
4.960461132124264205e-01 5.998347817588411957e-02 1.488037077479288328e+01
-5.112600759807115480e+00 -3.813062980659132961e+00 1.779078383022422472e+01
-3.046236221196423344e+00 -3.034742395017155037e+00 1.797390597211075303e+01
-2.183170897866669513e+00 -2.742626329773990346e+00 1.499785052114767225e+01
-6.695276111268096741e+00 2.375218269266180515e-01 1.711002131229716028e+01
-6.069442063192830972e+00 -1.693235126447133476e-01 1.743007837722683107e+01
-2.496926530828853519e+00 -2.406513300380959119e+00 1.798493520611122065e+01
4.014070276490757649e-01 -2.702540055579963685e+00 1.475999781252412291e+01
5.648403044497386505e-01 -2.531908404968849169e+00 1.537270748960420619e+01
-5.004383792602979497e+00 2.460881615589659344e+00 1.385542659591425618e+01
-6.308488391258826766e+00 2.914516875741921975e+00 1.556694852559182252e+01
-5.181282534611928586e-02 1.456981000656524250e+00 1.636632405114241706e+01
-2.662408870124935767e+00 1.172743541628596065e+00 1.763078379823564390e+01
-6.803912860712820532e+00 2.173516997152756147e+00 1.512480718332987450e+01
-6.753393787301964934e+00 1.936911260670743040e+00 1.473901469243893914e+01
-4.303844248569818731e+00 -2.611815617020929903e+00 1.790000420694468986e+01
-3.332532209977868032e+00 2.703032833424121595e+00 1.391320519790427213e+01
1.164903554567487121e-01 6.983686098974315470e-01 1.512978848912456797e+01
-1.616240811541652223e+00 2.358497422639927343e+00 1.538185023863115575e+01
-2.190975010023440639e+00 -4.632445218587706748e+00 1.610301247690924598e+01
-6.357575486901168915e+00 -4.208919133422373449e+00 1.753963231142387613e+01
-6.518771389670247274e+00 1.539408342877947700e+00 1.393736300083415713e+01
-6.525208673003044524e+00 1.995372489588526754e+00 1.450551846598608208e+01
4.496809986822164484e-01 -4.762016637926617668e-01 1.404973343663671770e+01
-2.297261903742219558e-01 1.683501288019474629e+00 1.637776078390621493e+01
4.125654053416971667e-01 4.327129227561310465e-02 1.451896694759957640e+01
-4.074400629419992370e+00 3.860024943859847735e+00 1.610435944881427517e+01
-4.778214733069487824e-02 1.215859172198199722e+00 1.577603199637350073e+01
-5.696920504579905398e+00 3.110484267561960614e+00 1.537859208634631258e+01
-3.601509301198872581e+00 1.854458981710051635e+00 1.185001847146252274e+01
-4.909444825660960632e+00 3.476225007639581754e+00 1.555522499154066551e+01
-5.846118041771996232e+00 -9.738735403772929011e-01 1.761831181084457754e+01
-2.805146259156831690e+00 1.784695937419753076e+00 1.244378401157780800e+01
-5.375610273115235316e+00 1.589663746269063260e+00 1.270494673931871077e+01
-4.669957441725584246e+00 1.119584404775095354e+00 1.121449131203010197e+01
-4.803088597724947562e+00 1.464347478603318597e+00 1.189280949006224475e+01
-4.715472541988857458e+00 1.561887134583946235e+00 1.196358024028155498e+01
-4.475008246152357927e+00 3.449244883608247214e+00 1.519444663773410653e+01
-4.422405187208713784e+00 1.291299779838699369e+00 1.125087285487669320e+01
-1.336676021950863602e-01 1.194651322309529862e+00 1.553233439667427618e+01
-1.641006542971106541e-01 3.369171573119766894e-01 1.391090036466603763e+01
-3.840821287092235359e-01 3.460134704888403467e-01 1.352631150243471936e+01
-5.204025898937350014e-01 1.640064025121420688e+00 1.559523239758702218e+01
-5.537893189631850177e+00 2.132600007948470822e+00 1.374551170509563391e+01
-1.609795242706039353e+00 4.357712932293078545e-01 1.154286952331034755e+01
-2.234279049472938983e+00 6.610592571246263205e-01 1.097760836143999441e+01
-1.316431570012584373e+00 2.626503593336207754e+00 1.624488951685118465e+01
-1.881412488918352333e+00 3.030911426426020849e+00 1.628668550729010533e+01
-2.254570207830687956e+00 3.123816088286346382e+00 1.601804498783756614e+01
-2.679274836149432737e+00 3.393294859536948316e+00 1.609174198147330159e+01
-3.274119552695809343e+00 3.683058584977627614e+00 1.615924450912655530e+01
-2.685063960390996041e+00 3.272433107092386440e+00 1.588945372926794519e+01
-2.365469315238493131e+00 1.112708072600968157e+00 1.158647516436728253e+01
-8.270587620058844180e+00 -1.656596677352191849e+00 1.505682173572492744e+01
-2.874803137730742808e+00 3.782993507478704220e+00 1.661122398614436335e+01
-7.624836176438156699e+00 8.241868039730422257e-01 1.521264857845284624e+01
-3.086634973187406317e+00 3.440669342781492279e+00 1.587842726947893013e+01
6.608308585078292996e-01 -9.421779004556496417e-01 1.505589931994768804e+01
-2.816461038684232587e+00 1.276795873429803274e+00 1.122129118223423916e+01
-3.718694329980150926e+00 3.509142825350536565e+00 1.534369544990682854e+01
-2.708443670049842211e+00 2.842100681896022163e+00 1.510177714977453789e+01
-3.137449630315313875e+00 2.406357920755228363e+00 1.346956273118217595e+01
-3.323249034915284561e+00 2.768094253589747034e+00 1.408700610496214622e+01
-4.008426620197874435e+00 1.444674018508203206e+00 1.126846328873229197e+01
-1.626214630728571864e-01 -2.301911728386821565e+00 1.399659435726139023e+01
-1.430257611194093226e+00 -3.657926536217138036e+00 1.544714182165271765e+01
-4.177251070757410645e+00 1.787123601380072202e+00 1.190765020092124260e+01
-3.019336250567546287e+00 1.608752793098191081e+00 1.165910411491422494e+01
-6.688015372499942046e+00 -2.193971426134119884e+00 1.751695987974956026e+01
-3.219548666118832614e+00 1.432094006634249350e+00 1.102341075420255478e+01
5.363634730899045078e-01 -3.212544996828957000e+00 1.695306467021075392e+01
-3.893401920476301736e+00 3.658221088496369955e+00 1.552843043010370749e+01
-7.004530945121686614e+00 2.002153394147617949e+00 1.529790861830147364e+01
-4.307988770527417799e+00 3.092474316573797566e+00 1.440900820124036485e+01
-3.161725887559090342e+00 -4.803947727102586995e+00 1.656385918922098099e+01
-6.262385501520681963e-01 1.033965101853974611e+00 1.743976778573660980e+01
-3.404448032885562192e+00 3.984167827876075929e+00 1.666098815044749060e+01
