-7.101699113597704560e+00 -2.354844356616240253e-01 1.388842559379710906e+01
-2.537352963152084584e+00 1.670051990612588355e+00 1.876232839074317837e+01
-7.326763947930223786e+00 -4.903350794373055876e-01 1.419286561890172038e+01
-3.269408751090982612e+00 2.729420644642671645e-01 1.264813911049282069e+01
-5.680055629250819749e+00 -2.614979359077792331e+00 1.859026667744386430e+01
-4.688172494172710536e+00 -2.657257314227154943e+00 1.910494647403157842e+01
-5.883005902900744211e+00 -2.576919718763001299e+00 1.837748727684352446e+01
-1.695696967053777149e+00 -2.454257265210839201e+00 1.974603332808039369e+01
-1.853089419108759905e+00 -2.354948775145190076e+00 1.980055552364718352e+01
-3.299222010495638902e+00 -1.745315770496017604e-01 1.944442443607419335e+01
-1.698419804460160165e+00 2.654957736797211254e+00 1.824688526464058924e+01
-2.057612243145998665e+00 -2.513053541100530808e+00 1.977304244704052394e+01
-6.850267556471825614e+00 -2.460321632526600411e+00 1.985779386525272372e+01
-5.330941225107195258e+00 1.838626297785581176e+00 1.865705034808166118e+01
-6.846493249224239186e-02 -2.683784670049400578e-01 1.824500487163083307e+01
-5.583916558602957103e+00 4.014298804141721355e+00 1.528885914712135019e+01
-8.595101913679631167e+00 -1.362676208037449932e-01 1.682595884835269118e+01
-4.496797826702916723e+00 -2.680718977393085289e+00 1.924829538620753766e+01
-1.820352954215809671e+00 1.732314713152275809e+00 1.398199827320839717e+01
-8.214846059822345836e+00 -2.550492256727197038e+00 1.896225229246770283e+01
-4.517295156435135794e+00 1.956356755529031988e+00 1.254561260575258785e+01
-1.041684190441657165e+00 1.979005621966640760e+00 1.837385631534731090e+01
-1.074079509094671092e+00 2.373383864669277976e+00 1.819435420336966303e+01
-8.634115590048011546e-01 3.402678300792370436e+00 1.713855409388727224e+01
-6.892421726163274753e-01 -2.014931912653779023e+00 1.802160707319850985e+01
-1.652046235992148393e-01 -1.019349297308625113e+00 1.602034942079324509e+01
-4.963432758217336094e+00 4.781145889497765644e+00 1.727138847327341153e+01
-5.699287776182634602e+00 1.370167283070724329e+00 1.880999780247985598e+01
-6.721633749046216355e-01 -2.047479956771823595e+00 1.842317381468980386e+01
-5.499132089427001269e+00 -1.887242818826921908e-01 1.426294914763083455e+01
-9.035543951349940262e-01 -2.071978969990905917e+00 1.843861305707584819e+01
-5.170902387161511626e+00 4.741459188454297369e+00 1.726254200372918746e+01
-6.872435218234785204e+00 -2.707535117254939117e+00 1.879220211847256650e+01
-1.247548515441728734e-01 -9.139044452693751985e-01 1.865257096180765473e+01
-8.229005499906945076e+00 -1.218980071105946195e-02 1.837547545549153227e+01
-7.687723068433405693e+00 3.427387326363880327e+00 1.652878939104944322e+01
-7.064243388079341379e+00 5.857160525950312335e-01 1.330720949776813455e+01
-2.364762441754220568e+00 3.136835441918012890e+00 1.499020819613544830e+01
-1.322404712439692265e+00 3.940813326426355623e+00 1.695754937818143304e+01
-6.876475678563892524e-02 -1.289353573267342901e+00 1.861475034885506119e+01
-4.379761322103935955e-02 1.282625329883609888e-01 1.706195667084403311e+01
-4.298735933187790792e+00 -3.480433031641305686e-01 1.952109441056461492e+01
-4.503267423360232335e+00 -3.489771853519016975e-01 1.951823333432331964e+01
-1.488852809130310595e+00 -2.326275968480910450e+00 1.819862183384888965e+01
-1.479305870406772083e+00 -2.312276364098049264e+00 1.839272895239066230e+01
-6.118611409432470616e+00 1.021480587414857810e+00 1.244897639819760116e+01
-3.288943203807719762e+00 -2.103491230559058067e+00 1.798418992738979938e+01
-8.540637813519248667e+00 4.874152907984579119e-01 1.665262396878165418e+01
-7.920705614784289139e+00 1.657243300907240702e+00 1.771676992512197302e+01
-1.719803312680013185e+00 -2.420003645167695616e+00 1.844275245466970858e+01
-8.035575623801783252e+00 3.989720913017343884e-01 1.840870926624420179e+01
-2.886785607909188922e+00 3.643522465085526907e-01 1.261743871937237316e+01
-2.409176669882208133e-01 1.762111478784146534e+00 1.689740024860788026e+01
-8.815662835000058761e-01 -2.096984031607396659e+00 1.875736076417571496e+01
-7.273590628091026744e+00 -1.438109914099843012e+00 1.517295699107247486e+01
-7.360167866947292303e+00 6.441945048795971740e-01 1.875071714568097292e+01
-7.308441202331411368e+00 -2.114117009919861623e+00 1.676830505051003684e+01
-8.131225239009568284e+00 6.852239973494739234e-01 1.527508459964432319e+01
-3.717342976479316885e+00 4.986083855733807191e+00 1.654484691802824159e+01
-7.716415051003549408e+00 1.832100841274939773e+00 1.786285909277925299e+01
-2.239991513210863427e+00 1.910059693520014035e+00 1.364623572658864248e+01
-6.929876320918372024e+00 3.325016522151566178e+00 1.515182702388120362e+01
-5.911027904545201217e+00 -1.380227757827427792e+00 1.712408912722703036e+01
-7.897787356895508815e+00 3.124459458368854747e+00 1.610287093074880715e+01
-3.570825012409894583e+00 4.073925224773329745e+00 1.543802402924893613e+01
-3.681977944513586731e+00 -1.302411454465868035e+00 1.726672838082237149e+01
-3.302739922258220773e+00 5.225221967275219814e-01 1.208047935380344029e+01
-3.491652792303241881e+00 -1.111743730840456745e+00 1.702849998313703850e+01
-8.586545783697401291e+00 -1.711642662815527904e+00 1.661566102068325534e+01
-3.484903847160762069e+00 -1.295270481164219722e+00 1.725399899033342876e+01
-6.709975210691989211e+00 -7.954008328243389325e-02 1.361896076612043061e+01
-7.488561052551017561e+00 -2.750529197484091526e+00 1.878195567699486190e+01
-6.477105123942335396e+00 -1.110965616664364664e+00 1.582364301938804374e+01
-8.539276980821421503e+00 -2.257309179541420185e-01 1.745647480144388197e+01
-7.685477571574488742e+00 -2.732248087612190623e+00 1.858830726812238510e+01
-4.762627049946317470e+00 4.074336503440879831e+00 1.771619531320711616e+01
-4.486670229785585384e+00 9.727711575351871698e-02 1.303108926074863660e+01
-4.483885155027558689e+00 2.085621298866672246e-01 1.265498893969943595e+01
-1.682805534880452258e+00 -9.508663747759600327e-01 1.955194945495533432e+01
-2.461714310124294869e+00 -2.330092099679531792e+00 1.804501976169967747e+01
-3.742133173100338883e+00 1.548634868692798650e+00 1.236395207005968899e+01
-2.938175397183647508e+00 5.795418906547490367e-01 1.919485869249434984e+01
-2.656214532015086949e+00 -2.279599177760628592e+00 1.804412168528374139e+01
-6.911379482323031453e+00 2.527984384305675292e+00 1.434272031156152138e+01
-2.325535471308650237e+00 -2.129448984158858416e+00 1.779596512608806336e+01
-5.090307190064303100e+00 -6.830356205372305478e-01 1.640620716081128450e+01
-3.961067495006269201e+00 1.279601062654235566e+00 1.897779637277903930e+01
-2.259620867100122776e+00 -2.326442114833199959e+00 1.798266875012109978e+01
-1.720645550068529595e+00 2.077251899512351674e+00 1.849893144182217952e+01
-8.086085165181250645e+00 -2.544830448400412948e+00 1.776907551447849443e+01
-3.518236203381436056e+00 4.979873717270620892e-01 1.203683833082254750e+01
-2.892789221916740150e+00 -2.252921556525384617e+00 1.806264815497169707e+01
-2.830909438733805406e+00 -1.013684081395982428e+00 1.669488860976618128e+01
-8.482191166740850718e+00 -1.773511186186061073e+00 1.842019849445707536e+01
-3.132929867677142877e+00 3.921815043022978564e+00 1.779325959934544699e+01
-7.257113336248181668e+00 -2.740096679177990602e+00 1.951384176650134350e+01
-3.301854123646377648e+00 1.090740529699555372e+00 1.201288123408244957e+01
-3.541973341140607356e+00 3.919233273263920125e+00 1.782759113586730848e+01
-6.707413542585943134e+00 -1.511073612437591196e+00 1.602682935359910488e+01
-8.517328149111490276e+00 6.520416169251433969e-01 1.648333477174994499e+01
-7.389102441189089099e+00 3.346854734449673074e+00 1.550981654004056054e+01
-4.290638300261693239e+00 -1.779057353426854560e+00 1.770571696221907843e+01
-8.364710469403668469e+00 4.547273370873102238e-01 1.767841057583247277e+01
-8.469838158405396555e+00 -1.390507089693343579e+00 1.840674650768552567e+01
-8.474718857134227790e+00 6.413301422785835371e-01 1.627744268686510765e+01
-2.001762274984454137e+00 1.980333613524710268e+00 1.400175067265788442e+01
-4.744651756462904046e+00 5.139542409652328558e+00 1.704127853337462994e+01
-7.023560288093972925e-01 -5.454648801771027067e-01 1.487090184578544694e+01
-4.986694783226858441e+00 4.866498753494295393e+00 1.721046555023232827e+01
-2.335231393105961839e+00 3.403218983891849625e+00 1.531941630220463679e+01
-2.267999015043765443e+00 6.449158398429049033e-01 1.263157606892912099e+01
-8.578407665165810769e+00 5.224112620592602507e-02 1.685015038096504014e+01
-2.347632849306484193e+00 7.882830436893916159e-01 1.251937345566750537e+01
-1.872614772357584778e+00 1.664569130836702326e+00 1.384602088492449923e+01
-6.315926860917155494e+00 1.070696767703886554e+00 1.884446034378955659e+01
-8.504814818137051091e+00 2.407832480664084396e-01 1.725909940396212505e+01
-5.575633031372199788e+00 5.149011653650784837e+00 1.678610439654266173e+01
-2.717818160827475626e+00 1.223855999695815377e+00 1.250211047313653268e+01
-8.618334717693350910e+00 -5.624257884491523640e-01 1.723260566842696306e+01
-5.356052130846761017e+00 5.220568973012299274e+00 1.661938509361394978e+01
-5.467428736354573715e+00 -2.206303540527528639e+00 1.994835254428339510e+01
-4.841330966347238279e-02 -2.199225704379372814e+00 1.779304588040184854e+01
-8.561213248586938107e+00 2.153151003538322783e-01 1.688700403120331117e+01
-5.315116670038222857e+00 -1.809761287818937747e+00 1.988518522114632958e+01
-5.898666157792099796e+00 -5.109595153324979488e-01 1.546165352374424629e+01
-6.976277609196610552e-01 -1.257340211392732332e-01 1.907975843266316218e+01
-3.443850453664481392e+00 7.254039411739230392e-01 1.916908974562727508e+01
-5.865712388133180077e+00 -1.583444969706957695e+00 1.736846308247822890e+01
-1.179784758460364236e+00 -2.233987548215115027e+00 1.934888066314560007e+01
-4.857249308499238083e+00 -2.493733450145459329e+00 1.824179154293251059e+01
-3.888596074053627394e+00 8.449082162145672426e-01 1.914225499823144361e+01
-5.247024789272956902e+00 -2.609685037288426379e+00 1.858811122955941642e+01
-4.509084171719380585e+00 -1.689166511419750050e+00 1.762150108623895761e+01
-4.967186953183149178e+00 5.012300283761307540e+00 1.711082751199334240e+01
-8.052916003700641312e+00 2.188962418159767331e+00 1.706383458460133795e+01
-4.513745623872785551e+00 -1.522288355828546935e+00 1.747090796777275301e+01
-3.426021391084951073e+00 4.653229540179605550e+00 1.620845179300775385e+01
-2.118118392553648199e+00 -4.214763842974271757e-01 1.483838708304539011e+01
-7.086098899328399092e+00 -1.742211727571789881e+00 1.583798437906245482e+01
-7.876169936768983248e+00 -2.734669261944643992e+00 1.855680514691263028e+01
-7.682795932054064636e+00 -1.886600559587688464e+00 1.600749505972427045e+01
-8.254742552062301897e+00 1.168005597758914993e+00 1.744048834885990829e+01
-3.397061049229106011e+00 -1.035108787677245790e+00 1.691275245707622332e+01
-3.110612386204418822e+00 -2.677842651773214122e+00 1.935733365146624152e+01
-2.697507244596699660e+00 2.015230832187873133e-01 1.309177681448164066e+01
-1.760114550598789185e+00 3.151723145933355674e+00 1.554870281555596279e+01
-7.900078492612458980e+00 -3.744037895382927861e-01 1.889408536443692554e+01
-2.859793890162228180e+00 1.281291810255513752e-01 1.320282591733628408e+01
-7.162750731188797459e+00 3.045842196746635366e+00 1.754516960087408251e+01
-6.074739046264229003e+00 4.801457249671076788e+00 1.688796306041373896e+01
-7.188681377960220331e+00 3.261910342529349194e+00 1.737748009888991874e+01
-4.895231977420621661e+00 1.464376136576413412e+00 1.886986486120834172e+01
-8.100842320796362017e+00 -2.199309922714530963e+00 1.920520660057269424e+01
-5.500601687563499098e+00 -1.738284498025748137e+00 1.758460291160591993e+01
-8.901222732396065762e-01 -1.421155895664210744e+00 1.562731732205984514e+01
-4.335309032768341453e+00 3.219574328130831553e+00 1.412549401647709857e+01
-7.917774472389278451e+00 2.639637650365589838e+00 1.693494135006405088e+01
-6.266984884756094054e+00 6.711568487961396823e-01 1.270433833990732353e+01
-6.715615262062391011e-01 -1.596820649239085066e+00 1.581731135188707782e+01
-1.023668058429351990e-01 -8.277604263063913503e-01 1.643332684759634787e+01
-3.481397261117773922e+00 -5.983868814289543536e-01 1.626254830910620086e+01
-5.692024147713825144e+00 -1.349523382323779996e+00 1.974797740398733481e+01
-6.275617979672787783e+00 9.916745683498549013e-01 1.254976197866181309e+01
-6.934752605693256022e+00 1.899461816862069163e-02 1.914565486462258548e+01
-5.761440263255003247e-01 2.934761120492983544e+00 1.694654244646202557e+01
-8.616834615785537443e-03 -1.060018761138864063e+00 1.821641012402614024e+01
-8.297882515415707871e+00 1.702174416241531318e+00 1.627012190237503830e+01
-4.934315281273980780e+00 2.552739128511809952e+00 1.335512780617750650e+01
-1.775909812435918278e+00 -2.469929407386978859e+00 1.945329454521187529e+01
-2.516576266385537330e+00 -7.491128907135484738e-01 1.956574447557981955e+01
-1.311561707147035349e+00 2.390971613786916805e+00 1.530301333565557087e+01
-9.626730220519060799e-01 1.968846503915483215e+00 1.532507492261076010e+01
-5.536824804729912231e+00 2.854412642131758382e+00 1.818160677306137529e+01
-6.757024215315135862e+00 3.884512857451288603e+00 1.719645906689512316e+01
-6.697067381239978801e+00 -1.467132298123324352e+00 1.582355926739881369e+01
-8.732778021551451664e-01 -1.787005021637546820e+00 1.621822244307250571e+01
-5.880689713254710682e+00 -1.785197627882777693e+00 1.757005510494941092e+01
-6.123815558283084215e+00 1.435681494540710368e+00 1.871563339111972368e+01
-7.702110465622367563e+00 2.405660902208788698e+00 1.747434242308406738e+01
-1.957569367985897424e+00 -7.957281067890331627e-02 1.378372314201576643e+01
-1.952998397388681084e+00 4.148199322206829187e+00 1.654843350585742456e+01
-6.657116426265539566e+00 -1.621034291106611347e+00 1.973092063818152297e+01
-7.566095852921750797e+00 2.235507167104847426e+00 1.774489404101144174e+01
-5.866828636256656182e+00 -2.695299020782573329e+00 1.953019490564866345e+01
-4.514136021411333743e+00 1.878615385991376341e+00 1.872121169099609261e+01
-6.814424036934643603e+00 2.033155879180550407e+00 1.380878889205610704e+01
-3.517583835272059201e+00 4.104310904661414128e+00 1.772995389935458377e+01
-3.473116765621939717e+00 -1.458725759199660965e+00 1.743757524043873985e+01
-3.107504996819423937e+00 1.022631901644845520e+00 1.205079050858773115e+01
-5.654756205823404436e+00 -2.690670503755076659e+00 1.949161266246733959e+01
-4.488749444043183545e-01 8.259955390206609183e-01 1.489312899889119990e+01
-5.875916088886468991e+00 -2.685548513582022956e+00 1.962275249478764749e+01
-7.920093042140475603e+00 8.175511967310955530e-01 1.828853617467096626e+01
-3.955149005481798596e+00 -2.598590134594880308e-01 1.483926657869658783e+01
-3.921941572403263798e+00 3.235827581064099512e+00 1.429702113958170173e+01
-7.179658655994427541e+00 3.489949450715785773e+00 1.719875793752247972e+01
-7.912239572381987607e+00 1.429653628323286796e+00 1.789943391341794410e+01
-4.663198141331915458e+00 -1.988827930309051473e+00 1.994078696865681621e+01
-4.944602676768528937e+00 6.062810737343291567e-01 1.919720259732129364e+01
-7.785643096368927374e+00 2.877664131154102023e+00 1.696190604911181765e+01
-6.731783702765636868e+00 2.662747644118350632e+00 1.798483074417789140e+01
-2.487306603124336490e+00 -1.785901490199549579e+00 1.979347101298719735e+01
-8.522006149573272182e+00 -2.140106692453797699e+00 1.820688574988318464e+01
-7.193290050970040816e+00 2.170907765917021948e+00 1.423686051279071307e+01
-8.481153066968158072e+00 -2.369367858338209842e+00 1.819841849748737417e+01
-7.076265202680713351e+00 -2.727264887834457419e+00 1.880309851323869452e+01
-6.265837610575695216e+00 -1.137922697004955186e+00 1.661261395492173421e+01
-8.244586207830524316e+00 -5.234152411053278886e-01 1.563229059889716410e+01
-7.245229597312258463e+00 -2.717720415159297964e+00 1.859557035366637479e+01
-8.196471687282469887e+00 9.072645429889127922e-01 1.545761722781539049e+01
-7.466612239559075270e+00 -1.633416130026324575e+00 1.955702583217131263e+01
-5.537932190644353270e+00 3.724500475932084775e+00 1.494588454624489060e+01
-5.927129472804428367e+00 3.774385219756015153e-01 1.287828841212523656e+01
-2.309182306512327809e+00 1.869948742270705955e+00 1.865962002287511012e+01
-8.098861835212360916e+00 -1.755510023929695018e-01 1.864193198412782948e+01
-6.111628080777411043e+00 1.615379624304408068e+00 1.863428581680993545e+01
-1.285943119103033716e+00 -3.623443911214374591e-01 1.446847303337850832e+01
-8.155571986896417158e+00 2.617205465279259791e-02 1.847370071595975816e+01
-2.107487635821684080e+00 3.944478570890022628e-01 1.303664314627338427e+01
-3.109964494252539069e+00 -1.986031017029884937e+00 1.986513094546450731e+01
-6.304970476300121085e+00 2.656665751771812300e-01 1.314050281076336546e+01
-7.065339335949178512e+00 -2.224688794082090304e+00 1.980448641455495817e+01
-5.929405877140093040e+00 -1.027000708767112247e+00 1.664521334977038691e+01
-2.062960735577244353e+00 1.491129777343500162e+00 1.344580587148497131e+01
-2.263281580707888097e+00 -2.479648808693602824e+00 1.817836330854338911e+01
-2.683445188431782480e+00 -2.561602490029565971e+00 1.835464579918689054e+01
-1.036964413433153709e+00 -1.574513381132557344e+00 1.583160710204627719e+01
-4.063082610594200617e+00 2.090225016187901019e+00 1.284199033334754603e+01
-7.883703743496420557e+00 -7.879504278625850677e-01 1.906050082310223814e+01
-2.847849726796795711e+00 -2.445480417001332896e+00 1.822133458751251567e+01
-3.264875360167345697e+00 -2.674512251456317991e+00 1.879856174895285648e+01
-3.494435579571482098e+00 -2.656180126134237263e+00 1.854914066952033380e+01
-3.170940827813483409e+00 -2.641114536432930038e+00 1.846770626691208861e+01
-4.299135052018017156e+00 -1.704766179855932817e+00 1.764095331112483933e+01
-2.868345753471375659e+00 -2.657276181332827392e+00 1.860037431240169781e+01
-7.540205652718242391e+00 3.281432258229760812e+00 1.558786013224924716e+01
-5.932665352715642548e+00 2.432209130724370283e+00 1.829255567017624173e+01
-1.829400469714953237e-01 6.752521236955633110e-02 1.523064417188922448e+01
-2.471624635480910825e+00 3.251765639669991437e+00 1.505712132217623633e+01
-4.334168933655505818e+00 -3.931866313845129302e-01 1.563310900624220778e+01
-3.931594140085270972e+00 3.418341959446901335e+00 1.451636912570562288e+01
-7.262511819162598137e+00 -8.101191033996995028e-01 1.936252186732674829e+01
-5.727046595521523287e+00 1.208902336793723942e+00 1.230509607943987049e+01
-7.107716876341086731e+00 -7.936120255240048937e-01 1.939703299506427925e+01
-6.718882303055987215e+00 2.010556709334959002e+00 1.830249018237710601e+01
-5.346844508637319748e+00 4.723951775246374218e+00 1.724050564134125807e+01
-8.370996996309704841e+00 2.902002405550424546e-01 1.582636647254616236e+01
-2.892604944339782325e+00 -2.334931581653973964e-01 1.463625935876191875e+01
-5.099427381524586522e+00 -5.011680016331934162e-01 1.953798905290617682e+01
-5.363829627972998892e+00 5.072720641802083819e+00 1.697653945064735836e+01
-1.789639505938580566e+00 -1.354503706298922916e+00 1.606575130358461223e+01
-5.555450258809760733e+00 4.935378613578043527e+00 1.702527570306114058e+01
-8.946228184705748432e-02 -1.247412959452311787e+00 1.700337156737062827e+01
-2.572460034941996376e+00 -9.145908668465549951e-01 1.635876924031870061e+01
-5.724539461216289205e+00 -4.455486544055893283e-01 1.544212225463446941e+01
-8.280885376184132340e+00 -1.380592233190244711e+00 1.879460510321450784e+01
-7.864769712526393342e+00 -2.395189409885211340e+00 1.719052067041546650e+01
-8.033566060323291680e+00 -2.323509829423104911e+00 1.696959197609151460e+01
-8.082660727871530781e+00 -9.499703370381884504e-01 1.542105818949401197e+01
-8.023985319378763137e+00 2.393428695704290732e+00 1.565453845697268775e+01
-2.398733374438228427e+00 4.451603873586316595e+00 1.740453089887761706e+01
-8.584662495047339803e+00 -5.450659391138108489e-01 1.639861226896977087e+01
-6.575556172202616345e+00 4.513479544848953751e+00 1.679262172269470454e+01
-8.572413810915755050e+00 -1.404208018222590004e+00 1.801606770126215906e+01
-8.587988940111998204e+00 -1.634546986570864169e+00 1.797002664644923442e+01
-3.043372481790892703e+00 -2.250289177148815156e+00 1.808325220610505824e+01
-6.167144540857932178e+00 4.646691316060709731e+00 1.695900406268701488e+01
-3.849268200541822171e+00 1.294016283298087933e+00 1.199970436819819497e+01
-7.547660839471759253e+00 -2.259940657324631452e+00 1.696817533072587736e+01
-6.355574489517886505e+00 4.702012780205753195e+00 1.678738730713790517e+01
-5.396933144067481258e+00 2.663166743152471483e+00 1.364362022074581660e+01
-8.626730742830771348e+00 -1.575747984562297921e+00 1.763497939455459118e+01
-8.911905681356713238e-01 -1.998058611694983222e+00 1.760389957380206738e+01
-6.369524201485553760e+00 4.496873595037876647e+00 1.695365911406589277e+01
-7.524879175657346764e+00 1.406968685509905947e+00 1.827061562597766198e+01
-2.685222707612289650e+00 4.427119627290423964e-01 1.923033777042841308e+01
-5.330674854401240559e+00 8.685901836964342593e-01 1.188292208908998049e+01
-4.539176509810410209e+00 7.091313832855641319e-01 1.168700241594560651e+01
-8.205915753281702862e+00 -1.452577302726334674e+00 1.893048757482552702e+01
-8.509259306005855450e+00 -7.161021274028795958e-01 1.623143331822392099e+01
-7.668947682290846224e+00 -2.415278078543448892e+00 1.738159272800962896e+01
-2.888465783144108734e+00 -1.734197745386359957e+00 1.759625128331740740e+01
-5.960094102862566245e+00 3.371756658693168873e+00 1.472882164453456966e+01
-1.911286760709564270e+00 1.097346307551946953e+00 1.892630713002535003e+01
-4.092469941456204019e+00 -2.893173004962679151e-01 1.500331356420508655e+01
-7.808042849128629115e+00 2.093171516651588959e+00 1.756622175218313942e+01
-1.534113642735655647e+00 1.048053636153765344e+00 1.889175623341542831e+01
-6.630417504553973274e+00 4.363340164835894264e+00 1.608185534778603198e+01
-4.751391892822813545e-02 1.360755662347373773e-01 1.681662159244338284e+01
-1.517325552475855988e+00 1.449916509862538838e+00 1.872847298292838758e+01
-6.285157307688709949e+00 1.728428895610215399e+00 1.314172714586048585e+01
-2.486635618894044608e+00 -1.521873513830611868e+00 1.715509870244653001e+01
-1.695816691462624259e+00 1.503284906914025942e+00 1.873601403374746610e+01
-5.500175567754165051e+00 1.397100363927988420e+00 1.232029655344828001e+01
-5.128296578939518291e+00 1.440951545649038934e+00 1.885728862390558191e+01
-1.077209572318965192e+00 1.542796390799717754e+00 1.857499509639630020e+01
-2.123485043245459725e+00 6.750612867731153877e-01 1.911322630602983708e+01
-4.841336671098192213e+00 1.628366341495715464e+00 1.880602578818992754e+01
-8.036847700824733209e+00 2.013091690512031740e+00 1.723884112820758219e+01
-3.359388529024681436e+00 2.760343003250278926e+00 1.398641876831115383e+01
-1.551021936159431514e+00 1.893327078079560133e+00 1.854656910103656031e+01
-5.143205078225543403e+00 1.689825610788810550e+00 1.874769900132859135e+01
-5.429237576139118282e+00 -7.992985024552947682e-01 1.650369754390718668e+01
-7.675942815773416861e+00 -2.593210071524931770e+00 1.797110644481223574e+01
-1.668524047768203511e+00 -1.895315401977663017e+00 1.699639094754218149e+01
-1.465136371786757818e+00 -2.026749487291390928e+00 1.697801307309142516e+01
-8.184534394939149138e+00 1.111037412449572770e+00 1.544465559477558969e+01
-4.329554803615089931e+00 1.695587424190257320e+00 1.226841893823945639e+01
-6.123531111287626949e+00 2.027442243223476659e+00 1.844069722794085919e+01
-7.391166484580703688e+00 3.281006581591847215e+00 1.715287385353493477e+01
-3.918279203719008841e+00 3.335936623585776806e-01 1.227575318098057267e+01
-5.911514534094136630e-01 1.539422926019042404e+00 1.536132529267283786e+01
-8.239244995731542787e+00 1.111286950286423547e+00 1.552202679480066649e+01
-1.775456793070887551e+00 1.802574045844253181e+00 1.411088104234007545e+01
-3.291976915996211783e+00 -2.661218486213881462e+00 1.924102953193739296e+01
-8.161480708970284326e+00 1.509244671963096085e+00 1.546759972676096595e+01
-8.192430753899929030e+00 1.298530682996577035e+00 1.544821204119715929e+01
-8.495573133296295154e+00 -9.224516321557825194e-01 1.623683271666092054e+01
-6.542514556325969899e+00 -8.325952278899879655e-01 1.464068627160814628e+01
-7.555830926633531064e+00 -7.150422359340418144e-01 1.455573048892546950e+01
-3.067086104851550754e+00 -2.728769082626659959e+00 1.962051566804686331e+01
-5.142381912220042928e+00 1.089109011176976338e-01 1.322620748188474948e+01
-8.145012007631983408e+00 6.529245774478209530e-01 1.807991633806926757e+01
-3.558529490690252040e-01 4.499252356282436582e-01 1.486241386815343191e+01
-3.205027059739929296e+00 4.456569968891754385e+00 1.605252791310832094e+01
-3.260650767170415243e+00 -2.308731359682708373e+00 1.813612413837533666e+01
-6.881194624804590987e+00 1.436371320161015097e-01 1.347509839410300714e+01
-5.308481135874825618e+00 -3.531981062749323108e-03 1.366861440214211854e+01
-3.406355477018135680e+00 3.669188064612919575e+00 1.503090450210881102e+01
-3.045487980447627141e+00 -2.343815388418513557e+00 1.815297856044948333e+01
-3.581842632972339402e+00 5.084681503944127989e+00 1.714132458787861424e+01
-5.426417716570745675e+00 -2.605199543567706222e+00 1.855226785804384804e+01
-1.569661405076882899e+00 3.268009036598901851e+00 1.792285438609757620e+01
-5.341038365653277609e+00 2.580700861207308350e+00 1.352455500070279015e+01
-3.173777508827576810e+00 -2.490568505296115731e+00 1.988637119305611378e+01
-8.202433478443344583e+00 1.900556701147682936e+00 1.606623926215728915e+01
-6.091421674533029851e+00 -1.574773497275398393e+00 1.977793822413412528e+01
-6.335788925213051037e+00 -9.352236139821581418e-01 1.603761746992877590e+01
-7.712959376085462893e+00 -1.696315771866187871e+00 1.561029588945786628e+01
-1.951415668853219376e+00 1.413728336086170323e+00 1.351085389654856783e+01
-7.703049625632378827e+00 -1.553785902026041610e+00 1.538464841031798613e+01
-6.529137016124395565e-01 6.204941215144235134e-01 1.443337265693179461e+01
-4.346312597236703823e+00 1.170552859920455102e+00 1.173949075254970609e+01
-6.348434517223687124e+00 3.789305923090932282e+00 1.747901538473100658e+01
-2.551327808213565973e+00 3.890709940233563202e+00 1.775163558567554389e+01
-3.540379340021660770e+00 1.165924970529212956e+00 1.197013484244840242e+01
-2.496703875586174348e+00 -1.693290498488904339e+00 1.737809027669678130e+01
-1.298964721283980550e+00 -3.113822386397435693e-01 1.431915138953758770e+01
-3.958692738763194718e+00 4.941602935333901492e+00 1.723445901649948553e+01
-4.638930984631479681e+00 -1.588731288308439682e+00 1.985754562426991043e+01
-3.773517761962748018e+00 5.076187412988669045e+00 1.714998757442887722e+01
-1.942596532904322437e+00 2.393553102836494251e+00 1.451890537051919949e+01
-8.069576012227640760e+00 2.086575058759147172e+00 1.710689114147966450e+01
-3.097660807348029621e+00 1.081931109359035581e-01 1.935106986513497418e+01
-6.342907700615583622e+00 -2.231079105305408206e+00 1.791304554638551139e+01
-5.695948298284982059e+00 -2.932187936149057705e-01 1.445748296871931160e+01
-5.723571780149541155e+00 -2.512329014313059439e-01 1.423963661924067736e+01
-5.666854453415645310e+00 -1.789417561688922964e-01 1.405907980015624759e+01
-3.676788925836737665e+00 -1.914716814980184312e+00 1.783970819009426378e+01
-3.566791511769250800e+00 4.328858146016012043e+00 1.760608688297220681e+01
-2.693031900176880544e+00 3.841721674022549604e-01 1.269589847706575370e+01
-1.097434631719716558e+00 3.156313873498327816e+00 1.635563561399438726e+01
-6.715821208866835867e+00 4.439153740126406511e+00 1.675075049269730698e+01
-6.011222975673947699e-01 1.881839688690747359e+00 1.803987183872891364e+01
-3.120113081144119782e+00 1.646922658898444691e+00 1.880918680393962461e+01
-2.062794814748306754e-02 -2.521184083168577228e-01 1.766616920088315368e+01
-2.459351215441836658e+00 3.230021383455250472e-01 1.295012518811939373e+01
-8.577254373236078422e+00 -1.527039050390846642e+00 1.801518731180961908e+01
-4.591762912469193325e-01 -1.500245828462137387e+00 1.573269914550965609e+01
-1.439575109363488092e+00 1.666034014168824795e+00 1.441402235517181651e+01
-6.901983619080731547e-01 2.196158966132389700e+00 1.589947773722895619e+01
-1.513512610569424544e+00 -2.314848726669159085e+00 1.900615246624582966e+01
-5.872627719851491790e+00 -2.670212944296316948e+00 1.912746600405309039e+01
-3.127230032823192563e+00 7.000107425792414517e-01 1.186677006391339262e+01
-3.575815159924162767e+00 4.506026677822832838e+00 1.596117421969941574e+01
-7.225362471786490604e-01 -2.063199578171580839e+00 1.862143934206375917e+01
-5.861510127554454996e+00 -1.675517516352300396e+00 1.746295152706046849e+01
-5.923540634125420645e+00 2.438976827676799353e+00 1.365880761652948649e+01
-3.084741803246366931e+00 -2.591342933176798979e-02 1.363234489461390098e+01
-5.279667672610825591e+00 -2.622463585144556575e+00 1.981075734070292782e+01
-2.963917993040118937e+00 4.297552424703889429e+00 1.756849416670308273e+01
-5.951719797136020063e+00 3.561892562592158917e+00 1.493926591776136092e+01
-6.757106383846030795e+00 4.672094984609003632e+00 1.640707713250606758e+01
-7.244833435801397492e+00 -1.857777239696242200e+00 1.603731663213962833e+01
-4.344507440562829004e+00 3.789818765624827002e+00 1.788793432461387312e+01
-5.841031434575564063e+00 2.189579252067221038e+00 1.842045960529259929e+01
-7.274259948295958900e+00 -2.186006964325287072e+00 1.716845249888671532e+01
-4.107779161131645651e+00 -5.725881401987029662e-01 1.614763333596942374e+01
-6.113868264555682330e+00 1.079455366557569684e+00 1.887454013061183389e+01
-7.451293020440109771e+00 -2.338958258643065946e+00 1.737027613488189104e+01
-7.405985792718935201e+00 3.680211889354885635e+00 1.676563425770607552e+01
-1.503127134942897347e-01 1.199949495967475688e+00 1.705657214862553417e+01
-1.060213667259451542e+00 -1.930379685810076795e+00 1.968763974006333939e+01
-3.705167531366497791e+00 8.491647262890194003e-01 1.153577012261123969e+01
-7.689820058904599520e+00 -2.777886737719923005e+00 1.895024509056433715e+01
8.576245514191858932e-03 -1.423977890116196354e+00 1.828369622353358181e+01
-3.083943648476757726e+00 8.787667282856359563e-01 1.909790097393689479e+01
-3.296420335326590845e+00 -1.347707038626707599e+00 1.975385245871778750e+01
-6.142685288693506607e+00 3.050855049087452642e+00 1.796923178346626315e+01
-6.428644997507131365e+00 -1.195931405003328729e+00 1.658954929758138519e+01
-4.714004108382346736e+00 1.215401661012448509e-01 1.300218820867334557e+01
-1.512335039150703164e-01 -6.890434801538394272e-01 1.863661000857150896e+01
-4.700654407512678823e+00 1.586306452130994415e-01 1.287019450453442460e+01
-8.373778630952138258e+00 1.490523086876159198e+00 1.633496989003405275e+01
-1.070318513014804629e-01 1.876947592362997463e-01 1.548801001078471984e+01
-1.428679137365231666e+00 3.911680964808100569e+00 1.747132963902148362e+01
-8.149700820274942359e+00 -9.560340112435770088e-01 1.886490700528240438e+01
-2.331837256101097822e+00 7.287085061957765397e-02 1.345951112369040459e+01
-6.121053910977367174e+00 -5.991405458537091278e-01 1.484883113936557919e+01
-3.284223898911359463e+00 -2.599019636312933201e+00 1.984997351711046321e+01
-1.894888781516826270e+00 -9.140408567847866372e-01 1.956164672893240919e+01
-2.958209185744973269e+00 4.989166029453582674e+00 1.697722778430600243e+01
-3.669281669890898101e+00 2.092906065399919413e+00 1.304214263447805422e+01
-1.281312409511065065e-02 -4.685820742842730091e-01 1.780891799502621353e+01
-4.957138637755633681e+00 3.058795958291331551e+00 1.817956523640258126e+01
-8.375584506523590989e+00 -1.583909004435389845e+00 1.612988872666048934e+01
-4.309759211534576195e+00 -4.470382359610070022e-01 1.582778385328142434e+01
-7.882686108368941902e+00 -1.674700162848035356e+00 1.563926712179118539e+01
-7.927071498849738163e+00 -2.426019502552041907e+00 1.936449594281953779e+01
-8.192959831174508878e+00 4.668539753736155595e-01 1.812174198834302530e+01
-8.527428125118852620e+00 6.634002963203693426e-01 1.665060721905950913e+01
-8.008280659607784457e+00 -1.836036253310303179e+00 1.589114854959291279e+01
-4.998381456558468550e+00 3.109238479116957499e-01 1.255523243553369639e+01
-3.126498577695233649e+00 4.792747524705181505e-01 1.225127511671375657e+01
-3.311685735069336722e+00 3.744585063953666526e-01 1.237870241300103658e+01
-1.691327361020256159e-01 -1.786168476678395178e+00 1.681368501990993281e+01
-4.172905232807161191e+00 2.900193535434153702e+00 1.378705510171327120e+01
-4.078695362367161792e+00 -2.155488093679170269e+00 1.800584310375854358e+01
-8.591118281953859181e+00 -9.316825849456866759e-01 1.767256965388976653e+01
-3.858700811982694212e+00 -2.364232720717330594e+00 1.816376532314241388e+01
-8.385496415207938981e+00 -2.529435400942129597e+00 1.841514097165158859e+01
-5.965784000049336733e+00 4.934110591480493468e+00 1.683654734143967602e+01
-3.252989852821772665e+00 6.838680944674021545e-01 1.917281043826941556e+01
-4.525723226048013359e+00 -1.717415352603170353e+00 1.989623208701870993e+01
-5.256777680548267995e-01 -2.042120685258761448e+00 1.819058126559421140e+01
-5.084764358615000646e+00 -1.528804248822101863e+00 1.743131772384656841e+01
-7.868166604707518275e+00 -2.607072297604164035e+00 1.798898599795685982e+01
-6.518162502939610192e+00 -1.100687642823823253e-01 1.363143440544671137e+01
-7.864978406955336787e+00 1.296637046402834503e+00 1.471482068621071448e+01
-1.680755384448906264e+00 -2.366048380230958870e+00 1.881532251245124598e+01
-2.205945730510736058e-01 -1.057441617246291488e+00 1.583105803819655932e+01
-4.721513477065761855e+00 -3.312356463782055727e-01 1.546263023182392971e+01
-4.300213339149748570e+00 -2.949105010086259249e-01 1.506073686955420499e+01
-4.517170394712990422e+00 -2.865996065254157177e-01 1.506287261786449960e+01
-2.746794492093874052e+00 -1.958530580198749815e+00 1.777095764883321749e+01
-5.156995227142395777e+00 4.644988060668329588e+00 1.733229248455911176e+01
-7.884562099968740689e+00 3.109449954583110021e+00 1.596466882302608781e+01
-6.246515739313895921e+00 -7.354791141579684055e-01 1.504509533253199294e+01
-4.941978782597287179e+00 4.232049389691616703e-01 1.227930719097492585e+01
-8.371944427931806487e+00 7.138601281086934813e-01 1.587838272127472550e+01
-5.522605903604913991e+00 1.009335896956208067e+00 1.898916901438057181e+01
-8.426199689061073528e+00 6.523247465385147992e-01 1.609476899158843111e+01
-3.498183966345658646e+00 -3.984598510065151533e-02 1.384652672238242133e+01
-3.733890929598464581e+00 3.199134526327457984e+00 1.432635171776819760e+01
-7.148399097119090051e+00 2.836874094852267270e+00 1.768885898005871837e+01
-3.488337903260210648e+00 -3.698243257686473218e-02 1.365992115403708596e+01
-1.291554038034499197e+00 -9.602087512750197007e-01 1.525124586497739188e+01
-4.923385273477362545e-02 -4.459455509539249629e-01 1.683420571552869660e+01
-5.475632205472305891e+00 -2.774107301055823704e-01 1.481947894701335144e+01
-4.102980866798026760e+00 2.289460080780201245e+00 1.306706930718079462e+01
-2.099795245834110702e+00 -8.261695367098136344e-01 1.955683700380368606e+01
-7.353886148631361586e+00 3.919788810120607536e+00 1.659353746510840466e+01
-7.732331071470747830e+00 3.490120460931326107e+00 1.614422464599614671e+01
-5.499478331963118194e+00 -1.953569736269663570e-01 1.941682827605491468e+01
-1.323189215154194187e+00 1.884386643064752898e+00 1.849948242082732719e+01
-4.222277934461757254e-01 1.488043525268861966e+00 1.799776597761960062e+01
-4.008942044630734003e+00 7.475166650585617356e-01 1.917914883799370074e+01
-6.325558049264161653e+00 1.252352113596669314e+00 1.876206068432464491e+01
-7.649114780561355964e+00 2.993580743825861035e+00 1.707013901419596635e+01
-8.237940930744386492e+00 8.945332579393316941e-01 1.552578623100498589e+01
-7.321922906909841267e+00 4.043906566692202276e+00 1.651042577583661597e+01
-3.558786657070969639e+00 2.147632506106562644e+00 1.316630939811330592e+01
-3.082771434677751721e+00 -1.176689527827217141e-01 1.430804147243706126e+01
-1.664972762342498136e+00 -2.424267490885873677e+00 1.939456255944401875e+01
-1.755121960970135175e+00 2.933133727862732520e+00 1.812819538110041151e+01
-7.278060268032596980e+00 -9.800725196164861153e-01 1.941266614738243845e+01
-1.536466137834925139e+00 1.447638593769883908e+00 1.407199389819606239e+01
-5.142161109937060104e+00 4.048713164076587212e-01 1.242840639556478521e+01
-1.684494314493067080e+00 -2.384493610890888959e+00 1.859315550089864644e+01
-7.068056411666359118e+00 4.430643662051732434e+00 1.633072478867524069e+01
-6.506904473324724769e+00 6.076900961466173978e-01 1.291163756094659476e+01
-4.910782055365506271e-02 -6.481883570049722376e-01 1.700047561433029841e+01
-7.319550194425946010e+00 2.354515207938653321e-01 1.895218659013762164e+01
-2.659315892532217784e+00 -2.642188340596292484e+00 1.860979367072697954e+01
-5.925501426196335686e+00 1.006057112568400580e+00 1.229695226122731810e+01
-8.553609808067211162e+00 -1.050752359831483851e-01 1.640938500700818992e+01
-7.122515333552176919e+00 1.143464867249868622e+00 1.860113470668306235e+01
-8.456706269789602715e+00 2.831625489165185972e-01 1.607276290842004585e+01
-8.460739736688783097e+00 1.059932348677701475e+00 1.684624964907130362e+01
-8.844517093250640061e-01 -2.081051557462455293e+00 1.858743573917809044e+01
-1.689270264159269619e+00 -1.621732334212489635e+00 1.639100899602213701e+01
-1.355446737657900025e+00 4.088738584606830706e+00 1.714667682582141595e+01
-5.489644841792737040e+00 -2.287899733190188911e+00 1.805071791867438691e+01
-7.608704511312191165e+00 -8.886837934094411473e-01 1.472678517011883770e+01
-6.031640684397956420e-01 2.302930860175893102e+00 1.617401060629597254e+01
-7.257093366499955955e+00 -1.763174746447762731e+00 1.966258644483303897e+01
-4.763646023426979959e+00 3.451992528508649016e+00 1.802336552279671622e+01
-2.717424026151966654e+00 -7.087561842653122834e-02 1.387457534849956886e+01
-5.048394256895962329e+00 -2.690974343719499728e+00 1.969824362120626660e+01
-5.919259651196479233e+00 -1.213290756313597951e+00 1.969022224176305258e+01
-8.382768858869676265e+00 8.329742003261414451e-01 1.732662404213188978e+01
-5.466696371855587877e+00 -2.618429763619788631e+00 1.980763911980824332e+01
-3.677067366964340778e+00 -6.067649988878718315e-01 1.627390047267675754e+01
-1.831609154196960798e+00 -9.569002197327858283e-01 1.546379735600969241e+01
-4.538460674199883194e+00 2.947936204593907483e+00 1.376153689282654824e+01
-5.508338204980794295e+00 -3.441055726151334149e-01 1.522449951282419534e+01
-7.700036429911919278e+00 -1.625599235630294848e+00 1.548111171645570749e+01
-5.304014600389641565e+00 -3.096908898449992620e-01 1.524897594860097882e+01
-4.883398502317500167e+00 -1.984774773767952416e+00 1.993745064243081799e+01
-4.548559546684931121e+00 1.434383525144665716e+00 1.890226611170365345e+01
-7.917109671093847112e+00 -2.199742443666948155e+00 1.939606386122366644e+01
-6.871149206266789378e+00 -1.567809721325929884e+00 1.968651462384826800e+01
-2.881413297758052661e+00 -2.621681414167334800e+00 1.918344763946245735e+01
-8.575570205725449924e+00 -3.194692751849947943e-01 1.642118187400299689e+01
-5.452740690222722897e+00 8.953668445529486819e-01 1.194143487083638888e+01
-7.880507389495632786e+00 -1.275964318391838548e+00 1.523331032575404009e+01
-1.257083236054473696e+00 -1.194705517090595581e+00 1.545776480235699779e+01
-5.716298637767303958e+00 1.309763817028780641e-01 1.327019716711433972e+01
-4.890546428465461837e+00 -2.695382236648080188e+00 1.970915501888416088e+01
-5.675677745865920443e+00 -3.482213653080801219e-02 1.366589480377862742e+01
-2.653592573197289362e+00 -6.368092792837984906e-01 1.954343915168922052e+01
-7.701562740201045365e+00 -2.312495204995690834e+00 1.701030502617670948e+01
-1.952217537482840770e+00 2.949983122416266923e+00 1.815414596303802597e+01
-4.314950149147553482e+00 8.842491049384226809e-02 1.303966667153220271e+01
-5.663669093228122620e+00 -1.387622867425875706e+00 1.720168348354950183e+01
-3.402063023932955232e-02 -2.555904174785535998e-01 1.705980335900077449e+01
-4.253378045677841612e+00 -1.367888585365976128e+00 1.732202092619925793e+01
-8.361566082086868690e+00 -7.815175892177825823e-01 1.844618800795525715e+01
-1.404927823162924749e-01 -1.318882018000939960e+00 1.881960361983216501e+01
-3.276451938540442921e+00 4.469844306796470490e-01 1.223546701426088390e+01
-8.646800052583586194e+00 -1.336145322362884302e+00 1.743585423142534552e+01
-5.814485050556965184e+00 2.657762667685920732e+00 1.821756516179107166e+01
-3.698485188944653945e+00 -3.288676725556580749e-01 1.541548554185678910e+01
-1.062733232600226729e-01 -1.034686977799106566e+00 1.664837082184338612e+01
-4.303863695924675881e+00 2.223028554218686725e-02 1.327128641904415218e+01
-1.089046443255484498e+00 8.184731002937631894e-01 1.405869576307619440e+01
-7.387637716771151830e-03 -8.735805049952205525e-01 1.800684877962726915e+01
-2.964912366297658863e+00 4.685641671670509822e+00 1.733849572883210755e+01
-6.955134752790928410e+00 4.243017852203561091e+00 1.673110838419085411e+01
-8.545694349406476320e+00 -1.831276415076350750e+00 1.819608999575426367e+01
-6.477155904272916764e+00 -1.072126774476048983e+00 1.540037447515152280e+01
-5.783089682997974101e+00 4.425520714529204369e+00 1.730021030485561795e+01
-7.719870503619945534e-01 2.575377328819771883e+00 1.616976396149784989e+01
-8.314626611777266307e-02 7.859015160807301115e-01 1.691325873688236214e+01
-7.553183037372049213e+00 2.849016628046904032e+00 1.731130452932962527e+01
-6.358407365625022400e+00 4.334472318239386723e+00 1.593003661238615365e+01
-4.890013615003645953e+00 -5.537832114800904648e-01 1.956638718547168310e+01
-3.125262637910714680e+00 4.678905769067328357e+00 1.638450781840500525e+01
-7.664928651658398095e+00 -1.058809731956457778e+00 1.486949463066279264e+01
-1.707766168862277167e+00 1.902034857265445966e+00 1.857143467382213231e+01
-4.945918654244062296e+00 5.123091244413775058e+00 1.702570159057654564e+01
-3.431457033522312683e-01 -9.569819760244107076e-01 1.548666919315773782e+01
-5.311437962525844547e+00 -8.832280842413999800e-01 1.666172234167241584e+01
-2.100652853173287316e+00 3.232818471397765236e+00 1.530028797336417767e+01
-5.917165207522844916e+00 -3.211490546604192087e-01 1.421396807286329533e+01
-1.588039956569578526e-01 2.118061585289342519e-01 1.521992313030253285e+01
-8.999140439216768428e-01 -1.585638883820799316e+00 1.582313473245211100e+01
-5.728076164445874419e+00 4.896122021640423760e+00 1.698494015172738614e+01
-7.283978720095191761e+00 -2.339108770002538584e+00 1.758289079545888001e+01
-4.480572139448667279e+00 -1.827306069840991531e+00 1.991652963060568027e+01
-2.201996746750834344e+00 4.072139690891372510e+00 1.621615406418990801e+01
-7.451784861322349407e+00 -2.419952503914313269e+00 1.758722848492733704e+01
-6.091924693763844267e+00 -1.165974677052431074e+00 1.676905651712510092e+01
-4.338741145960985257e+00 2.920828218848473767e+00 1.375629997714498387e+01
-6.318658236223291536e-02 5.361615893883479034e-01 1.726523471821952427e+01
-6.029708464018617597e+00 -5.433410333456525354e-01 1.501194941058975019e+01
-8.606430317422656628e+00 -1.228127229267068854e+00 1.773017458645787059e+01
-8.641452847063956000e+00 -1.156989957422584814e+00 1.742978330520393371e+01
-3.465442283356423570e+00 -2.673544419638917091e+00 1.875539796741898613e+01
-5.853116751139277874e+00 -2.681722075011880868e+00 1.922701604325279590e+01
-6.272234726859397647e+00 4.805474796491134293e-01 1.290014120659176200e+01
-3.104160123498119095e+00 3.040446086295556682e+00 1.445216125780633831e+01
-5.925918041165789685e-01 -7.239868778529410243e-01 1.508051123509115854e+01
-5.873603387916546126e+00 -2.649760758710338671e+00 1.896229501828887010e+01
-4.894053703286784796e-01 -8.018790254981038590e-01 1.523840285995537158e+01
-5.473099634656776402e+00 5.742800431306993580e-02 1.345854884355679815e+01
-7.083688245615673118e+00 -1.650369402862291279e+00 1.563151326030849475e+01
-5.449339903256584350e+00 1.020863230457796700e+00 1.197053654775944409e+01
-2.302120522051845253e+00 2.864002932008584690e-01 1.310131864787054212e+01
-3.893463911216096918e+00 -2.646813364196495932e+00 1.913361540633819402e+01
-7.990261165135486898e+00 -6.684929311706278021e-02 1.495689888781501509e+01
-3.796473397899887914e+00 -1.802672073824753030e+00 1.775097819986810777e+01
-7.058803803383776554e+00 1.072116019718261093e-02 1.366484355262127792e+01
-3.393034099085710853e+00 1.328258398628399117e-01 1.302747833421130252e+01
-7.039800271067118587e+00 -2.601610547035309473e+00 1.977942380529326982e+01
-7.287696574993023368e+00 -1.549513769461303481e+00 1.533851532697551789e+01
-2.942146710174271540e+00 2.259297690674453296e+00 1.855019086199960299e+01
-1.512598932682998276e+00 4.003646181339615140e+00 1.744890200640395506e+01
-1.281763939581890721e+00 -2.128646866955403283e+00 1.738677644901026298e+01
-8.013145675957259684e+00 1.114181984679620596e+00 1.797708901273507109e+01
-4.493425844491277243e-01 -1.061672703195115641e-01 1.888077754362422667e+01
-7.003061655203380198e+00 3.149262405018543376e+00 1.758153494571003961e+01
-8.481484663859623074e-02 7.287692217009787976e-01 1.726098889247696633e+01
-2.072902285164512082e-01 1.714747215853390516e+00 1.646535361528340502e+01
-4.081186002374426636e+00 4.456769317171873079e-01 1.927919605978477335e+01
-3.699788830609500034e-01 -9.518150290358458054e-01 1.914556497632415955e+01
-5.559180344643226412e+00 4.106275212478004200e+00 1.538873271230773554e+01
-2.078497910741325949e+00 -2.089482738650668026e+00 1.763623148763022641e+01
-5.130020697226498783e+00 3.235327391097312599e+00 1.808103307476789468e+01
-2.069041235943875456e+00 -2.237429634696194825e+00 1.780948158111812063e+01
-3.971006921874843165e+00 1.525109647534774737e-01 1.936887042698511152e+01
-4.957165495484329165e-01 -9.357149843276026946e-01 1.924311936744378926e+01
-3.887263594428753244e+00 -1.666073910643292022e-01 1.946366316755032955e+01
-6.118265976181608501e+00 -1.511249831353921325e+00 1.721330369701896501e+01
-7.659130463783450082e+00 3.173247315023516535e+00 1.688053834202117542e+01
-5.526443213224996320e+00 -4.015760654150695164e-01 1.548133626447057765e+01
-8.818918359618543867e-01 2.025855936155505965e+00 1.548143227378121622e+01
-8.108416775686887235e+00 -2.012835552197291378e+00 1.917025672357947741e+01
-1.295843633824292240e+00 -1.771988437271146077e+00 1.969936507527893355e+01
-6.298431527878849856e+00 1.931559413950167281e+00 1.334677215434328446e+01
-3.691067343321934757e+00 -1.496921139649394217e-01 1.443304575543186274e+01
-7.881805639590237611e+00 2.030846534020350980e+00 1.750016910968883366e+01
-1.236846491338648768e+00 3.624764163819696350e+00 1.754872892730229239e+01
-5.561222988887357666e+00 3.098028399950756295e+00 1.807285133620835893e+01
-1.205576208626680135e+00 3.878525195984095397e+00 1.731185218095715328e+01
-7.134490315969772567e+00 -2.053384212376065499e+00 1.702528118185383477e+01
-5.319184985068799776e+00 -1.938282590120888882e-01 1.446272116823116960e+01
-1.319830454348279281e+00 3.968022501021255977e+00 1.735703897074118629e+01
-8.197429724319091449e+00 1.529768040856964717e+00 1.564806569828861171e+01
-1.068994310252682878e+00 -3.071385877818590959e-01 1.926786531477841891e+01
-3.669125570539604198e+00 -2.644129993446096449e+00 1.903428923613655854e+01
-3.167217160690499966e+00 4.091508193574375341e+00 1.563220473046020942e+01
-2.719657863261290554e-01 -2.073283375509151760e+00 1.740517732331955614e+01
-7.899476926394826570e+00 2.455402748929091494e+00 1.713751799202198356e+01
-3.721504316348157371e+00 -5.818207169443054827e-01 1.958123101169925206e+01
-2.499763565861499615e+00 6.336309300952155388e-01 1.243514100164823333e+01
-4.338429448100209918e+00 4.958564615226589645e+00 1.635931608326243492e+01
