-4.808530601137080751e+00 -3.788124084483413867e+00 1.712307464079630392e+01
-5.239000904505195066e+00 -4.568778069239901818e+00 1.699254788029254826e+01
-4.445787469222947763e+00 -4.757727381736650329e+00 1.683968381828751149e+01
-4.858586618474291186e+00 -4.943066972718026086e+00 1.682600504731917823e+01
-5.209002241508260411e+00 -4.802657367887458228e+00 1.691573832164500857e+01
-5.018632868715183548e+00 -4.971083954477321321e+00 1.683548414662722337e+01
-5.840586661776505650e+00 -4.562877750077133143e+00 1.705750296881614503e+01
-4.658219923820940522e+00 -3.405918285197581774e+00 1.715678610476326327e+01
-5.204886243665267642e+00 -3.627324863049765646e+00 1.718833091808991753e+01
-5.221077711285209588e+00 -3.385835524480005354e+00 1.721912060508590514e+01
-3.044415949959116574e+00 3.331524136484773635e+00 1.459763290341147268e+01
-4.422422567013457595e+00 -1.192109456505183074e+00 1.712091026524666404e+01
-5.454579291247533490e+00 -4.954680136114312461e+00 1.689252318609612757e+01
-2.202936260614194008e+00 -6.793432371901276801e-01 1.267711123005526019e+01
-5.827665503478524300e+00 -5.570033639095045785e+00 1.667667995675250125e+01
-5.460450350561957933e+00 -5.984710973974192605e+00 1.644164795188103767e+01
-3.047199513696785544e+00 2.043977091096731868e+00 1.694013028445453273e+01
-6.374193248277709500e+00 -2.118335521960461598e+00 1.388828732784752162e+01
-2.586358989649754747e+00 3.128554010382153194e+00 1.656584038656799862e+01
-5.418180732303037317e+00 -4.719511150311022973e+00 1.696677542463547894e+01
-3.874770817113882604e+00 1.832130359711367618e+00 1.148162284874307204e+01
-5.620555273416560027e+00 -4.974117738649644238e+00 1.690370575266057074e+01
-4.061801048894844612e+00 -6.424453273337451975e+00 1.501381053117018638e+01
-1.323360628894640456e+00 1.598588121964166664e+00 1.251188417685947485e+01
-5.411498399299194517e+00 -2.366614616186743625e+00 1.731523740494288433e+01
-5.243247081250537178e+00 -2.554440202228304813e+00 1.729001363645676292e+01
-5.448170228348912403e+00 -4.376543764325616870e+00 1.706816298442932833e+01
-2.237708703309533753e+00 -1.357810419504603461e+00 1.711089509865924185e+01
-1.855280694281815634e+00 -3.369218021367938576e+00 1.375711743601146253e+01
-2.798508387055495539e-01 5.686088959999342496e-01 1.444405424762756951e+01
-1.855914653825352589e+00 -2.598385204688923089e+00 1.348876751321247980e+01
-2.313776174913889427e+00 -3.239154892715313316e+00 1.401943174605325737e+01
-4.658726374262014858e+00 -4.561780335708268908e+00 1.692520829125935222e+01
-4.631182986510681943e+00 -4.769630810108504981e+00 1.685728204092875160e+01
-5.317753361165165060e-01 1.397434831838729297e+00 1.583352358383925917e+01
-3.794207562605501072e-01 4.650408469294689540e-01 1.359408628176693412e+01
-4.241566195609584589e-01 6.032915900066735393e-01 1.363488403330948984e+01
-9.607812919347694658e-01 -9.651512737423109112e-01 1.685317758543013866e+01
-3.720181920532398823e-01 4.979998401073031933e-01 1.587424211401933150e+01
-2.540249035385840903e-01 -1.235283333387688254e+00 1.436081774432244629e+01
-2.340061312834802454e-01 -1.214360091666108143e+00 1.451135542882131091e+01
-9.882695718800582618e-01 -2.857947288489484094e+00 1.362699749175951780e+01
-1.218675121348900436e+00 -2.170007826678069129e+00 1.695144831054263790e+01
-1.238431706280103128e+00 -1.760463856284820494e+00 1.698243443287914545e+01
-5.635844372349296805e+00 -4.142685800681570107e+00 1.714196120248496413e+01
-1.055435375617340021e+00 -1.553443696021225673e+00 1.690942520721863218e+01
-5.010172842363738166e-01 4.793964106922189439e-01 1.619478623390935468e+01
-5.880048069525254384e-01 6.664787714335076441e-01 1.630328530860831648e+01
-1.363473603795694045e+00 1.733006882179098040e+00 1.293322926100285741e+01
-6.983305127919832156e-01 -1.326622763399405436e-01 1.657114022117547592e+01
-5.856614982645629297e-01 -1.314545439598421295e-01 1.644028824218487728e+01
-6.668976207357922847e-01 -3.528947958911884397e-01 1.656323740579664161e+01
-1.084549108527790073e+00 -7.525146495588090900e-01 1.692189007516212484e+01
-1.420303569971573809e+00 -2.362716319033151713e+00 1.699982494484430617e+01
-4.063247383370591770e+00 1.221536030118905325e+00 1.208286206825510334e+01
-1.447048716914662414e+00 -2.754126411181554879e+00 1.697049463868375341e+01
-1.218408551833563891e+00 -3.157561383815242984e+00 1.686973346466805879e+01
-1.916691652406233404e+00 2.358239363756901241e+00 1.314165554071525577e+01
-5.377877179898350235e+00 2.794066120366924366e+00 1.095130138954327492e+01
-1.097605803493660659e+00 -4.909805838494370356e+00 1.633584286794718565e+01
-9.633524077143762465e-01 1.160143806956540624e+00 1.276856337240587891e+01
-4.169546692893039697e-01 4.836839198251223770e-01 1.601053744551530400e+01
-7.532286962698872657e+00 2.800789824914532211e+00 1.524041751476571704e+01
-1.090364586423977267e+00 -3.355957455116271859e+00 1.679874414655287751e+01
-1.399932199840918434e+00 -1.574443678895018905e+00 1.704307243308849706e+01
-8.936012327489890605e-01 9.311962924856365120e-03 1.673897127620448799e+01
-1.711193549585634521e+00 -1.006118477214833495e+00 1.709734008586188736e+01
-1.645348093694817493e+00 -3.352800588019126948e+00 1.693863700338391709e+01
-1.423380676449213400e+00 -3.764337623935612775e+00 1.684556782043549106e+01
-4.643711403436023843e+00 4.427135604795743085e+00 1.647354975133365684e+01
-5.675590315607449421e-01 -9.399903822703026268e-01 1.639913871309828863e+01
-4.673525175259293230e-01 -9.015111343146462453e-01 1.615684200640406942e+01
-6.810437455758032499e+00 -2.036066841662178994e+00 1.329807867554793432e+01
-4.044955439173124612e-01 -9.247820835881199741e-01 1.595151383331914730e+01
-5.277999379884652953e+00 4.222060838194821031e+00 1.459822223601450020e+01
-5.751355328911511577e-01 -1.139791292435587966e+00 1.639000937905513666e+01
-4.459813988121911876e+00 3.252226488435432827e+00 1.685694334003143524e+01
-5.369903513384098881e-01 -1.308682802529337108e+00 1.628150416555322266e+01
-8.142281588860909025e+00 1.238248474744171990e+00 1.476645405291719726e+01
-4.375664477836888056e-01 -3.670486219947001416e+00 1.462990318449345040e+01
-4.203881001079956548e+00 -1.162026871877202217e+00 1.386804741153704867e+01
-4.196513214000803793e-01 -3.683019766930886618e+00 1.504881222032759069e+01
-4.401799183600836329e-01 -3.872784271956517088e+00 1.486780403239195181e+01
-3.720653019273200357e+00 3.537567895469287294e+00 1.323509399284562704e+01
-9.679601040772816134e-01 -3.149478718183930326e+00 1.675564777888396151e+01
-4.189389384782270298e+00 3.994688060588194034e+00 1.540456215531649065e+01
-4.628873716890028689e+00 -1.366558206418856614e+00 1.717540081367714322e+01
-1.051652837815889585e+00 -2.553231238894520416e+00 1.684782913843958596e+01
-9.529404089597603988e-01 -2.564661182976598397e+00 1.678834234688017091e+01
-9.536773338693813606e-01 -1.540823294798216558e+00 1.684627756960450284e+01
-7.238655709729798104e+00 2.758371616293454842e+00 1.365312702457934790e+01
-5.099708335404173898e-01 -1.504735648478655596e+00 1.616665930126544737e+01
-4.902599321281016498e-01 -1.751232881497243099e+00 1.612587616208456609e+01
-6.589962122419887880e-01 -2.150342772697679372e+00 1.653878298383957457e+01
-7.748176595961908664e-01 -4.763702692473665401e+00 1.605671643201785770e+01
-4.041220539599867934e+00 -1.584830715278794377e+00 1.404685043717651638e+01
-7.035465932990270232e-01 -4.706602689474173928e+00 1.596733025919088789e+01
-1.044994638756307825e+00 2.364080450016030621e-01 1.683268255958246584e+01
-2.237153856609313429e+00 -1.753359109065101507e+00 1.710557990759028257e+01
-1.448417892309145527e+00 -5.133507434848972650e+00 1.450903918187933073e+01
-5.824473942715899355e+00 -4.762262310530764431e+00 1.699528104681988339e+01
-1.255079396673744796e+00 -4.998685761809779748e+00 1.446268826212520509e+01
-2.421856510196907397e+00 -5.122886036260615228e+00 1.654823297442003138e+01
-5.874774674096647331e+00 2.870766006381146873e+00 1.180106350789860414e+01
-2.221346244621773103e+00 -2.168121626155190107e+00 1.709141166637983389e+01
-2.649986228383003795e+00 -2.734802078933984859e+00 1.706152479451922943e+01
-2.635802460692341143e+00 -2.925097819817943368e+00 1.704500851112332782e+01
-2.422768834070784472e+00 -2.564140246285846914e+00 1.706938869884725563e+01
-2.243806409327542273e+00 -2.574867897528076988e+00 1.706605420165222142e+01
-2.059353064337719363e+00 -3.951174673967382311e+00 1.688436343499497383e+01
-6.629568536074553764e-01 -2.812144366365053827e+00 1.390497221131456484e+01
-8.822553871787998103e-01 -3.004131232268096419e+00 1.374586449623863871e+01
-7.500251841220103577e-01 -2.634841557342099350e+00 1.378834900963661170e+01
-7.678311781571039996e-01 -2.850270456356263971e+00 1.381288489697938360e+01
-2.017715834992097612e+00 -2.940225388328470579e+00 1.701891794458153129e+01
-1.818108101396979315e+00 -1.758870453717701787e+00 1.709733368796159425e+01
-2.239829409264374682e+00 -1.153232503298494471e+00 1.710718016264507213e+01
-3.305591975757743661e+00 1.699171664862436926e-01 1.278123528110678109e+01
-1.510823290316019696e+00 -2.193388986066798552e+00 1.703505697410245290e+01
-1.551413552144175867e+00 -2.601791862599726279e+00 1.700705582647802316e+01
-6.592167777753399349e+00 3.855774914631562744e+00 1.471310104711722744e+01
-1.480968454210032537e+00 -1.635845665194609833e+00 1.705850150394443432e+01
-2.218809990901987605e-01 -2.050411166125985396e+00 1.454208953555743733e+01
-1.817807929442590842e+00 -3.759372780989117757e+00 1.690434733666268841e+01
-3.403241522562544752e+00 2.982734991083752618e+00 1.071251833816108956e+01
-1.816772050489718016e+00 -3.560199112433778623e+00 1.693095461313149031e+01
-7.980759262110549201e+00 1.708124457005542940e+00 1.396229210166396939e+01
-1.807916097873808692e+00 -3.188598299500564615e+00 1.697670612828081715e+01
-1.051479284903459099e+00 2.009615750368574094e+00 1.631912120302987290e+01
-7.845305495987376920e-01 1.259033293500075645e+00 1.387532391820883504e+01
-2.671243774962146489e+00 1.348656632335524685e+00 1.152847463829038333e+01
-2.672932401116828061e+00 1.463135534017115713e+00 1.144708158065009940e+01
-2.680440167219507508e+00 2.128095607315962923e+00 1.099198504807360166e+01
-2.471179467858007683e+00 2.301014280575170545e+00 1.087426385208951984e+01
-1.345242232135209992e+00 1.867616441328108667e+00 1.432465936146804353e+01
-4.666694284727864073e+00 -3.053414798361785643e+00 1.449443545096008279e+01
-4.552267662450073082e+00 2.166668546188518896e+00 1.102857240068999545e+01
-4.663338134290532899e+00 -3.261914453857913898e+00 1.453006893962594148e+01
-7.094350486353095064e+00 2.477675099819361293e+00 1.277935676916455066e+01
-7.763839735508012652e+00 2.281543747858578719e+00 1.463657035371517168e+01
-7.634413304802054157e+00 -3.364767597056720128e+00 1.713828789467886793e+01
-1.381142507287573595e+00 1.852707270449666099e+00 1.391744942831184773e+01
-7.912248571935180053e+00 -4.378903777436846667e+00 1.675607773267053346e+01
-4.257645024158987823e+00 -2.035003022465439848e+00 1.421242820739910684e+01
-4.661376460337643302e+00 7.792672188291138724e-02 1.311449248975532100e+01
-4.246981453485410896e+00 -1.673157151978220014e+00 1.409174991898630935e+01
-8.558432720475674937e-01 1.372586240593967277e+00 1.408899426539383626e+01
-3.485725043189209504e+00 1.965570667182545139e-01 1.283909062828150383e+01
-4.249961783075130839e+00 -2.883134612469596902e+00 1.444159154102218423e+01
-5.434562335870225525e+00 4.386141732765421741e-01 1.725121086461673059e+01
-6.833721077751093276e+00 -1.319634305414990827e+00 1.729308671507244100e+01
-5.442686390283714815e+00 -5.260791674507211191e+00 1.467148738701405364e+01
-3.251612227339419459e+00 3.808875772635084145e-02 1.285158492117991358e+01
-2.257030123776313069e+00 2.494884908927454070e+00 1.113627377557028097e+01
-8.053547725025255843e+00 9.015210170379716059e-01 1.553700268803078188e+01
-4.254698436269681139e+00 -3.080927801728910786e+00 1.448400867544862081e+01
-4.008025905229171570e+00 4.137102285018546155e+00 1.641432981303859862e+01
-4.248493669692928520e+00 -4.067969587987781743e+00 1.460370419420731736e+01
-2.280894611163659214e+00 1.287213227805253268e+00 1.152804390265915657e+01
-2.855155810986320208e+00 9.070463090483944502e-01 1.190913290014754011e+01
-3.654345423129948589e+00 3.575247536640980606e+00 1.401715099348265881e+01
-3.067983843974041669e+00 2.270684169270306363e+00 1.092043838421487578e+01
-7.834251356492478280e+00 -9.552145680598507216e-01 1.664500907066585711e+01
-7.782659836183253077e+00 -7.809835740441697371e-01 1.658284621775442247e+01
-3.102965636743592714e+00 2.524078322429370580e+00 1.073094236495771980e+01
-5.478583653309316404e+00 -4.036727929679497784e+00 1.461745841225735631e+01
-4.062624527860819512e+00 -1.018565658412126540e+00 1.377405521036679659e+01
-4.038414012629640837e+00 -8.160160113155583428e-01 1.364533823746011620e+01
-4.079200088331672802e+00 7.105921929746522592e-01 1.255451032840378645e+01
-5.653317789116700354e+00 3.535440517466239996e+00 1.691678019581345893e+01
-4.638277233008818001e+00 -2.229932328846688350e+00 1.430270386641992530e+01
-4.649506392032302315e+00 -2.421919121615004222e+00 1.435235761305585100e+01
-6.250558202351882642e+00 4.613909214609331677e+00 1.630494956975360310e+01
-4.478962438205019936e+00 -2.027717152959930935e+00 1.422927467139334112e+01
-4.552418519849872780e+00 1.115042328499945334e+00 1.217733878965578498e+01
-4.428038485653940981e+00 -1.825366184875557574e+00 1.416247344597732649e+01
-4.709289331290049674e+00 -2.086687865947495446e+00 1.426811936144153492e+01
-6.434880505459801725e+00 4.423710235404521462e+00 1.590187118421815171e+01
-8.494370790670718208e+00 -2.665439031392307090e-01 1.508909861110505801e+01
-5.681507248125463150e+00 -4.056337110358104958e+00 1.462391596965508711e+01
-3.841495965549067027e+00 1.424732762115858309e+00 1.185327760521171570e+01
-4.910571478082196295e-01 7.771922944739806383e-01 1.368868071349891125e+01
-3.128585112203327245e+00 2.724684587692952076e-02 1.278204276712440901e+01
-3.205765180371484835e+00 -8.574094710199431368e-02 1.291589660915796145e+01
-7.269425823470562875e+00 3.164167672836270206e+00 1.462105171258733805e+01
-5.817440424295080348e+00 4.692607182938999699e+00 1.626971268780849300e+01
-3.867703076131388418e+00 -4.532911442526437185e-01 1.338753922513495098e+01
-4.046339950748234493e+00 -6.548002624951458905e-01 1.354335514705446997e+01
-1.338983979790047130e+00 1.278662902816548597e+00 1.194550879340884819e+01
-1.249531895005447923e+00 1.256973977080376947e+00 1.208744682598888431e+01
-6.233188672682942411e+00 -5.342365270738473448e+00 1.679924053253463256e+01
-6.442640837094053552e+00 -3.388071138092584533e+00 1.729641290932150355e+01
-8.355543925208248623e+00 6.593319598959497263e-01 1.445807823849462892e+01
-6.636974619759605787e+00 -3.746709730017851570e+00 1.725328978117458689e+01
-5.643964359163160083e+00 -4.387999732836164846e+00 1.708484510750742658e+01
-5.826750934836168128e+00 -4.365975030823312508e+00 1.710782804457750927e+01
-2.464746765497658032e+00 -3.049658388659461927e+00 1.406763465919649292e+01
-2.523676830745806399e+00 -2.826598323848709349e+00 1.403537885961857512e+01
-2.669612869558522839e+00 -2.639609100386597795e+00 1.406850062377556299e+01
-2.071982577541356729e+00 -3.627167079716889786e-01 1.247700701656921041e+01
-2.272767186497744341e+00 6.732838797310589096e-02 1.226252593401775925e+01
-2.703202168961110097e+00 3.214588560737594136e+00 1.656820572747369624e+01
-3.169776402628311729e+00 3.516118002457623071e+00 1.663627182279164884e+01
-4.612186310271402689e+00 6.256580199208834348e-01 1.710572805698796373e+01
-4.682457455381682898e+00 3.909664027985717993e+00 1.370989661312598429e+01
-2.605898830424600909e+00 -1.742629300827775563e+00 1.362613863632459754e+01
-6.124225113393379161e+00 4.403557577809434243e+00 1.543714312935973965e+01
-2.629076587594310954e+00 -1.395064274958355943e+00 1.342570895497047445e+01
-9.408606260568365132e-01 -1.617990132573332018e-01 1.289478386552146105e+01
-1.887928010201272544e+00 -3.221225761094617113e-01 1.245715846397420989e+01
-3.853267097652212314e+00 3.641914864759264958e+00 1.672331874377012184e+01
-3.624833348950675660e+00 3.918146758312744282e+00 1.642014173989051073e+01
-3.443508536159884947e+00 2.249422491376446231e+00 1.688523211621797770e+01
-3.227838699529368860e+00 2.064499249944744097e+00 1.691908288244882641e+01
-5.852426719146041734e+00 -1.984249251996199392e+00 1.736954191607892284e+01
-5.824650115716782039e+00 -1.792865445944212821e+00 1.736917639286275516e+01
-1.946746773525432905e+00 3.548978363647682377e-01 1.210422411828839273e+01
-1.593883571196875515e+00 1.716674157382231503e+00 1.166266289959469304e+01
-5.845887574608308768e+00 -5.887540452695363413e+00 1.651361185616338645e+01
-4.638094746806919133e+00 4.422890088720870527e-01 1.711750137211882361e+01
-6.448440934140956315e+00 -2.783695102638209740e+00 1.735732326783520563e+01
-7.939453775613131370e+00 -4.155435769753971442e+00 1.680351186346430836e+01
-6.230959865977270695e+00 -2.770211851322533114e+00 1.735076090015544992e+01
-5.857102904618230355e+00 -3.769156064332952027e+00 1.722214058597338493e+01
-5.818753871238705244e+00 -4.993446480725566516e+00 1.691611704458812682e+01
-5.876721009974259502e+00 -4.873774058463757441e+00 1.696386378042210197e+01
-6.799420915118272291e+00 -3.185357269369314182e+00 1.731766158205127226e+01
-2.108181825366724382e+00 2.789565691676221704e+00 1.657439354587346259e+01
-6.816453462169977939e+00 -3.269715529057694248e+00 1.406918537865883678e+01
-4.228194723166062374e+00 3.040015778343328812e+00 1.684066487413673485e+01
-2.874299630628014857e+00 -2.199041451007297532e+00 1.401762646973678272e+01
-2.762468925748837290e+00 -1.607712084911134154e+00 1.366000300521365318e+01
-3.104660792876472453e+00 -1.047358209992666600e+00 1.355434437470042752e+01
-2.859137120498672857e+00 -1.398415678934076034e+00 1.360206583024093163e+01
-2.909235389556998896e+00 -1.490501491714026239e+00 1.369323639771697998e+01
-4.824237833299054756e+00 -1.557097124833146884e+00 1.722473360449713198e+01
-5.025522115491936503e+00 -1.372603437857477626e+00 1.725286418021745050e+01
-1.388185527204569336e+00 1.518696898286931551e+00 1.206718194477507922e+01
-4.843953263018809352e+00 -9.998489896295006396e-01 1.719142559662687120e+01
-4.416414055309424214e+00 -7.557721982951003392e-01 1.707983732897003648e+01
-5.860486101807525827e+00 3.784201399835099622e+00 1.364514280066389063e+01
-5.621093667740478139e+00 -2.555085583130060733e+00 1.732680931650198630e+01
-5.816506919199920134e+00 -2.181268932188245024e+00 1.736027255614742160e+01
-5.854138653535155612e+00 -2.370138998232241612e+00 1.735590559361758523e+01
-5.810294318355976984e+00 -2.550013123602496101e+00 1.734061669098500147e+01
-2.085868066020005518e+00 2.556843603165668277e+00 1.414704919712637121e+01
-5.818793358766660262e+00 -3.356264601792148916e+00 1.727060283556159703e+01
-5.824118877084416113e+00 -3.561942023666850865e+00 1.724756319036311680e+01
-6.244254947262549038e+00 -3.191882150271386109e+00 1.731064592621397935e+01
-6.024825271494805179e+00 -3.155294247098626492e+00 1.730303111034265129e+01
-8.162138827962694521e+00 8.809872883075728911e-01 1.506461011133650629e+01
-5.614906512982500431e+00 -3.971317528853393952e+00 1.717396577207950514e+01
-8.520169819317940707e+00 -3.522002611515282489e+00 1.618472533765726951e+01
-5.534465599590046025e+00 -3.863179455134432061e+00 1.718500498751281924e+01
-4.829023467151436932e+00 2.465250625897556502e-01 1.715929007258338146e+01
-3.029658758113387584e+00 -9.781192798926225951e-01 1.344905548504090120e+01
-4.785361651355930945e+00 6.773745561429256323e-02 1.715450855702872701e+01
-6.229659419156403644e+00 -1.158053901235109207e+00 1.734739544370393816e+01
-3.642676952767225806e+00 -2.827675248919757856e+00 1.439612000352148868e+01
-3.465905193150705887e+00 -3.262225507528764723e+00 1.445706194480028728e+01
-6.813499631842523385e+00 -2.983106912714506898e+00 1.733817023276312597e+01
-3.138338961341967881e+00 3.576167324202645936e+00 1.618297843866292851e+01
-6.831216010516348192e+00 -2.177264641000669521e+00 1.739362433632096838e+01
-4.425819045634808435e-01 -3.900625642795033876e+00 1.527143177146258068e+01
-7.929636220004809388e+00 1.755908822200740182e+00 1.518603535147434513e+01
-5.701091331796585004e-01 -1.766379977399119339e+00 1.638706429861805702e+01
-5.564275628395849438e-01 -2.180548385751184703e+00 1.638078498154303020e+01
-1.671418427217552516e+00 2.442829564584424240e+00 1.636436526639131017e+01
-6.649713920357170904e-01 -2.737324726382786011e+00 1.651456707518816813e+01
-5.547281643477077751e-01 -2.371026754312329565e+00 1.634966962841874505e+01
-4.943783510056853903e-01 -2.937803950401961295e+00 1.609797204271332305e+01
-4.542534928330224098e-01 -3.895348917144745293e+00 1.544571215217568749e+01
-7.873491319948225708e+00 1.630479606708818086e+00 1.298093046852505950e+01
-7.591453517027353826e+00 2.719181277423568410e+00 1.500996774837036440e+01
-8.759676670186346215e+00 -3.153535020502963526e+00 1.459529048835246101e+01
-7.920559708713637903e+00 1.128349073895045240e+00 1.576146385134290284e+01
-3.316420493138605430e+00 -1.073657965887659493e+00 1.369539297930899835e+01
-2.056481027672994788e+00 2.554057852592752198e+00 1.475122213303956897e+01
-6.279316383259967438e+00 -1.781561561852303521e+00 1.379786416501992363e+01
-6.439124374965167874e+00 -1.828773979332199984e+00 1.357715775044969320e+01
-6.401799845693936675e+00 -2.008220659216023662e+00 1.376255448035032458e+01
-6.325692663847295449e+00 -1.589177526914095528e+00 1.360182151479427404e+01
-7.996185031591757308e+00 4.925816156218119080e-01 1.586020321031669766e+01
-8.807547367685513606e+00 -2.078895537277316130e+00 1.517052484350871566e+01
-4.883704304446967015e+00 2.883237623445535469e+00 1.056826847859336027e+01
-7.734709068669857857e+00 2.381120695503342155e+00 1.503223331593978429e+01
-6.872034379163222795e+00 3.769019337157023308e+00 1.503025322127363239e+01
-5.681601886651593603e+00 1.332843884134122137e+00 1.156910023611827398e+01
-7.065194712673136479e+00 -4.849836938934003250e+00 1.471072938890185355e+01
-7.890026943925203540e+00 -5.044797601360478945e-01 1.631879860504327695e+01
-8.578804314633899253e+00 -3.112854539391753939e+00 1.611057955212836390e+01
-3.872073971068139997e+00 3.627625447910755696e+00 1.342459780625141263e+01
-3.279827072155295120e+00 2.871378399653270463e+00 1.061224284026008746e+01
-3.274170971933703989e+00 2.963245295264164803e+00 1.077224738554513550e+01
-4.493710852170771375e+00 1.330960372264186287e+00 1.195645108638905185e+01
-3.851460696811236151e+00 1.739082410893475705e+00 1.156680528483470738e+01
-4.265135322535149598e+00 1.340326044916978265e+00 1.198618402225044832e+01
-6.628351403787052121e+00 4.089029567429576240e+00 1.527899400283563125e+01
-4.072676782289704533e+00 1.337281436695878512e+00 1.197630336748679269e+01
-3.477925085256680648e-01 6.714589877913346161e-01 1.424578576983159195e+01
-3.672994785102086990e+00 1.725164380381148721e+00 1.154636520244888231e+01
-5.258232443156412472e+00 -1.021740851481862666e+00 1.380762542161686923e+01
-2.535727286092195332e+00 3.025660158551953138e+00 1.526481993941898452e+01
-4.548436957357841592e+00 9.308097265892310013e-01 1.237630532045108822e+01
-6.234012389863018200e+00 -4.252426577721878154e+00 1.459731894053403778e+01
-8.481974075049272699e+00 -1.074986271189488640e+00 1.589035809299414836e+01
-8.417683607914103305e+00 -1.098089566156764896e+00 1.601158656764526000e+01
-5.503214359612233153e+00 4.440605125320270297e+00 1.530098441477154125e+01
-8.485405770539379944e+00 -8.762734299610852595e-01 1.566997860244808294e+01
-8.418953536853726050e+00 -7.191068672473660550e-01 1.567108040240694322e+01
-8.135416858948188334e+00 -7.396593330455477622e-01 1.614416331259646853e+01
-8.274066396113155974e+00 -9.096328095104297962e-01 1.608150908277715274e+01
-1.908951754367917308e+00 2.595012212322543199e+00 1.620281738506165681e+01
-5.249810558527231663e+00 -9.004856856835685708e-01 1.373475347638137833e+01
-4.056906614329138350e+00 4.042029541097491574e+00 1.583838797618406602e+01
-3.868867884572929849e+00 -6.716988091747001510e-01 1.353732109937831041e+01
-6.826242886375810670e+00 2.864697651560104141e+00 1.661586051821294774e+01
-7.996996329288782235e+00 -5.010089504542879268e+00 1.491919716604178348e+01
-5.802962124423673984e-01 8.222075880880805876e-01 1.341148248455552761e+01
-3.308165159135326494e+00 3.064662055993315981e+00 1.100696936363722500e+01
-7.206969854577769397e+00 1.448791750721828420e+00 1.671667150600913487e+01
-6.393776373584085349e+00 2.222425433043676346e+00 1.125964678800690422e+01
-3.885587309362956709e-01 -2.872130833161787855e+00 1.549455974065893571e+01
-7.125376662153511731e+00 1.893922687893030643e+00 1.664686343069647023e+01
-4.125780485400259323e+00 3.134304870386804609e+00 1.078239229968772861e+01
-3.091680991063578521e+00 3.119506739042541277e+00 1.198369571280974100e+01
-8.339113614743098424e+00 -4.332791556411933476e-01 1.562687524530705474e+01
-8.260774889250516395e+00 -5.050457185660750525e-01 1.583627498968328240e+01
-4.492170864591567891e+00 2.691080751224682821e+00 1.055898384412947166e+01
-5.096418151911464633e+00 -1.202371694732661256e-01 1.312281984102143184e+01
-8.167757619283575465e+00 -5.657569359379499563e-01 1.600241779702465550e+01
-2.879801145131694051e-01 -8.665040821859720799e-02 1.524056612132786626e+01
-4.673703696372141891e+00 9.097622971363523714e-01 1.235282291114008046e+01
-7.568030892078665417e+00 1.680838976020173625e+00 1.225717301982378871e+01
-1.310528421650611453e+00 1.865883450248571052e+00 1.454603508447537052e+01
-8.329595676187887321e+00 7.669711633716734811e-01 1.392966024395936131e+01
-8.362730278419743257e+00 7.007247037303316883e-01 1.425083775016602061e+01
-8.387602151925594995e+00 5.649887570608769227e-01 1.412205532277647535e+01
-8.212997093103975743e+00 1.167648005400419908e+00 1.393590153960132483e+01
-8.273456497583751457e+00 9.816217534153871549e-01 1.392237348037577505e+01
-8.434472139166034665e+00 3.770715382046135877e-01 1.432394667038461478e+01
-7.083371302875322684e+00 1.073835872161204019e+00 1.189538939153467823e+01
-6.915133145141840743e+00 1.430811186073926322e+00 1.166663387831874132e+01
-3.504661299232404215e+00 3.373865075868814678e+00 1.257863239913989162e+01
-8.514028768254760848e+00 -4.798504957994280673e-01 1.527819066045027796e+01
-8.590648077626845236e+00 -4.845076818782524386e-01 1.505414868731504185e+01
-6.262739762789129472e+00 4.718886498325592926e-01 1.206852770183262891e+01
-6.442125590265089130e+00 4.603642264839606368e-01 1.205041749213151547e+01
-6.131306144904913324e+00 2.580259034263169049e+00 1.149086090470087385e+01
-6.292939556632410003e+00 1.267710270123953098e+00 1.156118277769868996e+01
-1.929972125900437430e+00 -4.747905822425463329e-02 1.713416526586487976e+01
-4.259498645450704446e-01 -3.138055203142096516e+00 1.570453101747461488e+01
-4.402214414040392931e-01 -3.324514585171757020e+00 1.565321479336266464e+01
-6.451651869157272401e+00 1.564953012415374101e+00 1.141056436699751231e+01
-6.883050426230699514e+00 -2.195485766764813995e+00 1.332190018837239620e+01
-6.848016859574357795e+00 -1.897400559202738757e-01 1.239640695425070760e+01
-6.932346607870425004e+00 2.127326927840885062e+00 1.173615675257361346e+01
-8.525987415103562839e+00 -4.850717213850669340e-02 1.449837837603276114e+01
-5.493353096824536763e+00 -9.282960545164504751e-01 1.370750300528970200e+01
-8.570613374834248788e+00 -3.011859159278660325e-01 1.487294952380412383e+01
-2.472859982850673433e+00 3.025564790377369029e+00 1.618137113248076986e+01
-6.072420049861101177e+00 1.659994248159346819e+00 1.131067143556189336e+01
-8.347714842270699265e+00 -1.583049023974250735e+00 1.352988661727976449e+01
-6.919337331800516466e+00 1.003769111144529713e+00 1.183533172032372960e+01
-8.448192274626888931e+00 1.835573893144405999e-01 1.470579448005297252e+01
-8.315317470877529260e+00 7.452490618456776295e-01 1.455758814625766462e+01
-4.192345718703295865e-01 -3.490084660231526748e+00 1.525643039745919793e+01
-3.609495759293349648e-01 -3.049672541815216853e+00 1.508090234905427707e+01
-6.918041027397045184e+00 -3.550372085085058416e+00 1.419006413000813183e+01
-3.875506501943968285e-01 -3.095752628279998753e+00 1.528741929738475847e+01
-2.743522821185279126e-01 -1.676210409496349252e+00 1.492273209078265239e+01
-2.609144136612978615e-01 -1.037437458488914777e+00 1.477497431232651337e+01
-3.353878534552116597e-01 -9.983172588265487590e-02 1.564661337621355841e+01
-3.627388629561195121e-01 -3.322785938184759091e-01 1.581015274757061917e+01
-2.860407168709954151e-01 5.831824887602331531e-01 1.464289646266841771e+01
-2.719982315442885379e-01 3.233879670095325398e-01 1.484896955149490338e+01
-2.742540995615349253e+00 2.823399627836340464e+00 1.100426560834743128e+01
-4.516750260244268289e-01 7.790813486910141972e-01 1.385990095584973147e+01
-8.384068496206088739e+00 -3.455883821348337825e-01 1.547108212309447595e+01
-8.115881610037096294e+00 5.687626659779754235e-01 1.554454970280025350e+01
-2.322695522712971528e+00 -2.283060145724783219e+00 1.364876178718336774e+01
-8.276845654679972242e+00 9.300433887329598859e-01 1.432696697512955097e+01
-8.037023972604762534e+00 1.577444114636957551e+00 1.398418369856675980e+01
-8.118147336141014137e+00 1.386558435470389483e+00 1.393777070614645908e+01
-8.054654302221413431e+00 1.539274734761121088e+00 1.454979987712349754e+01
-7.730358528817038888e+00 2.054484173343208653e+00 1.313241138336138647e+01
-7.797534642054047893e+00 1.999527855890922190e+00 1.338696571023240267e+01
-3.855575555955034872e+00 -9.376489951685988977e-01 1.370525790996693161e+01
-7.648351404097567752e+00 2.570658433015336364e+00 1.480716977761689179e+01
-1.314465188445493427e+00 1.487194560213121575e+00 1.228217623443536866e+01
-1.413475727258584946e+00 2.249265455108453438e+00 1.631623206529716441e+01
-1.097348103054069046e+00 2.008535759026631062e+00 1.619428047187169284e+01
-1.853977512788430149e+00 2.603086462635221920e+00 1.657571942284350541e+01
-1.785040778315360344e+00 2.522530348512970200e+00 1.633011109143527761e+01
-4.423537585515270543e+00 4.327011636413516271e+00 1.646018146050911923e+01
-1.821926607199239490e+00 2.096874040875951195e+00 1.151173719169539567e+01
-1.619534813983284360e+00 1.899479581706886355e+00 1.191597452854297501e+01
-1.705830040138855086e+00 2.034251065260798796e+00 1.189847395438982147e+01
-3.530902392807461765e-01 -9.231930006505615349e-01 1.560815654325419644e+01
-7.280002954630772294e+00 3.353625067180483477e+00 1.523211654196521891e+01
-7.402299508471962497e+00 3.101052238162112396e+00 1.502531460268865970e+01
-6.610721574619303098e+00 2.247516904774301771e+00 1.158847544626980408e+01
-6.018564163240444742e+00 2.509513070713230043e+00 1.120716772353726753e+01
-7.261206316337988298e+00 2.630869056837653375e+00 1.340369532895459059e+01
-4.481812583109916481e+00 4.215570816590889613e+00 1.586764227152503537e+01
-7.040114136947002166e+00 2.807616926809825664e+00 1.341432228850727171e+01
-6.723758617967632745e+00 4.138000118840837516e+00 1.562516124303952836e+01
-3.081487548499325602e+00 3.177549250571835238e+00 1.281092733553226992e+01
-6.845991338825188066e+00 4.050245001464420902e+00 1.567600001179756930e+01
-6.858201120068313728e+00 3.377921619892679139e+00 1.423468703351519338e+01
-5.699040187685968206e+00 2.641828886031877488e+00 1.102472086762380599e+01
-5.504249577761681778e+00 2.746271101734544473e+00 1.100767856093072083e+01
-2.630940782117257015e+00 2.781723793143320300e+00 1.118046014068974614e+01
-5.069384992651736255e+00 2.881210031936292992e+00 1.079657267315037217e+01
-7.211029175217412046e+00 2.343686689049600425e+00 1.266684533009942726e+01
-5.736246344056018742e+00 2.764187120621830474e+00 1.135802516228055481e+01
-6.729434436993594559e+00 3.810857492305865790e+00 1.485163838189085084e+01
-2.007277634424421642e+00 2.350720297951953697e+00 1.154345607321300804e+01
-2.489396442648507346e+00 2.953423589640008728e+00 1.456454142254230533e+01
-6.252159113249254219e+00 2.900699271911904908e+00 1.239003931419699001e+01
-6.685934449011098124e+00 3.617037160575574894e+00 1.440855917981734535e+01
-5.246677327257490475e+00 3.067869843968224153e+00 1.141330409933163992e+01
-6.536831840633071877e+00 3.638816484387978001e+00 1.422219101971735711e+01
-6.280319650013621580e-01 1.187829519722187754e+00 1.425573495919731215e+01
-5.680951996003425819e+00 3.083161873984417767e+00 1.200351498815283691e+01
-2.060427492052869791e+00 2.468126474102001033e+00 1.213129153913613578e+01
-2.135121223802553203e+00 2.563779549007381142e+00 1.259378362220516578e+01
-9.317141215014883571e-01 1.330985589244820577e+00 1.350093378778335307e+01
-2.146769109681449628e+00 2.560182506593307039e+00 1.237950529294307955e+01
-6.417304681878535533e+00 3.751521845777515018e+00 1.425934517456018824e+01
-6.282187934427764020e+00 3.404113192370414431e+00 1.342316135324305293e+01
-6.483641195083009734e+00 4.170007393422309860e+00 1.523371704568192087e+01
-6.382805440909441685e+00 4.241681316881170893e+00 1.524984752525286780e+01
-6.233153036408541681e+00 4.259340009880985711e+00 1.509119760313455316e+01
-6.080375737637012890e+00 3.565954573669093186e+00 1.346470952940244104e+01
-1.592793901308188653e+00 2.180733359938018534e+00 1.513467528492095937e+01
-4.445397993842861162e+00 3.097748892148798561e+00 1.082786490877362695e+01
-6.043948443934693771e+00 3.980921252421626200e+00 1.424875415684744695e+01
-2.282172651615584691e+00 2.671534145102422819e+00 1.235903329657511307e+01
-2.077988502146588257e+00 2.449210294776910324e+00 1.176821123357926524e+01
-2.357529952220983382e+00 2.613105352564905282e+00 1.136652135461515911e+01
-4.652190575972860564e+00 4.235982804267180768e+00 1.567028734616417296e+01
-2.566710856333252799e+00 2.799230490586558595e+00 1.165354241564252646e+01
-2.492267624163405415e+00 2.710035625281811633e+00 1.136683239829103087e+01
-2.439945497058109591e+00 2.729300075481401855e+00 1.175725636563772980e+01
-2.514771029844284467e+00 2.792830409916177814e+00 1.195254477218049516e+01
-9.853304194539511673e-01 1.609433461614042882e+00 1.471600461071185606e+01
-2.690261024808581425e+00 2.884564662959749448e+00 1.177174954957564523e+01
-2.707485314962939427e+00 2.829707695087812169e+00 1.120995308819929193e+01
-2.872366685468738634e+00 2.916655940736837316e+00 1.121382305927711087e+01
-2.777758176149264902e+00 2.958440855365592981e+00 1.204833749537695553e+01
-5.012371263850177172e+00 4.370372860140210314e+00 1.566471372290338593e+01
-2.930724865748500552e+00 2.999878978119791206e+00 1.162178930898013363e+01
-3.116899499832432863e+00 3.180453568924241026e+00 1.259189486759216692e+01
-3.111955863319259663e+00 3.028992240118645540e+00 1.117487015547776963e+01
-3.473007958353232283e+00 3.153399048836512009e+00 1.119244991863262584e+01
-3.095402593006810310e+00 3.049687425573185173e+00 1.139607494481871441e+01
-3.210104109636418457e+00 3.155908001329636114e+00 1.180069801255743300e+01
-3.260242513694337596e+00 3.200579784963056618e+00 1.200946461813184385e+01
-4.645332077037032548e+00 4.146937721277580202e+00 1.504821226319914729e+01
-3.558389247506155595e+00 3.207582446260624387e+00 1.126261289324632742e+01
-4.658396450377447096e+00 3.984966629503642999e+00 1.403102854338635552e+01
-5.057280511046231553e+00 4.369567070922962593e+00 1.548548956951243127e+01
-5.257039418841729983e+00 4.443107767020995524e+00 1.552868646803135277e+01
-4.210367208490642277e+00 3.845804052339294898e+00 1.404866815598728635e+01
-3.654062629151497710e+00 3.409719960129553584e+00 1.219317157939774177e+01
-5.229888412593025393e+00 4.056629295526637868e+00 1.404716170638776163e+01
-5.656640238468851223e+00 4.539201260307319075e+00 1.567449928308755602e+01
-6.063587660574770055e+00 3.231454386896828623e+00 1.279928087279247961e+01
-1.423785382705501590e+00 -2.559532345419301969e+00 1.698304997659421645e+01
-5.254243123607105659e+00 4.401920030145773488e+00 1.532730310154870068e+01
-6.410441582198732391e+00 -5.455981779548895183e+00 1.673748251053942937e+01
-4.800171547386149484e+00 4.197680741258651871e+00 1.485147042141728946e+01
-5.443284045215941447e+00 4.373729896310952547e+00 1.507973689378458459e+01
-4.875992409127139382e+00 3.123718120751863836e+00 1.119089754049002039e+01
-4.683204782481144690e+00 3.177094046732589661e+00 1.116554800495740096e+01
-5.271601952313636374e+00 3.307803776658726491e+00 1.199564350747256469e+01
-4.861969358000457930e+00 3.302277220857776641e+00 1.162701054755064689e+01
-5.915947923011927401e+00 4.047167363182169630e+00 1.424425669385558280e+01
-8.139145161101501991e-01 1.673739264722256870e+00 1.571023742377698795e+01
-4.666495151465843705e+00 3.267610657485501058e+00 1.140404741692462665e+01
-4.888645327546198516e+00 3.345222586187031055e+00 1.176324948543695825e+01
-5.672984861388567168e+00 3.857118600841355160e+00 1.360993835245391637e+01
-2.339496834957346394e+00 2.638344609738137336e+00 1.160860902020235841e+01
-3.669012190152473263e+00 3.349048824383295653e+00 1.176665448173977779e+01
-3.888941855252030511e+00 3.180669921748090267e+00 1.099956403956794304e+01
-4.453904322465801258e+00 3.225137664199052345e+00 1.119982245824046174e+01
-3.898002649000799735e+00 3.292742306095505889e+00 1.136238745753652779e+01
-4.045967333492002105e+00 3.361679129423808199e+00 1.160129422021368839e+01
-3.445978885830002891e+00 3.416213931484293198e+00 1.340116069676160038e+01
-4.320212588848445279e+00 3.365450384428378072e+00 1.161247150360085101e+01
-4.270351127861141904e+00 3.458121761080383827e+00 1.198720218620037770e+01
-4.218790898331413963e+00 3.417004405054076877e+00 1.181293353225915155e+01
-5.653175245959555895e+00 4.454223576619586566e+00 1.530076485795728303e+01
-5.827602116535414822e+00 4.313949994614969974e+00 1.485771980943516724e+01
-5.474351162037372376e+00 3.989927473866428542e+00 1.384054626650664943e+01
-4.453148073581094657e+00 3.803563424297605522e+00 1.343081001628080884e+01
-4.097527563021729158e+00 3.402796485450116926e+00 1.177556287415491454e+01
-4.817189408462541067e+00 4.071986026452342422e+00 1.428367163610203505e+01
-2.328277902756874962e+00 -3.284934656526799834e+00 1.699155708927950315e+01
-4.897206824811517478e+00 -2.582555825166900298e+00 1.724604193059748525e+01
-4.905175961874531865e+00 -2.761386471967630207e+00 1.723732073369076545e+01
-3.315298188334451446e+00 -6.375737100120560719e+00 1.505412402435730002e+01
-5.011129719842825736e+00 -2.980130057011051825e+00 1.723413513704948485e+01
-2.998203695071570696e+00 -1.532473947142336534e+00 1.707362515383101709e+01
-3.422902190858842619e+00 -5.348371554265971994e+00 1.652122473455989393e+01
-8.154320969269720720e+00 1.067381212092792575e+00 1.491184083420908024e+01
-3.831048400741848603e+00 -3.164678408611176330e+00 1.709453439095951666e+01
-3.254522243303666240e+00 -3.822681100283394251e+00 1.696908099887382093e+01
-3.120638633891725355e+00 -6.031940836867631717e+00 1.609627204668711897e+01
-2.997958437447331814e+00 -5.809518008681173740e+00 1.624976223701934686e+01
-1.475004817795248613e+00 -2.511425251639379574e+00 1.340621676963601061e+01
-1.512684161957987605e+00 -4.110833574556830960e+00 1.395267073677936764e+01
-2.253905318959443793e-01 -6.432605151113093278e-01 1.435088951975045291e+01
-4.240949742297130953e+00 -3.364575027998078838e+00 1.711669442031065813e+01
-4.222633306131322151e+00 -3.169955274958291547e+00 1.713232440063740114e+01
-1.625679886268959207e+00 -3.970823189819102872e+00 1.391888023788738593e+01
-2.265344896055648150e+00 2.840079140544665037e+00 1.597993546316110525e+01
-1.717849659540954033e+00 1.182307259701849134e+00 1.699299999279392637e+01
-4.044138068493786875e+00 -5.348890353603604986e+00 1.657904933375360912e+01
-2.862371967418178453e+00 -2.767291135095204524e+00 1.706482759805933114e+01
-4.052596814148788695e+00 -2.772213820800578432e+00 1.714032579282394408e+01
-4.092691164083426258e+00 -4.955510521543559754e+00 1.673515494982958529e+01
-2.638665915565057585e+00 -4.525527510266606157e+00 1.676791172124789853e+01
-2.428226018361360872e+00 -4.640577584478164042e+00 1.672375934201377135e+01
-2.427178022075394459e+00 -6.394406543465882109e+00 1.562242943717055965e+01
-1.722923017218319419e+00 2.562929491743661359e+00 1.682192760611341242e+01
-2.849690426249007480e+00 -1.964248988260493212e+00 1.708714517198065863e+01
-2.612845559976823218e+00 -1.965893949942798313e+00 1.709595693869146515e+01
-8.653652811035144055e+00 -6.602928266228470511e-01 1.504192529841499493e+01
-3.022575199300731263e+00 -6.141250228202374650e+00 1.488697340786498557e+01
-2.171129763641810761e+00 -2.515540284306766239e+00 1.360913268125950992e+01
-4.048687273865372305e+00 3.656904308566444328e+00 1.303299422630862381e+01
-1.174460239064948786e+00 -1.237254754148775282e+00 1.308050996484277562e+01
-1.421184416354083435e+00 -1.041932706043233958e+00 1.289290813720590023e+01
-5.256983379674087686e+00 -5.423651077596430170e+00 1.669701367748279353e+01
-4.668569364741648187e+00 -5.229391980571828746e+00 1.669997014182067829e+01
-4.417599954681154628e+00 -4.939093848587529756e+00 1.677615638482767224e+01
-1.891701972935224019e+00 2.458596130579364214e+00 1.535180629792714058e+01
-4.839809469439694922e+00 -3.408936176124154116e+00 1.717599001396272484e+01
-5.258336322149455455e+00 -3.534574073551180362e+00 1.720527708700257818e+01
-5.836522325422642155e+00 -5.465091245979369461e+00 1.672854193020886271e+01
-5.071585437800566254e+00 -1.779737099185439986e+00 1.728100471161429397e+01
-5.434482847443110387e+00 -2.778673997643566373e+00 1.729500213597142988e+01
-5.459904059689847600e+00 -3.738058868625053321e+00 1.719727748234220144e+01
-2.163332957647958743e+00 -8.320212162396882771e-01 1.710359049422005029e+01
-4.017489340537938602e+00 -6.407888912790807190e+00 1.585415200326558960e+01
-3.232500763114620757e+00 -5.773423305181312415e+00 1.467541091331662528e+01
-3.256756443645900667e+00 3.347789040797469085e+00 1.379454762184094818e+01
-1.816896046710086310e+00 -1.491898495390664658e+00 1.305141126022019193e+01
-1.960240872861832351e+00 -2.852340887885423726e+00 1.361366702204776402e+01
-2.447255696403917824e+00 -3.243075511646359210e+00 1.412300148493459062e+01
-6.031874657659081151e+00 1.401182949754458118e+00 1.147869307478894285e+01
-4.225586469293324043e+00 -4.373571345291559886e+00 1.692850367908702225e+01
-4.289778505092841421e+00 -4.269427010268936229e+00 1.696343053438455684e+01
-3.436335141007079041e+00 3.526356294168965455e+00 1.460616902254074034e+01
-3.470091956477493467e-01 4.937870166964887231e-01 1.371195344364386415e+01
-3.448639595914076983e-01 7.579573284116540854e-01 1.570924412286423433e+01
-1.426656644182392464e+00 -2.173237045190119510e+00 1.701755206368702744e+01
-4.328131091356224314e-01 2.582706463664148355e-01 1.604195012703345924e+01
-3.484311868593434891e-01 -3.225801406822568218e+00 1.485035084126485572e+01
-1.617570726504850676e+00 -3.161689389314826570e+00 1.695748303015656688e+01
-3.610749543924718807e+00 3.631042663286299543e+00 1.476529420421334748e+01
-1.186123507348804118e+00 1.494517508553172336e+00 1.288228267382991987e+01
-5.232865210404883394e-01 -1.099682027619094171e+00 1.627811596031232000e+01
-4.902588709426929370e-01 -1.337241475827717130e+00 1.615082184221999739e+01
-5.759507988237340115e-01 -1.557520450881999086e+00 1.635630273499085519e+01
-1.048448352931369065e+00 -2.158876607830941374e+00 1.687206453690274088e+01
-9.538226597479310120e-01 -2.330048887585652651e+00 1.680518898762560553e+01
-4.167705374709929633e-01 -1.498316780407750404e+00 1.591440313071540658e+01
-7.463428087435808322e-01 -4.588078198036567912e+00 1.611396995840826207e+01
-7.117145483566547526e+00 1.339149013767587659e+00 1.682639825085140473e+01
-1.168085764032481100e+00 1.093444502200180191e+00 1.676614597914109339e+01
-1.918202881499138091e+00 -2.477713219516420318e-01 1.712598224738570707e+01
-1.948750338616932032e+00 -3.391855981555856880e-01 1.712086188434348344e+01
-3.606334502926504815e-01 -2.287077327824947659e+00 1.551362340513635019e+01
-1.774980049319910380e+00 -7.125074793496665171e-01 1.710014313106522366e+01
-1.328688069498859869e+00 -5.373089697764841688e+00 1.467973392875430960e+01
-3.657066863032600867e-01 7.870245142026249807e-01 1.465787357207912578e+01
-1.293534387186993762e+00 -5.595852219415926143e+00 1.483567279386048199e+01
-2.248275429412034399e+00 -2.784027692605574700e+00 1.704584919796596409e+01
-2.243092206958984036e+00 -5.234112573150377479e+00 1.649192215311902032e+01
-1.112849841223600311e+00 1.622227127785274892e+00 1.663533158245233068e+01
-2.024170802788822776e+00 -3.104422898674269682e+00 1.699968937657425272e+01
-9.278062988198432226e-01 2.309589282574186497e-01 1.674782902827332265e+01
-5.683148831225570685e-01 -2.890697750694855017e+00 1.400435024023582287e+01
-2.107846375533545036e+00 -3.225473947383310502e+00 1.698930274924580885e+01
-8.857581026469181218e-01 1.827499956420008509e+00 1.610960817071632079e+01
-2.661079672562689957e+00 1.566773713730419404e+00 1.137082530734576125e+01
-2.706865468711019851e+00 2.278617674101219848e+00 1.089052104875400317e+01
-8.264336190115775249e-01 1.382416325198005724e+00 1.427267247992861599e+01
-2.858766152082234946e+00 2.385613375107637602e+00 1.081828352392676607e+01
-2.554735244321989285e+00 2.633440436657846995e+00 1.083466889887569096e+01
-5.632992349341320093e+00 -5.388686365299301784e+00 1.471017624144293023e+01
-7.721710729853491273e+00 -3.918028773561609945e+00 1.700291317017379811e+01
-4.475904129668522025e+00 -2.761094180954913213e+00 1.442390115680733231e+01
-3.139806097313935673e+00 1.190036324059335904e+00 1.181051203448151199e+01
-3.721011272691090999e-01 -7.164846807122944305e-01 1.579008151395824200e+01
-3.218702522577185476e+00 1.014928543294858709e+00 1.198932593564496329e+01
-3.872808393861860932e+00 1.262174743422828649e-01 1.298404220746293447e+01
-2.531119655182443307e+00 1.857343766059932344e-02 1.237230582950085278e+01
-3.471106785187066723e+00 3.112058586767678658e-01 1.274351587495338123e+01
-6.665341341549499532e+00 -7.242208194633487084e-01 1.709655534091692886e+01
-4.656938123149970465e+00 -3.731220326534998577e+00 1.459191892592237139e+01
-5.492243386655166759e+00 -5.553289781363793587e+00 1.471951762300461297e+01
-3.030226162378864885e+00 5.284725897450101018e-01 1.231551196637781231e+01
-3.309279259283639973e+00 -1.464820447025443562e+00 1.389027813296902281e+01
-2.153463706271923961e+00 1.796972224579143074e+00 1.121031056830145189e+01
-3.172975031502270671e+00 -1.136433536360779595e+00 1.365376365955136606e+01
-2.650434896012986208e+00 1.233084355698970125e+00 1.160371576330521037e+01
-2.339549042010779623e+00 1.196075609862551126e+00 1.159379661982884357e+01
-2.156077267425041022e+00 2.416511766433928621e+00 1.115803136446317012e+01
-4.900592849525779116e+00 3.355957117659671418e+00 1.692177679349268971e+01
-5.069262724416983446e+00 4.597728931685304055e+00 1.650263595276087614e+01
-5.080680848266537097e+00 6.025825094896322121e-01 1.719162115525834622e+01
-2.980328711058431335e+00 6.980565895888299899e-01 1.214179245735081736e+01
-3.040292816687407029e+00 2.396474971538678389e+00 1.082423857254511290e+01
-4.052930287817980037e+00 -4.435672277511791828e-01 1.340404351976805231e+01
-5.776130256084766046e+00 3.415669044400197585e+00 1.693332764962506332e+01
-4.903916320653129546e+00 -2.735601784977529150e+00 1.444499294231636810e+01
-3.853150083293534589e+00 3.753360972847692878e+00 1.482059463393682819e+01
-4.232033068301062073e+00 4.158629125998261955e+00 1.601914587468834839e+01
-6.036555576117272892e+00 4.675460870815418168e+00 1.628705775832215608e+01
-4.668682143626518233e+00 -2.025462483008502623e+00 1.424666133949554592e+01
-8.312679199018461418e+00 -3.346141063144958849e+00 1.659997073795019418e+01
-6.497752295047890314e+00 4.378927787866046195e+00 1.584028567379857577e+01
-4.432158115840771018e+00 -2.775111024084742084e-01 1.336146985530052689e+01
