-1.342877770738546972e-01 -5.701685894792314357e-01 2.103551007829352315e+01
-7.772854750535065804e+00 2.614166679822147898e+00 1.694275970659878894e+01
-5.060767445073526716e+00 -1.209796958195940908e+00 1.669945962617262936e+01
-5.878277213066362972e-01 -1.924936177258576242e+00 2.212272811005137285e+01
-6.289042740577572843e+00 1.414556561179685090e+00 1.410040994787833668e+01
-4.176745550869021883e+00 7.292510678915523625e-01 1.319649910578698027e+01
-3.914483886806417789e+00 -3.465330924910953847e+00 2.084050452434335554e+01
-2.237964712406309342e+00 2.528270693359782051e+00 1.298945327254729065e+01
-4.602897220746651641e+00 4.139721843837808279e+00 1.901522035172081715e+01
-4.720023208667043946e+00 -6.259536329515220654e-01 1.529825246041852083e+01
-6.461063094736742229e+00 -2.862073754465948028e+00 2.070399021938877482e+01
-6.132068283485589077e+00 -2.815213199132841737e+00 1.765902649549426329e+01
-3.938543869056899016e+00 -7.119521855284185463e-01 2.146288323777654838e+01
-2.123050474818486855e+00 1.692471875879948628e+00 1.255525754740300570e+01
-3.071048606956339633e+00 -1.498248491353187051e+00 2.192336433099670145e+01
-5.259385145970812303e+00 -3.513864035432420430e+00 1.961595937819663860e+01
-4.904959111657616333e+00 -3.283250246924220406e+00 2.141457433129405175e+01
-4.575700493526731805e+00 5.725465486324678110e+00 1.802473828344890094e+01
-1.872029249305092069e+00 1.702866066302831660e-01 1.747463726486332902e+01
-5.041831773750492518e-01 3.290863626861196600e+00 1.675110441799996508e+01
-6.248245750918512087e+00 -3.655690414927317278e+00 2.064269149500168865e+01
-8.563095596248296859e-01 -1.375906331192310761e+00 2.223614205165354818e+01
-5.427259513476981212e+00 5.533132240596967399e+00 1.763157890922796511e+01
-4.808600502747308880e+00 -2.241372091423610158e+00 2.138391440927825116e+01
-8.240078409446754293e+00 -1.567938402552601529e+00 1.755890312801821196e+01
-7.728995425605623026e+00 2.405424600208235120e+00 1.741355265956752518e+01
-2.871541165022107212e+00 -6.771721268901060853e-01 1.868415809049381338e+01
-3.778533358207197157e+00 3.099849397451238109e-01 1.409038808052119052e+01
-8.219245977122497493e+00 -7.404198553193741539e-03 1.793196659298445539e+01
-7.142386860139891880e+00 -2.857057296535268520e+00 2.012479587678183535e+01
-5.306139241138199125e+00 2.078550072600977017e-01 1.388549704497826909e+01
-1.242564287837333525e+00 4.724126665100199851e+00 1.756255131672120839e+01
-5.290673577645108594e+00 4.266389909656521096e-01 1.371102292466743577e+01
-4.238943251185459893e+00 -8.090734801936017018e-01 1.769164285945830173e+01
-6.554137536147829124e+00 -1.629633143402753115e+00 1.565138850837567119e+01
-5.110217640518847304e+00 1.066420364026565482e+00 1.315246227861852546e+01
-2.978444051479189891e+00 2.553057158701993457e-01 1.609531385012175875e+01
-1.610248359036114074e+00 1.918052290573994734e+00 1.283796026913113408e+01
-1.097065654172370675e+00 3.986931850620337170e-01 1.714153061916568888e+01
-5.525864848583495359e+00 -1.675190417033016521e+00 2.096607651142392470e+01
-5.591606419495258606e+00 4.906657636577035575e+00 1.646858114657365846e+01
-7.589896687454183777e+00 -1.305489394466005981e+00 1.966568106943632799e+01
-2.038064842276681610e+00 3.772506298297601646e+00 1.514475801727329340e+01
-8.632446792627670451e-01 2.966580131042350743e+00 1.534730933779945516e+01
-7.257914843437102803e+00 3.998508815241217818e+00 1.699039250617143537e+01
-6.146563727866986682e+00 -2.080093316749652921e+00 2.076175191057035008e+01
-3.604173997507201133e+00 -5.652104063372265230e-02 1.611941482852426688e+01
-7.691132160051802558e+00 1.423735372321710768e+00 1.575563058204410893e+01
-1.037441795501296671e+00 1.846621900331008925e+00 2.112326836325346946e+01
-7.486129519110301445e+00 -3.014307333457944438e+00 1.947019246705844253e+01
-3.543995931328839166e+00 -5.714600132137983568e-01 1.793149040292368923e+01
-8.766293029417412397e-01 3.401600847236782577e-01 1.729202885295370962e+01
-7.422526606449471487e+00 2.157685199782949370e-01 1.558666819682734328e+01
-6.105655071879397155e+00 6.360808019632735455e-01 1.373000289990524081e+01
5.398357440920209527e-02 -5.612070375896560659e-01 2.045823680290788715e+01
-4.304269753293644030e+00 -3.503633623949449216e+00 2.028619469745839510e+01
-4.092993060606065825e+00 -3.132783017580588414e+00 2.008673124447074443e+01
-5.610497050466559443e+00 1.000929372703529996e+00 1.340913171964428230e+01
-5.566434710796526186e-01 3.141695159905310675e+00 1.875237681056862371e+01
-7.309424137937325483e+00 3.643727074706863078e+00 1.724206342110668899e+01
-1.184484288833426824e+00 -1.123467202710762614e+00 2.236033909960452704e+01
-6.209084523410414391e+00 1.991425468431851753e+00 1.439492719775679674e+01
-3.395162746798827236e+00 5.728484349737822612e+00 1.860309147657757123e+01
-8.324219130170720238e-01 1.292072760197310544e+00 1.549408998255752934e+01
-2.423632510508626936e+00 4.670230160390584473e+00 1.951412502216701128e+01
-2.812409104283745354e+00 5.499417598218630410e+00 1.718722589233506071e+01
-3.500302883559868405e+00 -2.668985235398904976e+00 2.008790289536147711e+01
-2.799448799210780603e+00 6.075927068926168850e+00 1.818033541328614788e+01
-4.910799856950367470e-01 -3.955146448817589144e-01 2.160384966683802688e+01
-8.083343278772414209e+00 1.180870155568705338e+00 1.712350524583012046e+01
-7.571341512241383853e+00 1.974647305143825360e+00 1.583760783849772835e+01
-2.689682570667911943e+00 3.061092615544668938e+00 1.373705391174455670e+01
-1.873761970754660666e+00 9.283349600627095466e-01 1.531632868053364760e+01
-5.090668389626490153e+00 -3.733110272080380376e+00 2.004593210102985168e+01
-7.209018854966837253e+00 -3.298035445196167537e+00 1.819225910399142876e+01
-6.085731155239374246e+00 8.525862429199191350e-01 1.373686773717868803e+01
-5.877751232368895629e+00 2.784842407780163676e-02 1.410261577033546487e+01
-6.329975138133038470e+00 1.256971305974838415e+00 1.405452245627513364e+01
-2.627453267085511524e+00 4.332312838840072899e+00 1.560225658967720719e+01
-4.309618152949703074e+00 5.624963870077769990e+00 1.827049196031488165e+01
-6.736038422326359409e+00 -2.471382176028020794e+00 2.052207853355351475e+01
-5.743391951037583709e+00 -5.641165934936192006e-01 1.468175071185149605e+01
-6.273279736969820775e+00 -8.868245833167132108e-01 2.045879051627852974e+01
-4.957138952384754660e+00 -1.009708171105528018e+00 1.590162893712694725e+01
-2.667736766034022544e+00 -2.133012050550957994e+00 2.026772733872696719e+01
-4.075400839110258744e+00 3.772536266435601249e+00 1.497896628809211350e+01
-3.142191401113054283e+00 -1.846655512661409704e+00 1.972162523211735063e+01
-6.483576909685769607e+00 -3.098555297368982941e+00 1.780356818327854640e+01
-5.592859960805231623e+00 5.177270817187583418e+00 1.779195027646257543e+01
-5.084690620031626196e+00 -1.226505394258103898e+00 1.608903332598612579e+01
-8.566864256936175259e-01 8.460613663815839125e-01 2.148280453123929945e+01
-3.658985040189258520e+00 3.388017386748873427e+00 2.006151833469958845e+01
-5.181923286372454029e+00 5.709301392545193643e+00 1.761496454220177910e+01
-1.355486028305829649e+00 2.545863168806800303e+00 2.083347002593189146e+01
-2.047601673537902123e-01 2.837399248553085229e-01 1.868342556597008652e+01
-4.876815265170657554e+00 -5.096806821900772277e-01 2.102815923183339564e+01
-5.897075897907026132e+00 -3.845520903802591484e+00 2.024221145866220795e+01
-7.292307385699554612e-01 3.429128287625458071e+00 1.888297847105490845e+01
-4.198803897010025210e+00 -5.184055299991496835e-01 1.664177480479376570e+01
-6.752147366436771492e+00 9.761438817017310532e-01 1.942867662417511454e+01
-2.225143811276100614e+00 3.057351702774851354e+00 2.070695939763843185e+01
-6.506431420745467875e+00 -5.827041492760800523e-01 1.484210785899851359e+01
-4.103481454968708420e+00 -2.707599898161253016e+00 2.170693411336151613e+01
-5.074298835557373266e+00 1.214044317726812983e+00 1.309565188432348393e+01
-1.197333389961515504e+00 2.717238031709382717e+00 2.058701705917146896e+01
-5.497543804635853348e+00 1.089797068285181414e+00 1.336113122870316161e+01
-4.742029086032179208e+00 -1.366441013803034732e+00 1.804313033739785865e+01
-4.476339281477250132e-01 -7.341029978745989837e-01 2.169489847200054911e+01
-4.977597515485147284e+00 -6.680481745605182375e-01 2.102634118962018661e+01
-3.620312293040041318e+00 -3.246192396857457974e-01 1.711866442106240171e+01
-6.893753941716028066e+00 -3.485450765425909481e+00 2.010415682629055212e+01
-5.513461974868734572e+00 5.884854686895373277e-01 1.363314403400879726e+01
-6.095564645128126458e+00 -3.087897618733068228e+00 1.824915553809667657e+01
-5.289501586477294737e+00 2.994875867532313052e+00 1.435198908082333347e+01
-7.956627687331426557e+00 -2.129821410263164072e-01 1.668928565706324818e+01
-6.113183159259385491e+00 -3.407201018084109023e+00 1.865998281883699761e+01
-2.617579453447339777e+00 3.533291588700978814e+00 2.038812839745147798e+01
-4.599690292818284121e+00 5.506093877073197085e-01 1.341983331627031006e+01
-2.152490798011001516e+00 2.355878737304655690e+00 1.281601743451426145e+01
-2.080259034394651430e+00 4.159161241173245926e-01 1.668259680670228207e+01
-5.751804938709899062e+00 1.839947643277581646e+00 1.969543893448269856e+01
-4.442383408468536521e-01 -1.360699680605677475e+00 2.188360716865532751e+01
-7.853263445114658126e+00 2.031566026611992370e+00 1.657517522357274586e+01
-3.337462940798237021e+00 4.829655672514498121e+00 1.932649574407648529e+01
-6.287087157269789728e+00 -3.258278923315547360e+00 1.828449419371417761e+01
-2.759137667285363804e+00 5.425552849396579447e+00 1.711499191448415402e+01
-5.271469660299509030e+00 4.417576347438981976e+00 1.845641658988919787e+01
-4.846320821775545462e-01 -8.322887928213873465e-01 1.893865090605121893e+01
-6.693808282551128030e-01 1.992238618275460116e+00 1.453075249054444029e+01
-3.553986464448772864e+00 6.171426721175992114e+00 1.804681006295460222e+01
-1.656085101715798924e+00 2.030561051659809380e+00 1.273038336899456269e+01
-3.183630552181797579e+00 6.134454742347708489e+00 1.801711776189264569e+01
-5.089284064214048442e+00 -2.058832812803235157e+00 2.122691757558169101e+01
-4.251360963267425852e+00 1.700213810891461286e+00 2.057669267325396234e+01
-1.134640516932631016e+00 2.030963721327466054e+00 1.357922454342969232e+01
-1.652828681698814917e+00 -3.578081323206649955e-01 1.842430552845464931e+01
-3.601990997625252877e+00 -3.151372221236143467e+00 2.037080158763791715e+01
3.309226833790746003e-02 -3.849799138244510699e-01 1.995220708407105903e+01
-5.020944695091447585e+00 3.125722676002574474e+00 1.936229175566289129e+01
-5.335686062265708074e+00 -3.639006223869174050e+00 1.968778412720391557e+01
-8.200970306876868676e+00 -4.745837788409813518e-01 1.846200401035364180e+01
-1.243406069420143645e+00 1.560327083307377904e-02 1.778929157938104666e+01
-4.067800908093673229e+00 -1.282653825907355882e+00 2.152680832268245936e+01
-7.247720612898751469e+00 3.552839363704363151e-01 1.931935136995086921e+01
-1.848922393952175947e-01 7.201121904745287905e-01 1.828866659948359441e+01
-2.078522672745714672e+00 -1.142198860364756374e+00 2.233185092594524335e+01
-2.620201239770309165e+00 5.702437255372887925e+00 1.759394615529268791e+01
-6.843313493536472336e+00 4.411236350169529530e+00 1.657260977476173380e+01
-1.789004556638779553e+00 5.139376776676674474e+00 1.861829002270158284e+01
-2.055813448617978878e+00 4.435278848919566030e-01 2.192415271723673342e+01
-6.269833093091796705e-01 -7.563483736025564674e-01 2.191152638120680862e+01
-1.972010818938769283e+00 -1.212976678558201460e+00 2.237898825252090163e+01
-6.261016016464548528e+00 -2.685011090085514418e+00 2.080389074370619440e+01
-4.086044317776346801e+00 -3.491757738862737881e+00 2.105679965531853171e+01
-6.251597591471362847e+00 -1.840354350889982227e+00 1.584702477342561266e+01
-3.004184119943605680e+00 4.575827642896379110e+00 1.961645979390080541e+01
-9.886035971889376439e-01 2.452319747823355378e+00 1.429423325108412612e+01
-5.248946974437103563e+00 2.018441206360886309e+00 1.359906592034875317e+01
-2.410349238005060180e+00 3.760105142116981547e+00 2.024053879127536604e+01
-3.617530482024335026e+00 6.083750156976287293e+00 1.780054116444308576e+01
-4.869911213735726108e+00 3.062343794551892096e+00 1.429382570665279317e+01
-7.483954603982715170e+00 -3.227384978671552496e+00 1.866818843983316256e+01
-8.960433064478940945e-01 -4.017200631497046537e-01 2.201050435156360052e+01
-3.986018851167316690e+00 2.939202427116671679e+00 2.010050204142173769e+01
-3.590006897767053506e-01 -1.772997471601972519e+00 2.183112752022891456e+01
-1.034023258027166214e+00 -8.894024460899012663e-01 1.906647299662709472e+01
-8.588012489338383570e-01 4.575113617379997222e-01 2.166306356449984705e+01
-5.898786969628183385e+00 -1.001481843994973531e+00 1.512502225431972747e+01
-4.514939600051970814e+00 7.682077176350600167e-01 2.079515747187544505e+01
-3.397611829255113403e+00 -5.421700600379020241e-01 1.800910019904251769e+01
-3.447334747147739797e+00 -2.298497521301644753e+00 1.985435192026387696e+01
-4.290537402914671006e+00 -4.188104419227374198e-01 1.591687117263256468e+01
-3.213575342987454508e+00 -9.741619170435729114e-01 1.883301435046562844e+01
-4.945234355605029108e+00 1.869835688823773268e+00 1.327129335456839598e+01
-4.234691295843618697e+00 -4.626730740440432310e-01 1.630203138376224459e+01
-6.098797106469460161e+00 -3.579009718923493288e+00 1.893614509151136716e+01
-3.178442341880059363e+00 2.664582915722655820e-01 1.554598340909789655e+01
-7.067661481216180874e+00 -1.242835609283019505e+00 2.004122823113244678e+01
-2.807380770368327561e+00 4.677732481537461240e+00 1.955860782274101339e+01
-3.439542573061499464e+00 3.352551541885138597e+00 2.021532780264424289e+01
-7.825619702142780909e+00 -6.510830854479168206e-01 1.926929316385239233e+01
-7.160192711992303671e+00 -2.681926950474677440e+00 2.015039808783029329e+01
-3.759987395508209040e+00 -3.068714532501309655e+00 2.120905825474208584e+01
-5.881595302567159678e+00 -5.866340935985669969e-02 2.039084260146593763e+01
-6.939929248975746034e+00 -3.086860976235886511e+00 2.027459074577831544e+01
-6.929783645739169273e-01 5.081503069854059751e-01 1.710897597393044478e+01
-6.626798700061720115e-01 3.035508585720690933e-01 1.745653252387428367e+01
-6.694496397914052821e+00 -2.849275308304083154e+00 1.708019321211197550e+01
-7.438870964324722834e+00 1.434603232651875948e-01 1.926003455542396026e+01
-8.349579341976066660e-01 1.263209925887968654e-01 1.765497951873135563e+01
-7.076099570667051530e-01 1.038057227375506653e+00 2.124422950444779090e+01
-9.524839028952313269e-01 3.061556132678523667e+00 1.532961876022326564e+01
-4.671714628871503905e+00 -1.914369726606933275e+00 2.140216819448906094e+01
-4.816730860853889240e+00 3.732987919544366484e+00 1.912198268239375309e+01
-6.223751345649727540e+00 1.948555360970098960e+00 1.930304223287535237e+01
-3.299266744601196955e-01 -1.145513119876108821e+00 2.165951579508589830e+01
-6.769668225837477848e+00 1.052285040397416438e+00 1.447852666671080257e+01
-4.929593897446839179e+00 -9.195954257537060084e-01 1.572163918307382957e+01
-6.729267426764229398e+00 2.082577869242389745e+00 1.488257426913125059e+01
-2.088107304923696450e+00 5.361752573715501402e-01 1.631052231153762833e+01
-4.788587008569329395e-01 -5.149808078667663658e-01 1.869337209477196282e+01
-5.885528856871127701e+00 -2.440035018548689649e+00 1.705607987722713048e+01
-8.250108757580980168e+00 -5.548109724981149515e-01 1.831190843173954264e+01
-1.323976387530023668e-01 1.081988088765654776e+00 1.968850213977648522e+01
-7.390652753920617712e+00 2.590447476315435260e+00 1.793143983490228166e+01
-1.424570387235478131e-01 1.602342162907804068e+00 1.594526431245490627e+01
-7.891816056888110609e+00 1.822473866429181744e+00 1.654061379327035652e+01
-1.034149207064811726e+00 4.516295201251804947e+00 1.819090399265630609e+01
-1.082765614897108764e+00 4.297451758340381289e+00 1.856359739168534517e+01
-2.118131976270595018e+00 3.497959708811519519e+00 1.462371607305744803e+01
-5.730320624166322929e+00 -3.248639275160497775e+00 1.886265159512644729e+01
-3.431377571802967541e+00 5.501924872851450488e+00 1.878465334881344617e+01
-5.360783816311847971e+00 -1.787007243083566399e+00 1.769538006638650174e+01
-4.177767097913577032e+00 5.401950780465759605e-01 2.102065794723077019e+01
-6.054968534392337176e+00 3.352322385106077718e+00 1.856525066081544750e+01
-3.870688755233197664e+00 2.508203501785599254e+00 1.330476057123374645e+01
-6.200950879657378678e+00 -3.766482966208219985e+00 2.052350719955033398e+01
-2.910598985685654227e+00 -1.991016744234547664e+00 2.152949568580871542e+01
-2.798795267955952681e+00 3.009247519721285347e-01 1.623018847183314861e+01
-6.801158517157466221e-01 8.585535051270030138e-01 1.648613326438701776e+01
-4.684035759069432814e+00 2.045712105501170885e+00 1.319487894383980020e+01
-4.664610701833009188e+00 1.718509321298851811e+00 2.038309159174984941e+01
-6.267536483056519003e+00 9.484958179117164434e-01 1.976767531480896523e+01
-2.580470035524904393e-01 -5.302483993551574404e-01 2.128365173112456787e+01
-6.015037139403192512e+00 4.961153363113585790e+00 1.664703167476224266e+01
-4.507431707809873345e+00 -5.513931768660509380e-01 1.575252322966744245e+01
-3.304901478612622956e+00 6.656297866458169565e-01 1.371395618566633701e+01
-2.525738694656055383e+00 9.866008821190030975e-01 1.374370817138156653e+01
-1.445192921901318206e+00 -1.219828488343718265e-01 2.216147707239150222e+01
-1.090908015891838945e+00 -2.728576624758748181e+00 2.143227542862506496e+01
-1.293225222253183260e+00 2.196669751291738582e+00 2.104636373897891488e+01
-5.350921342594409325e+00 -2.587258065668112117e+00 1.871250038386658687e+01
-4.519887093805376566e+00 -2.889948938663193800e+00 1.968029566464245406e+01
-1.883344440178196244e+00 9.838871249320016998e-01 1.512396111858639713e+01
-3.005477258750300251e+00 -2.336787301319483312e+00 2.019522499707585794e+01
-3.258285859229819614e+00 -8.732391041308353863e-01 1.867375289154620432e+01
-3.993911471838610394e-01 -5.348523813123815529e-01 2.152779225053202694e+01
-6.056819128433986066e+00 3.822699848962826330e+00 1.556089008348800817e+01
-2.650409104424654050e+00 2.535326274935770563e+00 2.098132329816385422e+01
-4.817799205462716117e+00 4.744995020589653834e+00 1.621566077276688489e+01
-1.053185737205671213e+00 -4.540073761078042835e-01 1.850296309154476759e+01
-3.436110419611829059e+00 -1.722700482440886249e+00 1.941087825866260275e+01
-2.793706690590061825e+00 2.654582141896203673e+00 2.088414632792741443e+01
-1.844834640245926582e+00 2.858752904202237488e+00 1.388294073299803344e+01
-3.058736243174167146e-01 -2.145566787142434428e+00 2.143775866007551301e+01
-6.702343386226281563e-01 3.345747266280258536e+00 1.637083457995960956e+01
-1.200295454657978489e+00 4.311941627991059178e+00 1.876807585995040384e+01
-5.097026595944385008e+00 -2.067380878625371565e+00 1.846854778627951887e+01
-5.888005359823089702e-03 4.944459090008950786e-01 1.969333821265190565e+01
-1.661084947061949757e+00 5.043225833837672312e-01 1.670874994086473109e+01
-3.001263304720099612e+00 2.506934643838727439e+00 2.089023884758226401e+01
-2.024350538990905335e+00 6.882174007374027846e-01 1.589665864342165591e+01
-6.308888867243050314e+00 -2.376726596029296701e+00 1.646970998494444061e+01
-3.438822564562925788e+00 1.888851305739495334e+00 2.092074481675483000e+01
-4.076328476115554267e+00 -2.722973967986222377e+00 1.979729265577526931e+01
-3.471222593518503707e+00 2.243862673965028698e+00 1.290591272729080075e+01
-4.332547073220293754e+00 -3.014480441425725132e+00 1.987808807812285394e+01
-7.478314473402390972e-01 3.678494533191111415e+00 1.860654117427340637e+01
-4.171578142361783037e+00 -2.453805999941498506e+00 1.954442905612629389e+01
-2.407837165622479514e+00 -2.081480873347549831e+00 2.207285656759360037e+01
-4.199081354660864740e+00 4.317853321010064249e+00 1.916596598256976947e+01
-1.820639932341441947e+00 4.413879739891340748e+00 1.632356490172884733e+01
-8.200164993640374433e+00 -1.563569473489711870e+00 1.791779758359451691e+01
-6.603287641224222071e+00 4.342297185855595210e+00 1.754131572433412245e+01
-7.138619213025556576e-01 4.073676522709476444e+00 1.773666691632636727e+01
-3.288605885111321570e+00 -2.414649887242416026e-01 1.731007916488897891e+01
-8.210837240277932381e+00 -1.400308838307338544e+00 1.788011239275038733e+01
-5.701566426413526401e+00 7.159344150413807784e-01 2.019292861910733805e+01
-4.047305715782279378e+00 3.077367508570739707e-01 2.115212087569124222e+01
-1.290936738674626882e+00 1.566914476468446615e+00 1.413756484967725058e+01
-5.075383277920303415e-01 -2.057142632327416898e+00 2.046422571760543363e+01
-3.205147845031035558e-01 1.215408007595384587e+00 2.031085755745631261e+01
-4.170093818456485080e-01 2.545750152206245787e+00 1.570903519062867204e+01
-7.251392574552166792e+00 -2.364126073288449703e+00 1.695319851471233719e+01
-3.666816038846237191e+00 -1.641809587067238452e+00 1.919347985686414049e+01
-4.428461106315534579e+00 2.083314616303026501e+00 2.032853478560106808e+01
-4.314527447722749653e-01 1.436469789828081600e+00 2.049856921074398386e+01
-3.291877969444883534e-01 1.017865522117673338e+00 2.051248231150751522e+01
-2.108555860378673597e+00 -1.347528331022841197e+00 2.235401681732493628e+01
-8.089358769599105159e+00 -8.621506985749820551e-01 1.889437472361531789e+01
-7.663849293107981353e+00 1.380438998924138350e+00 1.836949064902659856e+01
-5.011898762992560208e+00 -2.308587590071966567e+00 1.880880602773941135e+01
-5.050065152753344222e+00 -1.104416329307565281e+00 2.109766637201694195e+01
-4.869855966987543638e+00 2.560155942125836859e+00 1.982156360559966757e+01
-7.644675712925679267e-01 4.175150967422852410e+00 1.792737350876554459e+01
-6.100920449327608353e+00 1.954880053118011274e+00 1.938741941786728873e+01
-8.707581866698717032e-01 -4.022463059077097114e-02 1.789706161822958919e+01
-5.609686053778847992e+00 4.771366172841688069e+00 1.803466171232266291e+01
-1.404225592440816461e+00 1.493100143833118176e+00 1.409155971177939293e+01
-3.882440798108976132e+00 1.372223627961835613e+00 1.247965846835707637e+01
-3.906325258163670711e+00 1.271735772635715467e+00 1.258835940709959900e+01
-5.507908663918469117e+00 -3.682334979162083854e+00 2.102928906328309111e+01
-6.168604694047411741e+00 1.696083197292328926e+00 1.948260955554019702e+01
-5.522753398478092990e+00 -3.759106247183638061e+00 2.091397759721879268e+01
-7.874154088684518271e+00 -1.011313615826193280e+00 1.930821899104065054e+01
-3.185795163206363245e+00 -2.412353399315420255e+00 2.012039476957436435e+01
-7.893622705509114823e+00 -1.455097999909594320e+00 1.934638018505514978e+01
-5.319472284033292198e+00 -7.331345583902975083e-01 1.495125963405472547e+01
-5.729714416459607662e+00 -1.334558700081986293e+00 1.553909331386991610e+01
-4.012501726896095633e+00 5.926734343242634040e+00 1.759761207087053592e+01
-5.316324743192199165e+00 -9.608288328627703212e-01 1.528113777681459240e+01
-1.059270931506895774e+00 2.466655142895901154e+00 2.068286228216153333e+01
-5.883329732248331112e+00 -5.830782608529092581e-01 1.469111029474504093e+01
-6.309645732646913530e+00 -1.561922141339922243e+00 1.552229102444314535e+01
-5.487438936463037820e+00 -9.434383601705942368e-01 1.516364539122858801e+01
-1.188101342572781771e+00 1.686090464243881870e+00 1.408519118634444922e+01
-3.501189919488875812e+00 -1.870641452144037098e+00 1.948745405192697788e+01
-2.677692793289893292e+00 -2.811511840050382460e-01 1.808744215697084101e+01
-1.046201686596000879e+00 -1.280739653415382318e+00 1.949499968959451124e+01
-1.065713713484218950e+00 -1.483865662140549713e+00 1.971649436658640653e+01
-2.697449440528992604e+00 -7.828714123881315157e-01 1.891206840387345167e+01
-7.542848121098424841e+00 1.026114304899842677e+00 1.547228585807358670e+01
-2.444487390755351708e+00 -1.546790569047895803e+00 1.984363684970734099e+01
-7.639424207855430637e+00 -1.987739643566708514e+00 1.967270621549925025e+01
-4.006552281661441839e+00 6.073934200733644317e+00 1.784495959345049343e+01
-4.047221095260619350e+00 3.477961157577466267e+00 1.975400475567572656e+01
-1.631367220248450822e+00 -1.837471401749887212e-01 2.220970032613560718e+01
-7.219862477916162646e+00 -7.037475093603342557e-01 1.578755614725213618e+01
-1.273030629613473685e+00 -2.352531626169299450e+00 2.085451154368013604e+01
-6.863298173731318119e-01 -4.012007585121563080e-01 2.184813351879859411e+01
-6.740213816399964752e-01 2.984365297257907113e-02 2.165733083395641145e+01
-1.663428639524813901e+00 -2.554945757261678274e+00 2.103143042721735512e+01
-4.650647296225034921e+00 -2.934049756311060797e+00 1.963322587152581278e+01
-6.884620883140643244e+00 -1.052515990716212047e+00 2.011722003963670957e+01
-1.455495987603895092e+00 -2.256043265603307368e+00 2.073279306904437291e+01
-7.321586465143306910e+00 4.427930187801614181e-01 1.921911596305009695e+01
-6.888778617517512970e+00 1.989285983835832106e+00 1.879502299940849852e+01
-7.457585121705658793e+00 3.394673259685173861e+00 1.718607643572924459e+01
-1.361036326283516562e+00 4.525131082219077783e+00 1.877312196177928527e+01
-4.033625882735973889e+00 5.615372973838912429e+00 1.717856156589488492e+01
-3.254824041423956871e+00 -5.093521013627617666e-01 2.170785692198245798e+01
-4.924989664372999343e+00 8.953142363237315271e-02 1.391778218620237695e+01
-5.093983189190455008e+00 -1.294427959864619559e+00 1.719426224454288032e+01
-6.906104260821551710e-01 -6.482441478299028059e-01 1.873298089373441044e+01
-5.055928206713893758e+00 -1.208235669371590326e+00 1.688748550965631168e+01
-6.491855678992989098e+00 3.863308528321951485e+00 1.593685507203779039e+01
-6.173928032395336274e+00 5.304629383846904744e+00 1.721785616464903867e+01
-5.412252986329757931e+00 3.123794197076935397e+00 1.912406676457480970e+01
5.794121029476212437e-02 -1.524558081482808580e-01 2.021870627528035058e+01
-2.495034504528867547e+00 5.694271773091115207e-01 1.568535081352441196e+01
-5.605119209911967104e+00 6.820156954979365027e-01 2.025903979621732631e+01
-4.132775410633946933e+00 2.817992135358228012e+00 2.007520194215397069e+01
-4.732821890047556046e-02 1.099490812697268449e+00 1.891257430877492496e+01
-4.808522517530063212e+00 -9.086373105070033596e-01 1.642850937996206184e+01
-5.490180005520912232e+00 -7.561412988754041553e-01 1.492084530946911158e+01
-8.171874708341892557e+00 -1.645233249655481123e+00 1.849457868871434485e+01
3.169059071619051426e-02 2.839097864749760003e-01 1.989384357031951467e+01
-3.491069217834935845e+00 -3.088763454996766633e+00 2.066658875828636255e+01
-7.460971473959277844e+00 -2.853598109027387864e+00 1.967365724258543125e+01
-2.426484252895955596e+00 2.029745010648301040e+00 2.125756918908509263e+01
-6.497098464147992303e+00 -3.936626543147926371e-01 2.017228587231219805e+01
-3.409804672111035106e+00 5.927015781883333112e+00 1.839795199084253241e+01
-7.098426627864782290e+00 -2.001970607641442079e+00 1.648991334515008234e+01
-5.633668166946373290e+00 4.178744748954905219e+00 1.837581764946673601e+01
-1.959002458843667860e+00 2.056434978233255606e+00 1.240740273737774046e+01
-3.204263037395012059e+00 5.973104253203541880e+00 1.839216720992910226e+01
-5.797636277979835384e+00 -3.399241477543935019e+00 1.894664956460001193e+01
-1.631001247982541091e+00 4.510476850618507783e+00 1.917804536881131483e+01
-6.496897038101037580e+00 -3.770634654936147356e+00 1.946963847043356921e+01
-7.185325095935251483e+00 -3.507555716451426164e+00 1.867350686498456369e+01
-5.549885954882615380e+00 -2.170211553694378459e+00 1.793188621220435053e+01
-7.786634424563237289e+00 2.213099456142236576e+00 1.636467162636092709e+01
-2.084401441593764837e+00 -9.527297325737000833e-01 1.922915274746072001e+01
-6.107307183369469428e+00 -3.822812109320046225e+00 2.026769220105934366e+01
-5.929007683306270593e+00 -6.890963023011285049e-01 2.058305244805522349e+01
-3.213582558132977440e-01 1.443597040455547376e+00 2.006448073696345702e+01
-6.310634022378755148e+00 -3.615322444962155934e+00 1.886824125556855236e+01
-3.900556900512286873e+00 -1.907985764844690513e+00 1.927596334461197713e+01
-3.926505821720854605e+00 -2.233019488301336786e+00 1.951514943465803142e+01
-1.696125145196869521e+00 -1.688082784557553895e+00 2.009136527967119790e+01
-2.679504791018389120e+00 5.086198629267646432e+00 1.663982978262247414e+01
-5.607116323986023332e+00 5.384486742488482136e+00 1.762573985261682807e+01
-2.438835024859395517e+00 3.660827096265085068e+00 2.031192290316691995e+01
-5.831401642864426194e+00 5.377459226868617215e+00 1.746820521948571425e+01
-3.413646251958307509e+00 -2.770011130464914650e+00 2.021679344602231865e+01
-6.024243839308478954e+00 5.199602030801568908e+00 1.745749465096101360e+01
-3.820180668440454230e+00 4.115230032329345811e+00 1.953560658947302286e+01
-7.843495503961538162e+00 -2.614030429599026206e+00 1.828224830695235070e+01
-1.217359259173472763e+00 -3.265653345278759501e-01 2.216085192614447763e+01
-3.635519123498357263e+00 4.909749395870529831e+00 1.913335379641452150e+01
-1.267160951786582057e+00 4.812159852573605345e-02 2.203818255298277862e+01
-7.999461448836262534e+00 1.573061711105411709e+00 1.623171603533613805e+01
-5.202879663778739783e+00 -3.402329914103130015e+00 1.955329580004906020e+01
-2.907379537045830631e+00 1.021312501027917374e+00 1.317573317412081835e+01
-3.722708768725880635e+00 -1.003741664418852375e+00 1.850197274842970430e+01
-8.859018417167282555e-01 -2.076564295071286814e+00 2.043990831044495948e+01
-5.210376353257356596e-01 -1.857040979586073393e+00 2.008105352256102449e+01
-6.672789172719633122e-01 -2.081855418731691998e+00 2.047402937262482325e+01
-7.801540628681195244e+00 -1.211960648246637628e+00 1.943056271912078969e+01
-3.240396905469677069e+00 -2.835074767392044004e-01 1.749115590455821589e+01
-3.284460631262198227e+00 1.033693706133551604e+00 1.293790189440300153e+01
-3.130486908710711891e+00 1.632277285397702116e+00 1.220954565966565397e+01
-3.276088460063492747e+00 9.605848940294077210e-01 1.306346356037544965e+01
-2.713832632280466672e+00 8.568738197711436300e-01 1.391829901411896131e+01
-1.479248804257733862e+00 2.506496015873566741e+00 2.091733008259935289e+01
-1.644924099960055397e+00 2.288732300545377463e+00 2.110587080386447312e+01
-3.169476142779489303e-01 1.837151171681798312e+00 1.953581110405540855e+01
-1.613915892102040450e+00 4.316093068374635244e+00 1.938795779466797953e+01
-6.111575320656998045e+00 -1.374723283797506967e+00 1.543247252280151471e+01
-6.499162403400168264e-01 6.722602024083613736e-01 1.685303047236389418e+01
-2.265664186652793788e+00 5.462965807024855458e+00 1.869306630405484171e+01
-2.293531888847625488e+00 4.142844915234751846e-01 1.649847692608770089e+01
-2.426724434580140866e-03 -7.314707359638472628e-01 2.071279382367593414e+01
-2.684668151604759689e+00 -4.834785957888779739e-01 2.195841627413082975e+01
-5.319486619683107875e+00 -3.799738669965494253e+00 2.081347976042038894e+01
-3.045301833630404964e-01 5.027702271044197646e-01 1.792687119272954632e+01
-5.087500251858138256e+00 -3.798820867500252163e+00 2.080258447771453589e+01
-5.316344038127340355e+00 -1.576355889256015219e+00 1.708183887185428418e+01
-2.006490977093461137e+00 3.934393354323502123e+00 2.001789745190374603e+01
-3.406904766122548445e+00 4.984747148158465535e+00 1.639747654752594386e+01
-3.245018787301962693e+00 -2.782850126983559491e+00 2.042384299575530449e+01
-5.758685078645676469e+00 -7.525805269833074629e-02 1.420429138337012276e+01
-6.983036089469027985e+00 1.370949856881535034e+00 1.907334928277943575e+01
-3.591776169176421618e+00 4.522502635841060048e+00 1.941520049133668735e+01
-2.207843934806062336e+00 5.032502186647998421e+00 1.690776936250852813e+01
-5.899345744789565416e+00 -7.619927294768915615e-01 1.487487300677240754e+01
-3.245422978203970743e+00 4.275838653135456191e+00 1.975004354619204250e+01
-2.214745712798624311e+00 -2.444354178948744405e+00 2.091214481063498809e+01
-5.871891409351432944e-01 3.526642623372697294e+00 1.696590415584361367e+01
-4.009518780118423109e+00 2.535458052865907419e+00 2.031295999950294728e+01
-6.926787732690860011e+00 2.080292068114279136e+00 1.506106525353120063e+01
-6.630739197629750947e+00 3.583129625475216073e+00 1.582668599504406259e+01
-5.949468192283248413e+00 -4.966359508065658623e-01 1.459623476784092944e+01
-7.035349733923552673e-01 2.632700161389036175e+00 1.988772499837440577e+01
-2.655370649012914197e-01 2.328645919916032092e+00 1.592145865743272637e+01
-5.901186477376942463e+00 -1.798119818250883961e-01 1.429546678074037303e+01
-4.463934824687173730e+00 3.946632634122683392e+00 1.921752596453164941e+01
-5.871013028545840839e+00 -2.865893049280079374e-01 1.440081848163036327e+01
-3.616754717006675612e+00 4.778048771886095558e+00 1.923289886429099127e+01
-4.286840115784629646e+00 -1.183157300104286325e+00 1.830128248246517231e+01
-4.241111331973128173e+00 -1.274483922340406750e+00 1.845171347552892982e+01
-4.474576282430238194e+00 -1.466786148786406230e+00 1.847716480850646903e+01
-1.879481394007539441e+00 -1.504387258232395164e+00 1.987945762998282717e+01
-2.857918280755050944e+00 7.400560568752654333e-01 1.412818548476705516e+01
-3.694966263077466007e+00 -1.522233893271868199e-01 1.633658148481875472e+01
-8.033344982823068747e+00 1.420179245630362352e+00 1.715183094648223872e+01
-2.480282856592825880e+00 -5.282204135758286068e-01 2.205724169478824237e+01
-4.766531690404548272e+00 5.677326715882207608e+00 1.794831116142766447e+01
-5.280477645638645967e+00 -6.530948713789503923e-01 1.484540898362221029e+01
-4.252417519820186342e-01 1.680595477920328040e+00 1.547500932011822883e+01
-6.955162397327809387e+00 3.553160815519075477e+00 1.776286940464497022e+01
-2.028819457920763014e+00 2.468710678374079315e+00 1.310509108769872810e+01
-7.424337808570168562e+00 -3.161299385018089936e+00 1.943213456894975266e+01
-2.699046875690179093e+00 5.676935091876774697e-01 1.530812216800271486e+01
-5.715383624644742255e+00 -3.590534457647980737e+00 1.927777016143982181e+01
-5.882318290368310443e+00 -1.903194493079698679e+00 2.083850370312027778e+01
-4.669062879547803968e-01 1.244393410260584920e+00 2.074076588262542842e+01
-2.233972274523425838e+00 4.828227016517591785e+00 1.931134827517319152e+01
-7.872371560157715109e+00 1.794941024924079809e+00 1.756169492506617402e+01
-1.884130036395385455e+00 1.392298630385352842e+00 1.348653127978816357e+01
-2.687596201536820661e+00 2.010830546489653869e+00 1.220324131625198660e+01
-3.889886956683199948e+00 -6.216619813981618670e-01 1.768624014527589239e+01
-4.464229609700446133e+00 2.486466735669553785e+00 1.348501901314706330e+01
-1.626702404740113794e-01 -1.929266025449946076e+00 2.096782143719577007e+01
-3.356886148918039048e-01 -7.408597797868987644e-02 1.848323859242180234e+01
-5.987196392553158830e+00 2.937559513093951580e+00 1.485045605132732405e+01
-3.934318328754468741e+00 -5.825759564173469407e-01 1.750878864223997411e+01
-6.222529967481875701e+00 4.790937796367443546e+00 1.757609758414097811e+01
-3.102400776441296415e+00 1.933537177010491992e-01 1.611449298962215337e+01
-5.412793913065533147e+00 1.409982498141000740e+00 1.340277766754127597e+01
-5.165765511198170401e+00 -1.353540413515227359e+00 1.711053416664978855e+01
-6.871836275657438264e+00 4.653670999947641107e+00 1.673956762583287272e+01
-2.509605262586139141e+00 -1.464887131517621510e+00 1.974388209768206437e+01
-4.918215185380462984e+00 -1.008790309871119284e+00 1.613000521127557008e+01
-3.915515087208116807e+00 2.087228062498086789e+00 2.058309959221928054e+01
-1.719941052686810856e-01 1.716888477070797281e+00 1.752097837446711637e+01
-8.670457777186976189e-01 -5.679436293512536427e-01 2.204108053362199726e+01
-3.626074988197843130e+00 -2.952420042384498622e+00 2.109943309591615801e+01
-1.657517147500678467e+00 5.013628993685531610e-02 2.211828564783212769e+01
-4.553422232725581886e-02 -7.304221835417488151e-01 1.988819048441036941e+01
-7.379180218665798208e+00 3.785514971418761476e+00 1.661723467467155402e+01
-2.675028902262231778e+00 1.280116040944685896e+00 1.281587622930014803e+01
-3.081420165089757024e+00 2.091557002075763450e+00 1.249947818203318306e+01
-2.396061932973858610e-01 1.546396628272036944e+00 1.592884057830989875e+01
-3.673290395866699587e-01 1.690208406388028051e+00 1.995195692490963424e+01
-4.047156063120150193e+00 -1.717177486556643595e+00 2.161011011201567911e+01
-2.695552064247149548e+00 1.178565157921271034e+00 1.299074726125851598e+01
-6.201172290295376754e+00 -7.305601490566009382e-01 2.045994399946127729e+01
-5.801726614055214171e+00 -2.540265545429089222e+00 1.794515209656530530e+01
-2.820076449228964943e+00 4.619502501862199573e+00 1.596940181257138747e+01
-7.808571719564280755e+00 2.426025562299834348e+00 1.676111309389903070e+01
-5.226393522355110122e+00 2.930642818980498276e+00 1.936811814044446223e+01
-2.546697418372633859e+00 5.804617297856603741e+00 1.849505806282880016e+01
-6.466528182719518014e+00 1.571400415970886977e+00 1.934189290308954057e+01
-4.936104965566098235e-01 1.190606079804816808e+00 1.614066362302982682e+01
-5.894279123195232728e+00 -2.533008124540933714e+00 2.094078482914750694e+01
-3.943969387918769831e-01 2.799060184622621517e-01 2.109943292869307996e+01
-2.426109552451625628e+00 2.287718723485388406e+00 2.114156832376589179e+01
-6.683144110757475165e-01 9.403349430397075492e-01 1.634945056192991686e+01
-3.208952205208531971e+00 6.111684216310261597e+00 1.820870849099746991e+01
-4.095153049328897232e+00 1.698878436492219368e-01 1.410240018551425223e+01
-6.298701381462691984e+00 -6.414288879197018733e-01 2.038008289459785871e+01
-6.242717295252662169e+00 -4.398736838273533678e-01 2.034278105823304017e+01
-7.566867514310596121e+00 1.977628050623976508e+00 1.810279031739182543e+01
-4.187130102007392551e-01 2.295250827206475996e+00 1.934056494571882112e+01
-4.869441721039054372e+00 -1.686961598336434998e+00 2.128093970229553733e+01
-2.619378863605127616e+00 2.104513635199561250e+00 2.118580079238848768e+01
-6.452784017332948707e+00 -2.475441539319492845e-01 2.014352904084189433e+01
-2.879136257085724626e+00 2.185405962029467908e+00 1.254312813774127378e+01
-2.033226252453839145e+00 3.853960049905433394e+00 2.009216176762661732e+01
-5.625046516746095904e+00 -2.487268626963643925e+00 1.821927982238656440e+01
-4.730358042265567775e+00 -3.506419499284638697e+00 2.006823817860268733e+01
-2.050457815961642449e+00 -5.329679911879636744e-02 1.791708226866791520e+01
-9.409796092862766637e-01 1.195812935069157312e+00 1.554794081583687770e+01
-6.970543080509046252e-01 1.379054331556297086e+00 1.552907459247502331e+01
-1.706761242805329593e+00 7.976666796246734137e-02 1.770346345264242061e+01
-3.233551104339558613e+00 1.112413132983204767e+00 2.126103907751502575e+01
-6.333393040945866304e+00 2.897684478325582624e+00 1.510680054907167502e+01
-1.651152890240410454e+00 -2.851062394922021515e-02 1.790441857514111845e+01
-4.907427430645411093e+00 8.176272899582442966e-01 1.327900423651999873e+01
-2.444110320690539240e+00 -7.507731578508756165e-01 2.211922514931159967e+01
-3.471866252679687737e+00 2.889018016593744242e+00 1.367761107996170367e+01
-8.077566129147367491e+00 8.260045498992332202e-01 1.654759692510477365e+01
-7.533609303182974060e+00 3.483097076177616103e+00 1.678440546648939957e+01
-3.551453767582265275e+00 -2.869048936645537395e+00 2.104267581536305798e+01
-5.295346008542308525e+00 -4.198140697831895807e-01 1.450987774048779855e+01
-4.398907759383465788e-01 3.142986973899087211e+00 1.672149496340551522e+01
-2.244187061323681842e+00 3.034652038093551774e+00 1.375158688434799714e+01
-8.417903703039573138e-01 1.227198774148362981e+00 2.129186619045240647e+01
-4.458569500672325603e+00 -9.019050773187429204e-01 2.130268407039303113e+01
-8.982650764677193589e-01 1.009629016903315080e+00 2.144205530143614524e+01
-5.619901297751557223e+00 3.165220633718628385e+00 1.896396716240098712e+01
-5.581902039028697970e+00 -2.140203189239127113e+00 1.713084432270468582e+01
-6.872928854960440592e-01 3.446610163952225747e+00 1.874169958020499749e+01
-7.493188618653343624e+00 2.832118878335501577e+00 1.758697227221648163e+01
-6.477819603176753205e+00 -2.677683465495766413e+00 2.069943987059942359e+01
-5.188952285260191033e+00 -7.102369672499413422e-01 1.498582013496723775e+01
-7.828954711060525096e-01 5.013280853696389094e-01 2.157339833706125987e+01
-6.009557396631315385e+00 4.993592653712344287e+00 1.761225827195031357e+01
-5.304620173794327709e-01 2.028568948146207696e+00 1.474169444735789014e+01
-1.414145613900585019e+00 1.743698879830919868e+00 1.351096063983655071e+01
-4.610429418429749404e+00 -3.183573721711275617e+00 2.155619480113739073e+01
-7.920219596643818250e+00 -2.433294774305513997e+00 1.810501283095017655e+01
-7.461353222152922626e+00 7.669610457167161943e-01 1.894257895402013148e+01
-6.530448855056942836e-01 1.924185670870963261e+00 1.469478754444751090e+01
-6.076791281249485976e+00 2.247582486074328312e+00 1.922802963430787671e+01
-4.188086310929772793e-01 3.290041049342483426e+00 1.814895029673739302e+01
-6.117372559373334795e+00 3.681116419215092250e+00 1.550279986628359197e+01
-4.925490354021621053e-01 3.471302086848176316e+00 1.816106496054115738e+01
-7.740609904497752325e+00 -1.829818943550439281e+00 1.709306863259817177e+01
-6.243417333013972836e+00 1.514119210537332894e+00 1.952496123473796175e+01
-1.243176534857123094e+00 4.902169897872401982e+00 1.810852718891792179e+01
-7.001182856557925938e-01 3.673861475663815490e+00 1.848963965245173924e+01
-3.893591493403452120e+00 -1.058507628759518537e+00 1.844541158864838692e+01
-6.855435053036034176e+00 3.014738715765672872e+00 1.560335967193951134e+01
-1.341851211200743910e+00 4.435202094003646955e+00 1.696328341282685059e+01
-6.796804008109145201e+00 8.752957070223745806e-01 1.944279584607537359e+01
-4.934932543652961190e-01 -9.887347746288037698e-01 2.184183771165477950e+01
-4.858477037695033474e+00 2.940406211029756633e+00 1.957880261444899972e+01
-4.712499397501611398e+00 2.996873911807420576e+00 1.962394957803459405e+01
-4.486383257101978828e+00 -1.073151657055295694e+00 1.790818733479613556e+01
-5.897379674243442338e+00 -3.812617206175367812e+00 1.965725095100557596e+01
-2.460316064854400686e+00 1.584157962516483664e+00 1.245829244423000759e+01
-4.154867167074329237e-01 3.106650097872133642e+00 1.692966292763077618e+01
-6.801670875801299587e+00 3.787651560919600868e+00 1.774182080987580079e+01
-2.267413047766476453e+00 1.782671602653327803e+00 1.230220320756641783e+01
-1.091440158607901889e+00 3.703326864025372700e+00 1.616298253790350614e+01
-2.287588886406187072e+00 -2.375126352807297891e+00 2.082187323255291389e+01
-2.835831334572681328e+00 3.744845025336391409e+00 1.476759628290108495e+01
-6.926199962133065213e+00 6.643976078871772772e-01 1.471280855502340401e+01
-2.261184006954860326e+00 -2.320074292860196508e+00 2.188211854112028121e+01
-2.077694888516820271e+00 -2.564014918018227895e+00 2.102451203312826422e+01
-7.458729384309272348e+00 1.803147669371484962e+00 1.557384447332790600e+01
-3.292359806784640686e+00 -5.136333780669022353e-02 2.158025964064193047e+01
-1.994644759030726799e+00 5.533855136765277294e+00 1.839765984980432378e+01
-3.637144041691123153e+00 1.077853326311037030e+00 2.107720829978473986e+01
-1.325751489727060362e+00 -2.537767178438012472e+00 2.238575113360925783e+01
-3.027826819598427921e+00 4.184508725815475394e+00 1.539359024263042031e+01
-2.038972220681384506e+00 2.689341448520679023e+00 2.093476367992288445e+01
-2.083976338825438646e+00 -1.313393416146293236e+00 1.965076588621198894e+01
-7.794756124745429560e+00 -4.731524846273604812e-01 1.923608552750730283e+01
-1.419786126908503032e+00 5.098187483036387135e+00 1.810305978570148611e+01
-4.468312766011626636e+00 2.673959870245334436e+00 1.369488649369957400e+01
-5.540725565743365166e+00 -2.022884324402228984e+00 1.767458515653385476e+01
-1.209354219165258204e+00 1.656547012066517555e+00 2.130458411236373095e+01
-2.859553170545915179e+00 4.260870848716835191e+00 1.548500302754181845e+01
-7.931571344578957294e+00 1.829081696135224311e+00 1.715531146973274090e+01
-4.488737601698616686e+00 -2.507593368565105507e+00 1.940029074830277622e+01
-5.565455491232601304e+00 -2.028083523325030058e+00 1.747886376408054687e+01
-9.148594061982544545e-01 4.442294863256848636e+00 1.797379152466681163e+01
-4.789315780051379701e-01 -2.393547302047479342e+00 2.142972443910232627e+01
4.206213857582036253e-02 8.729303608587779539e-02 1.994211588302778537e+01
-9.042639468841698891e-01 2.834990136364288205e+00 2.010378876112423896e+01
-1.793341367879118242e-01 2.308380878000369840e+00 1.835746949821611551e+01
-8.669946999695171685e-01 3.494983203478414069e+00 1.916100130808890256e+01
-3.093853316684455290e+00 -1.081853726047789843e+00 2.188248467855864376e+01
-7.355816965327690582e+00 -3.057629216782850712e+00 1.971829400390359766e+01
-2.684211537357361177e+00 -1.133186689192237973e+00 2.207805523335364128e+01
-8.243765302374175263e+00 -7.958005598318351748e-01 1.733373878607877927e+01
-1.674906326238485788e+00 5.262947712728061944e+00 1.833246906783483254e+01
-1.813909169685506528e+00 5.122458519899017126e+00 1.738464148994999547e+01
-1.914971883224579896e+00 2.733795920263240475e+00 1.361686873700146450e+01
-5.387891755035733254e+00 -1.739689275645608602e+00 1.705822265669006654e+01
-3.109673200093511003e+00 3.919607400212151482e+00 1.505018123611016634e+01
-5.264740721255092737e+00 -2.253570237558930600e+00 1.846754576156994787e+01
-1.814845756510624630e+00 3.023983951536873604e+00 2.065784069970444747e+01
-2.109136578735998135e+00 -1.937443651747708939e+00 2.241368508864005449e+01
-3.814416958143950431e+00 -1.330202720660867977e+00 1.880075209796393310e+01
-7.617379648943257919e+00 1.810193592086744241e+00 1.814298381368763913e+01
-1.889636307469781507e+00 2.936780947818887988e+00 1.395933411599766671e+01
-2.494054006060483442e+00 -2.058368284505863954e+00 2.029858086802284944e+01
-3.457175818209799800e+00 -1.309504676672831325e+00 1.903211081386362835e+01
-2.632002883152354311e+00 3.930312598892078846e+00 2.012412068179483882e+01
-1.733640364193299588e-01 5.515406638911737325e-01 2.038745364212339339e+01
-3.331900432821141234e+00 2.689625321161432936e-01 1.508309146017111502e+01
-3.525782850679209268e+00 -1.445116740408144640e+00 1.910992074765582416e+01
-5.662491394905226016e+00 1.922508659710576717e+00 1.971112961995061497e+01
-2.483556412507917699e+00 1.145673464840954558e+00 1.325711048994620356e+01
-3.491532870504630459e+00 -3.950509100371257798e-02 1.630658021408272518e+01
-5.306024073552078946e+00 -1.638222471755431231e+00 1.752403560121408432e+01
-3.486306171669782739e+00 7.773461009808195765e-01 1.330193305151556515e+01
-2.277842143792594420e+00 1.226240856320280459e+00 1.330901450717238177e+01
-2.498651556101155524e+00 1.060909735256067687e+00 1.352092516144311318e+01
-7.753876909535456718e+00 -2.650262351441500464e+00 1.906336369207172865e+01
-6.584793583344267232e-01 -1.795792101589530398e+00 1.996552227263712709e+01
-2.908832480068350712e+00 8.779273248098700133e-01 1.355317972768730428e+01
-3.306518063433525612e+00 -2.326295588651264623e+00 2.123665565574688330e+01
-8.046101798606458688e-02 -5.298909202281072428e-01 2.087909461865579530e+01
-5.344951652641872997e+00 -2.469160351129607633e+00 2.115997058555190691e+01
-2.356739721865972026e+00 5.561301717224261587e+00 1.864850357633180167e+01
-2.977243656030497676e-01 -9.006113710848935305e-01 1.928245404448012934e+01
-2.916112447252652284e-01 2.926690371081961395e+00 1.815602627669729330e+01
-1.768570271225701485e-01 -1.882624199290585887e+00 2.120584373515631071e+01
-1.583973137875231751e+00 4.776244034762981983e+00 1.878825442972646798e+01
-4.852980890972103722e+00 -1.483442448101195410e+00 2.125669019110486246e+01
-4.489524644996528480e+00 -1.515074322937774776e+00 2.141680642665597745e+01
-1.770441521448983535e-01 1.890296297527953806e+00 1.752712814007636055e+01
