-2.101006362778767400e+00 -9.986472334943401474e-01 1.199897639118652748e+01
-3.680563291539263204e+00 4.866467913743738882e-01 1.770552763934238882e+01
-6.544788213938118382e+00 1.181159943016566238e+00 1.195174074164024702e+01
-9.255768690882941740e+00 -5.579903001519991301e-01 1.484400857103640803e+01
-1.135401040492137081e+00 1.397631045597535815e+00 1.567707892674466663e+01
-3.971681589940597057e+00 -1.661649468635384430e+00 1.336009094956313348e+01
-4.302951936170392067e+00 1.083439420363740746e+00 1.782429015648738968e+01
-8.886250523614258157e+00 -4.274208096534821699e-01 1.611970583939334389e+01
-8.964963016880723501e+00 -4.945130935128505989e+00 1.441796665365006547e+01
-1.974775836979040022e+00 -2.035280070703132438e+00 1.249823060400457209e+01
-5.020956889603619189e+00 -3.500067558656134281e+00 1.380596412818126240e+01
-7.043085764212517752e+00 3.158991009912857528e+00 1.609561118731586404e+01
-6.311985346616413306e-01 -4.317262102285878811e+00 1.337936074641973150e+01
-6.031710970484132517e+00 -6.627024570334467235e+00 1.435704819233012230e+01
-6.438551224732134592e+00 -6.187117639995926233e+00 1.493461220572458714e+01
-8.364499286683479085e+00 -1.048957560928385879e+00 1.280357242178912358e+01
-8.581396921263980460e+00 -1.649069932704858354e+00 1.294020602305167600e+01
-4.997342134329107566e+00 3.685224930727637904e+00 1.534971922840952274e+01
-1.105106250870457218e+00 1.287171542066757768e+00 1.554869861520132091e+01
-1.175291444448497868e+00 -3.677215953334123100e+00 1.284311198638255647e+01
-7.716228872785834803e+00 1.369541982606476749e+00 1.235831694221033317e+01
-4.654957198085435621e+00 -6.705693634246846280e+00 1.452017091965249662e+01
-6.204480781018255620e+00 -2.306433511387961488e+00 1.380125071505396406e+01
-1.795301911535132078e+00 -4.073349323611759942e+00 1.300438338676812933e+01
-6.646301095919952218e+00 3.304060193219546804e+00 1.737250438596653979e+01
-8.635758208202428676e+00 -4.815873003896064652e+00 1.559367260041851821e+01
-5.897066646452286953e-01 -3.762529691703967671e+00 1.464476197256892576e+01
-5.151312383573167786e-01 -1.494886080773297987e+00 1.609897980928975514e+01
-9.066337312170652751e+00 -3.860066920160465820e+00 1.565370003688824951e+01
-4.664843180257145505e+00 3.454434109152167309e+00 1.785341797494526261e+01
-8.597906816360594284e-01 4.794664510379670896e-01 1.648501679361023875e+01
-8.604599908716807022e+00 7.144760448011695519e-01 1.328507493809948770e+01
-2.565024039570960035e+00 2.506459211001468290e+00 1.335846406117309826e+01
-2.959165418356027644e+00 1.815902965411158920e+00 1.781485906948813280e+01
-1.837865908499061174e+00 -1.735848061537692777e+00 1.705285509738154914e+01
-2.011866784604073644e+00 2.768304437224658798e+00 1.578036895153928398e+01
-1.403503563346746974e+00 -6.201488694591506423e+00 1.409950372910023120e+01
-6.209543318848871785e+00 -5.356690337341486696e+00 1.375475985000432999e+01
-5.628053936790786693e+00 -2.498504340688803893e+00 1.695944428957303884e+01
-9.136353598168724943e+00 -7.021809473558061621e-01 1.363072963729144149e+01
-1.017181027110923619e+00 -2.052245467105459298e+00 1.238643118394880460e+01
-6.650119375599429006e+00 -7.302139539409686630e-01 1.740746535944596118e+01
-7.431563678797448169e-01 -3.716152642522009941e+00 1.295939984341306328e+01
-4.019180217628559149e+00 -6.628820757108462303e+00 1.455919781964207615e+01
-8.173260642326802383e+00 1.342536977847279100e+00 1.630552349162277537e+01
-7.441821138959290316e+00 -6.086714847577092691e+00 1.421315396490685501e+01
-2.049946271796543762e+00 1.075179979111304807e+00 1.760026547428372012e+01
-9.181245695031389431e+00 -2.822514801664421036e+00 1.586412708365521596e+01
-5.515235858990563678e+00 -5.459339058944785883e+00 1.372184779967577484e+01
-4.200032946330128247e+00 -6.688140744225845147e+00 1.440728265988973433e+01
-5.805287083787842306e+00 -6.318126493166806412e+00 1.402004611079695806e+01
-7.773713952428974672e+00 -2.120176322546445391e+00 1.320254565599457308e+01
-7.032661163251407999e-01 -6.886033688053785351e-01 1.642046656173053876e+01
-6.793904691979199661e+00 -1.695389226166045482e+00 1.357984346882067328e+01
-4.377629290893130687e+00 3.212587206316382726e+00 1.376799901815042304e+01
-8.977431239546262987e+00 -4.992105729131568026e+00 1.458959025631293471e+01
-1.862877129888345529e+00 2.375347267931213757e+00 1.516778385243194194e+01
-8.566612362472149300e+00 -2.454877941695700727e+00 1.322269333943392766e+01
-8.744514811046649072e+00 -2.266762770673624416e+00 1.320492043847758268e+01
-3.181583463965643954e+00 -4.891940200175505460e+00 1.351649837490819905e+01
-4.631583069015591247e-01 -1.832571678806055315e+00 1.552064146185595561e+01
-5.982687270921089873e-01 -3.878320513978335882e+00 1.322584589969416768e+01
-6.781998056308873313e-01 -4.174871692971249715e+00 1.479316172947502750e+01
-5.011770968294290363e+00 -6.571052968246824832e+00 1.418489108879596827e+01
-7.298851249010503750e+00 1.393812627774960067e+00 1.207433006688981081e+01
-3.594983932020415551e+00 -6.125084449905117800e+00 1.382175823652247360e+01
-2.373739170146116351e+00 -5.741025655873766453e+00 1.352740730752593734e+01
-5.231320299365821214e+00 -5.962048299245559235e+00 1.385017489600440044e+01
-8.367161251980845815e-01 -1.062698659597977935e+00 1.660638336207859922e+01
-5.813136151093997839e+00 -6.683692560933187643e+00 1.433796355599855943e+01
-1.222079365455449151e+00 1.064460364554911331e+00 1.713278117827442415e+01
-5.376389213449655813e+00 -6.558264126424164786e+00 1.473082159459324814e+01
-7.233177362957751377e+00 2.697424018783372901e+00 1.709080251377983117e+01
-7.427935378096127472e+00 -5.932342451136866757e+00 1.413101244329902428e+01
-7.396874474864262972e+00 -6.471555571592776390e-01 1.280675234967965892e+01
-1.347914679187196096e+00 1.284684756603899913e+00 1.429248404021045715e+01
-4.840213719769411505e+00 -2.085839208155364055e+00 1.711086168288606402e+01
-6.477463800440441233e+00 6.703238512891736001e-01 1.770851635268202173e+01
-6.105758444235176441e-01 -3.278962587161754705e+00 1.302276833798130795e+01
-3.625233455123808568e+00 4.491968592332558075e+00 1.763765040093096914e+01
-9.160108520108853014e+00 -4.520208111428003050e+00 1.443071439181211346e+01
-4.955362815920935304e+00 1.163071188698093117e+00 1.205241762661087890e+01
-6.489932776131588366e-01 -3.661123585011566206e+00 1.301323402325528988e+01
-2.458461879965121888e+00 3.503131896837353487e+00 1.680613913907519574e+01
-7.793734164733232994e+00 -5.722242767329218438e+00 1.406360099264613339e+01
-6.807183794888418404e+00 3.507308393925290702e+00 1.712947751418307618e+01
-5.192193472390719045e+00 9.682961021420688486e-02 1.288056988971305472e+01
-9.363022316146516033e+00 -9.750899424559154038e-01 1.464610554796692909e+01
-3.624885670225571843e+00 -4.662065726627663942e+00 1.608818922763289905e+01
-3.411375029488545874e+00 -6.122401289801943314e+00 1.380841876623061992e+01
-6.220117870493663048e+00 -6.564510160948764828e+00 1.435506472720850368e+01
-7.808841016879505936e+00 -2.459847036607564874e+00 1.338348271121981625e+01
-2.089023632252184903e+00 1.269584502811486049e+00 1.160830318281485418e+01
-4.277412059751288353e+00 1.852756106555595750e+00 1.782928795525725363e+01
-8.942928950482272654e+00 -4.895552595386410966e-01 1.600789012044460335e+01
-4.413361310055262443e+00 -5.732787668825733540e+00 1.369837826880813836e+01
-5.458438733070257953e+00 4.441326350583034710e+00 1.741103748354163017e+01
-3.083728174003983025e+00 3.931828363511892022e+00 1.703316950526460616e+01
-4.990393070310934931e+00 3.413604650568327514e+00 1.435068151755378452e+01
-7.152020433240857678e+00 1.189033448202028609e+00 1.202858020360435276e+01
-5.008182023231336544e+00 -3.708520544537963204e-01 1.305702399239884315e+01
-5.972575945311175083e+00 1.173407525450601785e+00 1.202077945938536985e+01
-7.839783732295756202e+00 -2.461742769787231389e+00 1.682721103094825210e+01
-8.614144293605516367e+00 3.343558764249560111e-01 1.307775448628636994e+01
-1.209968970611995820e+00 -3.827679759667310222e+00 1.288009639606721990e+01
-9.252536482162998510e+00 -3.726646522152527119e+00 1.425324744663090470e+01
-1.843190735352191467e+00 -3.083186266697219402e+00 1.657484881845295277e+01
-7.660994590898856593e+00 -2.307936146124128562e+00 1.691164805745729538e+01
-9.110354088351247270e+00 -5.214023092004566040e-01 1.367022095179908447e+01
-5.349854887066327613e+00 8.854717384827562876e-01 1.231399983537984966e+01
-9.138991372283122416e+00 -1.482060679768840483e+00 1.337559143663562722e+01
-5.037994657136010801e+00 3.870634531407893264e-02 1.289436351308975404e+01
-9.089466806019089518e+00 -8.396436283298038816e-01 1.580389136067731570e+01
-7.580200791150303097e+00 1.201896713105053749e+00 1.222714668641470936e+01
-8.795520888389322778e+00 -5.145076432936340538e+00 1.496544332558466905e+01
-5.231901917989971729e+00 -5.498166069830609182e+00 1.571251273937126669e+01
-2.868385767250854368e+00 6.962635807248601649e-01 1.768593567145238765e+01
-8.041548918937504453e+00 -5.623326867991501388e+00 1.519596702969529289e+01
-9.154355396140292811e+00 -3.904926363670787381e+00 1.409018206498651082e+01
-6.003050683081693428e+00 -2.146002138784186108e+00 1.375037495291944012e+01
-2.406304412589177488e+00 -3.271620273879558560e+00 1.302771153303161711e+01
-8.041761346536848265e+00 -5.453777557061995296e+00 1.540031947570929205e+01
-7.866693368338750325e+00 3.181546988755588057e-01 1.711847518454614558e+01
-8.432805469622419281e+00 -5.241071492263581710e+00 1.537281644476138709e+01
-1.158995581706214528e+00 1.024019675238227567e+00 1.451216155475801273e+01
-4.694823658139757327e+00 -3.261556318991896575e+00 1.670534819790151104e+01
-1.163835834927102963e+00 -3.485709949053138246e+00 1.279343799163310180e+01
-6.029659409920773427e-01 -2.902984561574478484e+00 1.306472788669578122e+01
-7.778209262273299451e+00 -3.838747988521935994e+00 1.640458001061019289e+01
-8.606233068629226324e+00 -2.092670913941492294e+00 1.309068790090350021e+01
-8.171804761264247929e+00 1.083336588394883337e+00 1.654301429616944930e+01
-3.487932416791126755e+00 2.218287235571537508e+00 1.103694264688797588e+01
-8.319188901757513577e+00 1.451610779298291742e+00 1.340518291251440175e+01
-2.306166955820287967e+00 6.058400019885666621e-02 1.754247217024331107e+01
-2.967832786400064649e+00 -4.713936457071976172e+00 1.350975440302545039e+01
-5.653389707879879822e+00 -5.049856634837210922e-01 1.748845610081651714e+01
-5.040368730601379355e+00 4.235097179223888730e+00 1.774947435476600432e+01
-1.705295810447509108e+00 -1.355444714777644943e+00 1.711665171572189692e+01
-3.200638466486673384e+00 -6.455409066807265894e+00 1.468020108568491722e+01
-5.931946385981040848e+00 2.362294008222830755e+00 1.148287636716103677e+01
-2.366467756241474429e+00 -9.800406551523386245e-01 1.214145994909820914e+01
-5.963990244534788765e+00 2.789452514163603958e+00 1.270327728727182048e+01
-9.239529683148546724e+00 -4.375702416922412574e+00 1.462753635350584247e+01
-1.856433364448232037e+00 1.479261487878168246e+00 1.755808543742556438e+01
-4.676595409966289196e+00 1.226950324572096518e+00 1.783197552008630637e+01
-4.532893694695304454e+00 2.294887229401093798e+00 1.111189063340823324e+01
-7.660255928240862211e+00 -1.104991861359869265e+00 1.721640016283341268e+01
-1.803994470968626640e+00 -5.595406990522661772e+00 1.530968034232546060e+01
-5.253743854462651797e+00 3.896600991973462769e+00 1.596288918904694398e+01
-5.154019308898790896e+00 2.416290568811504613e+00 1.113653659945519436e+01
-7.247533321193061262e+00 -3.073734903889593362e+00 1.672411698367670496e+01
-5.982756423786167232e+00 2.409786639851288825e+00 1.165050816849871396e+01
-4.669439279801551379e+00 -2.130387547879632137e+00 1.709575676044267212e+01
-3.088818891306596814e+00 -7.939669439066596723e-01 1.258306989400147913e+01
-8.220966271947755644e+00 -3.910702289622082439e+00 1.386304604713846444e+01
-3.404937179696532645e+00 -8.767036461068538067e-01 1.289283355030660161e+01
-7.427073306629654148e+00 -3.243429624563470171e+00 1.664756959066912501e+01
-5.803213837914519502e+00 -4.927815189539213492e+00 1.369651997913930686e+01
-4.270759831259133499e+00 1.655581550738173702e+00 1.782678691857884345e+01
-3.727184213184731476e+00 1.425020936732348753e+00 1.149206130530961545e+01
-5.367058015902443024e+00 1.278184000998222325e-01 1.286449052543334304e+01
-4.679014534633492595e+00 2.667935037752181771e+00 1.791095806454352513e+01
-7.227461844064604790e+00 -6.184393813165016240e+00 1.434871441830913952e+01
-3.656453267362510751e+00 3.900743526256462701e+00 1.659659340252359883e+01
-6.286665700041207394e+00 -5.331175708089079812e+00 1.572315316522996298e+01
-6.345357626026073561e-01 -4.116784355344467627e+00 1.322107499479792736e+01
-4.354839713712178373e+00 -2.040378142360066982e-01 1.284915397937198023e+01
-6.047979020058463107e+00 -1.914507005257253036e+00 1.715343858352325057e+01
-1.652319064858850162e+00 1.622175780393610545e+00 1.393629836246513420e+01
-8.814260504215308600e+00 -3.729866354453991839e+00 1.384000026196933320e+01
-5.247900394433819393e+00 -5.980862773031319968e+00 1.537208192301811849e+01
-1.033636162565258365e+00 -5.015072999033699297e+00 1.494328536053743406e+01
-3.349998973152297221e+00 -4.294420376382498183e+00 1.361900242832146901e+01
-7.023664024339139722e+00 -6.220627103862534923e+00 1.437667510479731803e+01
-8.498700319882341869e-01 -2.306539502002602937e+00 1.634299628200019683e+01
-2.925159684338003441e+00 8.257003035779818534e-01 1.150446256538885237e+01
-7.410431625026700608e+00 -6.200071514136053175e+00 1.452001711835442777e+01
-3.091777228286194834e+00 1.443109690210707896e+00 1.782145524963975092e+01
-2.956283707103080971e+00 -1.236418785700629464e+00 1.275415319770334222e+01
-5.422482265332655871e+00 -6.314827232819340885e+00 1.403002186919538374e+01
-7.213155914159747439e+00 -6.213654221820833712e+00 1.453012031376937685e+01
-7.400305618044306755e+00 -6.186699549877984872e+00 1.436205067839933136e+01
-8.808706205370562259e-01 -1.321974571862353454e+00 1.245990733830890562e+01
-5.649926074390377195e+00 -6.545185868317129341e+00 1.414409479548960391e+01
-1.789491494726310084e+00 -5.921815330612455242e+00 1.368781791419576521e+01
-2.969158018980051050e+00 -6.355451126180575727e-01 1.236207036375013146e+01
-5.358058051770903774e+00 1.299112014469194998e+00 1.197678226410831925e+01
-8.439699752333261529e+00 -5.321684420620793610e+00 1.411517172107240370e+01
-4.989557566014645396e+00 1.495666914032048045e-01 1.282236825276492809e+01
-6.385539711280924458e+00 -5.591664742505278451e-02 1.275222969094936687e+01
-2.215640040266328548e+00 1.906240643677830748e+00 1.252973062734035992e+01
-7.600622618627915550e+00 -6.172086448726400221e+00 1.454077445398820956e+01
-9.251682085928720767e+00 -3.147015863649229139e+00 1.389019207424201952e+01
-6.608886317798416954e-01 -4.517086176959200117e+00 1.417255058629293885e+01
-3.732543649479896253e+00 2.051425477638946671e+00 1.115155887259055234e+01
-6.029658328200762973e+00 -5.260476035993445265e+00 1.372765900102865899e+01
-2.916873097920291258e+00 -2.470949457227646917e+00 1.334429916752462120e+01
-5.357120310107990058e+00 -6.285673779920127657e+00 1.506757020197947483e+01
-4.052713956092930836e+00 -6.676833534928402258e+00 1.440242055746933758e+01
-3.128825494973214383e+00 2.247161768462322406e+00 1.110856989436505771e+01
-6.618886438005864292e-01 -7.354111168094352724e-01 1.399159347556990340e+01
-8.098037325567378986e+00 9.226888250298624639e-02 1.695684621048355112e+01
-3.851272403640503939e+00 2.778813586689383719e-01 1.766927981991279140e+01
-2.846115619698234234e+00 3.704270310096129393e+00 1.662098369640751017e+01
-1.643849510460905883e+00 -6.142399029791387299e+00 1.466167784791834450e+01
-3.019268861354268196e+00 -6.173665146944618876e+00 1.502357687598912506e+01
-4.707358648304003523e+00 1.829797000945373453e+00 1.147894884114653635e+01
-1.328130524469774310e+00 2.053573638083321384e+00 1.694315557221080226e+01
-3.024494089636365235e+00 -5.211110704878064936e+00 1.576557834661947410e+01
-2.917099670945582979e+00 1.420143194633970429e+00 1.133012855185910794e+01
-7.693782798074926710e+00 -5.043806223736146954e+00 1.585062581878538523e+01
-8.012555061692207659e+00 -5.347346748328132726e+00 1.552345450684545725e+01
-8.501322102088575861e+00 -2.044131904654748588e+00 1.303825355474259240e+01
-7.435217384848258781e+00 1.881276513150887730e+00 1.721897650797596313e+01
-1.343590478189210291e+00 1.664645795483358226e+00 1.529731155585760760e+01
-8.873073620594961852e+00 -5.137714365657584992e+00 1.456066768865654026e+01
-8.135742615338358519e+00 -2.190684334435250236e+00 1.687394191232684548e+01
-3.251881047039863581e+00 1.608000008349329546e+00 1.785372912723669359e+01
-7.067062901420218424e+00 -4.815220450106153294e+00 1.603841845619097839e+01
-8.076028051466497715e+00 -2.338786497979427281e+00 1.683568686370727008e+01
-8.847711064735182873e+00 -4.746539395569358000e+00 1.414378319437940590e+01
-4.045383997235200368e+00 -6.164327581685684621e+00 1.517669849025484652e+01
-3.708980215580158557e+00 2.416370906898008819e+00 1.097046052756006063e+01
-7.463415160980759744e-01 1.865908506017786572e-01 1.628814286091718699e+01
-5.817479377228334414e+00 -5.068810599613095214e+00 1.590877380182123702e+01
-8.197981682983634499e+00 -5.429807661146337949e+00 1.533734745937215038e+01
-7.559658326760372304e+00 1.207024048646131165e-01 1.247054178106569466e+01
-6.812132896919518288e-01 -1.085511385998912948e+00 1.636753703905544555e+01
-7.197045569809685794e+00 3.091700406799550827e+00 1.672745117475261267e+01
-7.679268356068228663e+00 2.113762472428105887e+00 1.464359357529324157e+01
-9.476686697285081618e-01 -4.870212631516145585e+00 1.321793481338189125e+01
-4.080875151533697398e+00 3.250933916323514694e+00 1.788514953704090615e+01
-5.727084474754010612e-01 -4.140878834536307451e+00 1.380274646279445605e+01
-5.396163132567160403e+00 -6.630995656752586065e+00 1.462774635625043018e+01
-2.773685390366975145e+00 -2.082564963708155581e+00 1.307996579198978893e+01
-2.747298595186560721e+00 2.405111605754427728e+00 1.253291477489495165e+01
-2.835675259132008019e+00 -1.913942968656181298e+00 1.307297644373305801e+01
-3.397349076237171417e+00 -6.598304123144739464e+00 1.439655158028699944e+01
-5.060058591644644110e+00 2.069526260692227559e+00 1.789781161888988592e+01
-1.410508438131074849e+00 -5.794640378326795904e+00 1.362024525718639367e+01
-7.480903618286414147e-01 -1.023572767988145449e+00 1.647569614824983475e+01
-1.459415025592724735e+00 -6.174284779274340274e+00 1.441615916679838350e+01
-2.073847273373598643e+00 2.716434323233877457e+00 1.542972653702863894e+01
-7.572789862510497017e+00 3.841090803790942476e-01 1.236005091279941936e+01
-8.027336966153961750e-01 -6.770556623148065167e-01 1.657536463382863090e+01
-7.548638108635103983e+00 -5.321329965602394907e+00 1.567181713226358042e+01
-2.067712625858277420e+00 2.560161982779384893e+00 1.500801826678146611e+01
-9.086038826475693497e+00 -4.803825037793640007e+00 1.457414523413800467e+01
-5.340724604930194852e-01 -1.704051386244856303e+00 1.609051671690852814e+01
-2.252508638288127418e+00 -1.891587574752156664e+00 1.704822347774748792e+01
-8.609661330617822017e+00 7.792545468382562346e-01 1.573445855283346262e+01
-6.967792835247394123e+00 2.042918917624242603e+00 1.754780696529774886e+01
-9.304134652524219007e+00 -3.981111178118898586e+00 1.463790341678841500e+01
-4.119607970615790649e+00 1.170185132321042154e+00 1.179750238338119672e+01
-1.766674164904350697e+00 2.447444437950099250e+00 1.571909413655840737e+01
-8.448819527779260596e+00 -1.885510431940686127e+00 1.678635596477036174e+01
-2.814644178531488183e+00 -3.739180770784872543e+00 1.350815073817126333e+01
-5.878686304122232587e-01 -2.682703112287623703e+00 1.309401334957405183e+01
-8.644811978374583816e+00 7.831789527870690604e-01 1.553068098536884989e+01
-4.388001019785492396e+00 4.487782894993441740e-01 1.246386082678497687e+01
-5.747629957801008160e+00 1.579621905171892049e+00 1.176012735774039797e+01
-7.307852808842358883e-01 -3.019143943661175555e+00 1.577926176816392356e+01
-6.565482257984152525e+00 -5.250079668627903651e+00 1.577178667219984831e+01
-1.327411399996364372e+00 1.480314633550221748e+00 1.488204642742566719e+01
-4.757599618375977002e+00 3.093352278215263595e+00 1.295870585931180230e+01
-9.271949035757852897e+00 -3.982321251488679437e+00 1.444572160609449085e+01
-6.900488538630296986e+00 2.253740117829310385e+00 1.308544972246287230e+01
-1.583749742412088546e+00 1.845242898859265346e-01 1.187239054132767180e+01
-2.097115045363155517e+00 -1.742349587700294800e+00 1.241098214951138701e+01
-6.821066704218869070e+00 -6.286242897984438471e+00 1.433270213364497536e+01
-2.849567265684120887e+00 1.946652849182883838e+00 1.121851526700942614e+01
-5.453401647192074542e+00 -5.874042391363545335e+00 1.544017066097211099e+01
-3.849248962294094412e+00 4.636082045792918827e+00 1.762481622275526760e+01
-2.965189544618248352e+00 -3.480520528581226181e+00 1.650123427228225736e+01
-7.055924409020676080e+00 1.671099172102554320e+00 1.756573805569722069e+01
-7.821654009264272567e+00 -6.095217658181137033e+00 1.435086455912441394e+01
-5.240154019606620750e+00 -2.507942533155754994e+00 1.696073866163808574e+01
-2.566661534266858613e+00 -1.441283256466848517e+00 1.251567442931689911e+01
-8.580781005580362830e+00 1.077275458910573303e+00 1.395967190157758964e+01
-4.185807811394522737e+00 3.110813774608446103e+00 1.335913782725397780e+01
-4.065485990695444585e+00 -1.776580791413692184e+00 1.716985341959617628e+01
-6.756001101081465787e-01 -4.721321763209433087e+00 1.400070395456272720e+01
-2.832955965142040622e+00 -2.522292166155480686e+00 1.684886987975994188e+01
-7.219340967199117109e+00 -5.948014552774870900e+00 1.415184498205026031e+01
-1.989273115800714642e+00 2.595977195804589854e+00 1.536478077047503277e+01
-7.828228075711893830e+00 -5.978653357241697996e+00 1.416799156711379126e+01
-8.374676048983701548e+00 -4.115545487082250986e+00 1.391155126063449998e+01
-8.003719921295193274e+00 -1.335291283522065386e-01 1.704950602487000921e+01
-7.642389560321827258e-01 -4.959355162007061946e-01 1.297400485481407273e+01
-1.439614398381052762e+00 -5.817345472046558719e+00 1.489302350434058653e+01
-4.191163599887198110e+00 -3.328063637994575608e+00 1.370967646650742822e+01
-2.624071875808062781e+00 2.834192312540520398e+00 1.418831059872109890e+01
-4.045464507934907417e+00 -6.353107582274519771e+00 1.404231057696837226e+01
-7.072352038444934763e+00 4.650932836502798540e-01 1.755781465162890598e+01
-4.234119813394498166e+00 4.054096394148094973e+00 1.785051909620043276e+01
-7.977568720636972976e+00 -2.986237265615055314e+00 1.663998450201694723e+01
-5.520897499559406008e+00 1.441495365530539141e+00 1.787963808127458165e+01
-3.813228952677716777e+00 -4.663694019760521670e+00 1.609990728745914979e+01
-5.627980705954759522e+00 -5.973261609144859818e+00 1.533226303695706960e+01
-8.181810598406958235e+00 -1.654887208805498888e+00 1.291013175289363701e+01
-5.344153164864278160e-01 -1.567464496116812711e+00 1.471986266607268234e+01
-3.244149884594599964e+00 -5.270177627421703370e+00 1.574637690261370082e+01
-3.269987202195177023e+00 -5.558024777353791634e+00 1.558159256783295987e+01
-8.111418789078001623e+00 1.162690913204947663e+00 1.659506741157979448e+01
-6.978444888584196537e-01 -5.065494093994661107e+00 1.395375990370546404e+01
-7.138973885746890069e+00 2.750036543913408238e+00 1.508177814139556361e+01
-2.332461650857642343e+00 1.225760577150030173e+00 1.143844713527640167e+01
-3.579158579518225913e+00 -6.547867047495674164e+00 1.422256322986446619e+01
-2.406564353262445888e+00 -4.085679423925300036e+00 1.320337373424693439e+01
-4.612501586322349745e+00 -3.528141791442351405e+00 1.375897190108247869e+01
-6.185596159594537014e+00 3.392280845333218053e+00 1.475854412203966959e+01
-1.417323633511218040e+00 9.235915611485711052e-01 1.307735250778624092e+01
-1.035402848453558899e+00 -5.369447103722811754e+00 1.451978671897163409e+01
-7.011836489407190953e+00 -6.174316505387447584e+00 1.474772271690950376e+01
-6.388814781248647101e+00 -6.497294775838021508e+00 1.435758834440257559e+01
-4.052412397233560171e+00 4.013251547603831071e-01 1.770175771579465263e+01
-1.141841435848086173e+00 1.200912770519283246e+00 1.508136599237753828e+01
-6.470492138450506303e+00 -1.090872313747159872e-01 1.756673146479951342e+01
-3.778979002511110963e+00 -2.687302950928786016e-01 1.274634888232255392e+01
-4.409839223286297738e+00 -6.082043250695427616e+00 1.385521561607029994e+01
-4.051971380433071701e+00 1.673814913271346683e+00 1.784973935013163882e+01
-6.828981675551927033e+00 -6.169609066947191245e+00 1.416776993457613898e+01
-5.901335575182184101e+00 -5.725141583007775203e+00 1.549741171432041753e+01
-1.511570817282281709e+00 -4.082902020307434654e+00 1.611507623906652142e+01
-8.963146202963613973e+00 -3.071605230756557781e-01 1.345972370135514851e+01
-5.757506248164697693e-01 -1.342635721103847324e+00 1.416615426795103971e+01
-8.337520025708475835e-01 -2.074287722081389340e+00 1.255193605864391415e+01
-3.844327237510581696e+00 2.635556165817823704e+00 1.789054880609974063e+01
-1.786974190943727336e+00 -4.525660502069652757e+00 1.309563486831202894e+01
-6.027434892766416752e-01 -3.958341124429345825e+00 1.456379476537644635e+01
-8.259664240334334551e+00 1.408253116672535166e+00 1.316988005679101903e+01
-9.316874197956899195e+00 -3.680261691290903414e+00 1.453545120222653608e+01
-5.468403153968723451e+00 -3.206521412360428869e+00 1.386924105345330460e+01
-8.603615212688033864e+00 -3.642973323859648893e+00 1.620522448762261902e+01
-6.997725587087917809e+00 -1.892979177843686189e+00 1.364222618716097557e+01
-7.621987402266355183e+00 -6.057163314176281510e+00 1.478963049898985460e+01
-1.859126267977711855e+00 2.005869797819400446e+00 1.416191975466363928e+01
-1.828033483364602585e+00 -6.127043474872569284e+00 1.478728954726307521e+01
-6.743324226791154175e+00 3.129400252417466888e+00 1.515869078525349423e+01
-6.536230542716652270e-01 -4.546094200648398420e+00 1.399077174528654766e+01
-3.982874870109323950e+00 -5.111928260113339562e+00 1.352608642203247413e+01
-5.012676520301640792e+00 -6.200758693990075621e+00 1.517323208386982358e+01
-6.260782338534382596e+00 -1.746223931308263477e+00 1.719784593156945718e+01
-7.982286837374560129e+00 -1.027821272734099844e+00 1.278055941656517902e+01
-3.884766112684350681e+00 -3.260138401968276867e+00 1.665180970391329041e+01
-7.537313608675717980e+00 -2.537396405456328052e-01 1.263892481902950138e+01
-9.268846032713945249e+00 -2.611875458709596920e+00 1.572997203599373606e+01
-5.843419906028983313e+00 3.493038010451893882e+00 1.769564349388251046e+01
-3.809525330819938382e+00 -6.645683028637051848e+00 1.439615037108577056e+01
-9.382766424087002122e+00 -2.132373909739160744e+00 1.413863442430401918e+01
-6.304316104489355865e+00 3.837601276657004234e+00 1.627272429489461913e+01
-9.170627712110469787e+00 -4.572988619900648644e+00 1.456691741167758281e+01
-2.979546541021126593e+00 -8.773198921992986232e-01 1.253543820374726536e+01
-9.352070896296989844e+00 -2.411809186069465483e+00 1.548143375029919966e+01
-7.627452427292756632e+00 -3.716482096950149305e+00 1.646852645874970378e+01
-3.824285583765957952e+00 -6.333007453320266933e+00 1.401178200945993169e+01
-6.340183870679314992e+00 3.990704503652346524e+00 1.713448868942898784e+01
-7.181863896952630277e+00 1.281925543461039041e+00 1.752929913487926328e+01
-5.202222887550414399e+00 3.430139308733013870e+00 1.434878489907068300e+01
-9.812700748631135728e-01 -1.865873840585946519e+00 1.236107372460642395e+01
-4.598663354594634267e-01 -1.629596823410601969e+00 1.552141811467452825e+01
-4.571112951516972167e+00 -4.666006521624113113e-01 1.299629150259804433e+01
-2.145692057672425879e+00 -4.839565145857785744e+00 1.321625330599689718e+01
-5.529675812463862306e-01 -1.558485689988280187e+00 1.438559141617602322e+01
-2.648971862105660158e+00 -5.495067473892086163e+00 1.554341772373129160e+01
-2.850692185456296990e+00 -1.767975579147589960e+00 1.301271864277585522e+01
-4.658419635017770233e+00 -1.879734671889041975e+00 1.717227071642900782e+01
-6.851507840231057855e+00 3.218602669058114429e+00 1.569254160136275189e+01
-4.694822531932187459e+00 4.302250456665685618e+00 1.777137544540712710e+01
-2.994414512770287029e+00 -5.951389288607805028e+00 1.367324529376296383e+01
-1.044839589263417245e+00 -5.865359366361642124e+00 1.392775315251132540e+01
-6.122566297727243700e+00 1.206930555964233820e+00 1.197346617012425085e+01
-1.220478443819100089e+00 8.803768976502447385e-01 1.386118337400926848e+01
-6.650290671513886309e+00 2.578086790384064853e-01 1.761733962228594308e+01
-2.748673527410109507e+00 -1.864797105644429687e+00 1.291245820984899595e+01
-8.712351219942458869e+00 -8.298886233149911362e-01 1.650788259794980561e+01
-3.140849509656510996e+00 -2.060482237011137530e-01 1.221913760598397758e+01
-5.870512155088449369e+00 4.870646996048753063e-01 1.770316605682140576e+01
-2.485032880859649573e+00 1.020351288568369874e+00 1.768078709192649356e+01
-3.018315551321324453e+00 -4.873591203948093309e+00 1.349121066443724359e+01
-3.025257328447036098e+00 -6.502515624131651073e+00 1.455105188844787634e+01
-1.741385451183464550e+00 -5.495502393270487396e+00 1.338112777630224670e+01
-1.961875698345582286e+00 -3.253231412446964121e+00 1.286420085672085278e+01
-4.256761268738182835e+00 -4.629677295642609103e+00 1.614659887275814398e+01
-3.530439849241001404e+00 -4.359988663746559467e+00 1.362221821502602026e+01
-8.203219360727903364e+00 -5.554593517726323704e+00 1.516453027680900689e+01
-9.399267166210293567e+00 -2.361200118085767130e+00 1.454119788916424838e+01
-6.851371478502972234e-01 -4.543778713052451401e+00 1.436297956576420987e+01
-2.680388779417461453e+00 2.451534409089656918e+00 1.773849461450454967e+01
-9.160590353599086910e+00 -6.294231014177413819e-01 1.543139798723479927e+01
-6.242001916757012658e+00 3.780083076246909535e+00 1.598440324514269051e+01
-9.332278927616979303e+00 -3.614032702954077969e+00 1.518517649374046030e+01
-5.935671555941181232e+00 1.411839257617909738e+00 1.186687804511591438e+01
-5.433092604337434572e+00 -2.551269310471626639e+00 1.380856617457268598e+01
-2.860947804502008029e+00 -4.957144587560069482e+00 1.343542834844629041e+01
-3.847607356193083916e+00 -5.803959753187121429e+00 1.546076971625579333e+01
-6.423700425333732866e+00 2.759608039593283380e+00 1.348451333469065005e+01
-6.921932805314163772e-01 -1.465818247424689913e+00 1.633060141568839541e+01
-5.254503743685955186e+00 2.068460465254155167e+00 1.790773795611698560e+01
-9.361609573493407055e+00 -1.533565974799150577e+00 1.397001078359081205e+01
-1.618903433373289236e+00 -2.137683540967715956e+00 1.240148206902697225e+01
-5.491178634811997306e+00 1.632028528418575819e+00 1.789580498197283376e+01
-5.258376756490810600e+00 -5.857627877955658313e+00 1.546595868761681558e+01
-7.552959832019514153e+00 -8.629200458756371983e-01 1.283323501291215862e+01
-6.200077851651711214e+00 3.918574002653032018e+00 1.636303260775018842e+01
-5.681131377415304939e+00 1.677593396036436202e+00 1.789965757130305590e+01
-2.649129256016750311e+00 2.058734325570229728e+00 1.775228906287576436e+01
-3.863166699730664178e+00 2.230514964673784739e+00 1.788722145472670988e+01
-8.432361439213480026e+00 -5.015276166767253407e+00 1.559878210415486777e+01
-9.154386521514751962e+00 -3.758394828457323200e+00 1.557536908415540111e+01
-4.260518634471104349e+00 -1.546469535767795556e+00 1.724918340979592912e+01
-2.994092193789242629e+00 -5.493073604659596931e+00 1.347498066830160113e+01
-3.642496803462097255e+00 -3.283736172666517739e+00 1.662538069969047783e+01
-9.384709736459992513e+00 -1.151972087287447710e+00 1.477456059769476227e+01
-1.168044722338669850e+00 -6.424328128302195795e-01 1.217574821508631899e+01
-6.272606642039505687e+00 1.264802298582087925e+00 1.781421621112716380e+01
-2.269119534684278516e+00 -3.480029725684864239e+00 1.642767384563517297e+01
-4.329109561613234902e+00 -6.659362566633689084e+00 1.430147880125366200e+01
-8.679008962201102406e+00 8.961698398460737902e-01 1.455073647343553134e+01
-2.380897991208842601e+00 -3.907324337186086183e+00 1.314829980970768375e+01
-6.377930326042440257e+00 -3.345757438865400779e+00 1.395024692268333766e+01
-5.180861454061927773e+00 3.382490980081863441e+00 1.417157950544564571e+01
-3.025062764338781740e+00 -1.448521407322966192e+00 1.722938205892289787e+01
-7.152786568461639405e+00 -8.947441284338020218e-01 1.302728112542633809e+01
-9.045868862257510301e+00 -4.760457846169166451e+00 1.497806473916879000e+01
-6.085063237752012633e+00 1.016214003513175701e+00 1.779476473207283860e+01
-6.451685280947060619e+00 1.453861320700583937e+00 1.779889842196449123e+01
-2.047052984981219570e+00 -3.088440445115794297e+00 1.658157057443892413e+01
-6.683076220688407787e+00 -9.202432732199148369e-01 1.735208936554808545e+01
-1.463954382074565963e+00 1.573518879321708308e+00 1.456573134773156042e+01
-5.279780074215297825e-01 -8.788626574372186973e-01 1.613294233175463788e+01
-1.266903950145511049e+00 1.402489094791928403e+00 1.495132992448746378e+01
-9.289365611207809792e+00 -9.810041597722871654e-01 1.521649746884407861e+01
-9.157611856689349850e+00 -1.617587007426498413e+00 1.591447245926640264e+01
-3.798195456506708645e+00 3.184820102889827531e+00 1.401319175360732672e+01
-2.368429498303419312e+00 -1.768145638062783020e-01 1.174939587082528547e+01
-4.845340731266727374e-01 -8.606144383507716711e-01 1.600137387175034220e+01
-5.027135558950435623e+00 -2.099404262296123314e+00 1.365315915686472081e+01
-2.828717622772748630e+00 3.382626565930864082e+00 1.559688633288267212e+01
-8.983882733737495130e+00 -1.280345426070346404e+00 1.321179135919627967e+01
-5.856172129168170093e-01 -4.139149542967521800e-01 1.605358627051328213e+01
-7.894406417356520933e-01 -2.108302941963787980e+00 1.632082823775207103e+01
-8.254615478991535582e+00 -2.480836394549818635e+00 1.674353995149810359e+01
-6.594405016704579126e+00 -5.658014030315807297e+00 1.546782159058803430e+01
-9.199210267365259597e+00 -3.757622614687462503e-01 1.482766289389648406e+01
-2.408296225057367401e+00 -3.711768578845052957e+00 1.313216321396517472e+01
-7.983823832768115913e+00 -1.437171070267394102e+00 1.289103853987206705e+01
-6.550347676807002806e+00 1.403987366475159426e+00 1.185337591415028768e+01
-6.464707999419306184e+00 -1.152681380230021313e+00 1.731257443068404100e+01
-2.305940669538028231e+00 2.006001839278527488e+00 1.249638466580300999e+01
-2.056087320100603133e+00 1.470705410144061531e+00 1.182588757840709448e+01
-5.933982166855461537e-01 -4.129486812705139620e+00 1.363118989445789353e+01
-4.913732546005244117e+00 2.318606440238565547e+00 1.114284806801464001e+01
-7.453425434215715129e+00 -4.271842659954116606e+00 1.627960168287659215e+01
-7.605210085890536043e+00 -3.060465236039626724e+00 1.380399094794372061e+01
-6.412933380503311298e+00 2.015287723889776395e+00 1.777619323538484863e+01
-1.034496044237233736e+00 -5.545458794081171483e+00 1.431090069882889892e+01
-7.456904859081025627e+00 2.267756025206677073e+00 1.702553824090978551e+01
-1.502165917581230525e+00 1.511339154571978760e+00 1.424396645240586778e+01
-6.611090842078565899e+00 -3.528917082356230139e+00 1.396587049358746313e+01
-7.691450518093196909e-01 -6.705321158596047049e-01 1.264640459119876326e+01
-7.916632843889037652e+00 -1.110784800483984425e+00 1.712423907402600420e+01
-3.536273922750470700e+00 1.235534915587616078e-03 1.241176506675472169e+01
-8.146620176694931104e+00 -5.904793437338838658e+00 1.452576916005419960e+01
-3.450000462640804511e+00 4.063111358999003109e+00 1.703635276763800377e+01
-8.584401526550827555e+00 1.072890562283391080e+00 1.434020434453972470e+01
-7.987890861435560375e+00 1.828513677848887964e+00 1.461512874592381550e+01
-3.181101084960293424e+00 -6.290476981168806603e+00 1.491205256312982996e+01
-6.452513814192881725e-01 -4.374481254669535524e+00 1.437514393040562410e+01
-8.744093889306452372e-01 1.106741971810734776e-01 1.664112437475742112e+01
-5.622385232174926806e+00 -6.724942590637001949e+00 1.434893646827748270e+01
-6.800799890698305816e-01 -4.402908224270846382e+00 1.456512594006860795e+01
-4.087214513660853754e+00 3.664104909608376204e+00 1.787355107743107041e+01
-6.840363287140087678e+00 -1.174201487186595783e-01 1.753148741404116961e+01
-1.039147906409985778e+00 -2.506487743810746238e+00 1.651590476262986940e+01
-6.962316051907516012e+00 5.575161092106259986e-01 1.228105730698071696e+01
-7.128516230290334654e+00 2.568356343394440522e+00 1.453313537448775250e+01
-7.174734725908422206e+00 2.434591111517717898e+00 1.426630961724662328e+01
-1.564453747213197854e+00 -1.647416953709198273e+00 1.214950719090247944e+01
-9.032694737275836161e+00 -3.549177487280734233e+00 1.380915993756562088e+01
-3.177827872494413342e+00 -5.778142503049172873e+00 1.359799197985118369e+01
-7.927353258703240257e-01 -4.923040667486639599e+00 1.332453159514126284e+01
-8.817961677147064137e+00 -3.944779937506859291e-02 1.328493036717221187e+01
-5.374550831827883179e+00 3.244876810717377325e+00 1.353488725779480362e+01
-6.548601911431380707e+00 1.599219589914050665e+00 1.178199710432750535e+01
-5.647403687535533123e+00 2.540799499521685156e+00 1.155214278392789495e+01
-2.294381849341448731e+00 2.362505302159119580e+00 1.369890069337570182e+01
-7.580300508876750776e+00 -5.730843864647054531e+00 1.405810028815386303e+01
-1.245406952912937237e+00 4.583522549962176784e-01 1.270671206887082505e+01
-6.034423021504162765e-01 -4.346341368818046114e+00 1.402633955697827517e+01
-4.212085232685963909e+00 -3.927913788260237737e+00 1.369651459842430441e+01
-5.947656758490856843e-01 -2.802490257075223035e+00 1.547158908907301011e+01
-5.145664968322583022e+00 1.988602530179193639e+00 1.141923452185865173e+01
-5.904639541850502660e+00 7.014201031714968337e-01 1.237594704640204313e+01
-7.089191032537215165e+00 2.389792658310666340e+00 1.393783887806657518e+01
-8.204127264064164926e-01 -2.558692610767183129e-01 1.262958393284504766e+01
-5.687775265366366018e-01 -4.170546379582816598e+00 1.398236137268061796e+01
-1.519201559947239932e+00 1.687379075752224900e+00 1.464385925250872234e+01
-1.802046230179663144e+00 -5.854491689550508582e+00 1.508849789013973819e+01
-5.649771113627854113e+00 4.155287142351195229e+00 1.660703078748444383e+01
-6.091403188245754219e-01 -4.314421178494852072e+00 1.379565339873652263e+01
-9.020372343832683271e+00 -1.904724614487929291e-01 1.546967243915219470e+01
-1.224522453876815575e+00 -3.455439550264978621e+00 1.627661091792219494e+01
-4.200032264857785691e+00 -5.735049619224692918e+00 1.367844726762092833e+01
-6.669110586164304522e+00 4.045191120038935106e-01 1.764267710091963082e+01
-3.173654635041200489e+00 -6.441754920866787915e-01 1.255772241399867895e+01
-6.408457088550842951e-01 -6.612611133997020607e-01 1.284610786548038774e+01
-6.316157404653623963e+00 -6.268974136875691272e+00 1.486115335123376369e+01
-1.809085370084832611e+00 7.605015957171946672e-01 1.173357700971491724e+01
-2.279213806114865903e+00 1.463599412613522333e+00 1.768112206143842613e+01
-5.210121199931929681e+00 -6.569204700491703797e+00 1.417575530862555766e+01
-7.546785422469020066e-01 -5.074492432041110002e-01 1.268170016521643007e+01
-5.649986067413500734e+00 3.848129343822073167e+00 1.769716281521622037e+01
-7.724582330660751950e-01 -2.460394970409275572e+00 1.268291426204518402e+01
-9.270670218936302831e+00 -2.422164959810880092e+00 1.573238043557108412e+01
-7.446941335113588245e-01 -5.136950803007564126e+00 1.353405316193249419e+01
-9.103010275544260566e+00 -9.769974462310972996e-01 1.583922514346358312e+01
-8.136091992863490052e-01 -5.295578958335076081e+00 1.352396296501992978e+01
-9.349622051568314163e+00 -2.743471744056421358e+00 1.413266270626351329e+01
-1.000504636806293313e+00 -5.534096000429376438e+00 1.352613321181391015e+01
-7.954460692857472370e-01 -8.434297291147683229e-01 1.259891359040071634e+01
-5.840559428714045431e+00 -3.268706310386169100e+00 1.669690318760053671e+01
-2.745599317089357783e+00 -3.290303787876030839e+00 1.345021748047465238e+01
-7.230322494799032107e+00 1.849267807106973915e+00 1.242235099092629369e+01
-9.549603306900100730e-01 -5.093382855695343991e+00 1.329300354622314373e+01
-9.370271485738932427e+00 -3.008393741964905388e+00 1.528743662656776436e+01
-8.056496326463054913e+00 5.219192685020082045e-01 1.692324577128016827e+01
-1.522468634291678669e+00 9.418989804525671472e-01 1.267510054920643725e+01
-8.190187282201342178e-01 -5.115787829046520407e+00 1.339047837980362132e+01
-5.752844827698320174e+00 1.430937033786039203e+00 1.186549304374066693e+01
-6.376294545711445050e-01 -2.466934510146774784e+00 1.586996131091446571e+01
-5.194622902417873611e-01 -2.179332992626929588e+00 1.491260725080733707e+01
-7.204242150865088234e+00 8.547504202728164469e-01 1.751863938369240614e+01
-9.334822636779197325e+00 -3.759992735877435877e+00 1.470115903891422349e+01
-5.872890163223091875e+00 -1.316182889736666084e+00 1.729658808981484341e+01
-6.133021676145313794e-01 -4.348741995879328748e+00 1.420264003794117613e+01
-4.246397655373298718e+00 3.871472873966565587e+00 1.621641427823894688e+01
-9.154041508279807005e+00 -1.236512229689875175e+00 1.582403674276008942e+01
-3.470389667594788730e+00 2.442855796934390256e+00 1.786607253232002890e+01
-6.841800586416054486e+00 2.705477119257401419e+00 1.744907807994976068e+01
-4.074764577495885831e+00 -1.655045650182047412e+00 1.720666555516659812e+01
-8.595009245669416043e-01 -5.451160720535664694e+00 1.357902542015844816e+01
-3.583795740086201942e+00 3.370531931195247521e-01 1.218463166813726062e+01
-6.043165333683154117e+00 -3.334035794311154710e+00 1.393133473126450284e+01
-6.114747487337097720e-01 -4.195665355730659130e+00 1.441343522691442658e+01
-9.373655073331544685e+00 -2.406258764645051507e+00 1.533944412057209306e+01
-7.022135553628676696e-01 -4.934792762505051833e+00 1.411830252174223332e+01
-8.989685045493565951e+00 -4.563740882464163207e+00 1.534218717977691071e+01
-4.839989712519845888e+00 -1.715017788547688937e+00 1.721503923196329211e+01
-8.106710971443671809e+00 1.463100628803079672e+00 1.301271555274270142e+01
-3.853021398868194503e+00 4.533240462915101077e+00 1.748202010573847431e+01
-5.547166593686445601e+00 1.453214547864140727e+00 1.185315506294416465e+01
-5.397647589506732402e+00 -2.926730070480021872e+00 1.384976983375336701e+01
-6.865899911371908804e-01 -4.920349015770018042e+00 1.395492295320299192e+01
-6.385603074138190838e-01 -4.184685615440392858e+00 1.462310454404189741e+01
-8.095772257406055328e-01 -2.819153912436188625e-01 1.280675997713001735e+01
-5.321038902728092879e+00 -3.333406375071624517e+00 1.384908012863660431e+01
-4.918399665658810260e-01 -2.684094022984842454e+00 1.384920831010196096e+01
-1.244093774327045487e+00 -4.454642689418333745e+00 1.582650705458230433e+01
-8.049304712764904224e+00 -5.856918175832145579e+00 1.481199955257262602e+01
-2.663294862133477103e+00 2.867201461136744456e+00 1.771072066804211076e+01
-1.197691692016795706e+00 -5.407245209744510284e+00 1.491453252637347404e+01
-6.757901775600125838e+00 -5.493752850111711439e+00 1.388189877861507782e+01
-9.018353914800815829e+00 -2.594657069575416308e+00 1.343149794288212107e+01
-8.709711919712201933e+00 8.379859854312281531e-01 1.398923185745053033e+01
-3.701353405835510202e+00 1.045607260673181660e+00 1.168735441040513123e+01
-3.391810942793554773e+00 -3.133782153345450183e+00 1.359333074604050395e+01
-6.625755711937092229e+00 -5.560977861564024849e+00 1.385604905049347124e+01
-1.306337679790901429e+00 -4.773920675567729255e+00 1.567802435670971661e+01
-5.327451111577930831e+00 5.790826599643253969e-01 1.255824994052612098e+01
-6.937440273990675088e+00 9.041524716651389015e-01 1.208917313858233555e+01
-4.407530061012751688e+00 -2.153687536341934994e+00 1.357851095865168745e+01
-6.447744795656351613e+00 -5.971490562457653972e+00 1.390564121978221479e+01
-3.610946673653910644e+00 -3.138343175992688749e+00 1.363284473603798475e+01
-7.328338255241014565e+00 -1.710412684144424045e+00 1.335222222146823512e+01
-6.846635992523886216e-01 -4.907164217359034630e+00 1.375083701016550819e+01
-7.171377185064353732e+00 9.705312550154040485e-01 1.208795708158632110e+01
-5.854368534143060465e+00 -3.084291870463132135e+00 1.676213041321685537e+01
-7.122620400671890728e-01 -1.847662123518054811e+00 1.627519338904717117e+01
-6.225189782239834990e-01 -4.325475264290884247e+00 1.357854528159267815e+01
-6.796410571379357890e+00 1.800764292844732939e+00 1.181207315666564384e+01
-2.330064041970168365e+00 -4.478850567024639240e+00 1.321930125609507556e+01
-6.345625669682180892e+00 2.235551434527749848e+00 1.185430856357708862e+01
-7.205778878524626840e-01 -2.035310710789892674e+00 1.623197564885311195e+01
-9.318341955037546143e+00 -2.719777582589609111e+00 1.390986327652299437e+01
-7.477125625111325391e+00 -3.293942519458912255e-01 1.735066300770015246e+01
-5.825087771274029436e+00 -3.524892939395147806e+00 1.390901097501160777e+01
-1.305160567641941105e+00 7.735673933619573450e-01 1.328643214568767306e+01
-3.374467626954241517e+00 -4.542215260994977299e+00 1.359755294564972772e+01
-8.601627507740690959e+00 -2.294000025413185817e+00 1.316707534140644142e+01
-4.040848524189224911e+00 -3.060172050811114985e+00 1.673517826410412468e+01
-2.410849465861069518e+00 -4.701459511372125810e+00 1.327140939854452384e+01
-3.470431760747062278e+00 1.111952558236790622e+00 1.154428870603409152e+01
-3.687940189090372911e+00 -2.708207895454378011e+00 1.683405290556822465e+01
-9.280003610340796794e-01 -5.597997837865906767e+00 1.363802953864156464e+01
-1.998440900779367091e+00 1.564091030079894473e+00 1.231588246762213501e+01
-6.403305457396355926e+00 -5.496579243492062616e+00 1.379766086095316169e+01
-9.403117337567268308e-01 -5.428771160739917501e-02 1.280449882694371055e+01
-6.199290843634950754e+00 -3.285658662092035165e+00 1.393923490140493371e+01
-2.487830347617174809e+00 2.068631443370060552e+00 1.207543019291243880e+01
-7.966047232994710292e+00 -6.680447960993441958e-01 1.270391196849535120e+01
-6.385484837562923843e+00 -8.837120607888093726e-01 1.320912783873502505e+01
-2.166413111525478108e+00 -8.089011168546303976e-01 1.192480229290788785e+01
-7.455353936509252488e-01 -4.388286786975433174e+00 1.481162431283642533e+01
-1.282094761020726281e+00 -1.878072214122182393e+00 1.686037833283426224e+01
-7.798324937918382993e+00 -7.152475187155235004e-01 1.719458237042731596e+01
-2.190114083533284628e+00 -6.059344485634562405e-01 1.184145041979594382e+01
-3.043300260941686819e+00 -1.559805463894154753e+00 1.719330027581866815e+01
-4.744074859005858791e+00 -4.041217034571499944e+00 1.643614718239632921e+01
-7.241534131762392690e+00 -5.244646895151268140e+00 1.576518786285987161e+01
-9.076508153813797719e+00 -4.825101518676707002e+00 1.476051374424563889e+01
-2.379343094562124783e+00 2.656004963658966211e+00 1.435457562406761056e+01
-1.573213064894940727e+00 -3.811266922679352742e-01 1.188009479482493802e+01
-9.103772612381167306e+00 -4.592861606299854849e+00 1.435040953430464228e+01
-7.054160463414122617e+00 2.537130760494273218e+00 1.426741273210665284e+01
-7.000664904725206306e+00 -1.480144312027216191e+00 1.343282095311986168e+01
-1.923710529989922424e+00 1.378843875784642181e+00 1.209033166232863366e+01
-1.214805369297044857e+00 -2.895435979382130043e+00 1.650170042757833144e+01
-3.752760817772496260e+00 -6.648067099795419432e-01 1.294195660807308812e+01
-5.491250358977665114e-01 -1.900257775348657807e+00 1.353004759803475210e+01
-6.924244170646943530e+00 -6.269543689495202798e+00 1.448008110604021326e+01
-7.755694586499081389e+00 1.168071100288147202e+00 1.234514902229591016e+01
-6.286015375619037115e+00 -5.361869027882777416e-01 1.747464733435867501e+01
-4.167306536605478229e+00 3.467090320759731448e+00 1.494509059478248858e+01
-4.077494132812071292e+00 1.880657965937829967e+00 1.785774273676117119e+01
-3.791890221978325037e+00 3.683571850668708514e+00 1.587879116955187797e+01
