-8.175236387246055614e+00 -2.802695396444275122e+00 1.742255816081324937e+01
-6.192917227226694799e+00 -1.112946148980991090e+00 2.020629978430050855e+01
-6.382568938516592461e+00 -8.855662841497020654e-01 2.025564946280679024e+01
-6.576013030667485992e+00 -1.259961266013841730e+00 2.018583481152576198e+01
-4.329127310304998311e+00 2.138761700329469662e+00 1.402866277471647649e+01
-5.348492543887589434e+00 1.719172803665749649e+00 2.039151276128092505e+01
-4.204746844547252671e+00 2.133761910461325684e+00 1.405246729027037489e+01
-4.162674677972668213e+00 1.848163170297951075e+00 1.431778107818018597e+01
-4.694574518490285620e+00 2.577140420150923816e+00 1.399057564682686561e+01
-2.633776165186626717e+00 -1.889626113603771085e+00 1.678420892698059319e+01
-7.013814486884477617e+00 -3.250438063769036212e+00 1.954597509735839012e+01
-3.610030527859914962e+00 -3.879168704669583967e+00 1.906626851009607648e+01
-6.071806868015824143e+00 3.112565948579203656e+00 1.728063393426726080e+01
-6.013602355125395427e+00 -1.496511996662716282e+00 2.011006298606685405e+01
-1.411163563519199915e+00 -3.257196248975569475e+00 1.627408170078124883e+01
-1.810252903719343998e+00 -1.290952837036800638e-01 2.001982942148071132e+01
-6.592149024752870012e+00 3.196839376397149657e+00 1.857583583430649909e+01
-4.379610416864838207e+00 -3.054591356387224899e+00 1.708827997917925146e+01
-2.939566599232949162e+00 1.344991293966792290e+00 1.489017489198192479e+01
-4.538709871067069912e+00 2.686702826344494532e+00 2.035747140445806380e+01
-4.154093485477995173e+00 2.497711930512202194e+00 2.035539256599693303e+01
-2.862310643935936927e+00 -4.961693138643887835e+00 1.768503032400294117e+01
-6.202251368942786058e+00 -3.080322220670733913e+00 1.964358942050150958e+01
-5.821443550743859774e+00 -3.033469880450084588e+00 1.718209470284486784e+01
-2.808308357361789298e+00 -3.120339792276028312e+00 1.925826262829403035e+01
-5.580241926829449639e+00 1.089593203673113075e+00 2.039734753418930424e+01
-5.817959381025975318e+00 -3.905991436713296849e+00 1.926780957369599534e+01
-2.000968563781195808e+00 -3.510196049023583953e+00 1.897880767610323360e+01
-6.345367218683985122e+00 -1.355016327437921886e+00 2.016562063617911704e+01
-7.321986889508623086e+00 2.131054745047514132e+00 1.974092100981089359e+01
-4.792622367153723140e+00 -5.140452537632376639e+00 1.787635035339822664e+01
-5.406343993989256802e+00 -3.419529804579596544e+00 1.718768513051267277e+01
-5.306087845544920079e+00 2.051000738845651483e+00 1.417991165423488908e+01
-1.495997236287996524e+00 1.904871976385508647e+00 1.999414650842163255e+01
-5.637193844482726313e+00 -3.083860555691254390e+00 1.959421896714590261e+01
-5.813935069178975290e+00 -3.079761306839793100e+00 1.961234722679428089e+01
-3.262881133433020775e+00 2.668701738007151825e+00 1.634898499127801941e+01
-6.220553389978658032e+00 -1.899215096913386969e+00 2.002132410732555812e+01
-6.188588394716124874e+00 -2.676398576321108891e+00 1.978627588472185650e+01
-1.156484623337139750e+00 -1.627260308118602783e+00 1.569771185010626979e+01
-4.785738726348127692e+00 -5.136339693499571091e+00 1.822958213825344487e+01
-5.011294719456448554e+00 -4.279358278391343084e+00 1.900242637975323490e+01
-5.203765603275214424e+00 -4.428262146273454825e+00 1.893030857675200096e+01
-4.637009154434944769e+00 -4.384662729661220837e+00 1.890470897314166976e+01
-5.017226151176125803e+00 -4.524526015912556431e+00 1.885016749982200324e+01
-7.217114759048860684e+00 -2.691670529852022042e+00 1.971991036562988953e+01
-2.137673911032895724e+00 2.251489835514637328e+00 2.022761519473965208e+01
-8.103623383742021957e+00 -2.779011300728641221e+00 1.895245842346396259e+01
-2.909450867055404455e+00 1.679761278733231888e+00 2.026705570329182038e+01
-3.125465908474343024e+00 2.060184044051339924e+00 2.030007146714058663e+01
-3.398809470942629307e+00 -2.394561772476503370e-01 1.627844717879873215e+01
-2.583704590881586327e+00 -2.320454355940352986e+00 1.949875281512179370e+01
-7.841785853812495155e+00 -1.766626034663514311e+00 1.618808808155936063e+01
-8.285931546824702565e+00 -2.519980701268379697e+00 1.847143171659803684e+01
-4.366510554767357277e+00 1.289821701569768608e+00 1.480741156873738973e+01
-2.871790277805074343e+00 -2.457720682026137471e+00 1.696042520078369265e+01
-2.978182146636264793e+00 -2.628769876791334781e+00 1.698460902952573903e+01
-1.013224400021837113e+00 -3.640961265019815762e+00 1.636767587749077890e+01
-2.436906363951113264e+00 -3.252791741911620349e+00 1.914621255153209134e+01
-3.366129755014641400e+00 -1.077115239503422695e+00 1.998428918130320042e+01
-2.181992793777079331e+00 -3.318376283109728320e+00 1.908172695635421334e+01
-6.453258608741361257e+00 1.745488275094029484e+00 1.562072538307050351e+01
9.909712118879401843e-02 -9.477088021900953452e-01 1.871159002116422343e+01
1.348256753109435824e-01 -1.106380775919864945e+00 1.847192844443238968e+01
-1.592275373075769052e+00 1.984544237227885199e+00 1.997796389619501767e+01
-4.981227837103660683e+00 2.907260117447330039e-01 2.034458169472504707e+01
-1.853933849852183735e-01 -1.849157862593773904e+00 1.627250931224422814e+01
-2.403040225931788176e-01 -1.629407615832209277e+00 1.607813577601315913e+01
-4.788267244940818124e+00 -3.462120735420365136e+00 1.710649378654825270e+01
-3.754831953614680806e+00 1.926031450773886933e+00 2.032557575302973518e+01
-2.189106596021369811e+00 -2.707182725471120932e+00 1.930623219248173328e+01
-3.539483135130198743e+00 2.263391498363410470e+00 2.032841354951102275e+01
-3.352730339089758704e+00 1.898954343840568493e+00 2.030383328476606053e+01
-4.036779800075446900e+00 -3.846685973931880831e+00 1.913455103791320866e+01
-3.823253868051902593e+00 -4.657997731535605368e+00 1.737239928480908802e+01
-3.956512402946083640e+00 -4.557533050241422856e+00 1.727834096650183326e+01
-4.602633640444785179e+00 -5.330149271114099641e-01 2.021512437659241002e+01
-4.184033554002210664e+00 -2.972111896588847113e-01 2.022754881851444608e+01
-4.728462358663819032e+00 3.163944229639038319e+00 1.759012218111006476e+01
-4.589280480777993887e+00 -1.014906370506777344e-01 2.028211947687231387e+01
-5.784616202442196986e+00 -5.087757636121055249e-01 2.029313856338681532e+01
-1.188574329380817501e-01 -2.677366957702282502e+00 1.660531200323962864e+01
-2.080746214898738511e-01 -2.050673398570337369e+00 1.625213506851529743e+01
-2.200510233860692721e-01 -2.266818298374454699e+00 1.625804246494233851e+01
-5.085290113812972468e-01 -1.461454873748730510e+00 1.578961496025483413e+01
-4.368813242109317763e+00 9.387236695005207743e-02 2.029191144610418363e+01
-3.951092539683170202e+00 1.302297503053902128e+00 2.031839548399032580e+01
-4.784409086836183711e+00 -1.888015593463917785e+00 1.989948037096315048e+01
-5.966153217388411534e+00 3.384382244610565138e+00 1.857212088919451176e+01
-3.595240183710710191e+00 4.914646643788169733e-01 2.027457740641117212e+01
-6.754541660213793541e+00 2.999297421377348449e+00 1.837615795691824516e+01
4.587585106376228239e-02 -1.897969824806620798e+00 1.747198368849420902e+01
-3.610781866033071275e+00 -4.678965715091211841e+00 1.853546876523892095e+01
-1.573305774817828517e+00 -5.254850179965113721e-01 1.989755049773275530e+01
-1.190435906360737039e+00 1.301532896354791857e+00 1.734141764173585543e+01
-1.557110371140943084e+00 -9.866613848879448589e-01 1.978121844097488591e+01
-1.830595817695190586e-01 -3.653540461557621022e+00 1.680652979855228679e+01
-4.460919126492338016e+00 -3.991748932855943011e+00 1.910747966315444657e+01
-4.748665976255653121e+00 8.887177091601818901e-01 2.035285532958918608e+01
-4.201155747530154194e+00 -3.969637138447677849e+00 1.909299542988265941e+01
-8.607024809787247932e+00 1.259265480808391402e-02 1.771478638235775449e+01
-3.179756926059787325e+00 -1.679277113563593105e+00 1.979126704999125153e+01
-3.386045308752946514e+00 -1.519812733162500873e+00 1.986389251645490717e+01
-3.581669862673061644e+00 -1.100973686374906446e+00 1.999916618951190728e+01
-3.186624732949807193e+00 -1.127633525718894081e+00 1.995221903520976170e+01
-3.764951638552874957e+00 -1.333829276612525483e+00 1.995606613129617912e+01
-3.596284260177039727e+00 -1.500927220803087270e+00 1.989281105469044419e+01
-7.400770559767612333e+00 -4.206158813827522991e+00 1.739841094695034585e+01
-7.298301643711845088e+00 6.350033199518634319e-01 2.002257618306031972e+01
-3.982725646298868494e+00 -2.925396628321716541e+00 1.949009300056176741e+01
-2.165385890345060904e+00 6.640778267810367730e-01 1.521247243538921268e+01
-3.763428385518329033e+00 -2.923047167037537086e+00 1.946641755532847284e+01
-2.391837506219303577e+00 -2.318473290761202676e+00 1.947171695307798345e+01
-4.202215819275282982e+00 -3.098356022852473579e+00 1.945128302457231584e+01
-1.311351957284368278e-02 -6.612479726295820148e-01 1.710575487924295501e+01
-4.942729724220147780e+00 1.887415449745739826e+00 2.038153529731037494e+01
-2.410429588223680142e+00 -4.519742940279296128e+00 1.845246658148701258e+01
-3.169025637231662085e+00 -4.496719834340139776e+00 1.861185650814661940e+01
-4.989411068983101716e-01 9.514465294241765125e-01 1.896609936186890977e+01
-2.792349352911001947e+00 -4.100108929210263931e+00 1.881912017084297517e+01
-5.344421717507119141e+00 3.221889675530091424e+00 1.738242280490533531e+01
-3.399295842495846376e+00 -4.262754356520908061e+00 1.882393060481991753e+01
-3.215668726890676954e+00 -4.281237712675797447e+00 1.878067149967215599e+01
-2.972224144970056159e+00 8.589519705567008057e-01 2.024781445985114559e+01
-3.339862838605462514e+00 8.713954853336089990e-01 2.027369269412737296e+01
-3.387946450898941197e+00 7.047837671847614338e-01 2.027192367027566533e+01
-3.288701314568125422e+00 2.984303122719056844e+00 1.959838432120146123e+01
-7.856305232715545372e+00 5.125028696036981746e-02 1.621617773939657425e+01
-4.411311789355748303e+00 -4.685278219531161525e+00 1.738439124969979943e+01
1.066443696175759515e-01 -1.084015562593633630e+00 1.767153591964196480e+01
-4.569499636055639691e+00 -4.551029898992200451e+00 1.727128003192455807e+01
-4.858384025032619569e+00 -4.771020705747366364e+00 1.744217502892588456e+01
-7.387094585939965263e+00 1.531907136946389469e+00 1.979989219142515466e+01
-2.814467932636241176e+00 -4.339708859222531245e+00 1.867083587097040365e+01
-7.219736096303528861e+00 2.101128441140520664e+00 1.983584236628934505e+01
-1.353458453395593120e+00 7.597424146649378596e-02 1.998078410751577039e+01
-2.805610291774058407e+00 8.647570888265050382e-01 2.023426037197605254e+01
-1.396465311724595093e+00 -1.201551994844414217e-01 1.995179958609178428e+01
-1.587915289137521890e+00 -1.169182217663154999e-01 1.998745532461167684e+01
-2.411022831230849039e+00 -3.924555758631439240e+00 1.885225264165472581e+01
-6.873633523667541212e+00 3.284795363205621044e+00 1.938412263706048222e+01
-6.734037780030043052e+00 3.285287047630207624e+00 1.916552984866632059e+01
-6.986600402573048818e+00 3.185801996972925210e+00 1.938583183802937171e+01
-3.572246588807915568e+00 -1.644652067574879917e+00 1.701472570376162352e+01
-1.157207645007116703e+00 1.661235728810275925e+00 1.972129379950255057e+01
-3.024679793460969712e+00 -1.654784017399207663e+00 1.977955311017828066e+01
-2.795464241966546748e+00 -1.315601023647432921e+00 1.985264000168886511e+01
-2.806083063572340830e+00 -1.713807414063096335e+00 1.972931728551553121e+01
-2.975793399103050518e+00 -1.326328203469444578e+00 1.987183708816833061e+01
-1.182025715308431479e+00 -2.917849469443516419e+00 1.909496909027663847e+01
-1.608991842323083121e+00 -2.512017449544858394e+00 1.930032537246370694e+01
-1.584632942009353007e+00 -2.279434651930968947e+00 1.937799412021064782e+01
-1.389057021008316184e+00 -2.738422734744386577e+00 1.919169376983063202e+01
-2.372187186115726654e+00 -1.760500013178471823e+00 1.965844235743599810e+01
-2.176236068940025969e+00 -1.551088739303349673e+00 1.970120924468323764e+01
-2.420415916087995001e+00 -1.320168102259504428e+00 1.980544517877814670e+01
-4.732684524193265574e+00 1.715611518833827676e+00 2.036984786914288392e+01
-5.326977100227641593e+00 1.486130449948133370e+00 2.039217281526331149e+01
-1.215048880034745649e+00 -1.737040498948732692e+00 1.950159857436332445e+01
-1.187506311598604647e+00 -1.942877703668975053e+00 1.943175266116675104e+01
-5.091388345073483812e+00 2.094249202659636211e+00 1.402325622690507245e+01
-5.354531133053618497e+00 1.455497068451441001e+00 1.451263014113039063e+01
-5.547425073731689693e+00 1.214594654913591087e+00 1.469552536619121597e+01
-2.252478856206914792e-01 4.937878472611094693e-01 1.831053637664821920e+01
-5.769171095042844755e+00 1.098092842943889424e+00 1.475374271120217529e+01
-4.536432275771166367e+00 -2.606777354598750041e+00 1.713459488415732679e+01
-4.189500486633731313e+00 -3.681930921268193657e+00 1.922183706460124242e+01
-3.801043181384714753e+00 -3.927240779349999933e+00 1.906929767572050238e+01
-7.477110068453172609e+00 1.737394411865848864e+00 1.967487908678127795e+01
-1.583765068323853553e+00 -1.313496226778133602e+00 1.969032379855972792e+01
-2.000303012085460352e+00 -1.340119333584291361e+00 1.974167725197013468e+01
-1.762530996294769947e+00 -9.441805514405344768e-01 1.982304427492697485e+01
-1.737312127682503649e+00 -1.122481457778168323e+00 1.977112400832212913e+01
-4.521204936944689834e+00 2.664620986338198882e+00 1.398473234031490975e+01
-9.919959189564572233e-01 1.270824079467618661e+00 1.815661528202151587e+01
-2.606358591383042267e+00 -4.311760717534403931e+00 1.865178408630874074e+01
-5.876581042882615513e+00 -3.798419648695839257e+00 1.932227697825741686e+01
-6.202050447220572416e+00 -3.274075369642657662e+00 1.956923924009504034e+01
-5.595652894400200417e+00 3.714898587539652297e-01 1.546109195611529330e+01
-2.248570224453505517e+00 -4.551966986583323660e+00 1.713470154751055574e+01
-7.731606261408339620e+00 1.604696974708548884e+00 1.754879742150026445e+01
-2.814426529738781824e+00 -4.595667184690425344e+00 1.725302876186936984e+01
-7.096664715107214860e+00 4.056704387215159802e-01 1.533129824918718143e+01
1.063217080207818355e-01 -1.723259291256300285e+00 1.808140305598413633e+01
1.297163645578424118e-01 -1.309876172378620307e+00 1.826274435124590312e+01
1.048386433002694018e-01 -1.335686022839131848e+00 1.849981471732180083e+01
-2.224079870946275239e+00 -3.664105967378543660e+00 1.894628987983618273e+01
-2.423001961658576064e+00 -3.699180189245993233e+00 1.896287633743247270e+01
-1.829266532985390548e+00 -3.690557889997427843e+00 1.887068580470078771e+01
-1.628116798127601461e+00 -3.704103944567505025e+00 1.883060112243684969e+01
-1.589202383195570834e+00 -3.554974274338560392e+00 1.889408124190062566e+01
-6.436916345583916232e+00 2.116684859260573148e+00 2.025860951551081612e+01
-1.160575659713003027e+00 -1.081801704916165896e+00 1.559904517167505489e+01
-5.592189352922509293e+00 -3.670399858275224858e+00 1.935266776995470295e+01
-5.817501905124075279e+00 -3.250268193267678463e+00 1.954648212877183155e+01
-6.040934821244011488e+00 -3.505202292516508500e+00 1.946377074817315034e+01
-3.282979331919002597e-01 1.469722349191953104e-01 1.673261963131018248e+01
-4.402175321768839744e+00 3.120480450750506840e-01 2.031348905361063473e+01
-2.994832235975296797e+00 2.827160378343369196e+00 1.916832270038742436e+01
-4.162534933231851753e+00 4.376511975110284336e-01 2.030537397268154720e+01
-3.821713632732193666e+00 -3.497635091407458319e+00 1.926248840401551021e+01
5.136908256754979529e-02 -2.879670310630634056e+00 1.781660821454454791e+01
9.700100649194609570e-02 -1.892456657471871972e+00 1.787066585616999603e+01
-2.350167615324623593e+00 1.494348792917397750e+00 2.020993908767585268e+01
-2.140944233939858776e+00 1.438883131462304954e+00 2.018237243763269717e+01
-2.181988859985482865e+00 1.673625728490353071e+00 2.019466671380336109e+01
-2.109922966150610257e+00 1.844558859113864857e+00 2.019497904982096870e+01
-1.368030823655403683e-01 -3.709208337643571163e+00 1.704519311939505499e+01
-1.217160286797504543e-01 -3.489670337649259046e+00 1.701062173469901850e+01
-3.807243912667869878e+00 -3.285563823550276652e+00 1.934078923163382413e+01
-4.447716062094333317e-02 -3.302680788804444489e+00 1.743486126223946187e+01
-6.068031789174532786e-04 -3.094524050300943685e+00 1.762623824940292749e+01
-4.746245506738018705e+00 3.399203862243347807e+00 1.899244083736621391e+01
-8.823496102803757291e-02 -3.246196126242366198e+00 1.703721031371041406e+01
-8.453844645473860414e-03 -3.092252160653080395e+00 1.744552907583243595e+01
-5.293962550991989424e+00 9.261056054443146390e-01 1.499631917196493092e+01
-5.375285225281380086e+00 8.031985972603958857e-01 1.510190434751605082e+01
-5.184500893765239482e+00 -7.020614134689742158e-01 2.022319114768249548e+01
-4.973180070584790613e+00 -3.079341485107942589e-01 2.027485406055496142e+01
-7.063078286402163286e+00 1.548023794846141721e+00 1.638281980807667892e+01
-5.358831633633685421e+00 2.248190265317714598e+00 1.435868395192428792e+01
-3.906376049778221837e+00 3.357618356965021533e+00 2.021288234371635539e+01
-2.860347355252097934e+00 2.109039738577845213e+00 1.467927392017078958e+01
-8.406601353754663108e+00 1.044476860175918898e+00 1.788728995320659365e+01
-4.413387328812738986e+00 -3.286398510065668077e+00 1.940259780181154881e+01
-4.215802761792730280e+00 -3.508027561955620044e+00 1.929812047954139231e+01
-4.384438890865639316e+00 -3.448671825665582169e+00 1.933786792633676654e+01
-4.011450539464962439e+00 -3.283035654103719558e+00 1.936460388341304295e+01
-5.126352746079287037e+00 2.290711470755154799e+00 2.038738731054352726e+01
-2.816723262264799743e+00 1.349228872352592257e+00 2.024695922508795931e+01
-5.158271696881087998e+00 1.914923588752461603e+00 2.038827088510815955e+01
-1.422959927086946852e+00 9.075907921004777723e-01 1.541494022884335280e+01
-1.308014310111246470e+00 8.359941575866398633e-01 1.548408059495936939e+01
-1.375020676124737440e+00 9.602619014925648511e-01 1.553330428471193514e+01
-6.993575683129760634e+00 4.935861602055897635e-01 1.525882205344453624e+01
-4.980714240390923031e+00 3.257770829132192070e+00 1.822406726357592888e+01
-6.546450062800077241e+00 8.450663431750418120e-01 1.496408166362701664e+01
-5.549672303801759909e+00 3.421873204925781842e+00 1.897156454715695517e+01
-5.748679353987343532e+00 3.643329197399166830e+00 1.977730569699701491e+01
-4.140943629995338382e-01 -1.736753581960767789e+00 1.927116094265122470e+01
-9.226993761773011338e-02 -3.093393314736875510e+00 1.690116606343289263e+01
-4.793420513599141231e+00 -4.544250214890131367e+00 1.726463963712862792e+01
-6.188311102763797145e+00 -1.244066605638672662e+00 2.018052113844005291e+01
-6.384503757742495900e+00 -1.497602072462196787e+00 2.013409072345441686e+01
-3.602068164442840725e+00 -4.535766191712580664e+00 1.865655223315331668e+01
-4.101656230062141084e+00 2.732036025722115014e+00 1.430276545878045269e+01
-3.260405984394306955e+00 -4.402020995937579784e+00 1.870407815594258594e+01
-3.547975347251534739e+00 6.945842483004407431e-01 2.028066421953001353e+01
-7.759157221973384644e+00 2.174894004270250925e+00 1.854687954829823937e+01
-4.391854628618999001e+00 -1.084483638652217197e-01 2.026968393938379265e+01
-2.754827753822553404e+00 8.360792238055425596e-02 2.017454398404409588e+01
-3.136855988050812449e+00 6.317877154352324887e-02 2.020745599303766582e+01
-8.727095548045782358e-02 -2.687776413196448111e+00 1.682210114389313915e+01
-8.872545170889471755e-02 -2.857893981396519401e+00 1.682062924465340714e+01
-3.733075427252873446e+00 2.908421917702158410e+00 1.678437295269101881e+01
-2.146767297049590947e-02 -2.857667488365665420e+00 1.726861929624741876e+01
1.929948445952585356e-02 -2.678205031207261833e+00 1.744622199522126138e+01
-3.945823584029086589e-02 -3.046415984938252386e+00 1.724945572716486097e+01
-3.866273864220717144e-02 -1.688465786746411457e+00 1.684595125124048209e+01
-7.207298596276827396e-02 -1.889785115694465834e+00 1.674909289276437718e+01
-8.673862566960433007e-02 -2.084236197279759839e+00 1.674191279585572190e+01
2.481267368402571144e-02 -1.078410693004668408e+00 1.708261331969169206e+01
-2.673284801686821865e-02 -2.270316111821204963e+00 1.708297143128877238e+01
1.109619969310004228e-01 -2.472517969971361751e-01 1.807671824756457468e+01
7.642020345515686264e-02 -2.758288807723378033e-01 1.790249285943445656e+01
-7.529796905244667826e+00 1.570235981353454546e+00 1.716802824350122236e+01
-2.994175110518096927e-01 1.654282924774597152e-02 1.648889209454726412e+01
-1.022094272988455788e-01 3.650105904159224313e-01 1.862363750411364904e+01
-6.740230296756754669e+00 1.622251730730978059e+00 1.594703039484955909e+01
-8.004305431196012677e+00 -9.844571718621659695e-01 1.624852874297573990e+01
-1.499216169982708013e+00 -2.396396024164294758e+00 1.932687938026455399e+01
-7.571341741753602861e+00 -1.167855580978502061e+00 1.588930193238837418e+01
-7.901392795307149441e+00 -1.210980814774839320e+00 1.616418169857630360e+01
-7.800355382891325462e+00 -7.523957756244712414e-01 1.606448097258782681e+01
-4.346375409827639480e+00 2.700167859762198752e+00 1.416972426458341161e+01
-6.494605516072245344e+00 1.032411721724159959e+00 1.499335796896827944e+01
-6.093177860536505897e+00 1.447380047659629687e+00 1.478765245796030925e+01
-7.569846733591161225e+00 2.364245535536760201e+00 1.852838832153762993e+01
-3.270205240056043738e+00 5.537751225873133176e-02 1.597203201525634952e+01
-7.343565586478352003e+00 2.384649217683484146e+00 1.814781123549708397e+01
-7.336140827936633357e+00 2.164381681911730304e+00 1.776489331841412778e+01
-6.213034704052069479e+00 1.856363593545147017e+00 1.534317555943603750e+01
-5.970301317349491654e+00 1.871017505257892788e+00 1.495266658727129183e+01
-6.056538072300297060e+00 1.985732595311555437e+00 1.522203107457218962e+01
-1.799358007196189546e-01 4.884836782641659436e-01 1.868953036024612047e+01
-3.223332950060598390e-01 7.278221003641418552e-01 1.890855071532681464e+01
-7.258132224062252558e-01 1.256224059012451155e+00 1.937107216808663068e+01
-1.307148685507560026e+00 1.237701393017862861e+00 1.654643373596701039e+01
-2.384518242640726537e+00 1.766294008623142231e+00 1.495666657575932490e+01
-7.601130878154609860e+00 -7.814608353444778555e-01 1.584515494092100951e+01
-1.586875712948460526e+00 1.857684245670833123e+00 1.836371890666337592e+01
-1.719795119637672176e+00 1.970444230867554269e+00 1.834000582231179166e+01
-7.218037252976390761e+00 1.864316567255142276e+00 1.709324785603583408e+01
-7.313916953684928224e+00 2.541343268378388309e+00 1.837573440395382462e+01
-6.952081305744689743e+00 2.573224977943755931e+00 1.776661448124642462e+01
-7.100146448613614325e+00 2.540559513562783422e+00 1.796804444689133007e+01
-3.617656893938636209e+00 -4.755544901584269901e+00 1.846601821992143400e+01
-2.874893307296616296e+00 2.267666035178499406e+00 1.495178460640462603e+01
-2.977316856433271486e+00 2.361602853497421606e+00 1.497773878218655952e+01
-7.270688452709999972e+00 2.713063336502725242e+00 1.862900084562117442e+01
-7.084570042906356058e+00 2.950095030395011086e+00 1.883816463612264513e+01
-7.076615773159295131e+00 2.690172397308846719e+00 1.821622321937709543e+01
-6.925970585912504696e+00 2.780762786297494848e+00 1.815139632009563186e+01
-6.915753783512323949e+00 2.718740100257679870e+00 1.799306544405122210e+01
-7.454870360173633248e-01 7.509516764360766317e-01 1.693886463532968989e+01
-6.654763672560100929e+00 1.179964679774178071e-01 1.519814303591852322e+01
-6.893767139956165302e+00 2.907190203121951200e+00 1.838333741737845273e+01
-5.965038836333334871e+00 2.236810726327060017e+00 1.536086160735008477e+01
-3.138858706888223438e+00 -1.769660114795099215e+00 1.975891894282205286e+01
-6.592094587394820238e+00 3.015581342921748842e+00 1.795523427177051801e+01
-5.161221767636440028e+00 3.642633556898762670e+00 2.003493456682175733e+01
-5.352482776617862648e+00 3.679992188401373099e+00 2.001127274100273823e+01
-5.339640932095724324e+00 3.591600546115559567e+00 1.975822340997876481e+01
-2.704131238613595389e+00 2.677492220520542254e+00 1.917336114859286411e+01
-2.494098189275863131e+00 2.389208985784266659e+00 1.777004608679895981e+01
-3.093164421639918338e+00 2.447344456687747360e+00 1.497808564334627235e+01
-3.798706294160953956e+00 3.222236145500858129e+00 1.975632096462645748e+01
-3.948014593152197271e+00 3.265324359938537313e+00 1.956072599539063006e+01
-3.217657366992471069e+00 2.536885077654631893e+00 1.498579167014306890e+01
-3.962657227612852218e+00 3.219812388614358589e+00 1.924955252657610671e+01
-4.117482907299078398e+00 3.297935342547990700e+00 1.938560064218365753e+01
-3.707319753793800743e+00 2.702726323171360079e+00 1.438364514451833642e+01
-2.265753667357208290e+00 2.042971408172040704e+00 1.634552098732133985e+01
-3.466086689334194393e+00 2.690771762221080721e+00 1.502796464683174449e+01
-4.536027312348277718e+00 3.251004731170408668e+00 1.839082465242472253e+01
-4.754585958524332412e+00 3.321453256320441305e+00 1.860671770658028024e+01
-3.737679845434247472e+00 2.807607880522521526e+00 1.496079807036389653e+01
-6.131423761142283269e+00 3.457667951742163126e+00 1.921826422795145461e+01
-5.778218921094178562e+00 3.541989857736424163e+00 1.939546728980113599e+01
-5.522836717188816635e+00 3.494015479381839206e+00 1.922132390041440786e+01
-5.548859569610207210e+00 3.380898249228534880e+00 1.879228850927851724e+01
-7.362709919773367417e+00 4.276738616578894536e-01 1.571318085704614376e+01
-4.547483583335751867e+00 3.122375139066731364e+00 1.740230509520816682e+01
-3.921789713339704608e+00 3.120074740965754323e+00 1.856879685311384165e+01
-5.558908060159674314e+00 3.350660078278861143e+00 1.857879087356344527e+01
-3.935689950881211541e+00 2.864709294048762622e+00 1.498107130025650591e+01
-3.420654353775003376e+00 2.712210170988097246e+00 1.559155411363873256e+01
-4.330441970940823282e+00 2.762983928824036539e+00 1.437844164355898968e+01
-3.914195604394622663e+00 2.726567354185340797e+00 1.431638619674058432e+01
-3.951447153831365799e+00 2.796329548468711401e+00 1.458475924719273920e+01
-4.544709315556967333e+00 2.778031019620918585e+00 1.445496520822797137e+01
-4.152706044864037160e+00 2.820304632342317319e+00 1.460189572334718733e+01
-4.310184304766546681e+00 2.928140752390484991e+00 1.522161546845712010e+01
-3.416960545872593347e+00 2.718833535048315930e+00 1.577652649327793100e+01
-4.323803657270260281e+00 2.896126348426983022e+00 1.498915383301319437e+01
-3.225071521741342373e+00 2.679182159190285795e+00 1.680486753408361622e+01
-4.750749654082020434e+00 2.915350723150744727e+00 1.513400517915007626e+01
-5.156450942937431670e+00 3.119661529123294308e+00 1.659031785022073180e+01
-6.247680165134002372e+00 -2.386221005350447122e+00 1.690708244531874627e+01
-6.383855678147879686e+00 3.385965623941863178e+00 1.877243789827034348e+01
-5.913489633442766014e+00 3.349329303592861962e+00 1.821169727972679553e+01
-6.337335325362865035e+00 3.208379594129008971e+00 1.797492233497114356e+01
-6.135235850218222708e+00 3.334101047188859468e+00 1.819275133488080698e+01
-6.298588504128907140e+00 3.295550601290647030e+00 1.822047896867328021e+01
-4.748672421027204216e+00 2.762323419774706856e+00 1.444491020542639959e+01
-5.084063777645207338e+00 2.774065153216057844e+00 1.481306184324909836e+01
-6.492388235195642565e+00 3.337416361649815144e+00 1.881515762300079686e+01
-6.138911044987390042e+00 3.233994703961590389e+00 1.778291833594034799e+01
-2.623663355485307491e+00 1.754397822665753948e+00 1.462384592723104149e+01
-1.868183477714654872e+00 -4.009969783558957168e+00 1.871251824070290226e+01
-3.164860205577016750e+00 -7.064017765841534846e-01 2.005761444442182651e+01
-3.207280138023777649e+00 -9.244855727331033890e-01 2.000833642984926186e+01
-5.815730262256417760e+00 -1.086085170638681152e+00 2.018923203048023751e+01
-5.572657478261599628e+00 -1.039496164256356492e+00 2.018155841164196929e+01
-5.647238636340392581e-01 7.190671586714389996e-01 1.752062142119053689e+01
-5.814309347322825339e+00 -1.278260246288553059e+00 2.014530031861039916e+01
-4.519486083580160241e+00 2.330465316310227131e+00 1.382886024431878624e+01
-6.060979556449082040e+00 -2.134872136037501367e+00 1.693641792973986426e+01
-4.177592112322330742e+00 -2.306142731823257908e+00 1.971804501479372718e+01
-2.676412882949585459e+00 2.420592156798642591e+00 1.719012839233183243e+01
5.283563618258407812e-02 -2.531176785976098742e+00 1.764669829263346301e+01
-4.426655487047212567e+00 -3.558558252079136786e+00 1.929652905226446435e+01
-4.350121760332607224e+00 -2.056512707678993301e+00 1.980984459940033915e+01
-3.948080327350082630e+00 -2.126754953558910088e+00 1.974640693721896056e+01
-3.676607989086633221e+00 2.182967445931654815e+00 1.407935202258219576e+01
-5.161698093006526378e+00 -3.727331963195349651e+00 1.929119758371396287e+01
-4.513254505880800238e+00 3.222683822532086406e-01 1.584538177643922197e+01
-5.138074722345691014e-02 -9.166984069664362300e-01 1.899828002344144906e+01
-5.810962378380555293e+00 -1.671062060373292635e+00 2.004925679336981048e+01
-5.603482307752567060e+00 -1.864258241490101886e+00 1.998060245781880084e+01
-4.631154596684290858e+00 -4.483138380983393567e+00 1.883715997049491264e+01
-5.425922414930419713e+00 -1.801334981906250299e+00 1.998175635025876673e+01
-4.199085688765119784e+00 -7.407778910308565612e-01 2.014176336378180920e+01
-3.805816105035269015e+00 -1.112407289699950841e+00 2.001765521386632329e+01
-3.964066449124260316e+00 -1.351632673662388484e+00 1.997065723130620185e+01
-4.368951715580089434e+00 -1.919807457350336755e+00 1.985168657713532880e+01
-4.109728288333072577e+00 -1.401558004056925988e+00 1.997133060624419798e+01
-2.620432820778423100e+00 -4.786254134563271201e+00 1.744112040570115241e+01
-2.608277343533882409e+00 -2.919685471405773391e+00 1.929582725525306941e+01
-1.266536962023066648e+00 -4.780931987722274457e+00 1.726945313215843569e+01
-1.425993003990064789e+00 -4.848629683473764551e+00 1.739025732730283735e+01
-4.382598350999797887e+00 -2.325291095567391331e+00 1.973251558325268107e+01
-4.421192988998197571e+00 -2.232451800725872459e+00 1.976446201820121118e+01
-4.485765088829380964e+00 3.070983248303653212e+00 1.673905825107467038e+01
-4.210514659358199019e+00 -2.664656933756999635e+00 1.960400891790809297e+01
-1.070287658897020711e+00 1.381192283445722646e+00 1.833101270180401698e+01
-5.616786642167543420e+00 -4.074169077445024101e+00 1.916759939487767994e+01
-8.295139650666804698e+00 3.908389897170538863e-01 1.695354537467392575e+01
-5.707705981670934570e+00 1.334022269793727622e-01 1.562343399614269757e+01
-3.254818647461316328e+00 -1.694089001451464682e+00 1.697165847439373110e+01
-9.399425125204080578e-01 -1.966528000984272273e+00 1.575015866454194580e+01
-8.255042387240617785e+00 -2.011006720852683838e-01 1.662861094496338765e+01
-2.747155554195401361e+00 2.341746324664426560e+00 1.597166685783974671e+01
-4.765710529413482277e+00 6.565387470603509801e-01 1.538206326339730268e+01
-8.007683807946568422e+00 4.922635857403592219e-01 1.662706457751268019e+01
-5.341460615691109304e+00 3.295396280470704653e+00 1.819397279341059814e+01
-7.876688362131126553e+00 1.307447826498325361e+00 1.924349253618419553e+01
-4.598726566810097616e+00 -7.440960089833080771e-01 1.675258751512334143e+01
-2.005368044815073247e+00 -4.591791196212080095e+00 1.831344865467700700e+01
-4.332937516948424772e+00 2.999966970980406877e+00 1.599121272499673907e+01
-1.585086265293378593e+00 -4.273585892074397985e-01 1.547027329464150469e+01
-4.815696982864167808e+00 -4.023721987296771552e+00 1.912442560381359513e+01
-5.039508224838084693e+00 -4.148162054486126848e+00 1.908042691378814126e+01
-5.328221263829737708e+00 -9.707626545136028851e-01 2.017886501174344360e+01
-4.810680676767023378e+00 -6.612473827039537788e-01 2.020529959791395314e+01
-4.896036130322674929e+00 -7.972854506937749886e-01 2.018378714336420998e+01
-3.542508295879558400e+00 2.895142059526522260e+00 2.034667274451012631e+01
-3.378605253344965753e+00 1.972642096893683528e+00 1.430227606801949136e+01
-6.533733812576846489e+00 3.512494536507210441e+00 1.960350306913782603e+01
-2.188332621728677818e+00 -4.813650145575361528e+00 1.743153551858693717e+01
-6.000920074316502539e-01 8.523385715507862948e-01 1.795726628137422765e+01
-1.837148906583204511e+00 -4.746956962030595584e+00 1.730476938343067062e+01
-4.871590591859341068e-01 -3.424549495118721643e-01 1.959910727934778762e+01
-2.008335234689514692e+00 -4.739622070333041393e+00 1.731804516816002248e+01
-1.143380311534404059e-01 -1.666754252021758198e+00 1.892012771107397739e+01
-2.593409244100035149e+00 -3.032892528474110172e+00 1.688356941555881363e+01
-5.984278722911247961e+00 -2.151957194396493023e+00 1.993380790106550293e+01
-8.336204140794972739e-01 1.276275097507501011e+00 1.984870063852504174e+01
-6.910445566110143822e+00 -1.003936654881397494e+00 1.558392228438812666e+01
-8.319138239864177109e+00 -8.027646306170715951e-01 1.657548015293702903e+01
-3.630567437310566525e+00 -4.950532218336340939e+00 1.768965434339905940e+01
-4.117583966590117939e+00 1.936284664175095260e+00 2.034400128697453525e+01
-4.180650558600607525e+00 -3.401206990813664177e+00 1.933809384959007005e+01
-1.970771678303073760e+00 -4.970184522429545559e+00 1.777496346132205574e+01
-4.506030647043923754e-01 2.512735816526536770e-01 1.656395344590712781e+01
-5.199800568074107510e+00 -3.035228603772798905e+00 1.957131396642315835e+01
-5.459596446458256480e+00 -3.221474343175901645e+00 1.952537105610140244e+01
-7.890742555866811614e+00 -2.100442480946692392e+00 1.953433228800514954e+01
-2.707050072588202738e+00 -3.444985336156197175e-01 1.598074896477493567e+01
-2.789336303247349491e+00 1.184735335187013794e-01 1.563988413912689523e+01
-2.695958739355471145e+00 -1.301055851726864443e-01 1.578660067280040025e+01
-3.580860680625984838e+00 -2.125475783881290326e+00 1.970452338266349201e+01
-3.219705002720926412e+00 -2.444541629155678741e+00 1.955417530390340275e+01
-3.211747705810522380e+00 -2.711293849066258144e+00 1.946386124870713630e+01
-3.996778624480686659e+00 -2.497115951819040447e+00 1.963732230426065328e+01
-3.382184372555227192e+00 -2.566261642145327926e+00 1.953669940142025396e+01
-3.398943327394368552e+00 -2.127923449362896235e+00 1.968040169012325080e+01
-2.208956469231849074e+00 -4.737270283994150510e+00 1.822103712639843920e+01
-3.003436706279765667e-01 -5.073614005332901522e-01 1.937846628380669145e+01
-4.971895891878421736e+00 5.023417764310589284e-02 1.595605729844149678e+01
-5.292621940671263125e+00 -1.841181421924020567e+00 1.996004415605804994e+01
-7.263401815877301715e+00 7.459808387526023488e-02 1.543489899068915250e+01
-6.505818351510304076e+00 1.966264924144452975e+00 1.598894877009867699e+01
-5.779192608705196577e+00 3.387373261566990479e+00 1.877059903229838866e+01
-6.747131884098488186e+00 -4.228948706215009956e-01 1.541772070834815267e+01
-7.892592616119795679e+00 1.929722643512040703e+00 1.836063314433807037e+01
-7.445891902115421068e+00 1.224180590699609938e+00 1.981081903326684923e+01
-5.012422177776827859e+00 -3.267985393673150440e+00 1.946525958670129697e+01
-4.350669212403413866e+00 2.015293020518462264e+00 1.413809954701854465e+01
-5.261659175823378831e-01 -7.590963089291261623e-01 1.957287651806855777e+01
-4.531389012383995940e+00 2.112218473888062498e+00 1.402518861572072595e+01
-7.897019316984250636e+00 1.523626963765904341e+00 1.910850188715765441e+01
-2.796085402032324918e+00 -2.736793279949518265e+00 1.939022603184720239e+01
-6.039426633050678284e+00 1.728033615382784882e+00 1.492071367085598510e+01
-2.573340998255381429e+00 -3.393268542568191215e+00 1.911476312198549365e+01
-6.359814636349048200e+00 2.950185060018879479e-01 1.519725632946093086e+01
-6.504087516853988005e-01 1.182901046085986563e+00 1.967827077330863617e+01
-2.930700069164827948e+00 6.559852714071690016e-02 1.577651233475837600e+01
-4.981682652803975486e+00 -1.085645171436673495e+00 2.012514701677476481e+01
-4.601368160496106974e+00 -1.104816553102345944e+00 2.008876747200690360e+01
-4.774020718866333723e+00 -1.303248127877351115e+00 2.005491688531853711e+01
-5.420400178891732423e+00 -3.372198663070500868e-01 1.618393091290890240e+01
-4.017174968493822718e+00 -4.773918125915031396e+00 1.747913034048175618e+01
-7.300210605218947713e+00 2.876301868535620976e+00 1.919013679185147581e+01
-7.475708443717402396e+00 2.700368274360927856e+00 1.917572417714520228e+01
-6.057245206847748920e-01 6.653439910273686309e-01 1.715560474383203982e+01
-2.627734783165443400e+00 -6.950676001357800615e-01 2.000536474133384601e+01
-7.901812678170823112e+00 -3.285334835297003764e+00 1.712577167911393516e+01
-2.512994709473268529e+00 -2.780041177447960088e+00 1.932955737200517277e+01
-5.357778103449613027e+00 3.219940605271840894e+00 2.029229720703962769e+01
-8.294288754796703245e+00 -2.497448626322824161e+00 1.777710557364120447e+01
-5.864975775598146868e+00 8.371800470983792319e-02 1.557986447533980723e+01
-4.215380715198277173e+00 7.955422700941328085e-02 1.616765661621368722e+01
-1.070010281338489522e+00 1.216754265212832697e+00 1.751164394514261247e+01
-4.569241932029748376e+00 -4.930117705425595354e+00 1.846343336201229235e+01
-4.061663823650532024e+00 -4.330061742950129577e+00 1.710082470376309871e+01
-4.832217328884288454e-01 2.150767736368253136e-02 1.587257590120504247e+01
-2.923111130779403322e+00 -3.299393068595489753e-01 1.611517248764564769e+01
-2.868852454273548513e+00 -2.889492833940759953e-01 1.604461245788884227e+01
-8.260379007182347522e+00 1.508431005620342935e+00 1.838588117506992248e+01
-7.245794550425998182e+00 2.080056954869371921e+00 1.747325721330617299e+01
-2.721913729689088068e+00 6.857564129772995010e-01 1.522187249479040716e+01
-3.137067158138961087e+00 2.618953198122695447e+00 1.659656124988972792e+01
-7.097388195760093943e+00 1.171003133243648131e+00 1.595752308727170643e+01
-5.547617028053969612e+00 -2.719210824619635147e+00 1.971683302904395063e+01
-5.744296547469122771e+00 -2.763043233016959199e+00 1.972330698043594666e+01
-7.011678960456844578e+00 -4.794785285489155946e-03 1.522657384132133629e+01
-6.995854348170215120e-01 4.004959691196934291e-01 1.611165976352284801e+01
-6.874398950273850062e+00 3.293193767549584372e+00 1.960414630870358010e+01
-3.586766411015806622e+00 -1.854244434204297187e+00 1.978792467580708703e+01
-5.753923428763248360e+00 4.886274243834929365e-01 2.038787359607001903e+01
-3.097645037788722799e+00 2.328081338526972743e+00 2.031155188556911995e+01
-1.551383524978449335e+00 1.358716330035914188e+00 1.614315237955579008e+01
-2.959857756710935206e+00 2.475374711668917982e+00 2.031233665910980690e+01
-4.740232495828621495e+00 3.093649373493217780e+00 1.663938128550489282e+01
-4.832135639821419915e+00 -1.351003275208603194e-01 1.619562686784790984e+01
-5.128145706605836018e+00 -2.796834681158458791e-01 1.623522902779798116e+01
-6.764324814896023774e+00 1.239084278071407086e+00 1.553214780117280114e+01
-2.587349935431364045e+00 1.266494910322492951e+00 2.022503090102498291e+01
-7.091550548594022452e+00 1.243295987772063738e+00 2.003647862850965922e+01
-2.483287810168202103e+00 1.127996322029399368e+00 1.504377116493376931e+01
-6.740862165442580434e+00 -2.881011268380389012e+00 1.972266127874745578e+01
-6.733728355916161590e+00 -3.396223608743178524e+00 1.951838396823396593e+01
-5.772071255943264312e+00 2.886547808618293409e+00 1.615972347097940442e+01
-4.995724174025616193e+00 -2.109532552622530588e+00 1.985691171581740022e+01
-5.203067552320379541e+00 -2.097303517077094170e+00 1.987966214408301013e+01
-2.397252522064717617e+00 -6.308962630641060665e-01 1.999473840182909257e+01
-4.600221400156471852e+00 -3.672273961544783027e+00 1.926409553353825643e+01
-5.022023592990760399e+00 -3.622293721925015753e+00 1.932404290990833928e+01
-3.189579425354081899e+00 1.396164733588715068e-01 1.585563270686246184e+01
-9.568295916775098053e-01 -3.221958643903678698e+00 1.893634554147726234e+01
-2.154739223596404685e+00 -1.911998039326839427e+00 1.957882607658160978e+01
-1.517357275913366665e+00 -1.765016742513214831e+00 1.954025590993013495e+01
-6.896137482158344767e+00 1.987577221528875393e+00 2.006015002973023442e+01
-7.497132477313627419e+00 1.169697270089453900e+00 1.655662564372995504e+01
-8.304361248770121051e+00 -2.180525404769222853e+00 1.732734644355602782e+01
-1.748322669885537417e+00 -1.910538425046658384e+00 1.952553299352505078e+01
-2.622978597614905816e+00 1.932086574430553538e+00 1.483231495452692528e+01
-8.488384716207775682e+00 -1.322495723331003514e+00 1.802802995474649705e+01
-2.601519939318525321e+00 2.623024701959475458e+00 1.917758455862073319e+01
-8.491795932046844797e+00 -1.339115690859071783e+00 1.784818134654224409e+01
-2.828872633586627217e+00 -3.873373966321937090e+00 1.894612359231981813e+01
-8.066838677821653647e+00 1.888596521062242628e+00 1.865384375265343309e+01
-3.314485347848487695e+00 2.898595352066137831e-01 1.578295169043016344e+01
-6.094482504853433014e+00 -4.573945958636342901e+00 1.889525832009041650e+01
-3.646210636375380343e+00 -4.564735403442304218e+00 1.728587443627558073e+01
-1.383534894433607665e+00 -1.052158967730222106e+00 1.559588437067079170e+01
-6.679896408605407565e+00 1.382311457488097917e+00 1.555365957223120787e+01
-3.597410716310150303e+00 -1.959008395819101134e+00 1.975768204607574674e+01
-3.812756682259494934e+00 -1.705084579368545850e+00 1.985740773742097431e+01
-3.419901902286332174e+00 -1.869390418200168158e+00 1.976310853933277301e+01
-4.629819977722547719e+00 -4.736089369234056434e+00 1.864735039409046280e+01
-4.768188545391562450e+00 -1.728424955283798026e+00 1.994261131319061420e+01
-4.929777132108054793e+00 3.193713430562650224e+00 1.759175663315555127e+01
-4.406589867800568605e+00 -1.717078725287944252e+00 1.991222772792314188e+01
-4.992667768313378218e+00 -1.663334559719207295e+00 1.998131189180746858e+01
-5.181501047375508762e+00 -1.517718157112113886e+00 2.003543850423815442e+01
-6.803472061738294663e+00 2.240018879461545431e+00 1.693514548863890568e+01
-1.113413386761442636e+00 8.218078251375979804e-01 1.591730981830534475e+01
-4.604493406005803813e+00 -1.509271139209877877e+00 1.998787625833703530e+01
-2.544140341920024806e-01 4.305564023191335021e-01 1.772045463319497216e+01
-9.547361758010698418e-01 -1.361213029959956522e+00 1.957013425338803003e+01
3.951507448634498931e-02 -1.479567944389057255e+00 1.728299842709466461e+01
-2.579694737176037034e+00 8.576952807380588961e-01 2.021423788583560466e+01
-2.031894342952636379e+00 -4.345064326948071098e+00 1.690280867280358379e+01
-8.095557926390060999e+00 -3.265051576824248514e+00 1.759311160316081057e+01
-1.051267758745746406e+00 -9.460609235085120083e-01 1.558603292011323660e+01
-8.105466466472616816e+00 -2.382946590543971510e+00 1.915412101490766972e+01
-5.325869136777371393e-01 1.692026702062596755e-01 1.609312453415360622e+01
-2.695981908789763626e+00 1.066323920929420854e+00 2.022926394995207389e+01
-3.561222569662644055e+00 1.484176413528762284e+00 2.030094586096512543e+01
-2.788134573035420782e+00 1.538910191314048381e+00 2.025124293673966847e+01
-2.724382904576311937e+00 1.427029519518400180e+00 2.024202793074098494e+01
-2.942097892913325907e+00 1.225780267531754619e+00 2.025378047158482175e+01
-1.606307233134619983e+00 -3.446546425047640305e+00 1.894532658467716502e+01
-3.385171061766008904e+00 1.304242529165493769e+00 2.028608207375677708e+01
-5.244686295998502779e+00 -2.145644822974865917e+00 1.714535296079167992e+01
-8.483325521770144206e+00 -1.068317015875147602e+00 1.836555692548476415e+01
-4.911784965553413151e+00 -4.096584851155179230e+00 1.710092381234758463e+01
-5.132797215468619889e+00 2.376061794394313864e+00 1.417752088449134007e+01
-8.065501738121724884e+00 1.273854450038734543e+00 1.890066585264491650e+01
-1.831506747862202467e+00 2.166565090370783153e+00 2.013053474636737050e+01
-4.381409860461032979e-01 4.752985264291624823e-01 1.715219423578980340e+01
-5.577488080766793921e+00 7.050079158255422307e-01 2.038840802416065046e+01
-3.020757192209827524e-01 -3.462491757575051898e-01 1.939584742907642934e+01
-6.317911311859692347e+00 -2.625748060995595878e+00 1.695403643897592261e+01
-2.778304896933950108e+00 -9.574576569323280939e-01 1.995257630919191527e+01
-2.863967528401644813e+00 -8.322928402709077744e-01 1.999559363549539270e+01
-2.546118814960955046e+00 -7.868829174018686645e-01 1.997193541580940845e+01
-2.206334537295206122e+00 -1.286789450649807653e+00 1.978675811288987418e+01
-4.110853251581450429e+00 -4.580568332369329809e+00 1.870416333627519734e+01
-3.593889293416780539e+00 1.366142567749013548e-01 1.604512003682245691e+01
-3.447346778042942983e+00 2.943301681366319311e-01 1.584237399146865855e+01
-7.272460669233820951e+00 3.596724674836999647e-01 1.553627920342806235e+01
-2.203563874129955025e+00 1.553125540217361822e+00 1.499694232306372399e+01
-6.560495644235622592e+00 -1.357499823885093271e+00 2.016673880850185085e+01
-4.720496248481323320e+00 2.652104100924946195e+00 1.421280626730518648e+01
-1.206114787215108564e+00 1.634030071845093746e+00 1.989392231557890867e+01
-2.886964106097273053e+00 2.613247457514533245e+00 1.794852534401648469e+01
-2.527766924586710928e+00 -2.017811053467069904e+00 1.675356521608297200e+01
-7.175502063872779779e+00 -3.190292595188033431e+00 1.953990462124961525e+01
-5.759899622677324693e+00 5.556989204601456844e-01 1.524120684420124050e+01
-6.045775505515795345e+00 7.389712896730626923e-01 1.499406559912458548e+01
-1.022490811375637909e+00 -4.824927448614413916e-01 1.980357729150685131e+01
-1.167614527139209768e+00 -7.630428455092531648e-01 1.976893750397634264e+01
-7.755502772493230168e+00 -1.590279494380771208e+00 1.610519551517759496e+01
-7.970622814075102092e+00 -1.377263989363528118e+00 1.625149991013346451e+01
-1.417822728701020774e+00 -3.029560892345384282e+00 1.617730420729840191e+01
-5.416012681925258754e+00 -2.603832475728098839e+00 1.974410506587722480e+01
-4.950495359989812272e+00 -2.522561249224194668e+00 1.972472500133793361e+01
-3.053223754214920316e+00 -4.959412449086430641e+00 1.768768784402334049e+01
-3.421248987197890834e+00 2.392774394578087716e+00 1.405801285134589662e+01
-3.415651648719748579e+00 3.011356462042440896e+00 1.920319073104707641e+01
-6.166221795150844009e+00 2.619190824780498694e+00 1.634484569424383338e+01
-3.090953355911067124e+00 -3.011206386141386915e+00 1.934283488069286605e+01
-2.055781783772457683e+00 -3.185921265979932748e+00 1.911409212145599312e+01
-1.275663118363689619e-01 -2.354662061664266393e+00 1.873110294857791658e+01
-1.030946467433982161e-01 -2.181974482536141569e+00 1.875218487632212216e+01
-6.196372073297995442e+00 -2.041293390345076730e+00 1.998049487947604419e+01
-6.234407808977100451e+00 -2.169232127600023929e+00 1.994758996901745363e+01
-3.431911745208979347e+00 -4.992121565481054901e+00 1.812739071651092004e+01
-2.284690701670043733e+00 2.226719886815859972e+00 1.738456782683804747e+01
-4.511024104461239581e+00 -5.160310226855536975e+00 1.809079430367612318e+01
-4.941288446233183862e+00 3.372624715216689939e-01 1.566237981198274909e+01
-5.086271193216677311e+00 1.467896714642484834e-01 1.581653850387629134e+01
-3.404480150477412259e+00 -4.408491858448845946e+00 1.872341561560551426e+01
-5.090744069889984402e+00 -9.207956580453535711e-02 1.606002458538094047e+01
-6.705395864204073852e+00 3.259408499652523439e+00 1.905144089085672121e+01
-5.436752342663647930e+00 -4.559379782667853931e+00 1.886851813842122638e+01
-7.263023013951555029e+00 2.636019060914187584e+00 1.969384053415555869e+01
-3.646137345272898234e+00 -3.203786594183783976e+00 1.935163335327866818e+01
-2.096270074575728781e+00 -2.679347609462387148e+00 1.654290096353283346e+01
-2.787052112649104352e+00 1.685661294413696387e+00 2.025678632256587619e+01
-3.203154816159346385e+00 -3.507338235811763294e-02 1.601673704276366195e+01
-2.848000341943708769e+00 -2.257238367036920490e+00 1.955988795377143319e+01
-7.416903696487247011e+00 1.892414927928428137e+00 1.746077417023331790e+01
-2.788301807210965322e+00 -1.912882671917217170e+00 1.966273529741416226e+01
