-3.377122268703710795e+00 2.986509612186117657e+00 1.143105199494134183e+01
-7.878397751055874920e+00 7.190461639510938863e-01 1.509433346072009385e+01
-7.505294576984972821e+00 -5.101793338600169925e+00 1.582053981332649073e+01
-4.712267498922736664e+00 -4.384445568768356338e+00 1.314156531363576619e+01
-7.991019532441708151e+00 5.096573895049517633e-01 1.509666210745895398e+01
-5.814058215955240527e+00 3.426156501935065712e+00 1.494862301965935103e+01
-3.052210063269682472e-01 -2.574798701712500915e+00 1.222025329323661680e+01
-3.052752899996310720e+00 2.689837276289655854e+00 9.855970807668029465e+00
-3.904189540079838316e+00 -6.268403177594668030e+00 1.430151051576995513e+01
-9.081395902278185162e+00 -2.108029586423544544e+00 1.584440236566176452e+01
-7.123864425240642007e+00 2.596230906798053795e+00 1.234440587844941462e+01
-8.057727139684745410e+00 -1.714609448337633291e+00 1.635550802573322926e+01
-2.958719795916819884e+00 -3.169280436100630816e+00 1.253954562416119956e+01
-2.967327574166075621e+00 -3.048137473472189107e+00 1.250461554430185629e+01
-6.836415718427796051e+00 2.309202792528760817e+00 1.089446054116359619e+01
7.190806024949680797e-02 -3.047631120576514974e+00 1.288839763157298535e+01
-8.095483265440350351e+00 -4.925453797566116343e+00 1.552209942899321504e+01
1.967568413028810692e-01 -3.652941180639384555e+00 1.368371348958281430e+01
-5.775161145219756875e+00 -1.395491950434283090e+00 1.227086040242623000e+01
-8.215126449335555137e+00 -5.261857056150240908e+00 1.525006207432570449e+01
-3.632475253034932461e+00 -1.736869662134921388e-01 1.697018681616781777e+01
-2.844589976503825834e+00 -4.662938329762747469e-01 1.116165268376910547e+01
-5.110921831706823681e+00 -6.357500639225596828e+00 1.445763857640876182e+01
-2.026489235150355395e+00 -1.582420595251486706e+00 1.610189682686453239e+01
-1.018404950081827742e+00 5.872192413987545878e-01 1.227739165189715465e+01
-7.859737990014272313e+00 -3.320310469982498347e+00 1.631221619438579751e+01
-4.026331102085386249e+00 3.429125192061686533e+00 1.585890427634627287e+01
-2.397827294027964129e+00 -3.798370723178579489e+00 1.247992539371060872e+01
-2.278626923096259915e+00 -2.726596118263874047e+00 1.583801023936484853e+01
-7.335393454269864222e+00 4.477819124915888294e-01 1.641466242149854793e+01
-4.568185687656926675e+00 3.247106170771268729e+00 1.147324859162350208e+01
-8.901511044741242884e+00 -4.647327047998905947e+00 1.393115063368085771e+01
-9.052235680900301062e+00 -3.727641627237656685e+00 1.554356410150506917e+01
-2.783229665694035848e+00 -3.649269608547868193e-01 1.668189332389428614e+01
-1.069053571957074178e+00 -4.471883731277957352e+00 1.481524237926216614e+01
-8.901362729079258074e+00 -3.617183933845794286e+00 1.355867969118605032e+01
-7.864296125511982538e+00 -1.134012078846243221e-01 1.586906085285357904e+01
-7.186786850529736981e+00 2.110576495191105018e+00 1.551167103468303310e+01
1.145876668312340030e-01 -2.274674541097899017e+00 1.454165402738286872e+01
-5.742008233981888310e+00 -3.635670758365381339e+00 1.328229956700685221e+01
8.441626914804545301e-02 -3.230102762547252482e+00 1.288529236321758020e+01
-7.045813576571820391e+00 2.286731351543729751e+00 1.572237043055019967e+01
-5.422466199078103344e+00 -2.941154923634201168e+00 1.663085396579594288e+01
-1.399604735966439417e+00 -9.698867677534284137e-01 1.608474101886879026e+01
-1.405490899711394182e+00 -1.367950457567223443e+00 1.599381079937602124e+01
-8.976391027548473289e+00 -3.888148654205046739e+00 1.393032370280633359e+01
-2.015330551491502309e+00 2.578928112744204526e+00 1.434683703753820794e+01
-1.933566346870187580e+00 2.611233867338366821e+00 1.498964496247267419e+01
-2.926301889337383777e+00 3.042309684819915816e+00 1.448596426024662520e+01
-5.966031997752555327e+00 -3.210976121123156446e+00 1.320435638836197967e+01
-8.220153695168066488e-01 1.688085057521458543e+00 1.586451775266515796e+01
-4.690423343757022856e+00 3.307220460519625149e+00 1.242874168945547098e+01
-5.818946856863634665e+00 -3.560764219065951863e+00 1.647088628108154751e+01
-2.683703188523622885e-02 -3.300545106336659984e+00 1.447294362723570060e+01
-4.146896310799533580e+00 -4.447870063043406930e+00 1.300065127695172151e+01
4.645435325470193000e-02 -3.431497000062198488e+00 1.268044869549689935e+01
-2.661422337485956469e+00 -3.159677400934541858e+00 1.583299052937664442e+01
-3.951789351489328972e+00 -4.792251137663428473e+00 1.301329794796347272e+01
-2.522440329099301159e+00 2.779574714109028122e+00 1.319339169596646855e+01
-2.871232859462431453e-01 -1.587393481451430999e+00 1.233190429247512299e+01
-1.821117081895250234e+00 9.366434448174288940e-01 1.076723799467197296e+01
-6.343719538857753193e+00 -4.044702577410571820e+00 1.331463798047229119e+01
-7.645441531956224779e+00 1.749166498175013462e+00 1.353430248087232002e+01
-6.732647044582455109e+00 2.023251906538374278e+00 1.646544194551324836e+01
1.702039151097496372e-01 -8.863391380407664721e-01 1.453396576517758376e+01
-5.789260009456869582e+00 -1.230631335104322766e+00 1.213318618246112379e+01
-1.566756510190946194e+00 -4.793990312267631282e+00 1.292600905329500449e+01
-6.146811339523303275e+00 -2.200364636194237278e+00 1.278704761449241545e+01
-5.201795871789025583e+00 3.310060722162041280e+00 1.050034664489135849e+01
-4.673273071465469997e+00 3.395210244537598676e+00 1.389574602082688415e+01
-1.309281990116836436e+00 4.431406842301593985e-01 1.120427587578983974e+01
-6.446212765154109903e+00 -6.445298096773822039e+00 1.529450810885822420e+01
-1.605298080171613018e+00 -2.403190008604759065e+00 1.172906173088995985e+01
-1.419086240253365494e+00 4.496493285872996681e-01 1.112063964163859708e+01
-6.615481416694576566e+00 -9.874253881266251698e-01 1.699430224020008495e+01
-1.203145391434658373e+00 4.307492035833342947e-01 1.127244605666916755e+01
-8.514028293802240910e+00 -6.090311863384731961e-01 1.525879804818122665e+01
-4.684170014972769636e+00 -6.430557659689854155e+00 1.454820549406556296e+01
-3.715791695914611559e+00 -4.225224007693443973e+00 1.290724840338297952e+01
-5.965817497167748229e+00 -5.838843734063259294e-01 1.712892986601124079e+01
-7.031273683055349721e+00 -2.748517828097506666e+00 1.673327288011515890e+01
-3.812211039658708778e+00 3.242274243722166993e+00 1.703092703599331514e+01
-1.993250197410892710e+00 2.505609860710590886e-01 1.085519358297571557e+01
-5.563758102983700216e-01 -4.822147734800450003e+00 1.281182240068435618e+01
-1.407797370187292563e+00 1.643785421154414728e+00 1.633120992554739104e+01
-9.339663962053553092e+00 -3.436742496634827226e+00 1.455969774165316721e+01
-8.144938245887813011e+00 -4.570558333870749834e+00 1.316592410374257582e+01
-7.335112999687151358e+00 -4.821297429640915233e+00 1.322139038615254236e+01
-8.142813664342527957e+00 -4.810960413988638606e+00 1.325487648223528225e+01
-1.627557371628311156e+00 -3.621615177441819267e-01 1.627802091053372635e+01
-5.874988299797244906e+00 -6.286861120033758965e+00 1.434485737230811964e+01
-5.337121581415193106e+00 -5.438555526394890371e+00 1.337632656917826068e+01
-3.208741827015208159e+00 8.739660850559697325e-01 1.038207332727950671e+01
-8.514057798150162171e+00 -4.144882395276248133e+00 1.556465106333133264e+01
-8.283095546409127152e+00 -4.523982519766972743e+00 1.317985573574557634e+01
-2.294649693196898710e+00 2.836076611901448885e+00 1.443659190172056128e+01
-8.187285333142991561e+00 4.878822925464116889e-01 1.478226348466201046e+01
-5.066351802127558202e+00 3.305880952637996195e+00 9.490644304130583464e+00
-3.307114280807669449e+00 -5.860008985280418692e+00 1.406845740154566471e+01
-8.105667044578027003e+00 5.193306894231644044e-01 1.492070218830191664e+01
-4.170187450592941047e+00 -1.365663091095630222e+00 1.211165766310796243e+01
-1.199834986622417832e+00 1.278267218025897822e+00 1.329998569718424051e+01
1.356241648019940182e-01 -1.913291426851358779e+00 1.451095510240147490e+01
-1.418719701459760341e+00 -5.629668740089337486e-01 1.617538619578260750e+01
-5.924275438743114464e+00 -6.199615572207614278e+00 1.420597213310750817e+01
-4.765670476114624243e+00 -3.403906415901774452e+00 1.308045401552792697e+01
-8.926908808584645527e+00 -1.041363202107409069e+00 1.367415813247934864e+01
-6.425830933659268496e+00 -6.291255643134324060e+00 1.540046010227278117e+01
-7.282531554552701403e-01 -1.348296397571459693e+00 1.568354829830494168e+01
-6.146859767936406982e+00 -3.263519585008208601e+00 1.319193921362367661e+01
-7.309392909581442055e+00 -1.004659863691120814e-02 1.654907722459451236e+01
-3.977613453230252727e+00 -5.510234937958722323e-01 1.149026209144639665e+01
-8.290480653917003950e-01 -1.543824497902452686e+00 1.569483355791140156e+01
-3.075330316097318661e+00 -1.333601353848609339e+00 1.656916429340186170e+01
-2.996946710868084729e+00 2.612834976005585119e+00 1.695808729229871403e+01
-1.557750876675720875e+00 -4.422993717729085894e+00 1.500703509394851665e+01
-7.925991487054156792e+00 2.711493759967927297e-01 1.546923483071762462e+01
-5.609352956930763190e-01 -4.174063663861586337e-01 1.224069447975393388e+01
-3.887170980834118161e-01 -4.260778507955304550e-01 1.235905117112614704e+01
-8.513277126365469627e+00 -5.764315882567045968e+00 1.393032325550971251e+01
-4.837447162714489934e+00 -1.745916580243467298e+00 1.684354730211591544e+01
-6.934455218232317364e+00 -4.994125188162998441e+00 1.332828272842233019e+01
-6.813558511777660698e+00 6.677486405631916089e-01 1.130581890390591582e+01
-7.833133518450079436e+00 1.120920883962515102e+00 1.493218974120519960e+01
-8.272777988892521250e+00 -2.729417654769163981e+00 1.286286797866863196e+01
-5.134020315799980416e+00 -4.000062822370617610e+00 1.323075461104225070e+01
-3.435053986285148131e-01 -5.980092555256711906e-01 1.239858154564637260e+01
-1.406210079414643044e+00 2.015501930333891245e+00 1.628331635091372220e+01
-3.426689658633644164e+00 1.934969707049348342e+00 9.850758287193677631e+00
-9.136136430472323156e+00 -1.605715126166700424e+00 1.301686406645367811e+01
-4.183162439261188581e+00 -9.440499914139537374e-01 1.691730624313964881e+01
-6.698929904751894426e+00 2.944236573564788628e+00 1.374332348685264549e+01
-4.413278592598039118e+00 -2.004836569447068229e+00 1.670873405577810189e+01
-3.266494986349593344e+00 2.277697773580841911e+00 9.740570462713364464e+00
-4.405296973850931330e+00 -7.718851095307149857e-01 1.698250739006856236e+01
-7.593762064685821045e+00 -1.951290749133488767e+00 1.655735148917774779e+01
-3.540328151222760233e-02 -1.626493512128805774e+00 1.331677575188622598e+01
-1.791688570341317899e+00 2.680816039111281746e-01 1.091731082819745779e+01
-3.432427894463687235e+00 -1.996768749174318236e+00 1.652838104485449833e+01
-6.232502840761215523e+00 -2.986107370068420863e+00 1.670967020858151386e+01
-2.695432463160069680e+00 -4.727661145496258932e+00 1.526663341581476629e+01
-8.075778704168287803e+00 -2.991139688535035646e+00 1.642224058481915705e+01
-7.450130279980893278e+00 -4.138265302316807670e+00 1.616155786771208369e+01
-7.167205428861672445e+00 2.286731424836403903e+00 1.133583739676200253e+01
-7.479724909276685096e+00 2.159999461999796644e+00 1.214498410298298126e+01
-7.083085706425439554e+00 2.093545216552417543e+00 1.122996934207665021e+01
-6.575935419710523533e+00 -1.095835591513361074e+00 1.205463928540572738e+01
-6.747810096269368785e+00 1.906133071692695413e+00 1.079755994955889520e+01
-8.144500315226563814e+00 -6.317693453215156296e+00 1.441701547779684489e+01
-1.287745435214132428e+00 6.983554821258287637e-01 1.141650638892636493e+01
-3.615415981319699767e+00 3.328528545501852953e+00 1.548310193991864736e+01
-3.792645917012514190e+00 8.800121746947723311e-01 1.033242601328139187e+01
-7.829178270385728666e+00 -1.534464824932972649e+00 1.639921288549407308e+01
-5.114216723304931822e-01 -3.688557501403114003e+00 1.217509902697644009e+01
-2.249836982644511263e+00 2.599951233411470497e+00 1.670066566423765408e+01
-7.217608682620996419e+00 7.067964123554285050e-02 1.661432783616435671e+01
-4.124626628623384583e-02 -4.300457354776139773e+00 1.407459509412316834e+01
-8.581642022286334992e+00 -3.806176604919350726e-01 1.407175128274412401e+01
-4.709257206024011211e+00 -5.305295090146631587e+00 1.331152195403263505e+01
-8.141996586498835953e+00 -4.660091507322947635e+00 1.319834569175348804e+01
-7.128884038514565091e+00 -4.165299884096409500e+00 1.307475019228314039e+01
-4.408617322306363384e+00 -1.570952732386509565e+00 1.681416025877665277e+01
-3.303966989338963600e+00 -5.537158712354668388e+00 1.364500870196270910e+01
-2.002481641460853723e-01 -6.343938941084285021e-01 1.219414444769697070e+01
-7.501057212349474312e+00 6.564509921725133479e-01 1.609543230980116846e+01
-4.971355515303545580e+00 -8.083385917196068693e-01 1.171653913571184091e+01
-8.912860448005533343e+00 -4.285788684730789555e+00 1.457138130826643874e+01
-4.409735143551403169e+00 3.505911774046735374e+00 1.686446390533517814e+01
-6.117091574477884208e+00 3.173177899210636532e+00 1.651254687862410719e+01
-8.950844856681017703e+00 -1.449642543825497620e+00 1.543448505923637271e+01
-3.312238103238254183e+00 -3.079048280874584265e+00 1.611762783885276207e+01
-8.753440306090110923e+00 -4.642820682993492376e+00 1.475601440279559995e+01
-5.232016103329112156e+00 2.106614888333104396e+00 1.004390995792568475e+01
-5.206743682825128339e+00 -3.866634902002589746e-01 1.135090890190786439e+01
-7.301239991176160515e+00 1.053491100445917761e+00 1.155551362311751973e+01
-4.678267492186257037e+00 -6.129820337995040447e+00 1.411087662070070081e+01
-4.348807160435931074e+00 -5.371156819302163044e+00 1.339713604602591346e+01
-8.855147691797680132e-01 -3.530146564273346499e+00 1.510344861761199553e+01
-6.818112334267464547e+00 -3.355567230369501885e+00 1.297286867805989630e+01
-6.960496465424228063e+00 -3.186684699078814020e+00 1.286349084401614107e+01
-2.044660911440798756e+00 2.057509032045353514e+00 1.138777980420261571e+01
-6.914167902589019477e+00 -3.032529085033007554e+00 1.284031018086291454e+01
-6.156250029725818251e+00 -5.435738324088619677e+00 1.339670957810687213e+01
-3.177453834568634505e+00 -3.589614407457915490e+00 1.270371467889244599e+01
-7.021667538806129372e+00 -3.568315024355301901e+00 1.648819095347938202e+01
-5.599500842434755654e+00 3.444314676151122967e+00 1.673726429402552895e+01
-5.593875593201328655e+00 3.230581410135132892e+00 1.686842174162782726e+01
-4.236985385998561782e+00 9.020345995499272629e-01 1.035579530594977626e+01
-4.139378294594822094e+00 3.156629224852573579e+00 1.085556747290845436e+01
-2.373938912320869843e-01 -2.947478613650832635e+00 1.489212065152076292e+01
-7.821461834950267367e-01 -1.590830841190421951e+00 1.178583950298369842e+01
-4.465493687836731951e+00 3.217330566808052517e+00 9.878053235859120207e+00
-1.341737988488053368e+00 -3.573782562430732668e+00 1.217784523322294632e+01
-5.906649827918291962e+00 3.366359206683777749e+00 1.413880750956349175e+01
-9.233524884019923107e+00 -3.355996190272186652e+00 1.378138006273263727e+01
-7.406866222116960330e+00 2.249150276846642704e+00 1.255035442200469475e+01
-4.577585906989686038e+00 -4.255149846755135634e+00 1.310794707330029496e+01
-8.215761085969720767e+00 -2.335996874989644534e-01 1.279094081000165062e+01
-6.330881790271337906e+00 -6.501138297229218210e+00 1.459243262702728572e+01
-5.466898257843984865e+00 2.263538859176672524e+00 1.002638390477098085e+01
-5.005715851723578913e-01 -1.196604360933774869e+00 1.213895706089875404e+01
6.269290195625543127e-02 -3.323169881547003435e-01 1.476405927970018439e+01
-3.661068735256696627e+00 2.750622390325760946e+00 9.452792674356615521e+00
-3.580053454814256408e+00 -3.623764011801213214e-01 1.129444664990961655e+01
-7.905293183405415647e+00 -6.301608216778701532e+00 1.485897895032027094e+01
-5.580955421566638819e+00 -3.645336305141318456e-01 1.137590469246578095e+01
8.450603799075340206e-02 -9.088211231838685400e-01 1.476649360659678223e+01
-6.661103666743143137e+00 -6.302517938135147268e+00 1.539209011834302743e+01
-4.114141485959512679e+00 -6.278080302405409263e+00 1.430212311951052584e+01
-4.131060921199829039e+00 -2.272981752815196543e+00 1.260082889988596122e+01
-3.773331978925140717e+00 -1.984962054624234362e+00 1.238827548836469816e+01
-3.546025806701509797e+00 -2.139503786538565322e+00 1.239822220403005559e+01
-7.740971675438753863e+00 -4.841560537977217749e+00 1.320988885433411042e+01
-4.713334739741473101e+00 -6.559110843792301360e+00 1.491958363192723169e+01
-4.464383442019100201e+00 -4.722496348340064820e+00 1.581823396725966546e+01
-1.849248594229877529e+00 -4.719106974585339564e+00 1.497568418186225614e+01
-5.316642852177744238e-02 -2.176143003547275967e+00 1.285756777917389826e+01
-8.670803117862305953e+00 -5.596188570698352294e+00 1.404961576457785810e+01
-3.784168384588164624e+00 -2.203177463571380557e+00 1.248762064839990416e+01
-1.239282181641411018e+00 -1.148468214203581583e+00 1.141306200460205389e+01
-4.117671761684704279e+00 -6.479045123234125292e+00 1.485742186645869367e+01
-2.102269982279606708e+00 1.631930905326269388e+00 1.043461635863087622e+01
-6.670907618035029074e+00 -5.506588937122717020e+00 1.580135924922250723e+01
-3.334199926810013981e+00 -3.435120754400789345e+00 1.271831592382773835e+01
-7.460965922432139408e+00 -7.679958204758635665e-01 1.213640319148371560e+01
-4.114379523393196791e+00 -3.056027478492920224e+00 1.284836052514101112e+01
-3.935641549107478987e+00 -2.806832827391627205e+00 1.273750004419765247e+01
-1.872841413743373540e+00 -5.568090633787331711e+00 1.372836140575767416e+01
-3.754539487526169061e+00 -2.997997989828317777e+00 1.273964770190632123e+01
-7.433639800595795322e+00 -6.101874038814466772e+00 1.536401419877282137e+01
-3.196571600096190569e+00 -9.911128178843551240e-01 1.162063906198415708e+01
1.679088697416486475e-01 -1.089292507311479863e+00 1.455753725027135914e+01
-2.997878902220253217e+00 3.195959424488840739e+00 1.566100920463491519e+01
-3.071786383889627992e+00 3.153333708282192838e+00 1.503605937682143434e+01
-6.819519124516595809e+00 2.080747801390083751e+00 1.630550011932491827e+01
-5.600090029802045066e+00 3.487107265841287607e+00 1.632696557275355076e+01
-5.613412921306760950e+00 2.843706927924438688e+00 1.699408415454887233e+01
-8.642335071637563537e-02 -1.279920354272867655e+00 1.336391529770578757e+01
-7.124566796066018171e+00 1.080114139015064589e+00 1.136110214753680481e+01
-6.258228163726943905e+00 -5.505242868641024856e+00 1.578563131623369031e+01
-4.432461651195130692e+00 2.312618013182199839e+00 9.625501387748450099e+00
-3.581966366884751451e+00 -2.842493269739926554e+00 1.629275991411452651e+01
-6.800059945276757389e+00 2.866781142775641555e+00 1.418132704768662933e+01
-3.049714034866134682e+00 2.170989476257163986e+00 9.853605476062867297e+00
-8.565980182439593804e+00 -5.265650521476233692e+00 1.474353707416898374e+01
-6.065507433024469819e+00 -5.543614490807639683e+00 1.574679321258444276e+01
-6.987670765657105321e+00 2.654262918738403698e+00 1.512324441736780045e+01
-5.880361332913009775e+00 -6.543655461875821366e+00 1.519595648716187242e+01
-8.075587355476422147e+00 3.354555940812524173e-01 1.508884622229945194e+01
-6.158335270360561609e+00 1.816492931130324617e+00 1.702391616749481784e+01
-7.779994787264504552e+00 -3.150500345771604316e+00 1.279712324223881836e+01
-6.452566386757109029e+00 -5.337553476830679600e+00 1.586724468358931972e+01
-4.988435288864367934e+00 -1.009935495056198285e+00 1.701740256620937686e+01
-3.152055827699976831e+00 -4.657612773544160589e+00 1.294133510525167452e+01
-6.164468446801253165e+00 2.870901562206015001e+00 1.668050414684384464e+01
-9.632564265697238781e-01 -1.003462319286025473e+00 1.156845700391832565e+01
-3.757184954027961599e+00 -2.601805027263019099e+00 1.262699684084935825e+01
-3.580900346783592259e+00 -1.324787985135721935e-01 1.111939511499882371e+01
-6.677417176971987445e+00 2.900352842465867553e+00 1.596777019607724668e+01
-7.370990321431637682e+00 5.808864620029943748e-02 1.189574646950089232e+01
-6.565973385941521911e+00 2.463958146152924300e+00 1.645615667795265580e+01
-6.434530630971416088e+00 2.884298063138863277e+00 1.639936168988097620e+01
-1.980509217985305881e+00 2.437773575094026590e+00 1.658596468817093239e+01
-5.110808274695608944e+00 3.421788291958167250e+00 1.350867295212530195e+01
-5.191355124572510249e+00 7.875359596628660475e-01 1.071090971980266460e+01
-5.491867806315712031e+00 -6.626115321010922266e+00 1.505565879955697994e+01
1.326439537275301284e-01 -1.873899993467420089e+00 1.394903628547536556e+01
-7.046364364660876234e+00 2.526903152651149398e+00 1.535625709087284463e+01
-3.553729023332979686e+00 1.399433260524748146e+00 1.706721613148741312e+01
-6.594256646225897356e+00 -4.184149376575390988e+00 1.328928513335272044e+01
-6.614014185491802422e+00 2.651906935301108881e+00 1.630423686418791362e+01
-8.997714745416557136e+00 -2.098331614808589762e+00 1.601377545926446544e+01
-5.233724360205361137e+00 3.134437641812183983e+00 9.474368068298744561e+00
-7.914045880679937639e+00 -5.846153584324844665e+00 1.386690993273158057e+01
-9.173727980041327612e+00 -3.932459782184484887e+00 1.472736701412716798e+01
-5.959562709047297346e+00 -5.763978857319872695e+00 1.364936798290111852e+01
-3.009206662100079921e+00 -2.354374518130831540e+00 1.627010764722245284e+01
-8.977160018690906185e+00 -1.723837395083133384e+00 1.598714778023416017e+01
-9.078936924311069134e+00 -1.904209843205174835e+00 1.579996500939414972e+01
-4.536850012818722355e+00 -1.964589295621625098e+00 1.254236960513055266e+01
-6.378258108621270850e+00 -1.573642937210190995e+00 1.237899946143458152e+01
-6.355295760201697064e+00 -1.329001614626900585e+00 1.221954811039088185e+01
-2.554306943648382955e+00 2.741206866162635869e+00 1.221547055166180229e+01
-4.803041169218422723e+00 -5.171596549338910442e+00 1.322388957871363147e+01
-7.965232951691136876e+00 -5.249433836085613869e+00 1.344513711309178206e+01
-3.398516055409812608e+00 -3.600344653343859336e-01 1.125828597734739134e+01
-9.135427508575350686e+00 -3.261198756995560721e+00 1.561754568382446706e+01
-5.600222070788294815e+00 3.246190407859346649e+00 9.740284714589201087e+00
-2.000516434749707528e+00 -5.376527249996654767e+00 1.475195939859518290e+01
-1.013279665473896696e+00 -5.751744397813101095e+00 1.430662423518271709e+01
-1.588335680624679780e+00 -3.386136877375960363e-01 1.112084232873921508e+01
-3.817455031154975753e+00 1.213998800892071905e+00 1.711388250623937779e+01
-7.244844746122403478e+00 1.903679291871222867e+00 1.553197339816961886e+01
-9.402536634059013299e-01 -5.266631418892642635e+00 1.321467840685925665e+01
-1.295275971067648690e+00 -5.712175535529286030e+00 1.441088621761632282e+01
-2.932827065279058232e+00 -5.208654817351187738e+00 1.334243186590004626e+01
-1.182176913478231173e+00 -1.563231022864460806e+00 1.152431433591331000e+01
-3.215424303210718371e+00 1.898370141088501439e+00 9.926159396113355626e+00
-5.046500893589445980e+00 3.472461493594277471e+00 1.511528374364329608e+01
-3.107552053725033403e+00 -3.935797525337766167e+00 1.572206738672909410e+01
-8.857100078289734668e+00 -4.043894812381332748e+00 1.533023630605588039e+01
-7.248411892871532203e+00 -5.893198644240883688e+00 1.555794891393349388e+01
-8.577934997384756954e+00 -4.636854148864848923e+00 1.510586926907866712e+01
-6.950966518999306842e+00 -4.774543993129223729e+00 1.329303199634578903e+01
1.786800648578019679e-01 -3.975542633890424504e+00 1.358735407878496915e+01
-4.778476297188804622e+00 3.468663220664886637e+00 1.687626288029686350e+01
-6.717321340510945760e+00 -4.811964629706065644e+00 1.335539003953704906e+01
-2.197299442469202724e+00 1.238879365283079403e+00 1.047526882319036901e+01
-6.576080367355379153e-01 -3.892520799177583868e+00 1.483758897392225862e+01
-3.481419882934884580e+00 -3.141556644074904980e+00 1.615026324141970804e+01
-7.996981975740311555e+00 1.040970716816102870e+00 1.373527590548376054e+01
-2.246955323296830898e+00 4.213184616152509943e-01 1.657851325057394831e+01
-2.375572166533561624e+00 1.249922279102644307e+00 1.040049039768364025e+01
-7.337579621043596845e+00 1.397402543364827165e+00 1.582339614075291223e+01
-5.148493009201825288e+00 -5.447678558652469860e+00 1.339427034529495586e+01
-5.201782396763252159e+00 -2.153686809024769389e+00 1.681138460356248743e+01
-7.875668206243616964e+00 -5.611356310440692496e+00 1.368191545740781834e+01
-7.900246157715157480e+00 -3.351403724070882717e-01 1.590850039424322659e+01
-1.958990306456536379e+00 2.738710860177385520e+00 1.578832068727169968e+01
-7.492469932249960607e+00 1.730020237229971336e+00 1.494340054299474474e+01
-5.270785264161542472e+00 -3.367653978658168512e+00 1.643199312727264783e+01
-1.102224900022920728e+00 -1.439490377867008952e+00 1.153148206989045121e+01
-5.892488214737982233e+00 -6.157594751394311672e+00 1.543248690802446532e+01
-3.034748878710746389e+00 -6.140341059031667603e-01 1.672415127745443897e+01
-2.974192590825435190e+00 -9.588383355216144599e-01 1.662226151231828908e+01
-2.575980953092203762e+00 -2.346930738581034070e+00 1.608429437924571914e+01
-8.930285057482210576e+00 -2.464184626782582654e+00 1.609718089332919533e+01
-5.839396815213675040e+00 -3.376741599191793064e+00 1.654105124818008932e+01
-3.365246711052205519e+00 -3.221509079514160767e+00 1.608141639759156760e+01
-8.909935417392329526e+00 -1.912136296145822589e+00 1.275229473969233140e+01
-7.426768634672919589e+00 -3.547497210356873154e+00 1.636972914557199488e+01
-2.414952283772492603e+00 -2.165809940051212912e-01 1.098137731209040879e+01
-2.258755728788727435e+00 2.732882890719333879e+00 1.670197686248980062e+01
-9.228827027834193286e-01 -5.320382625934986898e+00 1.443228191676247718e+01
-7.182348738395546661e+00 -9.666033267792379924e-01 1.674146803012822460e+01
-3.606186962556428011e-01 6.554044155596978616e-01 1.549036424264998857e+01
-1.745329223549066722e+00 -4.016735054312172259e+00 1.245682726680284702e+01
-4.578170656816608286e+00 3.370393279977569101e+00 1.701160456736134563e+01
-5.203205746655427788e+00 3.521824908528533804e+00 1.614732713545473786e+01
-2.582199030454331190e+00 -3.647467808555086677e+00 1.250393491653048983e+01
-6.046343735978794598e+00 1.225041330317748089e+00 1.714863912218581987e+01
-1.754242711955073863e+00 2.103559507295345909e+00 1.335691254621239210e+01
-1.557896139053223550e+00 -5.534851560847761753e+00 1.355566906216457568e+01
-5.138111156987891448e+00 -5.847608928283206886e+00 1.377678742338311935e+01
-4.007601170281760439e+00 2.995630453390016434e+00 1.711416155168002717e+01
-5.573108748256489164e+00 1.112839107641450331e+00 1.069861570872715362e+01
-1.187505865264212312e+00 -2.588358148181960416e+00 1.178575278275089744e+01
-8.246467105034710476e-01 6.331593995918014528e-01 1.602531284980226189e+01
-7.283342609809789536e+00 -5.722634932881197400e+00 1.563844258994431158e+01
-6.200941506565557759e+00 -5.616661281287940177e-01 1.711217275724340681e+01
-5.708559177111524718e+00 -5.598508042009789243e+00 1.567039508081361987e+01
-1.304904131155661950e+00 2.004452788572985256e+00 1.534965439275622856e+01
-6.977792542204451109e+00 -1.365973034847628664e+00 1.684997391257907395e+01
-2.854053789231183469e+00 -2.361692478814005014e+00 1.620092703691064884e+01
-5.283045425823623020e+00 -6.395858318067642045e+00 1.453617197827654195e+01
-7.596902386478808111e+00 -7.490766256439836956e-01 1.641941434863241511e+01
-5.171445630280270045e+00 -5.189072980442501759e+00 1.325055529974441981e+01
-8.704078587706865378e+00 -4.856207509457587612e+00 1.472896245465925347e+01
-4.788130273771722401e+00 -2.148013381932975641e+00 1.673609871310566888e+01
-3.601082794355821015e+00 -1.768937492471063466e+00 1.663046955291428475e+01
-3.423099364091516605e+00 -1.579666739022740796e+00 1.662988402101423446e+01
-9.170953841914053939e+00 -2.588495864047566819e+00 1.554673198831472547e+01
-1.934790671594773581e+00 -5.672961619334357941e-01 1.634061503498227097e+01
-3.458950721667794603e+00 -3.740989375896247360e+00 1.592130169642722848e+01
-3.151879207762289248e+00 -2.425544254849985926e+00 1.237262009062929025e+01
-2.239490034556111731e+00 2.208664441320591365e+00 1.668125135866578290e+01
-4.994454500127902818e+00 3.411432509075355668e+00 1.691609458994074799e+01
-5.599287337754375926e+00 -7.156016332275705327e-01 1.165498239565222605e+01
-3.255135860246225477e+00 -6.427962383146503811e-01 1.141417570266919768e+01
-4.475777928018189300e+00 1.931227385589065815e+00 9.868298613427022303e+00
-6.861319258830944179e+00 1.428555006512207459e+00 1.100118112036047080e+01
-2.293017331038893492e-01 -3.427650825029532888e-01 1.539928425652945521e+01
-5.213733889523436638e+00 2.562399975258214724e+00 9.715563217529329165e+00
-4.427272519374165327e+00 2.072418631981951087e+00 9.766457757485383695e+00
-6.944721687595292181e+00 -2.016099557379805507e+00 1.250876845480605937e+01
-8.389382710311608093e+00 -2.807724965683972229e+00 1.294431925213689993e+01
-3.144039928947958806e+00 3.207150172496685769e+00 1.683041659433057191e+01
-1.713177174586826945e+00 -4.034189153012855300e+00 1.520605474706928817e+01
-8.950080939606316122e+00 -4.039140216621142976e+00 1.396183332388364562e+01
-7.679380053821764918e+00 -6.083227023038241477e+00 1.523055837246081978e+01
-7.034638950738287377e+00 -2.922749581219263426e+00 1.669117884286374220e+01
-6.051924679301343701e-01 1.981460958548311724e-02 1.184323397639444408e+01
-4.230858389524945196e+00 3.454459949749133507e+00 1.570424077911714278e+01
-8.292505962294796973e+00 1.557581985561442561e-01 1.470853183948640464e+01
-4.836396758321109823e-01 -2.885216450946074929e+00 1.510699554694865299e+01
-8.862815021831130791e-01 -5.831151562866571325e+00 1.381716522308877160e+01
-6.675035643694188892e+00 1.479230638889581950e+00 1.675531007658523208e+01
-6.934326563738634874e+00 -5.538852455701674060e+00 1.350630111410190892e+01
-4.862747766943099625e-01 -2.318268801872763518e+00 1.527898822202011786e+01
-6.462194263522727411e+00 -4.731430868179389293e+00 1.609479317576843016e+01
-7.671028930755138475e+00 7.164299205281121630e-01 1.567819770081722908e+01
-8.228685558186340288e+00 -3.889038917545295071e+00 1.587699234027699902e+01
-4.257858281537620915e-01 -3.578154278833539648e-01 1.564663466175832696e+01
-7.316840503198614343e+00 -5.627794247809321249e+00 1.361414926848035378e+01
-1.051115892837110266e+00 -3.567407920080920114e+00 1.516574642630229874e+01
-8.204447247460077364e+00 -2.346135342866387141e+00 1.642001470263377882e+01
-7.185505876430722694e+00 1.893138416586221284e+00 1.570606998670903920e+01
-8.426035082932479270e+00 -5.040309205729090358e+00 1.340915343078103206e+01
-4.376345170280121266e+00 -2.829076676233729160e+00 1.284837478041731629e+01
-6.592935745627279687e+00 2.254218520527550673e+00 1.652820456727312859e+01
-2.366541763412799870e+00 -2.425420205033670840e+00 1.198406667950017379e+01
-8.403590960464834225e+00 -2.136781423341856723e+00 1.633238558537296115e+01
-4.232131896465976872e+00 -1.944060234959388289e+00 1.669627579081618762e+01
-1.816035007630356635e-01 -3.664292042368190727e-01 1.385284634957695005e+01
-1.255618248865175257e+00 -5.356230960488848059e-01 1.129538928445025192e+01
-1.060714435805386158e+00 -9.372364223497110514e-01 1.147943736734952580e+01
-3.403699376210822081e+00 2.677049850354037197e+00 9.540471451978689288e+00
-3.409490607753377311e+00 2.038446138917909822e-01 1.696546627196698154e+01
-4.717615153169819608e-01 -5.094014999290059187e+00 1.427540278237346172e+01
3.030235159254179855e-02 -1.622370441093567761e+00 1.233559402540850414e+01
-2.387372222775383968e+00 -3.406028897560350543e+00 1.563386094797852621e+01
-4.963083977457798390e+00 2.585090289260625340e+00 1.718252386602733139e+01
-4.710713446113235392e+00 -6.502718034004475456e+00 1.469836653343720911e+01
-3.194923025836974961e+00 5.576781163477703696e-02 1.689339234099194442e+01
-7.392295420574553688e+00 -7.739351303168663376e-01 1.658650110122741239e+01
3.869585237915607046e-02 -2.500837031193094084e+00 1.464926807347336535e+01
-6.003646501518787204e+00 -3.558881996908514367e+00 1.649259998833119312e+01
-5.743561263854125798e+00 -5.608101791121201662e-01 1.156431044889579596e+01
-1.837290949318984179e+00 2.595647975574466138e+00 1.636470242039293765e+01
-8.248313890184842734e+00 -5.093068289616458078e-01 1.545550379354909865e+01
-4.721973784163134624e+00 -2.980855963223146610e+00 1.297581641420700294e+01
-2.809985496988373299e+00 -1.946569554984803052e-01 1.101082722767579725e+01
-2.898936746330564862e-01 -4.888540257157299784e+00 1.419284390614818392e+01
-2.154526196167409591e+00 -5.212049587919026727e+00 1.331617054140902212e+01
-8.362674056754013208e+00 -1.366458356770669180e+00 1.616687468453493182e+01
-3.178929268506637928e+00 -2.588741123305168479e+00 1.244083081206414931e+01
-8.543844166179539457e+00 -5.936057457514010149e-01 1.307298982467722226e+01
-4.719908435683425552e+00 -3.230640601657883693e+00 1.303583241354309763e+01
-6.404897916048080120e+00 2.068971702945072710e-01 1.136045401563054469e+01
-3.520979474796154474e+00 -2.413529603307786431e+00 1.249935270570180279e+01
-4.948720207883908984e+00 -2.999824453236874966e+00 1.303374568452119320e+01
-3.881199392881429677e+00 -2.446065942284291195e-01 1.124130542433130842e+01
-1.992802205248832115e+00 2.734433176341046767e+00 1.556758277361699783e+01
-3.651459180329426957e+00 3.094428859930224540e+00 9.449917953144648664e+00
-4.478037667636943553e+00 -6.360080522917155754e+00 1.441408760627972185e+01
-7.036547000458730494e+00 6.535799584249631922e-01 1.664867164191004889e+01
-4.953248737059658069e+00 -2.837837128856759428e+00 1.298823555651331674e+01
-6.825383335447590127e+00 1.696964717313401705e+00 1.090013881512271610e+01
-1.782866644689212299e+00 1.187123298994916309e+00 1.645869105413165556e+01
-7.002657423883206889e+00 1.501775810139894141e+00 1.111740031000512374e+01
-7.397069788783653621e+00 1.864411739775280408e+00 1.513677747903832937e+01
-8.048765183088370634e+00 -4.705723686932184791e+00 1.565316000883040459e+01
-2.491315230039492512e+00 -5.868090068187615138e+00 1.428615525584863377e+01
-3.977742958206018198e+00 3.140261790701768696e+00 1.209475035621550632e+01
-4.640755213423035208e+00 1.875224483009799270e+00 9.968208223287625458e+00
-3.475534296453850036e+00 3.006174265621884167e+00 1.004907815452265396e+01
-7.018208205119950804e+00 1.709051521488694991e+00 1.111340526463396117e+01
-2.226715605439012258e+00 -5.564946906946762972e+00 1.474076958742092813e+01
-2.415853122518794471e+00 1.011950212660495119e+00 1.666440691593162882e+01
-1.805947579854009000e+00 -1.389862360587456491e+00 1.609715442668969843e+01
-1.002721840847792034e+00 1.433451779157122408e+00 1.611081156228866007e+01
-5.273798449141114730e+00 3.433975187974894538e+00 1.430672302741351132e+01
-4.721423497318040674e+00 -5.026195080382557911e+00 1.316451041833667546e+01
-5.939651966149197548e+00 -2.155820894852920055e+00 1.279130845088527479e+01
-4.419881458513705397e+00 -1.394889476234685510e+00 1.685599255449370304e+01
-6.501390442238689005e+00 -6.627263674023928353e+00 1.476178655552696029e+01
-4.584524586182229910e+00 2.625795317260656070e+00 1.719815990426388908e+01
-5.771898505804522017e+00 3.294255506582526749e+00 1.152456338093502097e+01
-1.791433741131087221e+00 -3.644350968952218217e+00 1.226355180026943970e+01
-4.601942279440697448e+00 2.256971108720113861e+00 1.723881536117326618e+01
-8.776705951874575362e+00 -3.099685885735731006e+00 1.609067304556222666e+01
-6.666683668499673310e-02 4.835413371278560746e-01 1.484063926980478954e+01
-7.660407449949760306e+00 1.795402037638124115e+00 1.297065438447359043e+01
-8.583953213022292417e+00 -3.716896850770148863e-01 1.387913876843195737e+01
-5.271140996913626253e+00 1.601504625366317436e+00 1.034629171791897306e+01
-5.328736145505587274e+00 -6.273420767008081711e+00 1.432992558307399378e+01
-2.190709187699420024e-01 8.666678527034740176e-01 1.507568863849817120e+01
-1.584778604194932994e+00 7.712812482627059985e-02 1.104247390306836252e+01
-8.079382275478288022e+00 -5.881938261428569348e+00 1.502393862865361029e+01
-7.138566833135881140e+00 2.646224240632140678e-01 1.166768353796907576e+01
-4.631822558556361713e+00 2.307504550660238074e+00 9.688885637826246011e+00
-1.597911454429622680e+00 -2.818839652458158263e+00 1.187130695005507164e+01
-2.647130496987816883e+00 -1.509659642872558383e+00 1.635350029709274366e+01
-3.162980954158966185e+00 3.045817597466434101e+00 1.695351029116243780e+01
-3.696607796109091737e+00 4.028553736915051475e-01 1.704222024077048303e+01
-7.110505227506475734e+00 2.598235156594234319e+00 1.315054281735434216e+01
-2.670716402383454202e+00 -9.688863320953609026e-01 1.136310195981466364e+01
-8.088000715293116372e+00 -2.706521675544540706e+00 1.646353035425561018e+01
-6.718778327297117769e+00 2.167516184421541814e-01 1.696784623948992277e+01
-1.766587999259990660e+00 8.443581134820149492e-01 1.082400380546333452e+01
-2.362544100257868429e+00 -3.409086479854158469e+00 1.232486057836328541e+01
-5.260367013571746853e+00 -6.517070447731326155e+00 1.513099787928841522e+01
-7.538347334493662899e+00 -4.015034229710056302e+00 1.296543575718850150e+01
-6.707412651679462101e+00 -5.209771443969403393e+00 1.338173410361947191e+01
-3.821653784856917646e+00 1.422343932773730169e+00 1.712500934088375004e+01
-5.407584839216845296e+00 -1.659044563073962086e+00 1.246511288843100118e+01
-7.669884371221289410e-01 -4.726225433265132558e+00 1.276461597167026696e+01
-5.801570542987860790e+00 1.832705328545549905e+00 1.713913183509890104e+01
-5.781023936874017721e+00 2.176394497692506924e+00 1.709811182327433698e+01
-7.367111536959232154e+00 -6.168430740984008231e+00 1.409816533700293917e+01
-5.202161074803346885e+00 1.704896686985535981e+00 1.026905953188201437e+01
-1.639628393837476494e+00 1.848529868299946255e+00 1.288925590684174693e+01
-5.925585240307958301e+00 2.420949538453879946e+00 1.700861009666963497e+01
-5.022041857488825478e+00 1.921586534455291373e+00 1.008075947139604267e+01
-2.005421075913049300e+00 -1.748076445229577391e+00 1.605034925783078137e+01
-1.394197694588114267e+00 -3.704828971566743734e-01 1.620004983347940453e+01
-7.880939773836900031e+00 1.114270482086608061e+00 1.471983296644778250e+01
-6.046323621219405808e+00 -6.448666262657763326e+00 1.527605676038365345e+01
-5.665809762471681665e+00 -6.524016473942761962e+00 1.519440822979799322e+01
-4.047069832377292453e-01 1.869891451037816732e-01 1.398276782579785049e+01
-6.908845348623440685e+00 -6.453722555770078806e+00 1.442726145736346410e+01
-9.002664496450890619e-01 -5.651710407053639251e+00 1.360447537988692090e+01
-8.239832670805830261e+00 1.295292068029733346e-01 1.504049142081186830e+01
-1.102630950977457669e+00 1.692370668834398906e+00 1.512219415785398979e+01
-6.519769217406690132e+00 -2.595370134331427714e+00 1.285557799567374815e+01
-4.776716005633133477e+00 3.163033374535067388e+00 9.360815299193191663e+00
-6.192960300149312758e+00 3.115395237374829485e+00 1.132354120293744870e+01
-3.328480077367799161e+00 -4.991052854518462034e+00 1.316368744670052848e+01
-3.568841554842755226e+00 3.043429758508525040e+00 1.207173400611266345e+01
-2.931485678863783306e+00 -4.846175997112723621e+00 1.306791176803407240e+01
-6.680014847662045341e+00 2.704385722829291794e+00 1.616764270518798696e+01
-5.423977724057387206e-01 -3.336002675803681483e-02 1.301606915881284010e+01
-2.735274184803065278e+00 -4.987528296998442912e+00 1.316906754679253311e+01
-8.865464797334162483e+00 -4.212546134012474575e+00 1.351290709228419473e+01
-2.971145902431588937e-01 8.772599211989231538e-01 1.523210414710547411e+01
-6.101274939391792884e+00 -6.552101766709583330e+00 1.470963162419637626e+01
-2.559913223846640662e+00 -4.216912070168693738e+00 1.268290675211773788e+01
-4.254135218039353461e+00 1.668910963336038611e+00 9.939557310368641652e+00
-7.106537529588841551e+00 -4.841698670489240186e+00 1.326493962193659115e+01
-3.649180412888880287e+00 -3.343208700972422065e+00 1.612264894200524168e+01
-3.693135207198000813e+00 -6.052530882142826307e+00 1.501720588000694789e+01
-9.079899101551063278e-01 -4.538864010448481423e+00 1.471891528706571961e+01
-2.522883235449901118e+00 -4.079749388694128953e+00 1.543965195368780741e+01
-3.037232576477644663e+00 -6.135761729207357185e+00 1.473654090820771501e+01
-7.060831626187557220e+00 1.468561521463831898e+00 1.630641377218066168e+01
-6.310732044522701756e+00 2.430247509059934585e-01 1.713793522502313493e+01
-7.027320410567384101e+00 1.252372796258136134e+00 1.646800718665561192e+01
-5.783961017797814463e+00 -1.585884000079991196e-01 1.717930445717064458e+01
-6.303706175414577118e+00 -6.655050380201063653e+00 1.507949057145933835e+01
1.240711785802948164e-01 -1.287001847316630920e+00 1.416015337468353863e+01
-1.560815081046171837e-01 -5.051962902865438920e+00 1.298164644310330829e+01
-2.490908876137939210e+00 -6.338844827138649940e-01 1.116480857257421633e+01
-1.941839044209414666e+00 -4.762162812658996103e+00 1.295234063989546058e+01
-6.705645904069401197e+00 -6.090505752303668530e+00 1.400460271138294388e+01
-6.342074917172944026e+00 -1.785883791605822335e+00 1.251568902172618891e+01
-5.016263286940582766e+00 3.080812863540101643e-01 1.087874466655633654e+01
-2.938792727330413967e+00 -5.514153876180517777e+00 1.368220445729490109e+01
-2.785791423816056156e+00 2.701743545111529698e+00 1.059772677691350395e+01
-2.538076827420930215e+00 -5.097024129430394623e+00 1.324652868670880679e+01
-6.278269333860041712e+00 3.133280687879168802e+00 1.254257066815686272e+01
-7.769348104446057945e+00 -1.189972943400364080e+00 1.240487005620991567e+01
-7.410339716385758280e+00 -2.553437560149016683e+00 1.667254676278585634e+01
-6.219879764774830733e+00 -9.849007756676287917e-01 1.706811381003564065e+01
-8.458772345883902588e+00 -1.058702675651568725e+00 1.589493690818068217e+01
-6.048487246917209958e+00 -4.331145532161106537e+00 1.620828258252564780e+01
-6.591316453754783922e+00 2.462507001684501873e-01 1.703410883532281161e+01
-8.854609303907473361e+00 -3.302059198559068598e+00 1.599825297259193491e+01
-5.363293913950036185e+00 -1.786705839148108765e+00 1.254723953533776637e+01
-4.812897854136661824e-01 -3.516668872474444818e+00 1.487486162428189829e+01
-8.946904849599842890e+00 -3.786438686347753269e+00 1.375761271633941618e+01
-9.031197238056630994e+00 -1.301140576198681842e+00 1.379090215906078498e+01
-5.738004156762137598e+00 -2.818888378674154538e+00 1.308736538498688873e+01
-4.475451200333569801e+00 -4.492538723517028210e+00 1.590201447555849512e+01
-1.351295135733431518e+00 -5.032566909539099242e+00 1.306919209771918844e+01
-6.004839314148812335e+00 3.135047381655978072e+00 1.072486751564996155e+01
-7.055442439608411220e+00 -2.530405966862443456e+00 1.676175484280948069e+01
-6.159797972790132192e+00 -5.875821433867886689e+00 1.376853120412908993e+01
-9.004294371242226092e+00 -1.154821282990671660e+00 1.344652691958625468e+01
-3.795842162072276427e+00 -1.789679067380924637e+00 1.666621515817835331e+01
-1.380564623940806035e+00 -1.163578037708533630e+00 1.137143808894115438e+01
-8.610995856379529911e+00 -1.122452915344142488e+00 1.585185468860382940e+01
-3.716586416050427388e+00 -4.647838682177019898e+00 1.568789848872664550e+01
-3.867270573782288334e+00 -4.709550621615300692e+00 1.570376714027995035e+01
-3.866044145404650578e+00 -4.525062801439784899e+00 1.577129296091461441e+01
-6.867988144728451871e+00 -5.100804108293853112e+00 1.335198168264924590e+01
-3.656495472659781587e+00 -4.312189916597829686e+00 1.579061891587963373e+01
-2.951822525758965643e+00 -6.001097067967975818e+00 1.478147774191555897e+01
-3.310142692962981137e+00 -6.092354543885818430e+00 1.486685301050711416e+01
-7.606759700927602452e+00 -3.533082801316973054e+00 1.629065071164897915e+01
-3.582863405048095640e+00 1.594644698842816011e+00 1.708506136888674121e+01
-1.408690936218776724e+00 1.437690541829172775e+00 1.633063927595756581e+01
-5.391914114056519658e-01 -4.880062456492210821e+00 1.440075468605571984e+01
-3.760677640698607771e+00 3.082974068928725941e+00 1.165150305734116642e+01
-9.256050576720189937e+00 -3.588305863025902376e+00 1.419335118778913341e+01
-7.724219659173425789e-02 -5.102843794254175336e+00 1.378291316741299966e+01
-1.780090697396963906e+00 -3.421285441325057519e+00 1.214794929679943891e+01
-5.655178263347416134e+00 -2.966537168975355243e+00 1.666190640066833595e+01
-2.882939208496085204e+00 -5.913190549233959814e+00 1.427300898126232198e+01
-3.601281066432791000e+00 -2.382240756447647101e+00 1.645918092465296212e+01
-2.662923627763023493e+00 -5.500117588836959115e-01 1.659993120619448348e+01
-5.994510826143962134e+00 3.382605016871667480e+00 1.584298779733332196e+01
-7.751282241984402077e+00 -3.505328277444498042e+00 1.623142877130953110e+01
-8.800151063312496191e+00 -5.238504024523486180e+00 1.389488396156425409e+01
-7.771454854554821878e+00 -1.417938205836907883e+00 1.242651195455962210e+01
-5.204139906729714937e+00 3.497785672843093607e+00 1.673437893355034589e+01
-3.385993821395842929e-01 -2.173078662111844195e-01 1.218767499034039048e+01
-5.452210301952847615e+00 3.172750736665374660e+00 9.540954994129002387e+00
-8.035727621748304017e+00 -5.677599681103911777e+00 1.519939705718344669e+01
-3.542951126726808120e+00 -6.242787745749047268e+00 1.432442371072099263e+01
-1.088655671978989936e+00 1.149501840777114925e+00 1.347628345202380729e+01
-7.235227858051889172e+00 -4.727743178846174565e+00 1.604266065327080781e+01
-2.737736215645954374e+00 -5.204669840164742212e+00 1.334023468283184144e+01
-1.961931593235700655e+00 -1.553809026095061219e+00 1.146397733839086897e+01
-3.321839393685612318e+00 -6.074153548874066111e+00 1.425114412243480189e+01
-3.936583506400694876e+00 -6.449471752664134527e+00 1.482891840699527819e+01
-2.211983087184868246e+00 -1.237171613627418842e-01 1.651374928454970359e+01
-8.853999334774636409e+00 -1.286957960967715975e+00 1.565505144267829962e+01
-5.531605493284409647e+00 -3.817309851460709780e+00 1.328676216733570925e+01
-1.611930413440925802e+00 2.285037357108954836e+00 1.493468780271739860e+01
-8.088174545728854525e+00 -6.067222531178424028e+00 1.486332450139071426e+01
-1.203850307786830998e+00 -2.793756798040709199e+00 1.185310329835975551e+01
-1.200004917524113868e+00 -5.994035795938416733e+00 1.415780304614329310e+01
-1.363866052594890022e+00 1.356137953940507457e-02 1.117908426016234102e+01
-1.366444483647465402e+00 -3.147988660155453644e+00 1.199101749985891274e+01
-7.493407575578906687e+00 -6.175159351157661014e+00 1.411080570230139841e+01
-7.603208875307934100e-01 -5.361650149690284639e-01 1.588586218002302530e+01
-6.548901073149766106e+00 -3.973279912480335518e+00 1.636917370003151717e+01
-9.813463890176693516e-01 4.490620878825946072e-01 1.611635951834109193e+01
-1.243311811506100373e+00 -3.463695663119177315e-01 1.128155000644431283e+01
-5.036152238060061848e+00 -3.352278277981114663e+00 1.638227212242710351e+01
-1.306509017831150476e+00 -5.328227172333306783e+00 1.456796711531292488e+01
-1.801795151607454404e+00 1.818432753677974079e+00 1.649729086901792385e+01
-9.843503917385227897e-01 -1.179493248260701677e+00 1.157124699279498259e+01
-3.132708214267200475e+00 -5.822035843680662737e+00 1.409821713169159096e+01
-4.816373673187039017e+00 6.800362926285955512e-01 1.062706524818074882e+01
-9.195051193171112303e+00 -3.502741440957546359e+00 1.536917628711940864e+01
-5.845051492455612063e+00 3.316513931290604233e+00 1.254792668282514967e+01
-1.227712086451948181e+00 -1.367723112285013309e+00 1.146540332842977961e+01
-5.543583762417438887e-01 -3.934892045411215733e-01 1.180208671152707467e+01
-5.177425563707826583e+00 4.770831607403011043e-01 1.084815720346682610e+01
-1.507175463366421386e-01 -3.015375900666302122e+00 1.229524578309622029e+01
-8.333717075243811667e-01 -9.525098669040431565e-01 1.584031503831049292e+01
-7.610267610900512736e+00 -1.152028608641698870e+00 1.646991650099047177e+01
-7.816745812345013533e+00 -2.637703147827169303e+00 1.269403361306803646e+01
-7.102342492353486136e+00 2.325723136506792521e+00 1.554486434194355837e+01
-7.498960101878816786e+00 9.001682671830398830e-01 1.591312633826791512e+01
