-4.589211801906243338e+00 -4.122693349577490451e+00 1.691393018483173094e+01
-3.508808289195359809e+00 -3.558982798542699721e-01 1.939335724853814824e+01
-5.416490470737192808e+00 -4.424737809500922103e-01 1.477163380764635647e+01
-3.453877217407519407e+00 1.214547474363502744e+00 1.311107538199638256e+01
-3.449874191054455697e+00 1.048993741311125660e+00 1.338485932714968030e+01
-7.201061551725246090e+00 7.487331584567171738e-01 1.563495653045438516e+01
-3.523365566309368369e+00 1.296090472974453567e+00 1.296262739289184296e+01
-6.811160365396759175e+00 -2.439212852316112290e+00 1.584549107361359077e+01
-1.178086530354493622e+00 1.015490979310466724e+00 1.593577951028614237e+01
-1.924727617770475074e+00 -4.316235714490889386e+00 1.890964681362067168e+01
-3.652415501163153611e+00 1.156946222651582312e+00 1.315861099646784638e+01
4.503095121167483006e-02 -2.631834371814253171e+00 1.715948420190546742e+01
-3.614771085939895712e-01 -5.021495473202392645e+00 1.769120676506488010e+01
-3.017520631863388481e+00 -1.849588473819006484e+00 1.659707880974395167e+01
-2.370363489179831085e+00 -7.710292878101574487e-01 1.935014275128091654e+01
-2.535164655699310821e+00 -1.787255822841425701e+00 1.937178768285271602e+01
-2.771450892597279836e+00 -1.679894089972536086e+00 1.939212152371034037e+01
-3.094393474889717943e+00 1.852132673280576736e+00 1.239490641955345396e+01
-7.140462821888622358e+00 1.438413610727323544e+00 1.800591749916700124e+01
-7.108353501722568524e+00 1.589410074309404619e+00 1.798655855312821572e+01
-6.279247684649811312e+00 -5.115676353312290203e+00 1.827287950352243584e+01
-4.417544431032943031e+00 3.036157982945522971e+00 1.885215623923406625e+01
-7.096274581562812322e+00 1.691533093342414640e+00 1.795204229186591149e+01
-4.833302519057088631e+00 3.874855010665315458e+00 1.862219317613586966e+01
-1.186832714519812537e+00 -3.058841732747879405e+00 1.650537552888004100e+01
-2.781566615232249795e+00 -2.759327659726552362e+00 1.934053105084584345e+01
-2.522829961133131516e+00 -2.687754731187752988e+00 1.932713131047865218e+01
-1.474837300763139458e+00 -6.112406488939303717e-01 1.524955219159943809e+01
-1.448696307796283111e+00 -8.212563552663985078e-01 1.539613598668905681e+01
-5.410404313766638218e+00 1.636645713871220931e-01 1.431365168548694911e+01
2.670114556366163239e-01 -2.483872040858875696e+00 1.857385021953188797e+01
-3.178798139262762668e+00 3.284029817896686243e+00 1.896549760007235008e+01
-5.349656514395903173e+00 -4.558099223645562859e+00 1.877027576351303040e+01
-2.400752894724688336e+00 3.086938609671527001e+00 1.903048180200268646e+01
-5.497257096028222989e+00 -4.693446237887124894e+00 1.870831134189149836e+01
-3.586832691133524431e+00 -3.214555936776573475e+00 1.689755709009567752e+01
-3.163840047300727321e+00 -4.062199449315881061e+00 1.703990864636755376e+01
-5.122935591464741201e+00 -5.137774043312631989e+00 1.859036596194714619e+01
-9.087533962231869600e-01 4.821199868889337603e-01 1.416738962923303902e+01
-5.272738191565601973e+00 -4.881140964841479857e+00 1.867174783567775265e+01
-6.433545565586337389e+00 2.709243324476745318e+00 1.652262744183916610e+01
-2.976840744737375921e+00 3.243728728258588934e+00 1.898781478485256358e+01
-2.319883380660446637e+00 1.550433212521091786e+00 1.286068394934656922e+01
-5.843278551432761425e+00 -4.208738725973849348e+00 1.669112810810856828e+01
-2.314640766039167907e+00 1.659740392096792361e+00 1.299872466262197079e+01
-7.222947354852200519e+00 -2.666570862296925970e+00 1.601266136298805165e+01
-6.756415185443390925e+00 -5.043937135693060014e+00 1.726926414465500059e+01
-2.797987906302670247e+00 -2.144364016458589206e-01 1.524932211857434439e+01
-4.949162967462990004e+00 -7.922958829488524479e-01 1.924618802437740683e+01
-1.987059838398119727e-01 -3.869121379661371041e+00 1.683944174441591812e+01
-1.757523480937658533e+00 1.595881834733318794e+00 1.444639007265213948e+01
-3.538724915007476213e-01 -4.422220104342279967e+00 1.714277603301161790e+01
-1.755771781956312783e+00 1.278603415883047489e+00 1.927981311230200490e+01
-1.794196791179363704e+00 2.889634173486566926e+00 1.906109971277109949e+01
-5.158820691086136723e-01 -3.775969862054750492e-01 1.701520535515087929e+01
-3.563727113205221175e-01 -4.039568933040103893e+00 1.692807000643812998e+01
-6.884652199548193519e-01 -4.448660643855182784e+00 1.714832052430670117e+01
-6.916667690618012010e+00 -1.973145346092466390e+00 1.866240764646721217e+01
-6.205159812373561401e+00 -1.411678840118717027e+00 1.527551333099377118e+01
-3.303299593033404147e-01 -3.118004297216124598e+00 1.901884857004958107e+01
-7.024265256729750995e+00 -9.043758489036677339e-01 1.865473623725949537e+01
-6.525326405029627796e-01 -6.309450467834987197e-01 1.519585956559820161e+01
-1.479768140183759906e+00 -1.886604179798626379e+00 1.614202578764200169e+01
-4.067361923744429397e+00 2.785107900041202456e+00 1.468069832441071654e+01
-4.679936290900754692e+00 2.301758032369252582e+00 1.384576312493370764e+01
-1.153612908336634213e+00 -5.166145965603719858e+00 1.778678233940256703e+01
-5.003136307218898349e-01 -3.734362528129834491e+00 1.893656409822213149e+01
-1.595950273255719365e+00 1.052470247579518237e+00 1.931004150920002260e+01
-5.270597739919421265e+00 -6.973621830665406307e-01 1.499169182852865490e+01
-5.519942877130826098e+00 -3.143020192006868441e-01 1.465679435298464384e+01
-5.780987954466818124e+00 -6.720269046818960756e-01 1.485769187944599068e+01
-2.060485958456819588e+00 2.946390051134628596e+00 1.685924650718241580e+01
-2.153507031392838389e+00 -4.671738964136301853e+00 1.717810004299239424e+01
-1.150965080031702392e+00 1.790706713195967970e+00 1.716994115159552692e+01
-4.667089675096454116e-01 -1.515665383108335984e+00 1.525929787542879623e+01
-6.187539528842406433e+00 4.183916302183933733e-01 1.893358957571773615e+01
-6.888512902431948248e+00 2.971297752935659897e+00 1.763370993684845089e+01
-6.367979964094198309e+00 -2.201652076971895244e+00 1.889108499872758884e+01
-6.734890690413394942e+00 -2.366869998346100346e+00 1.871966458525463040e+01
-1.755846404761301827e+00 2.294173830583873031e+00 1.615089657070931750e+01
-5.068503451741166899e+00 3.624696494421521198e+00 1.666997525184076423e+01
-1.017364919637371745e+00 -2.319413728924115681e+00 1.609307027132124901e+01
-2.246569689172663864e+00 -1.973023015405657610e+00 1.934549330123539690e+01
-4.946273439023852525e+00 -5.156662727494667031e+00 1.861284551524886766e+01
-4.431945575194662368e+00 4.511309681409284345e+00 1.814038134774387245e+01
-2.465236617592351021e+00 2.329012546504285464e+00 1.396752179248131043e+01
-2.471334338220018356e+00 5.843644810819275115e-01 1.430639935461406154e+01
-2.675394562569468171e+00 5.147410537501030392e-01 1.438606133983730828e+01
-3.411317743267449298e+00 -1.109099594420704049e+00 1.620711058576121033e+01
-2.322252446641018153e+00 3.089818289213379199e+00 1.654662181615185901e+01
-6.896337329603791311e+00 -4.312888462317071792e+00 1.818748020185963199e+01
-1.622948231236399863e+00 -3.062277561774401136e+00 1.669041241206713622e+01
-4.130560892373171811e+00 1.856736911997319606e+00 1.907378205121326076e+01
-9.880767644413820383e-01 -3.481736090894957503e+00 1.665745613759513688e+01
3.390764827895353939e-01 -3.518097031177831902e+00 1.690760223888839775e+01
-4.483658491375502320e-01 1.562367721402411758e-01 1.770299620960462406e+01
-7.055486119277426305e+00 2.106528681811960180e+00 1.689756694923709901e+01
2.871296587373873832e-01 -2.473209326470398928e+00 1.816677826394336748e+01
-7.228627549951240461e+00 -3.337833259291126176e+00 1.811711120896535832e+01
-4.254864652887571985e+00 7.362779275190967088e-02 1.476730087797674784e+01
-6.455049116395655595e+00 -1.060054257452299753e+00 1.508129917789511509e+01
-6.360050541800337243e+00 -3.787662194683370509e-01 1.895328885500785887e+01
-6.832119486957306087e+00 -4.156545924829122995e+00 1.829142181498806607e+01
-1.366273243251335368e+00 -1.787750030784946542e+00 1.599267189737558326e+01
-5.774795084672394996e-01 5.358922158279144643e-02 1.925966538124226801e+01
-1.068309041442656815e+00 9.184257113954358287e-02 1.416163971295916113e+01
-7.637488041683499596e+00 -5.418519324105841584e-01 1.758401213392286522e+01
-4.441630720402574006e+00 3.489839245783436628e+00 1.615380755304222404e+01
-7.096056412871029728e+00 -3.755553565339986744e+00 1.818083685879642886e+01
-7.386768180133115536e+00 -2.954867715633129777e+00 1.787824455556745207e+01
-7.276796728493148514e+00 -2.207320573648783313e+00 1.828169335238870374e+01
-5.581733637951598936e+00 3.462804502633319181e+00 1.850427426209973802e+01
-7.285810203741898583e+00 -2.512436169627576099e+00 1.821964191553855628e+01
-4.817795187126196588e+00 4.258507302975563569e+00 1.855029016522725627e+01
-3.160369948992941769e+00 2.105196359318982080e-01 1.936633992707217899e+01
-5.074568536379222117e+00 4.542673953683855181e+00 1.831692816597939455e+01
-5.010924786489978189e+00 4.307356885338484709e+00 1.848803252148622889e+01
1.765132480165593210e-01 -3.231901103866013258e+00 1.715503316071854201e+01
-1.166627598228024087e+00 1.262907855081953690e+00 1.928691475381841158e+01
-2.088944454997891054e+00 2.768758114929497971e+00 1.623168497620419615e+01
-1.190100611736613079e+00 6.801543209639532295e-01 1.934394498004974494e+01
-2.584606336914097469e+00 3.587309169088510163e+00 1.747453895501530141e+01
-3.172918200404157840e+00 -2.679320441451479073e+00 1.683665791256204258e+01
-2.721685402906772189e-01 -9.441827717246714657e-02 1.812678192960564516e+01
-5.627317357747545934e+00 2.531057620670542629e+00 1.513791024242584271e+01
-2.720103779326614291e+00 -4.249755886806823035e+00 1.704095052588977310e+01
-2.976526472767389020e+00 -4.301283210488114683e+00 1.705386545730661751e+01
-7.075265247607712915e+00 -4.439237520909370183e+00 1.794503622926336206e+01
-6.542649156275651912e+00 1.850463305918010448e+00 1.848472778162993890e+01
-7.621519701802395019e+00 -1.486694394284924670e+00 1.734697457662555919e+01
-6.135418388626586506e+00 8.735468775734680502e-01 1.414698908067517991e+01
-5.282787997411975134e-01 -1.595290368613764720e+00 1.600458491819621187e+01
-1.416913706798285544e+00 -1.411415198240544511e+00 1.579756282678515689e+01
-5.998244382701156674e+00 -1.690696621258543697e+00 1.543767889536790605e+01
-6.809251832744664945e+00 2.666974429315442929e-01 1.867558837573985997e+01
-6.750584270646683649e+00 4.688162801001038993e-02 1.875980729507244504e+01
-5.510781977681212140e+00 3.423038074106746986e+00 1.665697104223545821e+01
-6.615604865672451318e+00 6.705521434956169813e-01 1.872362416034076560e+01
-6.034858336783798904e+00 3.268242373618480912e+00 1.678326230686257148e+01
-6.751177794475660576e+00 1.421633333189412873e+00 1.843867713862001168e+01
-1.788022339199131006e+00 7.254850768106424486e-01 1.351593523427223076e+01
-3.023828854250777187e+00 1.721456632926063324e-01 1.486683240781446003e+01
-6.976574636985092503e+00 6.561219122828269024e-01 1.843572170392428333e+01
-7.008169284719698133e+00 4.847143758824890014e-01 1.845142097352414723e+01
-9.319397584447494109e-01 2.402186739661002213e-01 1.607560117886689355e+01
-6.186827903659773753e+00 -1.683701847513776606e+00 1.542149610553375894e+01
-6.906056041024820402e+00 4.046235245794285729e-01 1.857545791265213708e+01
-8.441537026777204966e-01 -3.886438401850393354e-01 1.587480803131181872e+01
-6.754637242990098933e+00 -4.968969889901629244e+00 1.799903606363108466e+01
-7.715542256888117123e+00 -3.536981112058765198e-01 1.738186058159275760e+01
6.522325941982315411e-02 -8.041756035990716978e-01 1.557268028773873070e+01
-7.214834420177022700e+00 -2.359834628165482062e+00 1.835307107507802371e+01
-4.752209674100396519e+00 -5.350925343784233235e+00 1.747752484642856885e+01
-4.761349033054610658e+00 -5.419183452033331072e+00 1.757877885043460608e+01
-2.464047919223061878e-01 -2.607212929850192928e+00 1.619805286833234348e+01
-1.559969329801797755e-01 -2.400923030694189109e+00 1.600569133206472472e+01
-5.541112186253136507e+00 -5.031762208887269772e+00 1.718102783159688229e+01
-6.824660183839432293e+00 -8.532241877249404638e-01 1.507267148378923238e+01
-4.350158230297725304e+00 -1.010198769612967951e+00 1.934290545904812220e+01
-3.131752778448002150e+00 -4.112706342738183807e+00 1.907586418534146233e+01
-6.220876998374359479e-01 1.054738470235627723e-02 1.482728040423281968e+01
-7.081142849286914398e+00 2.516982014865681627e+00 1.748755274165420204e+01
-2.618590345546298881e+00 3.624937788513812098e+00 1.899024565313247237e+01
-3.579019469742457993e+00 1.893414048897978263e+00 1.911864386563977902e+01
-2.785482706050301349e+00 3.586791898641399357e+00 1.898724379036839238e+01
-2.341033732525773292e+00 3.566666943236494802e+00 1.808146797676245043e+01
-4.074289364304609862e+00 3.468141065038051529e+00 1.601806117495464221e+01
-7.571375229732988821e+00 4.851382901186958585e-01 1.743479782169530878e+01
-2.395768125983208208e+00 4.527042722692886101e-01 1.933107989438425633e+01
-7.551070214516200529e+00 2.668847247028068859e-01 1.760362834189099956e+01
-5.130310314899379165e+00 -4.564771340819194556e+00 1.879531753452005560e+01
-7.628001688476033770e+00 -3.067567126351465334e-01 1.758478430506919565e+01
-1.290117105593990621e+00 1.394601836289321994e+00 1.598321653806786102e+01
-6.038043120648039164e+00 -1.084933141416329683e+00 1.509728954477364837e+01
-4.586882199608945498e+00 1.055148747839458556e+00 1.915202184232446925e+01
-5.737855535810481911e+00 -1.269290947456197083e+00 1.524205769749093164e+01
-5.813028369379148685e+00 -1.020243936091389969e+00 1.507886907556258294e+01
-2.070051163212762724e-01 -1.635931476137357787e+00 1.574577320118950396e+01
1.424064491556543688e-01 -3.043337601189849639e+00 1.717413801915275329e+01
-6.014318558699115691e+00 3.048371061902788615e+00 1.846064239001406193e+01
-7.349696003844077730e+00 1.276088136793315675e+00 1.765445255962453430e+01
-1.504288923391400967e+00 9.298259378745687975e-01 1.359294964693221530e+01
-3.994125347663756154e-01 -1.587146050186036828e+00 1.570328568604516661e+01
-4.015704830601506403e-01 -1.788806044891681601e+00 1.581855945831609844e+01
-9.115457311279219210e-01 1.119222703842554845e+00 1.924718998802196879e+01
-5.723620998113811531e+00 5.517113394586389274e-01 1.397113044314356856e+01
-7.381333231529747518e-01 1.741686463559536824e+00 1.896354864043101784e+01
-7.398587192865178963e+00 1.345325247779523892e+00 1.666802499326537301e+01
-9.539395543626315588e-01 -4.925997727002635607e+00 1.862224641246351453e+01
-3.642705578034793223e+00 4.079346252007980844e+00 1.711840584899830375e+01
-9.862089345799015527e-01 -3.590226879279728167e-01 1.439695067428179343e+01
-3.096608968923839633e+00 2.400738862912760396e+00 1.389728987900335611e+01
1.026337081659733363e-01 1.165153358062102740e+00 1.842914993445360139e+01
1.302863468312327466e-01 1.092084264286765860e+00 1.843644910681113558e+01
-6.831420907887048699e+00 4.256377317634242319e-01 1.481942350309740064e+01
-3.745820727233483360e+00 -5.463339350659794036e+00 1.862061446206138626e+01
-1.948498744027567176e+00 -2.540588455977570437e+00 1.928616360286909881e+01
-7.880285540312350623e-01 -4.045648975453844720e+00 1.692717378437330566e+01
2.227967280925930993e-01 -3.228189593332200236e+00 1.732420602097519335e+01
-6.453600176245699593e-01 -4.270999291618509552e+00 1.704658758660178464e+01
-5.579823501768412797e-01 -4.193479006484760241e+00 1.700648036120768225e+01
-7.655033950360218498e+00 -7.791715039842133095e-01 1.744107216558329654e+01
-8.022924204711405771e-01 -4.318808291748912787e+00 1.707061288114775621e+01
-7.493650645895865381e+00 -2.941060135740234394e+00 1.746745813985422657e+01
-7.471078898742264052e+00 -2.832120784984651252e+00 1.761505747479110440e+01
-2.066789668145142755e+00 2.600734920577906450e+00 1.582330821827750711e+01
-7.471602094969065355e+00 -3.285795739735185350e+00 1.742588344149288204e+01
-2.627619562639270434e+00 -5.197372792151928600e+00 1.757374628158983754e+01
1.279875383363672792e-01 -3.485453458969765883e+00 1.859999045748378066e+01
-6.162624474814665021e+00 -1.540925466502069963e+00 1.898750806579321804e+01
-7.471993187714820905e+00 -2.711500450934045237e+00 1.766911910110308170e+01
-4.822231589105881788e+00 -4.217288582796250296e+00 1.687970894127494503e+01
-4.773341260830712973e-02 -3.172463984797953440e+00 1.883923616485431651e+01
-5.844875773699422794e+00 2.153134436092594972e-01 1.424372909501107287e+01
-1.318199879894716986e-01 -3.399265037012826340e+00 1.658424414857706708e+01
-1.115935591334794141e+00 -3.866452825529206105e+00 1.685880162105657476e+01
-3.932706914757408523e+00 4.408036064470117310e+00 1.801846682891475737e+01
-4.433244706316969541e+00 3.894762330158766162e+00 1.693479427109053503e+01
-7.609891330579978685e+00 -1.320337983253375258e+00 1.754152036980753948e+01
-7.626659969410991557e+00 -1.525999816659443509e+00 1.715833732396851374e+01
-4.280306809219782682e-01 -1.997711304305628932e+00 1.600607011962354065e+01
-5.946573297271980252e+00 -1.301901645697460808e+00 1.522793424024068187e+01
-6.541067123728510069e+00 2.808530137903193502e+00 1.826206318662991279e+01
-6.391773961550802241e+00 2.273303729479040136e+00 1.846990627245692806e+01
-3.885109603026630332e+00 2.181987589283598261e+00 1.339672716788792783e+01
-9.578213003548102789e-01 -3.239543770643628307e+00 1.652306498609097574e+01
-5.333624895063407756e+00 -1.263833100158493927e+00 1.543732038243507887e+01
-5.513075841901926566e+00 -1.574974758450804480e+00 1.553242743823712502e+01
-4.229102209978991667e+00 3.855780958944452497e+00 1.679830771957649560e+01
-1.327839276260863510e+00 -2.350782564691137999e+00 1.924376678734833135e+01
-1.319462146766661181e-01 -1.830374641380993594e+00 1.718449946447467980e+01
-4.561253537082331277e+00 6.194899416479093812e-02 1.928050994274742536e+01
-7.171490485590248376e+00 -3.502250020990858470e+00 1.641217096554059296e+01
-6.584855033633489008e+00 -4.319384165640674511e-01 1.888023720435069563e+01
-7.757038416210200182e+00 -7.323083859598372714e-02 1.698285239255748635e+01
-9.389288847347084799e-01 -4.886611527119640641e+00 1.749140702080280008e+01
-7.479426814208493646e+00 -3.223683472838377195e+00 1.662972281451171241e+01
-7.430808539993081219e-01 4.946640726320243320e-01 1.928528512237486936e+01
-7.490573157501658308e+00 -2.906889954311479229e+00 1.655469786060802662e+01
-3.143785525819222659e+00 -3.099130988469300352e+00 1.931304915365088348e+01
-2.418076771219568766e+00 -1.397902584496552691e+00 1.629962738577597392e+01
-5.418253602436970517e+00 4.081175966607625050e+00 1.842309339873184015e+01
-7.126372283035435906e+00 -3.383166939573008847e+00 1.634073850273094664e+01
-1.397527472587071884e+00 -3.283549647621406109e+00 1.667029297333237636e+01
-2.624890396214417887e+00 3.891062650703937198e+00 1.829313353375718165e+01
-8.123383062159634793e-01 3.899993121907863181e-03 1.629815628029631469e+01
1.332207740276533658e-01 -3.376077431961951869e-01 1.877505428446712799e+01
-3.784835114142829138e+00 -2.067241706377504595e+00 1.665092106990575260e+01
-6.664009758372384518e-01 -4.049126293391495657e-01 1.647484466082228849e+01
-1.666779800149121860e-01 -4.267862444837805747e+00 1.705803892034091618e+01
-6.414581197226485010e+00 -2.056102376836117518e+00 1.562523323913940843e+01
-3.580031948528238583e+00 -1.765958615082967142e+00 1.655395787460567547e+01
-4.548894347391175152e+00 -3.791893219044278229e+00 1.908242570274213179e+01
-6.136781434799641666e+00 1.242473918328850679e+00 1.437226822705662599e+01
-4.665320150790712717e+00 3.814868659033131326e+00 1.686414231352955895e+01
-7.587904777578372340e+00 -2.479308708771626457e-01 1.640214392947025246e+01
-5.611045298537477244e+00 -1.261828210163934649e+00 1.526707640750646178e+01
-5.266227323020357787e+00 -9.400829628374092195e-01 1.517319320559151308e+01
-5.605466281900302938e+00 -1.604152956295780807e+00 1.549640206403448062e+01
-3.752987782460480037e+00 -2.784979623552119143e+00 1.936629457785229036e+01
-3.958766252102025707e+00 -2.548832026080323665e+00 1.937392006849377069e+01
-1.490431583734189935e+00 2.403160026372693547e+00 1.913322460109707990e+01
-1.775368161057954364e+00 -4.193385807533002385e+00 1.700380715218257777e+01
-1.755206609023981734e+00 -3.068250118333605503e+00 1.674102813755152752e+01
-1.731835527060514801e+00 -2.833500537941120889e+00 1.667367517312957048e+01
-1.598121095633344924e+00 -3.397259260932791403e+00 1.677931378932123962e+01
-1.631138424211165727e+00 -2.102864987102112337e+00 1.635811728285696276e+01
-6.922379839466630713e+00 2.766925043839235876e+00 1.743197041599188069e+01
-9.112258176110227259e-01 1.971861521491475866e+00 1.903831451156876753e+01
-7.459238062062552466e+00 -2.575331293844122627e+00 1.777705736417962257e+01
-2.201063643021931249e+00 -9.529661197304293285e-01 1.585714254145626612e+01
-1.330054171600611346e+00 8.109501468530568857e-01 1.516391189659991667e+01
-2.620950650054747033e+00 -9.255944692377839900e-01 1.598525308662342681e+01
-2.605753369887020554e+00 -7.102840772490179866e-01 1.576128322005297022e+01
1.337011872404911261e-01 -1.920683193113998932e+00 1.804621216169359244e+01
-5.372758898356546631e+00 -4.921244408186314701e+00 1.864438056098166996e+01
-6.158410893693686106e+00 -3.341740954069488456e+00 1.883686789956371044e+01
-1.449254158902510747e+00 -4.983503539565061757e+00 1.754682548254529095e+01
-5.353661797007655210e+00 -3.737552037449031861e+00 1.897241047495714028e+01
-1.885334643014396683e+00 -5.383653711898134020e+00 1.798886362166147634e+01
-1.931875362260846218e+00 -5.419897405756001874e+00 1.809614651270890207e+01
-6.169985451434049750e+00 -3.680983067119368624e+00 1.644431752882212905e+01
-9.575657205568455232e-01 -9.379019343291652433e-01 1.503903759483337055e+01
-2.577819044270776683e+00 -7.920498867459030423e-02 1.498726286871279356e+01
-5.673205777840381714e+00 5.408884751372611266e-02 1.434502203186159974e+01
-6.290681330365656798e+00 -1.107106760582554639e-02 1.451901384668972739e+01
-2.795426124315642635e+00 -2.433905394468582895e+00 1.678040108889734583e+01
-1.780441613176343196e+00 2.930120371606709462e+00 1.785495048647853977e+01
-1.569486860107341952e+00 1.420752538930383668e+00 1.927685718505678736e+01
-3.850730928715381030e+00 -2.192104217362811358e-02 1.505487547526464809e+01
-1.589642252614955176e+00 1.517116111533036493e+00 1.926452551464162255e+01
-2.236352179063528567e+00 -1.119598263392984072e-01 1.493427775934395285e+01
-7.165271409873914976e+00 -3.937829970386742762e+00 1.802389309186098743e+01
-6.619609376549607127e+00 -4.020915943308690288e+00 1.848423116449485448e+01
-3.506198003111363093e+00 -9.997809905314254397e-01 1.940796238182634070e+01
-6.356294965799513363e+00 -5.646509379156361419e-01 1.895279274276754577e+01
-7.541705369949858628e+00 -2.700787913842387145e+00 1.730199922555422987e+01
-1.170247580026229972e+00 -5.317895309277012039e-01 1.933559442062384548e+01
-6.641226435357697966e+00 1.473780322338957616e+00 1.851541413331942820e+01
-1.373619039088234128e+00 -1.626582675368473674e-01 1.935695762147441101e+01
-5.584818100235451332e+00 1.447167446224103760e+00 1.890138697293812342e+01
-1.194789978467584390e+00 3.660704585602897465e-02 1.937036241274703130e+01
-4.296919940547960337e+00 -4.549380198714255918e+00 1.890704086628341329e+01
-2.835894592082290000e+00 7.618058504465459180e-01 1.403168450245911814e+01
-1.732157927707426381e+00 -5.111896000291475950e+00 1.864846989054788295e+01
-2.963318201575999122e+00 -3.897410953205724393e+00 1.702456752639968940e+01
-5.955656261019028896e+00 -3.642019872861452345e+00 1.640883621640394452e+01
-2.936743795417339431e+00 -5.135621388480620553e+00 1.745704265932980448e+01
-7.664695584180511112e+00 -9.019787396057346029e-01 1.697418833936889726e+01
-1.541208042074167839e+00 2.068429022917833038e+00 1.636911598969560444e+01
-7.291399698164474863e+00 -4.098648486016279513e+00 1.767539272116168192e+01
-2.744877772659613413e+00 3.629356389886934764e+00 1.721931712122311708e+01
3.035949229482538536e-01 -3.835159211290642300e+00 1.808652382073288223e+01
-5.517144741801949248e-01 -1.136058509940236716e+00 1.925732083560873420e+01
-5.658229913397484268e+00 -5.663805480569670259e-01 1.480373444986375731e+01
-2.399097879036383496e+00 2.525850301713857604e+00 1.459834074342640164e+01
1.710288820032887513e-01 -4.247414999480983333e+00 1.824867078297411993e+01
-5.159465388034668365e+00 -2.383207800500446449e+00 1.919328398665681235e+01
-1.173669273880256547e+00 2.485273401861423093e+00 1.900533949694844793e+01
6.533154805497654039e-03 -1.548192124934668623e+00 1.895590430174397412e+01
-7.488699564636031702e+00 -3.490033827610371286e+00 1.703301384141335362e+01
-7.614674111069867024e+00 -1.053779849176210481e+00 1.674927373614115922e+01
-1.857183556104035071e+00 -1.627034164922068205e-01 1.494897324649869219e+01
-5.616996959745970130e+00 -2.232073710888796025e+00 1.587947990447304036e+01
-7.192486521703452595e+00 -1.422434220949075345e-01 1.841101202716050622e+01
-1.791747817346778793e-01 -5.112945700055135934e-01 1.904957499297990964e+01
-3.787630067646531540e+00 -5.719229655818043323e-01 1.938450560250604937e+01
-7.491766201411655501e+00 -3.270736466439539303e+00 1.673864042428580845e+01
-5.101801125345055699e-01 3.891886596884365779e-01 1.465574622598387933e+01
-5.424480134641525453e+00 3.300103894198437082e+00 1.633788879134661087e+01
-4.708118076768416316e+00 1.165131428063168384e+00 1.911481519607945856e+01
-1.223214211856756162e+00 -6.143098339389003737e-01 1.521380827057161511e+01
-1.233996928938001947e+00 1.202359852631695425e+00 1.595209692301713389e+01
-1.571684924051454990e+00 -5.243242386124696175e+00 1.850029254820654856e+01
-4.122325104893795000e+00 -3.759768843845337383e+00 1.914614486957063733e+01
-5.935464343201141801e+00 -1.788381554172147059e+00 1.904093162957349605e+01
-1.737502545016579747e+00 -1.128872191500834177e+00 1.931334241003152741e+01
-7.888277540240349328e-01 -3.296840959476586175e+00 1.907173702194087994e+01
-3.240079481038441678e+00 -1.861794121478536734e+00 1.660085287066061355e+01
-5.793328717333593225e+00 -2.700700891273808857e+00 1.597471158298731453e+01
-3.246456568188923253e+00 -1.454698366348699423e+00 1.640766967102767993e+01
-3.180988640472897977e+00 -1.606175456314054895e+00 1.648694646681312648e+01
-3.142984899849436076e+00 -5.261577067164295407e+00 1.755055526447636183e+01
-7.699845038908512684e+00 5.589720188944509172e-01 1.642543876318355345e+01
-7.184679367265062844e+00 -2.980079265907397357e+00 1.613247930898696225e+01
-5.163551566458410846e+00 5.848756880707971506e-01 1.389208924467171968e+01
-4.924184285220279733e+00 -3.550078931996116793e+00 1.907804148615349149e+01
-5.253319141807731185e+00 1.281738158333185940e+00 1.308901741444661937e+01
-2.951432606208328480e+00 -9.176829471534289073e-01 1.938878420296010674e+01
-7.692181055133184842e+00 -7.559297073138884215e-01 1.701844773988301185e+01
-4.768561787704808985e+00 9.976739292215777155e-01 1.310400378914543396e+01
-4.169731531822060688e+00 -5.433295254730556856e+00 1.858224937614449956e+01
-1.884244489560761848e-01 -3.104625541623270979e-01 1.903796386877429470e+01
-4.886844526902394570e+00 7.667024344913155876e-01 1.346613486544482541e+01
-5.634076526098051874e-01 -2.764873944202255185e+00 1.912067046834174633e+01
-4.000472197665293494e-01 -2.701022193440996588e+00 1.909951821231436142e+01
-2.198523099050409435e+00 3.351124592012685532e+00 1.766934212228578716e+01
-4.820916338695548475e+00 3.244124652111129770e+00 1.874013841196665808e+01
-5.219130373182421678e+00 4.428235918020590134e+00 1.817886665431064230e+01
-4.927556425284116415e+00 -5.061706957315209365e+00 1.716648385960499112e+01
-4.548468594108064700e+00 -4.162267196059897145e+00 1.898371339094485322e+01
-5.121894846662443435e+00 -4.832946638166577102e+00 1.701093441256820071e+01
-6.671192130425733779e+00 -1.724798705657351605e-01 1.479590499804520576e+01
-6.877276414395979920e+00 2.529231842751810788e+00 1.800328531302973190e+01
-7.752156578310818169e-01 -3.916430405184213814e+00 1.892710634545454340e+01
4.028401331164594978e-01 -4.019914019705825403e+00 1.731631028680351747e+01
-2.740318529894274935e+00 2.199824409209927278e+00 1.912915596329570533e+01
-6.391994590160442691e+00 -3.646669515520237770e+00 1.645019892957123986e+01
-6.549475127577732536e+00 -1.149369859501290003e+00 1.888358076910149563e+01
1.878647775912368756e-01 -1.928847330194580323e+00 1.872138305956939419e+01
-1.591376207266430365e+00 2.678120396048699448e+00 1.908577789750236420e+01
-4.060431507888443647e+00 3.617754893949747252e+00 1.630032838609423962e+01
-4.469638754429789529e+00 7.503754147938912489e-01 1.359935277502345130e+01
-7.515768843512145025e-01 -9.435856175536203594e-01 1.929278931682996401e+01
-1.630674177131278491e+00 1.834151588783075715e+00 1.922283671040458231e+01
-6.007361260459943786e+00 -5.620552056168458321e+00 1.800828885152813896e+01
-6.754609015255682358e+00 3.233500497161011289e+00 1.773395762427788824e+01
-2.752882777022246152e+00 -2.019182599553960067e+00 1.664926645277440898e+01
-4.928763358641218950e+00 -5.601936240756369756e+00 1.785914083893959869e+01
-3.011125573455538440e+00 -2.976058154709464443e+00 1.690365254534085793e+01
-7.243793346060199312e+00 -3.168847311400975197e+00 1.813853210720183640e+01
-3.166145880136064239e+00 -3.028607127543673450e+00 1.690359906287606506e+01
-7.180807672868889213e+00 2.073412157672295475e+00 1.713448019195995542e+01
-5.594221096206603683e+00 2.268557586540222548e+00 1.875436007060480748e+01
-8.516822372056678248e-01 -2.332569535826691354e+00 1.607940845248785777e+01
-6.968941366388019532e-01 -4.352765966531219277e+00 1.878537774735358923e+01
-7.110362100043374767e-01 7.922195608070030648e-01 1.745662335853616653e+01
-6.052102751645454859e+00 -5.315900257473638923e+00 1.827194852649466483e+01
-4.190766383370863934e+00 -1.660364509272124867e+00 1.647506183633719345e+01
-6.453131887039954329e+00 -2.434558348882070455e-01 1.469405337986046689e+01
-3.763731549464652826e+00 3.466387057007308536e-02 1.937108022123637951e+01
-8.110509092808622089e-01 -3.019269892441973635e+00 1.638807121907443687e+01
-9.707382175113649092e-02 -6.646711160071643310e-01 1.826207115598181119e+01
-6.203394816885981378e+00 5.015633918124537960e-01 1.425331169565857081e+01
-1.612779655089072506e+00 -3.866792824541300799e+00 1.692184112314000899e+01
-6.481129863565583626e+00 -5.459830189491767349e+00 1.773465674058927632e+01
-5.351348470485814524e+00 -4.379138725350061989e+00 1.882403293313101855e+01
-3.338196416327434690e+00 1.788695789562410265e+00 1.231037473678443561e+01
-2.194147081180125802e+00 -4.962222861458490120e-01 1.534248811774275723e+01
-7.014373074005814779e+00 -5.006721505158266083e+00 1.730824502685157640e+01
-2.327759612382639176e+00 -4.686438002859099505e+00 1.884394661896667955e+01
-4.785154908952688579e+00 1.851552400593398540e+00 1.897894159852772233e+01
-5.574436984593095445e+00 2.033949102649631246e+00 1.879950479325562540e+01
-2.961789620694453173e+00 -1.948437232716692780e+00 1.941187069788632513e+01
-6.347179385894441417e+00 -5.040609553417377597e+00 1.725477414842553614e+01
-2.731087951099984146e+00 -2.162311771458173659e+00 1.938594015122957259e+01
-1.329705440636437475e+00 -2.520471307047249532e+00 1.922893929600388319e+01
2.743328586126781987e-01 -2.707387082163241310e+00 1.855620875791005986e+01
-3.379031374892858874e+00 -2.055081916852730561e+00 1.666454813468157781e+01
1.678544394139074303e-01 -2.859464271301266347e+00 1.869145344495398930e+01
-4.781153273980260465e+00 -4.839545041871907038e+00 1.703214225098919954e+01
-3.412682598368525166e+00 -1.252337163325814462e+00 1.629372265712279599e+01
-2.365571437258811471e+00 -9.673585849960051330e-01 1.934990355699234144e+01
-5.422764030793671530e+00 -3.426877967870851638e+00 1.652353049222711334e+01
-6.639999447326744075e+00 -1.218215893321843213e+00 1.518356655040318870e+01
-6.621385200221352463e+00 -3.797898701165148605e+00 1.853075925459421214e+01
-3.258413820133603256e-01 -2.363144391981695236e+00 1.614037737667844041e+01
-8.488700055228237673e-01 1.150517639047318630e+00 1.736964417434120733e+01
-5.815462532207593682e-01 -2.295538758778250976e+00 1.604056859655413447e+01
-6.421254303001850516e+00 -5.787616254476719568e-01 1.481805236496192535e+01
-2.180762959251628441e+00 2.865728159638484485e+00 1.622375639836241490e+01
-4.849418304268463764e+00 6.727848449530148267e-01 1.376923494503624923e+01
-5.399237807001212808e+00 -3.064854525939318730e+00 1.644938053698962577e+01
-5.423346897172621972e+00 -3.279436268378128183e+00 1.648727814467867248e+01
-5.613932784635619733e+00 1.666026029955026910e+00 1.389501122811068612e+01
-5.217483328611577598e+00 1.457385677784599931e+00 1.309899252109894618e+01
-4.725920781307504370e+00 -5.639653514347599206e+00 1.827125438627813381e+01
-4.897875195894998868e+00 1.492774472833290123e+00 1.282302210352254335e+01
-2.984682203891133145e+00 4.157896502999042454e+00 1.827617424874263108e+01
-6.568508871087640699e+00 5.123334183379486539e-01 1.450447772814235137e+01
-3.776590134519695940e+00 -1.566907357444694782e+00 1.941855647991232203e+01
-4.558572339575419186e+00 -5.630842899585699612e+00 1.825734589264309093e+01
1.726440645868874135e-01 -4.575981544323114214e+00 1.802884473649758590e+01
-5.700895042804079993e-02 -4.945865601259202826e+00 1.787071420906207564e+01
3.551714248250099626e-01 -4.561748257169473852e+00 1.735429945181962452e+01
-3.500310188346444917e-02 -2.720553979071154593e+00 1.891103240417314524e+01
-1.777292560729121229e+00 1.344283545799320523e+00 1.411036159562474879e+01
-9.797278106753305460e-01 5.094349758971271624e-01 1.934090066225411064e+01
-1.003459507792701766e+00 1.906340427732511111e+00 1.819123672909028855e+01
-5.964640921752435432e+00 -2.188128909993478644e+00 1.901838361681479839e+01
-6.022901834428670220e+00 2.717584575333772179e+00 1.592739904212376345e+01
-2.166355412439195050e+00 -4.426733322106390922e+00 1.705736681046380099e+01
-4.065929750446503732e+00 2.235070157369424049e+00 1.348164446507456304e+01
-1.879003840240548007e+00 -5.396124320614429593e+00 1.831925029271140559e+01
-1.347516758128102898e+00 -5.285067867591620505e+00 1.826501447300570291e+01
2.991280154110391720e-01 -4.459879384241179245e+00 1.770629890614433677e+01
-1.814837055495477580e+00 1.102188765276918891e+00 1.376748762472034926e+01
-5.759075064284170153e+00 8.802871037446016178e-01 1.373757962229549534e+01
-7.618600199856414790e+00 -2.144667447708092922e+00 1.732135902278789175e+01
-2.882219826519544892e+00 1.790890323684833252e+00 1.259329642771855262e+01
-7.190478797640110109e+00 -2.751867048524426540e+00 1.832388467628461015e+01
-6.078437168010208502e+00 -4.900019236730311256e+00 1.848323148706197472e+01
8.974315989283304651e-02 -6.964338697631604624e-01 1.882737255656536135e+01
-1.739523325750520488e+00 1.790426510518936309e+00 1.483828318202723651e+01
-6.230398726549405630e+00 3.269140953820177664e+00 1.831556048756496224e+01
-2.335817938439991581e-01 -1.540736878488754846e-01 1.508129625710425259e+01
-9.677442679614639554e-01 -7.559553583437554902e-01 1.931734387152824794e+01
-4.280557779964229148e+00 9.624490528964799729e-01 1.323069309175508934e+01
-7.023287495278974113e+00 -4.325075481981234815e-01 1.520439036169707592e+01
-6.445812843660287506e+00 -3.936147966668343545e-01 1.474682714551121521e+01
-2.064433968560785704e-01 9.300914022101713918e-02 1.851423071248059316e+01
-7.752472500016363455e+00 -1.006497121923694560e-01 1.722784797684623825e+01
-6.037896818868421889e+00 -2.464378351151528257e+00 1.897661051925571130e+01
-7.439037218655056627e+00 -5.914241964204121071e-01 1.802739665963700233e+01
-6.025475970986217122e-01 -2.880799352896668886e+00 1.628863856402466936e+01
-3.854714639006603161e+00 3.879740914962777065e+00 1.674956375691577293e+01
-7.544828137706952376e+00 -1.151803764802370456e+00 1.778793153644392433e+01
-7.345717564771701902e+00 -1.005716022415632294e+00 1.580876176348923323e+01
5.417936384656230064e-02 -4.005606608170379168e+00 1.692936361572420267e+01
-4.230044548786473513e+00 7.976010223841121238e-01 1.353303048646386131e+01
-4.089471545415743314e+00 8.863400094991042977e-01 1.342536786728882348e+01
-7.428146219507183456e-01 1.140956029067042410e+00 1.776328925549094251e+01
-3.548334386052443445e+00 -3.816794412976039386e+00 1.698896289684200056e+01
-2.291493784869589323e+00 1.372307705868438754e+00 1.300886890057252643e+01
-7.232825903006185442e+00 -7.716128509256117152e-01 1.841709472936127057e+01
-7.251264028635430847e+00 -5.587709804638947286e-01 1.837132314044412951e+01
-1.121524740132865405e+00 -4.337098799451468700e+00 1.883680108416344368e+01
-9.194660037820631127e-01 -4.508583946639115325e+00 1.876584956277225658e+01
-1.044916438580875351e+00 -4.555551912017080873e+00 1.876496382789753525e+01
-3.422460214795228328e+00 4.061006315901972918e+00 1.886164218333033560e+01
-7.581761898493271090e+00 -1.473963675657843586e+00 1.676399517207604717e+01
-3.836993796033138504e-01 -3.127968302540146350e+00 1.641109725247612161e+01
-1.349925457322994071e-01 -3.140096469128387913e+00 1.643214488270831808e+01
-5.334610438156348167e+00 5.392878220599064409e-01 1.910639740537994768e+01
-7.706607185066950194e+00 -6.930385072481521913e-01 1.732903650999706358e+01
-3.445033809294463012e+00 -8.834032186586575630e-01 1.602533239398266929e+01
-1.585909319568811870e+00 2.207046032795234147e+00 1.657951580289738658e+01
-3.401729821939321496e+00 -9.751522681504467549e-01 1.610831003448000232e+01
-3.653812972549341342e+00 2.896127611110476785e+00 1.483356106454599299e+01
-3.954281767891422383e+00 -5.579697860531842579e+00 1.788479816223430774e+01
-1.840479610268760835e+00 1.858299393135335764e+00 1.460839844473283833e+01
-3.883837009458635414e+00 -5.612104931454322099e+00 1.804657525293340470e+01
-3.107480315594389197e-01 -4.524638199926372395e-01 1.766495039069273432e+01
-2.052517032955661236e+00 -7.398717337080880085e-01 1.555828658683785548e+01
-1.978965536807245407e+00 -9.145684174584718384e-01 1.571496292092929892e+01
-3.835181523152658700e-01 -1.591068515655689630e+00 1.535534846954528732e+01
-6.395264198466848349e+00 -9.702279297200693264e-01 1.893522362061615993e+01
-7.374832701795452472e+00 -1.156843957187577043e+00 1.818422245571847284e+01
-7.381606203943787747e+00 -7.775304040021902008e-01 1.816291911770253265e+01
-2.387377850497613530e+00 1.122845354790255268e+00 1.926711517739847679e+01
-6.426450588728444657e+00 1.409098342237465662e+00 1.865818893791645294e+01
-2.984915962765382513e+00 3.961750465585823111e+00 1.767768987420998528e+01
-9.339309846602801279e-01 -4.714021859983587248e+00 1.869671626691983235e+01
-7.253719385020289678e-01 -4.933286934912286092e+00 1.856433906889826702e+01
-1.403288661793127279e+00 -1.506200234818572126e-02 1.483196343271874795e+01
-4.948851038259990176e+00 2.506720803049783397e-02 1.922528526249111636e+01
-4.265367015726686972e+00 1.166799772255908030e+00 1.297004060613560839e+01
-2.178125063227579261e+00 -3.554804186589999859e-01 1.934753223129958499e+01
-2.718576741713607525e+00 -5.353758151932917819e+00 1.862490540930290805e+01
-7.132829810673053217e+00 1.192730406391791509e-01 1.532138390805713257e+01
-7.554736410867768370e-01 -8.895263332756864205e-03 1.648534982711845132e+01
-1.955316032007414107e+00 3.316941757199280083e+00 1.899747261660420961e+01
-6.185181500562883627e+00 -1.485060621939977010e-01 1.899681580989777174e+01
-1.353304463395703650e+00 2.400617470884745808e-01 1.936849095969909840e+01
-2.662301707593939248e-02 -3.044513627966005220e+00 1.633228307781339694e+01
-1.546703016008729836e+00 -7.107616552062683279e-01 1.533956277173354366e+01
-3.137219694006885273e+00 -7.332651937163869871e-01 1.939307224132761220e+01
-8.330448563371029014e-01 -4.268205305468440791e+00 1.883280142918619404e+01
-1.437174622794023804e-01 -3.905591139767228714e+00 1.872754706264093372e+01
-5.145406685572013750e+00 1.836945747198903689e+00 1.891961203395544899e+01
-2.359832352117032794e+00 -2.818386556846540714e+00 1.682272518279107842e+01
-3.571669154842997962e+00 -1.746143443601042566e+00 1.943247840852657404e+01
-6.028394433171745170e+00 -4.805535525476210879e+00 1.706649748073933281e+01
-3.819311141240374852e+00 -1.369025397762033469e+00 1.635093334832624734e+01
-3.398116973788626094e+00 -2.654545767223138064e+00 1.682016040762878006e+01
-5.426725370734656551e+00 1.285531129236742842e+00 1.329046172165227446e+01
-5.907548764475754943e+00 -5.371768115122491416e+00 1.749403019246453894e+01
-6.350658101406184919e+00 -5.384652501171063754e+00 1.749522294865746019e+01
-1.825310330985882912e+00 -9.659141203553114341e-01 1.568398773762487153e+01
-6.878661004014574587e+00 -2.195408277475632830e-01 1.872945928196110188e+01
-2.441713356657919665e+00 2.824526143082267016e+00 1.543097697456709128e+01
-4.992317535826982677e+00 -2.474941624595564882e+00 1.652314455500762946e+01
-4.153384082317891135e+00 -4.344741473561009926e+00 1.898637051208214288e+01
-4.281092905034883600e+00 -1.125510445666139669e-01 1.501505992174758219e+01
-1.802694536804036574e+00 -5.225068330239041714e+00 1.860253035373981945e+01
-4.987890019858145507e+00 -4.382603627188844442e+00 1.686548041360111583e+01
-1.750044641065775952e+00 -4.977746630333300004e+00 1.870208132591392669e+01
-1.666675375782260771e+00 -5.199922329866856430e+00 1.858382769530458845e+01
-6.707719906645727370e+00 3.371653661823226233e+00 1.791174400948193934e+01
-5.340700036246088800e+00 -7.742620696811217673e-01 1.918069279596454280e+01
-5.551748378342957757e+00 -7.462713806799852190e-01 1.914323069819240786e+01
-3.252361272339340914e+00 6.514508955964287695e-01 1.416582535962711020e+01
-3.848893238513230397e+00 8.725595031544093327e-01 1.355242511770613234e+01
-2.355898040850778141e+00 -5.386482880249004346e+00 1.856435087722520549e+01
-7.871799064168683024e-03 -2.406771642407521394e+00 1.609236170674855160e+01
-2.687161959545603107e+00 -5.424876747520687381e+00 1.857227614976929075e+01
-3.153158129590385439e+00 -5.030535223929009092e+00 1.880599525456353049e+01
2.857998542375351780e-01 -2.612417668423765882e+00 1.631046886695257214e+01
-4.343717749798699401e+00 -2.784786906612660040e+00 1.930249188483296408e+01
-5.402003031282496259e+00 1.475719119417477021e+00 1.893288636971962191e+01
-3.525488207074842784e+00 -3.381478608366290217e+00 1.927552425381066215e+01
-3.341965969605512843e+00 -3.349302471584286955e+00 1.927818330226441290e+01
-6.460251043588990605e+00 -6.698971190802396336e-01 1.487217580559023489e+01
-6.012213055410634333e+00 3.849976751531383634e+00 1.827545597217516260e+01
2.463764364011146180e-01 -1.428401423436541862e+00 1.594298857437869898e+01
1.932331935171965887e-02 -2.839803944387902845e+00 1.629115465082673708e+01
-5.035172884138344962e+00 -1.959697412872158373e-01 1.470479423944496133e+01
-8.615411762369002968e-01 -5.811154306309307405e-01 1.566037697160711062e+01
-5.246818438971434517e+00 -1.317427770847197643e-01 1.459594639723039577e+01
-5.531046527108919975e+00 -5.436462680776607215e+00 1.759537962615754836e+01
-4.128025824265899146e+00 -5.339243790708898540e-01 1.562030482646173013e+01
-5.351132893363285348e+00 -4.851321708805992117e+00 1.703163518331433934e+01
-5.135091128630849155e+00 -4.948038947944590760e+00 1.708303919549747363e+01
-4.952669563155289723e+00 -5.242020525787518537e+00 1.734803790528941292e+01
-6.883940583051011863e+00 2.172030861133118051e+00 1.664663558580624070e+01
-6.972760198123497233e+00 3.985775314902043620e-01 1.503629650484664992e+01
-4.542553993702844295e+00 -2.549822545494676351e+00 1.929674713453906421e+01
-5.546749811281183717e+00 5.197510111115694054e-02 1.912078967129130902e+01
-3.826755575195369907e+00 -1.263056876887023727e-01 1.518638351065230196e+01
-7.591734322382603928e-01 -2.337393700261114482e+00 1.919163957376803253e+01
-3.731453515325146242e+00 -4.750475245682940439e+00 1.890907470206404994e+01
-5.721701925589878002e+00 2.269937886677958261e+00 1.484017615301289439e+01
-6.918466621304591335e+00 -3.721053113985138272e-01 1.872182220729874658e+01
-6.558191301381345539e+00 8.572971603397366858e-02 1.885093314159784583e+01
-3.995555414872319577e+00 -5.244547095824117378e+00 1.737913282339622967e+01
-3.909335150140446746e+00 5.522356456467700792e-01 1.420628474595345025e+01
-2.317915828629012243e+00 -1.909639459857667809e+00 1.935286872121015378e+01
-3.885913559743705559e+00 -5.395690763636910248e+00 1.757963152602107115e+01
-6.247723580385643238e+00 -3.611190097359273654e+00 1.876300849200072562e+01
-4.910858227224812467e+00 2.508296022129682612e+00 1.442004857802709594e+01
-5.208504129930473958e+00 2.000066908989357017e+00 1.370182798304078986e+01
-5.753857611663653060e+00 -4.171045796572228959e+00 1.880925759659821139e+01
-7.100424183244313348e+00 1.791770976368407764e+00 1.661270007335984289e+01
-5.747330993374511365e+00 -1.947050596965330449e+00 1.908432382613701250e+01
-2.955866351508771750e+00 4.002476917712687765e+00 1.785572172664437218e+01
-6.510577382853581341e+00 2.033856237745673479e+00 1.583561180618407960e+01
-4.177404871640389317e+00 5.770484204879413603e-01 1.928867108933480878e+01
-3.492275768978684081e+00 -4.503107411700074891e+00 1.899293709939046337e+01
-3.561508011556445918e+00 -4.157343574574043465e+00 1.908874957350797175e+01
-2.235023047554184572e+00 1.469855887849033538e+00 1.923521392399757346e+01
-5.624666383711908857e+00 3.092370016823291934e+00 1.615987085377942023e+01
-3.721367902067859834e+00 -4.340526785107129193e+00 1.903368900016105769e+01
-1.451755660748460963e+00 -1.069681231109228525e+00 1.556531445832859006e+01
-1.568896452086173898e+00 -2.334771548354130477e+00 1.926673210039033179e+01
-5.763867332364685403e+00 -2.956371343065570478e+00 1.900135792256382317e+01
-5.211251057662522612e+00 8.422474058071909297e-01 1.908164328158933998e+01
-1.328301660719398702e+00 -7.546799707004543389e-01 1.932094528412501333e+01
-7.337720077364887072e-02 -5.417101787555818060e-01 1.529309453382532880e+01
-1.837874680850793974e+00 2.574203866518337325e+00 1.662393079325534373e+01
-3.048017526237312147e+00 9.687054891574220505e-02 1.496972145281996447e+01
-3.034750614880325603e+00 1.460527325907184926e+00 1.921201537146322735e+01
-2.973945102616665892e+00 1.642024972865267163e+00 1.918950055790401521e+01
-1.588804387525311501e+00 2.362641965106794917e+00 1.700459712099017295e+01
-4.065801037584849453e+00 4.585384006517658761e+00 1.847817621925002030e+01
-1.538106603111061954e+00 -3.137747294921520602e+00 1.916943525701136863e+01
-1.147910164187810445e+00 -4.133812427319808691e+00 1.889855323132787035e+01
-5.410162588313562004e+00 2.638779310532701761e+00 1.872824709999467885e+01
-1.974966031416939272e+00 -1.164790604649537986e+00 1.932581213815592847e+01
-1.757206138801571615e+00 -1.343531358100471307e+00 1.931230483161599309e+01
-6.077423037257064564e+00 3.176635076130555291e+00 1.668437772813834030e+01
-3.100662558856404072e+00 5.623328977695474240e-01 1.432142287857091745e+01
-3.009723784147740666e+00 3.779870885480081544e+00 1.709137265375727210e+01
-2.917614078343360173e-01 -3.981822972530280946e+00 1.880332964732109602e+01
-6.061123505902985542e+00 1.664173065326148393e+00 1.874231937714843710e+01
-4.870827571301655112e+00 3.927904841169766126e+00 1.715369155162241199e+01
-8.406294582214537403e-01 -5.313014713346100315e-01 1.512771532526128837e+01
2.732899358212748098e-03 -1.781496619330724673e+00 1.579964731970879299e+01
-4.146013534001442125e+00 -3.170676168199950684e+00 1.926708852228795976e+01
-3.446448593875298450e+00 5.679238706268687764e-01 1.431043567582021936e+01
-2.033145628869090782e+00 3.482889733322428238e+00 1.885878721116249679e+01
-2.940846211830960399e+00 -1.550096849912863783e+00 1.940270322958874871e+01
-3.372759011787040406e-01 -2.121904793146673907e+00 1.914452647216294068e+01
-5.708329302693823770e+00 -5.558040134657105114e+00 1.771907612882513305e+01
-2.752992226551409516e+00 -4.868192787226470308e+00 1.883153386428881859e+01
-3.799061739104141022e+00 3.033943962438496289e+00 1.893549380749830036e+01
-5.440613981853190673e+00 -9.958836443289709184e-01 1.514576356652646538e+01
