-7.463717724224825822e+00 1.167747424039018989e-01 1.524778475515705978e+01
-7.002682916876274533e+00 -4.594820946422197849e+00 1.667128732654069623e+01
-3.194753596427352793e+00 5.133462228323971033e+00 1.702272196930052317e+01
-3.239904936724015805e+00 5.122717710371409439e+00 1.687295314788684308e+01
-2.400332229979571075e+00 -7.440005915010934334e-01 1.594135871319757669e+01
-6.388877158950742263e+00 4.182630014131088814e+00 1.608992633175180131e+01
5.017356777415000746e-01 -2.865783920648789174e+00 1.831439171104742414e+01
-6.839145818943820565e+00 3.190931052360717501e+00 1.634073520378444400e+01
-4.139620992490767648e+00 4.924210245212298886e+00 1.700111200748078133e+01
-6.676715331396351871e+00 -3.199631464876902864e+00 1.454846480630380157e+01
-2.901959910721230163e+00 -6.729202701145751142e-01 1.951574340513144890e+01
-2.822466426761154334e+00 -8.713026064894076050e-01 1.958228500943293326e+01
-2.689579821383033309e+00 -7.133999292964976480e-01 1.960441599601449880e+01
-7.213085399688504928e+00 -2.401461364554282607e+00 1.512094441209650952e+01
2.590824981917152492e-01 -2.059037205931636416e-01 1.623443958615444060e+01
1.259223304996104353e-01 -5.763302383602542101e-01 1.613554525537820794e+01
-5.037896341712157167e+00 -2.711277561455094354e+00 1.474957522406452526e+01
-5.040917815991959650e+00 -2.727770798311988543e+00 1.483544160757051955e+01
-6.677212234759647203e+00 -1.346601294201584254e-01 1.810648582989481170e+01
-5.753623866943549992e+00 -1.695437834842354885e-01 1.283176585615110454e+01
-4.262041178362368399e+00 -9.087867078210214444e-01 1.408785980660755754e+01
-4.622716800159096806e+00 2.239362265920514794e+00 1.342369773427597934e+01
-6.696636156368366066e+00 -7.392876153930634242e-01 1.362246930924178301e+01
-5.660853122915797009e+00 -5.036445945760052112e+00 1.801394099145884908e+01
-1.621306435817308156e+00 2.969596920675938279e+00 1.656651968576668921e+01
-1.032182760520156783e+00 -3.546380019505453784e+00 1.845554323449528411e+01
-4.443379943088428874e+00 -3.932761678126821980e+00 1.944335426818271984e+01
-1.298111987292457137e+00 2.624674593370679876e+00 1.670201771043951666e+01
-5.306748794249100953e+00 3.111252977467924286e-01 1.842250008980029818e+01
-5.167578327873461497e+00 3.928030169172253006e-01 1.844739190068925083e+01
-7.654848980141171211e+00 -4.266856888686539895e-01 1.597565365173456442e+01
-4.079198918147241670e+00 -3.693272936562384867e+00 1.743293780448707864e+01
-7.179392254653537364e+00 1.016680114134428159e+00 1.730950138784615078e+01
-7.072689811818845484e+00 1.124209092308086966e+00 1.739132621711044280e+01
-7.051577632427093789e+00 1.540811526418816246e+00 1.718018544764717959e+01
-6.022081101251841595e+00 3.400080508627469023e+00 1.714751347115404556e+01
-6.184339568516007191e+00 3.381308442271001358e+00 1.704813971116551485e+01
-7.578661485153468824e+00 -1.231016408034187659e+00 1.760823904712670540e+01
-6.246249832983666650e+00 -3.088926784907914946e-01 1.320473705638463358e+01
-6.078115977568547379e+00 4.621103264331976490e+00 1.582798552564510075e+01
-2.455279335759485981e+00 -2.316237726636567018e+00 1.988653537044796948e+01
-6.032074559078704823e+00 -5.024956603565380320e+00 1.836120555356076167e+01
-3.579210150438861149e+00 -3.729981750528914564e+00 1.972157825946465337e+01
-6.550669676346497106e+00 2.190646144354631897e+00 1.487484120779282293e+01
-9.180673126895488867e-02 -3.487439324216944581e+00 1.985844399211545053e+01
-2.966388504354033340e-01 -3.636922764726831847e+00 2.004322461805920952e+01
3.288013935952438516e-01 -1.031842055998080099e+00 1.681988406568307326e+01
-3.529461728420845379e+00 -1.960806852905094377e+00 1.673201790940818157e+01
-1.180103423682262287e+00 2.690417175596084398e+00 1.853946617900570359e+01
-7.508126125327684086e+00 -2.205719684507921663e+00 1.612123493883816039e+01
-6.078591984399840165e+00 -1.533786185553571491e+00 1.859269558215205720e+01
-7.517681244963092979e+00 -2.414507720247145439e+00 1.633410034066605832e+01
-7.552822969847982293e+00 -2.269923401305594890e+00 1.652890907554920474e+01
-4.866471100482145040e+00 -2.908679102107346370e+00 1.658731653515481597e+01
-4.670255064006216372e+00 1.204047877572754999e+00 1.845295629793944769e+01
-2.282643313036707866e+00 -1.976152339953012316e+00 1.724498813057777724e+01
-9.287544104643867815e-01 2.473827800989007120e+00 1.848036646278147188e+01
-1.981230726085783544e+00 2.412754138307718232e+00 1.474904603917383028e+01
-5.701560469383531782e+00 -3.641000289739159346e+00 1.542033207638934655e+01
-6.524548381074840364e+00 7.964313077929814355e-01 1.405201081548986863e+01
-5.482856201681576280e+00 -1.040423120280997704e-01 1.264870030364924602e+01
-4.684638283422805749e+00 -1.801437409682463908e+00 1.466113862218169217e+01
-5.606007354472291482e+00 2.633034772525707279e+00 1.424484946990468259e+01
-7.579696700778731255e+00 -1.848339110626455284e+00 1.778111868406400120e+01
1.944256092690572757e-01 -1.357408902416296748e+00 1.663698126183338744e+01
-4.138487576708257620e+00 3.109808794680342992e+00 1.796536285241384334e+01
-7.612674106945376273e+00 -1.649657825307799808e+00 1.766190327927839476e+01
-3.117853907368059119e+00 -1.254001103498040726e+00 1.619526036315798834e+01
-3.334524943120416585e-01 -6.916094445590598161e-02 1.960233743772984738e+01
-5.318694330061746189e-02 -4.563818831791469632e-01 1.921040370126059216e+01
-4.130070232324184687e+00 -3.022981439339677223e+00 1.709091391433577556e+01
-4.250567906111433203e+00 -4.097642863538224489e-01 1.899161379725563492e+01
-3.910129944368931465e+00 2.134722800464504466e+00 1.842562262658860206e+01
-1.517816897692251255e-01 -2.898160945629129071e-01 1.938013744412536354e+01
-8.157437508224884004e-01 -4.043142009892390476e+00 1.949436529180406907e+01
-5.268192036820463997e+00 -4.528237266404161687e+00 1.714569834342630728e+01
-2.728233436354488894e+00 3.747440590113630510e+00 1.824149802296527767e+01
-5.421272934158515966e+00 3.555473662909653942e+00 1.732371724590161577e+01
-3.806471690878623804e+00 -8.835506757573019510e-01 1.493340956459984525e+01
-1.862921259525150752e+00 -4.224337859072543111e+00 1.953053837594390885e+01
-4.717136920820971469e+00 -1.960305578328373155e+00 1.423913386572460027e+01
-1.563276678911694528e+00 -2.665267689502498483e-02 1.420582995688191019e+01
-5.925309874272939314e-01 1.874218247737726939e+00 1.864913618044125698e+01
-4.304959171126509609e+00 1.725510839818262143e+00 1.842844879003506620e+01
-4.270410691667215097e+00 -4.728149097072909868e+00 1.900373588992183116e+01
-4.256919249246359449e+00 -4.815575322451246976e+00 1.870784883075574001e+01
2.049590527422892050e-01 5.747789954014095315e-01 1.624306427899408689e+01
-6.478918052783209980e+00 3.053558629028985116e+00 1.698323003383692864e+01
-7.185612966756906417e+00 -4.029334804978173423e+00 1.743940035877122696e+01
-4.570989069415541728e+00 -8.657460125957914254e-01 1.899804614965451677e+01
-3.185575646001113537e+00 3.829110627864976024e+00 1.810918910512950575e+01
-7.192781661080357658e+00 -4.237937586189973516e+00 1.682461389940963059e+01
-7.524962832305969407e+00 -2.891377974585314536e+00 1.709836710722013819e+01
-4.391295553968731724e+00 4.954848340547924224e+00 1.687900933518033852e+01
-4.440379606360524534e+00 -2.739148469673546860e+00 1.677053263026544627e+01
-5.919547681990164456e+00 4.893919937601770798e+00 1.602114140981611357e+01
-2.234563543565854626e+00 -1.519940628254488724e+00 1.693805353495845267e+01
-4.289565114338463658e+00 -2.995803875172516895e-01 1.894431027619512875e+01
-7.514812409176323982e+00 -2.524829624660859029e+00 1.791362256659224172e+01
-7.572235348435356173e+00 -2.508427463842151983e+00 1.775363893138089466e+01
-3.416297611666967438e+00 5.521907481488843583e-01 1.176396286819412396e+01
-7.854441192878316436e-01 1.229583780410145932e+00 1.527331023433218959e+01
-5.285062852244706733e+00 -1.892745115505409803e+00 1.891620153938809423e+01
-4.806883385257672003e+00 5.425757278759151703e+00 1.632875412947550231e+01
-1.260163497612255767e+00 -2.120649204372873964e+00 2.041928310784690481e+01
-5.354278021080888905e+00 -4.211743156221443130e+00 1.683289429146040206e+01
-4.129844324818453316e+00 4.359657850615350938e+00 1.738891429225636287e+01
-2.631062218543121389e+00 -1.092138139872976366e+00 1.639480218095172503e+01
-3.183780537642523889e+00 -1.367369448934171450e+00 1.956885761246643440e+01
-1.015879890802337870e+00 -3.216945221316622305e+00 1.821553917215599583e+01
-1.556422635230801932e+00 3.183310310614488436e+00 1.716725096351497015e+01
-2.574160338101052936e+00 -3.190683090532480559e+00 1.785727204590076767e+01
-1.102262267176764787e+00 -9.309021317871242207e-01 1.563536761164381872e+01
-4.948333203303273642e+00 4.083830168817659256e+00 1.720855811685965264e+01
-4.917943559611971160e+00 -6.170093453930967087e-01 1.879031494227360000e+01
-4.935298284693530491e+00 3.945366403337274175e+00 1.729854175505464653e+01
-3.054211831158074819e+00 -4.423767495044616638e+00 1.837427424572674894e+01
3.150695027024457140e-01 2.347219380740945271e-01 1.661084459567358707e+01
-6.311334226911881728e+00 -4.952649147027381460e-01 1.829137197661266256e+01
-7.713452483310162755e+00 -8.334608387252337991e-01 1.656996299261762928e+01
-6.915270539813605843e+00 2.112239698137928778e-01 1.423749240207458300e+01
-5.713713928409815956e+00 3.935543127736238933e+00 1.698259878266668821e+01
-4.883965938178477906e+00 3.480681559719320806e+00 1.753971191217617687e+01
-1.767700800528649419e+00 1.493672068480294213e+00 1.369222482584249789e+01
-5.418432733582796423e+00 4.222202441226539094e+00 1.691753923583003072e+01
-2.289490435154173831e+00 1.886411244848896995e+00 1.928296123151004693e+01
-5.984689776799613448e+00 -4.713726346598633654e+00 1.873590173459351504e+01
-7.606607540910459875e+00 -2.454555105310711749e+00 1.765989358848225166e+01
-3.036826239256939619e+00 2.014902262687219725e+00 1.319126461426862917e+01
-3.411047043918614463e+00 4.786483181461964165e+00 1.624250292061182321e+01
-7.705727421479586781e+00 -4.740834918088261407e-01 1.637505626588596996e+01
-5.003007059820308911e+00 -2.226774790118040137e+00 1.564429055562652948e+01
-7.567425923315001413e+00 1.806746960505143107e-01 1.559932971083098252e+01
-7.237980842091828571e+00 -4.132681044357398026e-01 1.472775212290791913e+01
-2.897313724492583287e+00 3.121357405660428519e+00 1.852909651720556994e+01
-7.619213736986136354e+00 1.638670893108009341e-01 1.580705776065395796e+01
-7.597063632809538447e+00 3.515408597033382598e-01 1.579530140341438127e+01
-2.811142323878552118e-01 -2.121905899038755150e-01 1.535579580331820537e+01
-5.820625160224858874e+00 4.664344559367449294e-01 1.314483564524831039e+01
-2.434369536500882170e+00 -1.656069922702784858e+00 1.696816799424336253e+01
-5.241534975474565705e+00 -3.923741626557956774e+00 1.678623935836953862e+01
-5.111137543198708499e+00 -3.424996899135406725e+00 1.665180868872464615e+01
-1.642406983640046558e+00 2.912543065062547676e+00 1.640308589268948580e+01
-2.948450799238343301e+00 3.977956217331061861e+00 1.807786199840470331e+01
-3.203725214610020355e-02 1.178656464596689268e+00 1.807780102219625817e+01
-7.205836112608874799e+00 -1.856502454134142166e+00 1.494629705031484335e+01
-4.458413886206903598e+00 -9.028968839503979105e-01 1.335722241582414327e+01
-7.442951469171384282e+00 -3.101155556899952703e+00 1.768425145699667311e+01
-4.461186895405638175e+00 4.931781635231271110e+00 1.556841350303165328e+01
-2.392026827361445562e+00 -2.532305327298228104e+00 1.992613118808093375e+01
-1.555396813003010248e+00 2.237313665994369760e+00 1.533217884610042248e+01
-1.971849061772169565e+00 3.916760332227733787e+00 1.791798314285754046e+01
-1.982625909076234372e+00 3.935686895656968609e+00 1.781915311463801643e+01
-5.565575089549452237e+00 -8.275429725011200777e-01 1.859548759399997309e+01
-3.784213792014958777e+00 3.983611470647188568e+00 1.507956566639692753e+01
-1.423666064733354775e+00 2.716160728921125145e+00 1.657055506966327485e+01
-2.824314488641813004e+00 1.301333078768629026e+00 1.250001868016039097e+01
-5.061241466892817620e+00 -9.498737291408618777e-01 1.882436077669628460e+01
-4.428846094920291243e+00 2.859390479222162273e+00 1.379774201886886331e+01
3.559907420517780530e-01 -1.742785761424359148e-01 1.661741886069573937e+01
-4.548260829323451659e+00 -2.762730965447506737e+00 1.671947203590647391e+01
-5.237635067930976440e+00 -3.094718248990832699e+00 1.528673965551741887e+01
-4.629505926748046285e+00 8.864563529961331234e-01 1.237344003917819535e+01
-4.631026811831032042e+00 -2.716987287764166759e+00 1.663251380824748438e+01
-2.139274510550427610e+00 3.041638234348992498e+00 1.866709246593230986e+01
-1.519623227035579172e-01 -7.486691729110646065e-01 1.955454776282613594e+01
-3.954507410475582851e+00 2.536579998797790392e+00 1.824737126503758233e+01
-4.308502629085885438e+00 2.913275021061165759e+00 1.796642332377175322e+01
-7.174166463430393215e+00 2.345043442214029383e+00 1.584943729873130636e+01
-7.089532914180621148e+00 2.349410252481920480e+00 1.567132627840310377e+01
-2.612690376182160268e+00 5.674400181441907609e-01 1.203678736274948236e+01
-3.636335746458995821e+00 5.322919370665568195e+00 1.649431413741143970e+01
-2.538474965931161176e+00 -1.266760077977944432e+00 1.974605342974332345e+01
-5.820994531676420003e+00 2.640363615500420646e+00 1.442268618183791418e+01
4.496844445469174723e-01 -2.479767895520866627e+00 1.885852763981455738e+01
-4.706852085193463431e+00 -2.040485003867547498e+00 1.600536095655610680e+01
-1.061129624044961473e+00 7.345803657100935524e-01 1.974955924492801174e+01
-1.246299993060380196e+00 -1.966405961430764293e+00 1.727506944336675687e+01
-4.822407992113427966e+00 -9.716028026712186794e-02 1.867722639936625129e+01
-1.227890985193857976e+00 -1.312467517761820135e+00 1.642810477836109229e+01
-3.158456706724772634e+00 4.855608272956587257e+00 1.737765683388163396e+01
-4.821014479487273352e-02 -8.227355174744821475e-02 1.903268729821411043e+01
-4.416513525240568505e+00 4.806831176292122976e+00 1.548174732057326608e+01
-1.994833287190999060e-01 1.909154558488830034e-01 1.924214202384844086e+01
-3.581463301727614734e+00 4.987886170809753494e+00 1.626183419030455113e+01
-2.893550717502340497e+00 -1.833624046949945630e+00 1.690294621516846618e+01
-7.047910314213598149e+00 -7.224400465828686446e-01 1.808905925852080188e+01
-4.494573395835024243e+00 -1.412576168580609970e+00 1.408875118490101030e+01
-7.651063843385142782e+00 4.658770702132701835e-01 1.627625073709865333e+01
-7.396986601116992688e+00 -2.013393679814579951e+00 1.554968695969856540e+01
-4.627984698543057718e+00 -1.722383207518727311e+00 1.410349782962471821e+01
-7.076328949665906087e+00 2.673134697981217389e+00 1.606446562742479145e+01
-4.559533175721522724e+00 -1.575898262886202827e+00 1.427860738846868216e+01
-5.199063965413249555e+00 -3.145612271562310269e+00 1.626365265912448521e+01
-6.904455288071083885e+00 2.115455035072973722e+00 1.703898145471755399e+01
-7.628685644976827440e+00 5.522192278032855839e-01 1.618678895055957767e+01
-7.649688679522316015e+00 4.929222671022585045e-01 1.639863862575213815e+01
-7.648209383367248648e+00 3.433071114876122265e-01 1.610056403478266773e+01
-3.339098215850168749e+00 2.726807762729644313e+00 1.394338616749434223e+01
-5.195677402703035241e+00 3.646667263718523788e+00 1.463401881253410508e+01
-6.996614937487989572e+00 -4.041017264065295933e+00 1.818673750907509756e+01
-5.200121502017918118e+00 -2.928149349764672671e+00 1.467164378582504369e+01
2.078273403005571618e-01 5.913385590075822540e-01 1.717637285151235815e+01
-3.399671872726958366e+00 -1.735650677047866353e+00 1.958353570618006856e+01
-5.477378629344484828e+00 -5.004280147129362533e+00 1.833369874090865537e+01
-6.884119255441845109e-02 -8.163574524606658223e-01 1.594991385113698001e+01
-7.577954246500783420e+00 -9.873501670299678068e-02 1.716170250251299834e+01
-1.003564179778274390e+00 -2.614996613208985909e+00 1.764525764822203158e+01
-1.029604894770872692e+00 -2.802309445709301183e+00 1.785330445405416455e+01
-4.213333493293781373e+00 -6.522947367423053144e-01 1.328215872787160734e+01
-6.700239804823598710e+00 -3.984084549157136390e+00 1.855280553434173996e+01
-4.622055183194412109e+00 2.451980453819949002e+00 1.358392102184825134e+01
4.403680411116885907e-01 -3.168124870416059835e+00 1.850751988630326750e+01
-3.855774674542291613e+00 4.295231854867724408e+00 1.755557624852415088e+01
-2.499047000407993657e+00 -2.418936237569331293e+00 1.746379564205216539e+01
-6.551909034921391317e+00 1.787184231925414313e+00 1.464862999955166245e+01
-3.693635193592591737e+00 4.321716726048249413e+00 1.760715406422309215e+01
-6.486087950152660042e+00 2.412117996768510242e-01 1.367883585819209813e+01
-3.985036735988809919e+00 5.681409412555987748e-01 1.181705930191934684e+01
6.410587066805994994e-02 -2.012826490716780992e+00 1.949956584989433495e+01
-3.444594432194153732e+00 5.324349915106413533e+00 1.674064076525028000e+01
-6.058304862941641389e+00 -4.484916917025397964e+00 1.654960145845398856e+01
-5.479641632472812773e+00 -3.459388961510505567e+00 1.544482913100504717e+01
-5.318015676909124245e+00 -3.209895432914745328e+00 1.523754713094580282e+01
-5.381473016067949366e+00 -3.331304309813884590e+00 1.542419347696970888e+01
-7.092675836965982583e+00 -4.477456341782287907e+00 1.706616221012808055e+01
-5.064218653048787822e+00 -3.066753644993509109e+00 1.912808704808764659e+01
-6.265956101694604818e+00 -1.509053474798453642e+00 1.853647568869572737e+01
-4.902924842988627852e+00 1.917954554669605516e+00 1.812652486411041863e+01
-4.358409236580472523e+00 -1.232756427483958417e+00 1.528740973259238345e+01
-4.394446237485102102e+00 -1.128285094913679343e+00 1.486820915492275574e+01
-1.732736465552392024e+00 9.777818784489977766e-01 1.303318432903899193e+01
-8.596466676492314773e-01 -1.547601577130133688e+00 1.627700816411809015e+01
-4.059006189897534256e+00 -6.751746532910183340e-01 1.914038209071381047e+01
-7.193455467696116656e+00 1.569293323885738722e+00 1.691587721535916344e+01
-6.751454656280079014e+00 -4.770465768804125872e+00 1.811522028353256886e+01
-3.120206453329261720e+00 2.914368270284777296e+00 1.852523408022978302e+01
-4.290244428265947541e+00 -8.390751133479070756e-01 1.360487031103651745e+01
-4.494865855126237264e+00 -1.838640836549977120e+00 1.601689243943798502e+01
-7.374106759627998109e+00 -3.464634639371600766e+00 1.647319521474900839e+01
-4.308424378395491416e+00 3.912808545836395258e+00 1.758261465586092598e+01
-6.888420761755892130e+00 3.121863827399940394e+00 1.603435400768976038e+01
7.379893316586305652e-02 9.683018942555849939e-01 1.725815857121385832e+01
-1.313784272659701990e+00 -2.039679498141667935e+00 1.741480309339439358e+01
-6.647879753754980747e+00 -9.885144690748437490e-01 1.358624114395776061e+01
-2.998289332363199833e+00 6.801198941632886630e-01 1.183407552821564579e+01
-6.474433254519610159e+00 -3.106420927007370381e+00 1.434281582116909348e+01
-5.295771619000683827e+00 5.405131339863594730e-01 1.838825231504160840e+01
-5.299797426898551045e+00 7.289066089975415608e-01 1.835517369136720234e+01
-4.317193265818391801e+00 -2.113405355686287290e+00 1.935438240171584923e+01
-4.825693682823285258e+00 4.767622193926461804e+00 1.527714434391628728e+01
-4.083736606453815199e+00 -1.903181710895383461e+00 1.941485928077301182e+01
-5.663479592262110174e+00 2.847775720639517671e-01 1.291199338467223257e+01
-3.344594702037041678e+00 3.342844034183845459e+00 1.826075010886259165e+01
-4.113764291056860145e+00 3.712032935280900947e+00 1.776257503087393630e+01
-3.787290759527340178e+00 4.874099939872404974e+00 1.718107254614778512e+01
-7.207604911271454640e+00 1.765830884480767526e+00 1.547618969453727900e+01
-2.680572374799710555e+00 -3.072250091310109177e+00 1.775392347691746764e+01
-6.154694959690825584e+00 -1.630288579431538043e-03 1.824941522788165216e+01
-4.815805478458512479e-01 -4.526186247699282017e-02 1.503899134228522527e+01
2.395108930065564801e-01 5.930967854510432735e-01 1.643655665884976358e+01
-6.069128970480989871e+00 -5.060511318001800873e+00 1.783727923083064226e+01
-2.277369137776322994e+00 -1.060025942529437604e+00 1.654546511206207171e+01
-1.755878003549975475e+00 -4.204028886720864833e+00 1.960023555080800506e+01
-2.481929738678528174e+00 4.400490278832808855e+00 1.766576060107784585e+01
-1.547164047713580626e+00 4.400307303213325527e-01 1.301330476497917843e+01
-2.284336547510442461e+00 4.215604509698076541e+00 1.774658092200738579e+01
3.621084819085280682e-01 -1.189371128923312870e+00 1.699810702683246078e+01
-6.333873218234256974e+00 3.949083476511451529e+00 1.646491556339577400e+01
-3.973464664006436387e+00 4.594980735812123740e+00 1.729614738857128842e+01
-4.039874983326999569e+00 -3.351728655517455913e+00 1.958373075645706862e+01
-4.033027773112747738e+00 -3.731981592215622978e+00 1.959433730670236073e+01
-1.506815808233176401e+00 1.371189261653164682e+00 1.958697409169876735e+01
1.769527421514317522e-01 -2.490204772826676294e-01 1.820400031786176598e+01
-5.780343524088804585e+00 -4.818013612680422497e+00 1.871717608102983021e+01
-2.133049176132032265e+00 3.376462504655869168e+00 1.844586538090512207e+01
-4.753961391415848503e+00 -1.988252920193448237e+00 1.591093602143176255e+01
-6.581308749542256198e-01 -2.150019438165137853e+00 1.685026165239930762e+01
-2.835200567930938664e+00 -2.774454281626286267e+00 1.984163520859946672e+01
-2.995309563747154513e+00 3.194969295438785384e+00 1.480839679705492884e+01
-3.031126280652892913e+00 -2.550058467992928790e+00 1.977865831661416607e+01
-1.793167248713189110e+00 1.674975552774977894e+00 1.391606675940258597e+01
-6.273279216389402890e+00 2.940713353680721731e+00 1.720345488587029692e+01
-7.490074647183012857e+00 -1.213809900109809048e+00 1.552287954563696459e+01
-7.397755555794685911e+00 -3.319506244835036757e+00 1.641283762234831656e+01
-1.276494351971829255e+00 6.488051084405488389e-01 1.331153483557043771e+01
-5.027785127929832676e+00 -4.792143713521848980e+00 1.885460123490980422e+01
-4.918691307348010966e-01 -2.332368682561023920e+00 2.030987538396390946e+01
-6.628436790155437741e+00 3.022980250903269273e+00 1.544779216702774605e+01
-5.145955085631650050e+00 1.362483172172022527e+00 1.824030070409203219e+01
-4.852329409429348317e+00 1.467815574525012545e+00 1.830906983161017010e+01
-3.060928450885527230e+00 -1.080677493477287809e-01 1.933690662662181481e+01
-5.621032461975238093e+00 -4.684083194484905954e-01 1.848433427532687645e+01
-2.773192386496907691e+00 1.915983744236180675e+00 1.324228923347548559e+01
-7.069106242441558940e+00 2.497652786028361049e+00 1.641896210064112083e+01
-4.221552809394911066e+00 -1.237438208807712936e-01 1.231229890077218059e+01
-4.396027503926247526e+00 -2.124392440998036369e-01 1.239327590358419329e+01
-3.529234793850991814e+00 3.753210771938729540e+00 1.800948808057428252e+01
1.169356730895133589e-01 -4.750732239574384508e-01 1.862268447514574987e+01
-6.377163535747276235e+00 -3.129415051305728390e+00 1.434117220808788673e+01
-3.759162717478234050e+00 3.483231373959944754e+00 1.455410955666810580e+01
-1.280328220322595190e+00 -2.798240570717627218e+00 1.801892112164154369e+01
-8.093611918160315000e-01 2.460236424526562438e+00 1.776580202129588670e+01
-5.221142013819352279e+00 -3.095844505510204847e+00 1.607088809706736399e+01
-1.472833717417203037e+00 -1.776964116286878337e+00 1.726645831420462329e+01
-7.280538464236616214e+00 1.933794122583846864e+00 1.624233773241080669e+01
-1.008938418534961468e+00 3.348819706509197913e-01 1.407421115691339608e+01
-2.048959175140261380e+00 3.993279058087014999e+00 1.773333228856553134e+01
-7.232535205968269487e+00 -3.339875107590072556e+00 1.546550014268884965e+01
-5.547262965313498384e+00 3.754346588138485430e+00 1.493015856733173408e+01
-1.514650253647373379e+00 -2.922630312411472753e-01 1.510708564441824464e+01
2.648807961224213248e-01 -1.675385676038080085e+00 1.895183241689453624e+01
-1.869499968574647841e+00 2.543198191184792289e+00 1.516329397713600358e+01
-1.174033465177652724e+00 -3.973655848581812311e+00 1.885339925176029752e+01
-5.549001431119243044e+00 9.070799204039319275e-01 1.825923102061034697e+01
-4.475947238733853695e+00 -4.595963805073507658e+00 1.924179533079491833e+01
-3.982170011353699746e+00 4.240570959919857330e+00 1.519961759611995333e+01
-4.623857194275190707e+00 -4.834120234064975818e+00 1.877062016918368315e+01
-5.226918770676729054e+00 2.657724950336675107e+00 1.398395458482628939e+01
-4.623307358675257106e+00 -4.798237860482759132e+00 1.886948587495043839e+01
-6.876628982290001524e+00 -3.370183682745163667e-01 1.387350452265444645e+01
-5.100769758213862914e+00 -2.757079512303803881e-01 1.862393072224535118e+01
-6.289297900462295310e+00 -4.313565379347160444e+00 1.870173414433008574e+01
-5.955652444788313460e+00 2.608455477606936856e+00 1.752341382889072108e+01
-6.603613164414674053e+00 4.678730770347487855e-01 1.395668579973342460e+01
-6.043941888782046412e+00 2.862163001801877549e+00 1.737952278226112313e+01
-6.119514691008319573e+00 2.531131470248505266e+00 1.747443988837079942e+01
-2.255475621789375218e+00 -1.289010362516407548e+00 1.987567108958945639e+01
-2.602089676622607595e-01 -3.387517716126061895e+00 1.839004004160758754e+01
-6.259659496867916451e-01 -2.724143601494777744e+00 2.042623150411706590e+01
-1.674688421007814787e+00 -3.498052753807179727e+00 2.023600044037669576e+01
-2.404353380994192158e+00 1.282006636564998248e+00 1.943215529657284080e+01
-4.809907098563158456e+00 -4.796007957136120936e+00 1.887661485763477387e+01
-1.498606384907564593e+00 -2.331098015768920950e-01 2.014280034542406739e+01
-3.207740817885724738e+00 -3.925933703732977786e+00 1.980643698390388963e+01
-7.349734199373047616e+00 -2.705711919143363176e+00 1.817324718437994235e+01
-1.305581598169426316e+00 3.145350601286941661e+00 1.795621694920500389e+01
-2.035042974590696829e+00 1.820977090387347452e+00 1.376363841091614759e+01
4.711626812238365325e-01 -3.298833399799818267e+00 1.887220233881628317e+01
-7.129400416324934930e+00 -2.945972234848845073e+00 1.836477215661426854e+01
-2.414273392033218002e+00 1.273048542642705838e+00 1.272806656616320353e+01
-1.300101777448163576e+00 1.641458014353875283e+00 1.941196408440319132e+01
3.342242227764455897e-01 -4.321307985642567351e-01 1.740148443554177859e+01
-5.289573268041107390e+00 2.092921377567152685e+00 1.793294601350230622e+01
-3.155650282143068974e+00 3.517247652887635745e+00 1.826834421047750467e+01
-6.340453539127726579e+00 3.131248954850225363e+00 1.706273526741008695e+01
-4.062858374140284390e+00 5.030095513920764816e-01 1.184931634329266004e+01
-5.268844656766426660e+00 3.876790384060345485e+00 1.721469255718745117e+01
-3.423636026901907048e+00 -3.936977726789554932e+00 1.975635363929318444e+01
-7.103979145558091624e+00 1.739670280704755934e+00 1.530300671283106695e+01
-7.117971366686035140e+00 1.968062159968740010e+00 1.545496745569259289e+01
-7.628854966402323079e+00 -1.078806203385549001e+00 1.612097425502907200e+01
-5.692266464364695189e+00 -2.905213984829381868e+00 1.887233981381192294e+01
-5.512642956870219102e+00 2.727347675254060189e+00 1.763508237785192634e+01
-2.487392576665425459e+00 -3.878287759200279350e+00 1.821493144295775934e+01
-7.133430408565142322e+00 -4.099738715783667331e+00 1.765136984081548022e+01
-1.087139846980561986e+00 1.491294779302932749e+00 1.503273084179974362e+01
-2.771543769931868351e+00 3.539322424343940843e-01 1.936117189738397215e+01
-4.654332728393515417e+00 -3.933843088528790499e+00 1.935812442337014616e+01
-6.825614877088263199e+00 3.139367031817835052e+00 1.584913074659536036e+01
-4.447622563482221736e+00 3.584753387304807415e+00 1.428558860757087601e+01
-3.844079423581895583e+00 -1.503377416858642457e+00 1.942773583230427548e+01
-6.163696450947737659e+00 4.150836494659198905e+00 1.647242500044407976e+01
-1.203463063040619563e+00 8.619107208812610832e-01 1.367867180103334945e+01
-2.075704649526254997e+00 2.524583427428261917e+00 1.897949862632699691e+01
-6.010418057136978076e-01 6.365837469407751303e-01 1.485664131346288386e+01
-4.745564453490350942e+00 4.379771739152824139e+00 1.710013319488210115e+01
-1.819902713051811505e+00 2.226426701986086609e+00 1.473920922188768046e+01
-5.105904958916531733e+00 -1.701695566271187232e+00 1.896180279940488944e+01
-3.622294083894156635e+00 1.289696501273156493e+00 1.238831599611170375e+01
-5.482097828492443092e+00 -1.906692557661826104e+00 1.884186060364963922e+01
-5.210875970983699368e+00 -2.347542060516424112e+00 1.899584529827400914e+01
-4.562445236923643677e+00 5.159056461207287114e+00 1.667161956574797088e+01
-2.464427888457777271e+00 8.767812437258523106e-01 1.946077127540610618e+01
-4.450302348960329724e+00 -2.141031246624709006e+00 1.930194967537878981e+01
-5.857014020209897254e+00 2.833996916232982555e-01 1.828526448524452874e+01
-7.403569865877110523e+00 -4.198959729409781350e-01 1.763480123129626165e+01
-4.861111281437328735e+00 -3.738125149274497350e+00 1.926612884338197418e+01
-2.267015822768622346e+00 -2.441663211657011168e+00 1.757089006405501053e+01
-4.070506450970855283e+00 3.253797341733864812e+00 1.794412160942233569e+01
-7.186571248717887883e+00 -1.410754458546161993e+00 1.474192113959104589e+01
-4.923569858820538769e+00 -2.517248931994703565e+00 1.913974687816638109e+01
-1.884290657471223929e+00 -4.205820383775970228e+00 1.893265689514913319e+01
1.293750735753604886e-01 -1.393814257757359343e+00 1.655287611341283949e+01
-4.148404503763734930e+00 5.202253422961458540e+00 1.681680406263064143e+01
-4.867081868211764473e+00 -3.338640762167567999e+00 1.923938199342948607e+01
-4.661973324694677956e+00 -2.893754700145641845e+00 1.929600931334163860e+01
-2.991859256101861764e+00 -1.630277140971566618e-01 1.287490253179322153e+01
-4.073892903669441345e+00 -4.069130938604487824e+00 1.760935813867504507e+01
2.292537578809258347e-01 -1.966435708778710101e+00 1.701837784399699061e+01
-4.296857051740898825e+00 -3.708591845467848369e+00 1.734257626566860822e+01
-3.073447361836358027e+00 -4.274438781685544697e+00 1.818500480870627101e+01
-3.287283973815668947e+00 -8.546564946483929948e-01 1.501577843806716928e+01
-4.113580022140048698e+00 2.775461728843025444e+00 1.809392352273568960e+01
-7.714230335076198486e+00 -1.042217672306402942e+00 1.676410848429948075e+01
-2.674055044764025446e+00 -4.028984894930278671e+00 1.821142522704384348e+01
-5.275133570215311707e+00 -3.518372154816457265e+00 1.907474414886570102e+01
-1.503888119457090999e+00 2.521501974772673460e+00 1.888300822153231806e+01
-4.788981662475761070e+00 2.215746727285800688e+00 1.345640659183727550e+01
-7.109138527687345110e+00 -4.899880249184839220e-01 1.797625851368192329e+01
-3.684645644071938175e+00 -4.621910349142451579e+00 1.816742936850024748e+01
-3.615282733048171160e+00 -4.547093582597517170e+00 1.811494182678007903e+01
-4.247845092590404548e+00 -1.510414562791017934e+00 1.927948925015810389e+01
-1.997070141211204630e+00 1.108056302379547553e+00 1.287280862166651119e+01
-6.109441458646854173e+00 4.102629121811312451e+00 1.557204891676819258e+01
-7.127621460403823939e+00 9.599102203716628479e-01 1.483506334576666674e+01
-1.836313843896226317e+00 6.952674682992094901e-01 1.980592752517494048e+01
-2.044879397122087550e+00 6.858737263999745704e-01 1.973165015072166639e+01
-8.637598098051046946e-01 -2.360527081603602806e+00 1.722682397173558755e+01
-3.689886624854591179e+00 3.291635904319469841e-01 1.899319870186098669e+01
-2.621438806586219528e+00 -4.383707419582778542e+00 1.918382528678117538e+01
-3.535607242338135947e+00 1.328048636334586474e+00 1.881854122028081733e+01
-1.483376292801661833e+00 3.348393096341020669e+00 1.777492179752449530e+01
-2.510007828313364442e+00 3.534898083218722231e+00 1.838068548976648842e+01
-7.678496463938358829e+00 -1.479885930949137229e+00 1.736071298197974144e+01
-1.171139714926067388e+00 1.624443082954246664e+00 1.509091290590627565e+01
-9.954457241594897310e-01 1.616880390157046543e+00 1.549556355036944311e+01
-1.631892198590709109e+00 1.630568451342573999e+00 1.413308295624221600e+01
-6.875515590242396335e+00 1.523219741039387287e+00 1.739995680551944801e+01
-4.109154508592782307e+00 2.896024823159466521e-01 1.884743552569588232e+01
-2.303732550057576489e+00 2.919733856262617611e+00 1.874403175902263641e+01
-2.710440757114906951e+00 2.697565776902184354e+00 1.878785170815740813e+01
-5.447251454809613591e+00 3.657447908222272392e+00 1.479562540961849137e+01
-2.887738513403074414e+00 2.513291543778261250e+00 1.879235843759115809e+01
1.584515430318881313e-01 -1.255921341905002375e+00 1.899665320986386163e+01
-4.695562782671619750e+00 -2.747046971084656786e-01 1.877783622359429572e+01
-1.916564636136590449e+00 -1.577899362453428767e+00 1.707081589519090059e+01
-7.492087676487857451e+00 -1.019768997930028398e+00 1.545205830036374195e+01
-7.564237618977354138e+00 -4.420517456139454460e-01 1.557471471122667239e+01
-6.848402326958717978e+00 -1.368132637473640223e-01 1.393789036868677655e+01
-1.685108182492477180e+00 2.989447424180822654e+00 1.859315707337222179e+01
-4.726402338005015302e+00 2.075351598366197869e+00 1.812903297180036688e+01
3.609835511936840824e-01 -6.461023885877303918e-01 1.741932202052856482e+01
-4.701748757112678589e+00 2.542856571485356376e+00 1.795511092839324263e+01
-3.034457299094306393e+00 3.603925162554488359e+00 1.528700137413497018e+01
-4.909463020813365830e+00 2.120820239450890377e+00 1.804229754860673651e+01
-1.781684134179407630e+00 -1.537698473786988540e+00 2.013960873799422657e+01
-7.075929345363343614e+00 3.641892738425419052e-01 1.449523524866968316e+01
-1.844121454413535366e+00 -9.173735226813151122e-01 2.006874877630338361e+01
-4.092323195999959751e+00 7.110472061456427628e-01 1.875067852536842494e+01
-6.254414039492531607e+00 -4.732053835073632087e+00 1.681092011259838515e+01
-7.046798669164833662e+00 -9.933776940014991119e-01 1.429387982121788170e+01
-4.638305868877665716e+00 2.101341389067699517e+00 1.331465480783671396e+01
-7.627295672864622844e+00 -1.284170349327330207e+00 1.749517867412325600e+01
-7.680122737948287259e+00 -1.062004418889399115e+00 1.720187346881052193e+01
3.887085417287379219e-01 -1.031107294766209437e+00 1.783997057462336144e+01
3.174041457990811610e-01 -6.109163022463705017e-01 1.779587023058495632e+01
3.039161239344178034e-01 -8.535492905602906077e-01 1.821554647270471960e+01
-6.882520979275875028e+00 -7.723142360357599934e-01 1.392215499886449592e+01
-6.495611402074485952e+00 1.305609070953371198e+00 1.779339160423694111e+01
-7.183620805248492225e+00 1.377208011460955728e+00 1.707406385903100343e+01
-7.049524206260461057e+00 -1.705450869353542398e+00 1.443155061431123087e+01
-6.850135742984857501e+00 -1.641473014259389185e+00 1.403387647611511468e+01
-3.032585865056485641e+00 3.408468093741932048e+00 1.505272259421763081e+01
-5.096391959953987971e+00 1.928500288911334515e+00 1.805422885085899409e+01
-1.473720183854017485e+00 2.154619945735571918e+00 1.538064491854371951e+01
-5.645086755804441525e-01 1.968795931029855062e+00 1.729044512770217423e+01
-4.967986267058019045e+00 2.969238505010603824e+00 1.770538045313035624e+01
-6.261955257726356194e+00 -2.130841911332270300e+00 1.862663478931585459e+01
2.344664928508823909e-01 -1.259489680202070971e+00 1.876025198029901375e+01
-4.856702511626357577e+00 4.833737631007883895e-01 1.230404445332550623e+01
-3.400322040388865208e+00 1.439209342819190107e+00 1.885040898817487331e+01
-2.238787611122356136e+00 -2.705653219191777037e+00 1.774332625936082408e+01
-2.444937005392922025e+00 -3.283161978304318218e+00 1.795682663606009655e+01
-2.665988514260858366e+00 -2.647978757466956878e+00 1.753381384341120608e+01
-2.767339557709635578e+00 -2.989490420557469719e+00 1.767771937082337175e+01
-1.946951150260748165e+00 -2.755828276930142984e+00 2.011207948076296859e+01
-3.095565531642425317e+00 -3.243425533040392050e+00 1.765765297007437695e+01
-2.233523636549837654e+00 -4.293668513885554816e+00 1.894105139974688612e+01
-3.066727315428445788e+00 1.065643499546650164e-01 1.928570311510801716e+01
-4.734123840329385047e+00 5.128809882951140153e+00 1.661143769595568997e+01
-4.857290743135170175e+00 -4.707936108979795975e+00 1.756097233432857863e+01
-1.291043601091786730e+00 1.731602865170426719e+00 1.501926994733073784e+01
-5.269550280049954516e+00 -4.963570695959072410e+00 1.777834752762660386e+01
-3.645423791120656620e+00 -7.212698262169174868e-01 1.929931390806834557e+01
-3.733545919359974263e+00 2.922658044152379730e+00 1.821131462996488537e+01
-3.525097251358751294e+00 3.113403837938960361e+00 1.825236611513649976e+01
-4.991565252395455232e+00 4.516412884115182380e-01 1.239831808598218643e+01
-2.828631288151923773e+00 6.797419648756017896e-01 1.927277342369574242e+01
-6.901022441706685662e+00 -1.054497599452678402e-01 1.799732562333296571e+01
-2.468652882522988534e+00 -4.351565448494083554e+00 1.917381781077745373e+01
-3.951391423537644609e+00 -2.813188338380454567e+00 1.707034868046064346e+01
-3.293800699680892397e+00 -4.440800905503520468e+00 1.820828391847223671e+01
-7.481637386505938458e+00 -2.274569503186780750e-01 1.526038829431847788e+01
-3.705353636596012468e+00 -4.192820525189825176e+00 1.966313635932279524e+01
-3.895113368620287897e+00 -3.444956348258021883e+00 1.739916168476806391e+01
-3.288878572646052323e+00 -3.269086906951342186e+00 1.758486890578336315e+01
-1.682377298371983798e+00 3.244684256447219473e-01 1.995005623982909881e+01
-6.240850355439336639e+00 5.410390452596336441e-02 1.331785207752033884e+01
-1.883853422435733060e+00 9.177317552612757057e-02 1.992736268160006929e+01
-7.375977329974207741e+00 9.180862369700604209e-01 1.702220982000982374e+01
-4.576599698889902257e+00 4.170836568155548818e+00 1.731291079964282531e+01
-7.432797207178904131e+00 -1.786830779913531897e-01 1.513707087067274060e+01
-6.738584052722791817e+00 1.718013024865210570e+00 1.742716940553671279e+01
-2.843368993004747658e+00 -2.125503778770457153e+00 1.977214634426005446e+01
-6.907014758570167778e+00 2.761084105232006092e+00 1.569164596607167184e+01
-5.913957150132018725e+00 2.065657321483923781e+00 1.775580595178017163e+01
-6.373452473437294152e+00 3.577925466896886508e+00 1.548218355316430106e+01
-1.621592845002927774e+00 -2.103038750763522202e+00 2.025753168505083224e+01
-4.302337144366813249e+00 2.320536701942041979e+00 1.819593526184178600e+01
-4.449224678558325152e+00 -3.331075242262600877e+00 1.942084899961897904e+01
-3.812259172069103030e+00 1.690348156066996621e+00 1.277860433079078106e+01
-5.604635989668504514e+00 7.880606950288454593e-02 1.276280922126427342e+01
2.896728878147326602e-01 1.920914472817621399e-01 1.702541979535972771e+01
-1.839517649727270276e+00 -1.314019451205029609e+00 2.009311391839500160e+01
-4.845675381011810501e+00 -1.484287268747092492e+00 1.903291949323938681e+01
-4.264705604071412637e+00 8.914397221852932152e-01 1.213209036398665930e+01
-3.869818745058168918e+00 -4.873710131996710215e-01 1.915772067528449796e+01
-4.591235070837194954e+00 -1.914170174339616448e+00 1.921027369002549889e+01
-9.028850128496668237e-01 2.017803559183833695e+00 1.649877346393033761e+01
-7.307892770813307237e+00 1.551529843813669984e+00 1.665261639554359263e+01
-3.538535575750094697e+00 -3.180799771536672704e+00 1.971478961788507078e+01
-7.564148860994092338e+00 -1.071573725310019931e+00 1.758567304215130278e+01
-3.436321114895711570e+00 -3.331803300861325035e+00 1.974493183734198354e+01
3.442140540486677835e-01 -2.176949736194132567e-01 1.719346629650138070e+01
3.141849593802823470e-01 -4.425414081588777693e-01 1.762821363157550891e+01
-2.864289642187749063e+00 3.009229775005253238e-01 1.932752840244986103e+01
-3.991413897033171843e+00 2.934974577628873149e+00 1.808821457382255815e+01
-3.824043119610915475e+00 -3.101650266188743510e-01 1.269489230620522946e+01
-2.420413957794979254e+00 1.094701422047164252e+00 1.945465383854315533e+01
4.231538942165191663e-02 1.171458533851315931e+00 1.768011075377465247e+01
-2.104994800864981030e-01 9.455735984264440619e-01 1.609875023025107410e+01
-5.238818408576046970e+00 2.835001410960802382e-01 1.252141566879296519e+01
-3.947572653619367156e+00 3.337880374238294312e+00 1.797302813741875482e+01
4.215024616560010262e-01 -1.527375828654048640e+00 1.830775295775501021e+01
-2.971553134658717621e-01 -6.098530800228110227e-01 1.556212120833693646e+01
-1.318285177074229875e-01 1.563702017865225224e+00 1.768266901018363413e+01
-3.171236902722482487e+00 2.323697336176197226e+00 1.351532211968318720e+01
-8.716233855358483940e-01 6.038013575594920468e-01 1.415337426292080281e+01
-4.819986545928417243e+00 5.097765237751985978e+00 1.557140458979217001e+01
-3.301486163306061705e+00 4.982441666374418432e+00 1.659647635463375437e+01
-3.217761521925908585e+00 -3.091051846464996089e+00 1.753410872183266989e+01
-7.778933528848722689e-01 6.494784831102317080e-01 1.445006841563413147e+01
5.556440691954267486e-03 1.654595594498755040e-01 1.871458091655628309e+01
-3.816959236646772169e+00 1.189439191023085485e+00 1.227957541793599106e+01
-5.586442561667171347e+00 4.195812076351606024e+00 1.524450849025724253e+01
-7.286997034720287481e+00 -1.837301682464152819e+00 1.515832866085038333e+01
-5.666153816247455843e+00 4.419139884434358123e+00 1.544214374735295436e+01
-7.252828395026986286e+00 -1.178170237144066990e+00 1.486497240812163412e+01
-4.856916567102434357e+00 5.463875919820818439e+00 1.608520971606320771e+01
-6.937051596877458870e+00 -8.014076660651292539e-03 1.417364810703747580e+01
-7.131847995136541662e+00 2.330021040574101199e-01 1.457305452910702925e+01
1.401637197039817817e-01 -2.646303999596095746e-01 1.839937410336257884e+01
1.585499242368854089e-01 7.408378318104522631e-01 1.730224615216167550e+01
-9.684901657591109547e-01 2.588590751955799352e+00 1.754749603978993022e+01
-5.038112279905369917e+00 1.683875848731818836e+00 1.316597070975106121e+01
-1.459963577645575272e+00 3.205399312506987730e+00 1.748553353465867488e+01
-1.808642714401569096e+00 3.316829137439841091e+00 1.676954200896794944e+01
-3.424306215727787706e+00 1.194952482922148285e+00 1.229213781413978879e+01
-5.178917096750065951e+00 3.791511615247843636e+00 1.471769117208688371e+01
4.167814422024622711e-01 -1.022785455954822620e+00 1.756802405641747455e+01
-5.022140013560966842e+00 4.033546625529194074e+00 1.479293334378240488e+01
2.797778924888194574e-02 -7.678015405813642946e-01 1.606923232458631290e+01
-4.859521246826270513e+00 4.106768434336368401e+00 1.476483545793299967e+01
-2.081887471867267081e+00 3.792327950324114738e+00 1.700902826870796858e+01
-7.098538140696598830e+00 2.163437392767841860e+00 1.665181855718193660e+01
-2.183435351515786493e+00 3.809632589073793874e+00 1.675741152313483084e+01
-1.584317353148454011e+00 1.686669958949164716e+00 1.430684693966073340e+01
-2.420671288812403343e+00 3.904220050043306411e+00 1.629391869672057780e+01
-2.588324751146491742e+00 3.668625950473943131e+00 1.829901659055253660e+01
-2.203485393035082396e+00 1.639493517701404945e+00 1.333961814069050789e+01
-6.113272692430419042e+00 -2.267312257561038269e+00 1.376940107091186505e+01
-2.749147529572759652e+00 3.655686655221486614e+00 1.561612053366524933e+01
-4.656412184712765523e+00 4.179993503057706228e+00 1.473547208025727784e+01
-3.723732764434680487e+00 -1.058682097280151169e+00 1.936125171409576140e+01
-2.503448136868837715e+00 2.014163150217303411e+00 1.358731156891824909e+01
-6.953039588456856990e+00 3.160498759128047563e-01 1.784737103000771086e+01
-3.652771257421643991e+00 2.440019068181381368e+00 1.338087593250723373e+01
-3.486375323561414774e+00 5.250808082079414518e+00 1.658305106623837943e+01
-6.968667361864964604e+00 2.002570324789061940e-01 1.787379527430075754e+01
-7.586834279844382856e+00 -1.228126275388447208e+00 1.595971025513636832e+01
-2.301701310916712373e+00 2.283994663503039924e+00 1.909193156080862153e+01
-2.299521915920059278e+00 2.384463398829665515e+00 1.903936908013232099e+01
-6.510142259643837193e+00 -4.793180616272264771e+00 1.684077127850850175e+01
-6.155256650417803677e+00 -8.543610641057273192e-01 1.841875238287635241e+01
-5.066066240995956704e+00 -4.845663728673223147e+00 1.759390685596792636e+01
-7.347849991895448518e+00 -1.891198380029390780e-02 1.496543415272053679e+01
-5.263347454510460821e+00 -4.901374782312899470e+00 1.760061460660034172e+01
-7.295030337256724451e+00 1.950572914495626087e+00 1.604634329501459789e+01
-6.050293436718707341e+00 -2.716424377823867697e+00 1.874767015002476356e+01
-5.879308334834761673e+00 -2.906329184708434710e+00 1.881605667955435379e+01
-1.080337362241962529e+00 1.676457395287251240e+00 1.540408046677037746e+01
-5.693380705022595301e+00 2.304719037067088472e+00 1.773876778567941770e+01
-5.352747509432610684e+00 2.739674213681316139e+00 1.767717336078289136e+01
-7.189752656747463000e+00 -3.820207268432621373e+00 1.786495405102796141e+01
-1.867492839431921903e+00 3.458358857207846526e+00 1.690986856297005048e+01
-4.232124108390973305e+00 1.748692071158953976e+00 1.290436400953947427e+01
-1.840903928873234285e-01 1.344244990595910405e+00 1.841760389581777346e+01
-3.669927833283299190e+00 -1.731832596966432991e+00 1.951456206851278452e+01
-4.905437274566416761e+00 -2.381385929807367408e+00 1.485380652643300081e+01
-3.670450444309499627e+00 -1.504885382330861887e+00 1.947301413155402727e+01
-6.781027460463317169e+00 2.938088146917125165e+00 1.668588772961286182e+01
-2.636133164828211584e+00 -3.530264712708395702e+00 1.993609415162920229e+01
-6.582229296384848105e+00 2.214625596768118876e-01 1.377571885497384230e+01
-6.246364334270615437e+00 4.191531141916755132e+00 1.633426069925486601e+01
-1.371190152635016091e+00 7.120723604047359823e-01 1.324286023290315129e+01
-5.842267467953806026e+00 -3.522024140687745941e+00 1.887570343002664330e+01
-5.659306167132194254e+00 -3.104062564646985045e+00 1.889985104575817232e+01
-1.903463953301616440e+00 1.886025982129235556e+00 1.934338753018538526e+01
-1.901726435698208872e+00 2.314264016856707684e+00 1.910068538980214825e+01
-3.755219265405027151e+00 3.883612793133754959e+00 1.499280921775050146e+01
-5.341585394623065142e+00 4.123928087700148737e+00 1.701898741495123701e+01
-4.468216627907881211e+00 -1.093974031021737403e+00 1.909736628644254708e+01
-2.847833638200884643e+00 -4.415430820129182976e+00 1.931708319817238717e+01
-4.589808923635224858e+00 5.360843500707064280e+00 1.650036368801599096e+01
-4.373294723204434575e+00 5.329478845456197433e+00 1.662716304011577861e+01
-6.226685505698831058e+00 -2.635564344893344568e+00 1.400236550776182654e+01
-1.545022190844211218e+00 9.622588617382539233e-01 1.326922734764956502e+01
-2.673429313302261523e+00 9.125798639158569925e-01 1.932643583544726695e+01
-7.208535357131724552e+00 -2.808881188428446585e+00 1.524015764452223110e+01
-5.204659725720091501e+00 5.153120530370721042e+00 1.573992323493247980e+01
-7.507731442293669843e+00 -6.870668835564368582e-01 1.755562716552763547e+01
-5.159824308667622095e-01 -3.176709618029192495e+00 1.799723441346152342e+01
-4.827772346947022619e+00 -3.922052778047068866e+00 1.928763871891812087e+01
-2.069771592223887069e+00 -2.529937436165196285e+00 1.770310562762857032e+01
-1.890545543715945964e+00 -2.249284745381118444e+00 1.757404321823232962e+01
-2.139923456721712469e+00 -2.194647666684431453e+00 1.744930694189668330e+01
-4.453951848799763802e+00 -4.690201308450811624e+00 1.778232561791864796e+01
-6.771306021178688184e+00 1.376138778653392070e+00 1.465624090210961938e+01
-4.269771540889125916e+00 -4.621288557869185354e+00 1.782433999916752398e+01
-5.238199584984771562e+00 -2.541967395508136107e+00 1.900448913870130596e+01
-5.072536933188972696e+00 -2.926466262908104188e+00 1.911218348562769975e+01
-7.233844721876059758e+00 -2.628699445515800814e+00 1.524979211479915975e+01
-5.046701364344529317e+00 -2.335676146803137065e+00 1.906575273950702964e+01
-7.097290613334275022e+00 -4.291155397233222146e+00 1.747691880167311851e+01
-7.253808788760186310e+00 -3.879652470536413045e+00 1.725923043585043004e+01
1.955647456019121710e-01 -1.455110068461056061e+00 1.900222856383169656e+01
