-1.616848298260528782e+00 -4.420553053444380431e-01 1.271541742002563424e+01
-1.036877019328318106e+00 -5.341322282422424905e-01 1.265075057841803741e+01
-3.641496547752429258e+00 4.571714954086047555e+00 1.335339291927741456e+01
-2.440542154299272681e+00 3.182305825239467589e-01 1.712238055116399593e+01
-7.618344676727904385e+00 -1.319399148839201619e+00 1.313871478741978294e+01
-1.418890032827677672e+00 -3.093881901347891539e+00 1.764278315883221282e+01
-6.267932843679764332e+00 -2.885027888760347103e+00 1.697240290064527457e+01
-5.709907052153322837e+00 -3.906579573950771156e+00 1.629236793048128007e+01
-6.322609740739190798e+00 4.416103022819990898e+00 1.426877092661411339e+01
-7.927008808426544206e+00 -9.787201068367663570e-01 1.474800805744061805e+01
-5.918322867213644756e+00 1.608243099962280986e-02 1.076761332028571516e+01
-7.055715240471803540e+00 -2.222871423026343773e+00 1.661570754389558502e+01
-5.932908244320318047e+00 -3.589642603868762549e+00 1.479822853369047309e+01
-5.384378763205749152e+00 4.746269812554785084e+00 1.459463470239849769e+01
-4.208382247424349742e+00 1.622103765419919075e+00 9.089024833248146251e+00
-7.844577047909577772e+00 -1.734205430760184186e+00 1.411530375354233158e+01
-5.978257986556434034e+00 -7.430085370600736372e-02 1.086299742696338555e+01
-3.137805439805246177e+00 8.140229979889586076e-01 1.671663125577603282e+01
-6.607420688967270195e+00 -3.371175863105825954e+00 1.419730198934220411e+01
-7.727354956473543979e+00 -2.143118008290628040e+00 1.379619116060080231e+01
-5.346085438271632739e+00 1.145034811534748398e+00 1.606752187592290326e+01
-6.844044015263426317e+00 -1.080418313077987635e+00 1.664197515332304889e+01
-1.313295591393498052e+00 -3.766368686874498550e+00 1.579158709575770914e+01
-6.826456252560047844e+00 -2.841398013325550753e+00 1.307560460896173637e+01
-1.974583269287921716e+00 4.440723296504864415e+00 1.514330584010592773e+01
-7.844243007833100023e+00 -1.103502044785804603e+00 1.529823436812413817e+01
2.264046070172904823e-01 -2.047232486876140456e-01 1.564302512718790084e+01
-2.278193305067898855e+00 -3.911919552649525400e-01 1.284628046896649423e+01
-1.683003633174709135e+00 -6.667128530522690166e-01 1.759197797727522428e+01
-9.863534272731303565e-01 -2.124402973100373959e+00 1.404418135870228568e+01
-7.904858936725705831e+00 -1.529815953553493646e+00 1.434894727322352637e+01
-6.762048895816180405e+00 -2.238688375835197419e+00 1.252335333311577514e+01
-7.365916685901577665e+00 -2.708569995269977770e+00 1.341414940394549760e+01
-5.379504435289211628e+00 5.062834090315615487e-01 1.014867726815851867e+01
-5.123388349880400483e+00 2.586432799736903654e+00 1.099392779641843632e+01
-1.045473664336563635e-01 -3.279528430908874803e+00 1.711860670796957962e+01
-2.989953068343642606e+00 4.566064530798049859e+00 1.370653570297616497e+01
-4.687101780903468740e-01 -2.451129911275026885e+00 1.425415104215595008e+01
-5.613426664880396544e+00 2.016371426594217198e+00 1.090573002226516408e+01
-5.964691735820725427e+00 3.269374573983234278e+00 1.503918933229941857e+01
-1.607585484567420231e+00 -1.941914700930347237e+00 1.428115476656504157e+01
-2.709231142954253713e+00 4.215411739650126499e+00 1.342401038740583274e+01
-3.752907625410883075e+00 9.024800180321250753e-01 9.859491172977200790e+00
-3.980660905901473257e+00 8.313453689438373706e-01 9.851196239419937939e+00
4.447375942494138368e-01 -2.436423541608104593e+00 1.615033061954950355e+01
1.568878125736516971e-01 -1.422960537147780702e+00 1.644967849720223185e+01
-1.549922805199452247e+00 2.279604541818788022e+00 1.226683051303981742e+01
-5.178011030834099415e+00 6.189522933403948102e-01 1.000061869689895744e+01
-7.777061921413649159e+00 -1.951914148197807730e+00 1.391049206469235955e+01
-1.618056174523473167e+00 -1.892381499217418828e+00 1.766754608343594057e+01
-3.006421752119506685e+00 -3.487868507645706551e+00 1.537914039170060576e+01
-6.440860448439959640e+00 2.617475185235582202e+00 1.512896572566763709e+01
-7.794308852685547961e+00 -2.988569176679502171e+00 1.506866255504847985e+01
-7.602837968953144454e+00 1.533149571032571323e+00 1.379215039926093667e+01
-1.268674111843833385e+00 6.305113300606290938e-01 1.132368970925543650e+01
-5.618005546524522664e-01 -3.138820540237567513e+00 1.502582958017531567e+01
-2.069963046530871154e+00 -8.263929763979935839e-01 1.334959956889954569e+01
-4.030634022449865128e+00 -4.836379434309157066e-01 1.239280773683240611e+01
-9.409666370923588374e-01 -2.907404529201910837e+00 1.480094568250344977e+01
-1.971925236978974816e+00 -9.565876922453475650e-01 1.348748084505428935e+01
-9.634037959531152051e-01 -2.204373623648183678e+00 1.772722260707190500e+01
-4.787043461228914332e+00 1.781370311526047967e+00 1.596831338855111326e+01
-6.357698107120890452e-01 -2.029922706153172385e+00 1.390353649584231377e+01
-1.235901856700055923e+00 -4.726665816592521274e-01 1.752795419971194590e+01
-1.417586070460784553e-01 -1.647059914562374328e+00 1.696450000332273689e+01
-2.138274330844345705e+00 -1.044680775429624342e+00 1.360090647775333750e+01
-3.783632501447036667e+00 9.849818371461966926e-01 9.672519670213247878e+00
-4.356430215095278058e+00 3.210769024475240041e+00 1.557501671449240987e+01
-1.837560016906333971e+00 -1.682923006011466605e+00 1.760198869698600888e+01
-2.581785990953286536e+00 -1.755328351044147972e+00 1.422549167402943127e+01
-4.489101748566891592e-01 1.121387908390136801e-01 1.228504491068607862e+01
-2.404482875542559128e+00 -6.755222733989960648e-01 1.318990535815263243e+01
-4.947326213515222948e-01 -4.623201114701924741e-01 1.271765520955949924e+01
-9.588552176231631696e-01 1.882625920857038837e+00 1.630164472762477246e+01
-8.198756721427951089e-01 -1.331510864311276521e+00 1.339780813035681106e+01
-2.679719552945188710e+00 -2.235070426130087995e-01 1.256887836387913993e+01
-2.234686208347623548e+00 -6.329970505553375038e-01 1.314033801027228421e+01
-6.347079187606448514e+00 -2.239841315970548141e+00 1.691987244507935273e+01
-7.650711612755912938e+00 -2.981300319855840097e+00 1.421620999954985010e+01
-4.136107427511234391e+00 -2.491379559105060704e+00 1.443678257670527998e+01
-1.473989086597583320e+00 -1.061434829249605416e+00 1.768429794608117689e+01
-7.319534696017944153e-01 -3.228897688509965391e+00 1.513780157391451198e+01
-4.293835994097089603e+00 -1.203914930657825177e+00 1.693114355652174297e+01
-5.089228548509243666e+00 -1.440701876678797788e+00 1.308045571242429972e+01
-3.531598548607933097e+00 -3.210877284824306344e+00 1.502407019509256614e+01
-2.845905299481978012e+00 -1.085027291274563765e+00 1.721093241218143177e+01
-5.759404264928734918e+00 -3.759700458673649770e+00 1.500782840996211931e+01
-6.297951745159776848e+00 1.134857337232231478e+00 1.593330697177290389e+01
-6.290699269295036089e+00 -2.791446465430746926e-01 1.650350736250024042e+01
-1.440883760500680344e+00 -1.647109871383320989e+00 1.771415435482321143e+01
-1.439121716781341043e+00 -6.400896246256060351e-01 1.760396400254760962e+01
-2.687342616910195492e+00 -7.742244499165973348e-02 1.235779098133914644e+01
-6.186806503934123569e+00 3.441290987060994233e+00 1.293089912239863182e+01
-6.244626854003112015e+00 4.082145832832463128e+00 1.451630798820505319e+01
-2.067809395504798253e+00 -2.863160031871283540e-01 1.741445738566599388e+01
-6.747441089261164038e+00 -3.060238054635965543e+00 1.669625142448235167e+01
-3.246408738808983507e+00 -1.898911402837240026e+00 1.419752492238202635e+01
-1.422203259144496412e+00 1.176042794071530118e+00 1.079117841465487615e+01
-7.442672650488606489e-01 -2.781667586217384525e+00 1.460049235157748981e+01
4.850184725360415783e-01 -2.542602551021566626e+00 1.533708459495450072e+01
-5.463992953074274794e+00 -2.245780298151924370e+00 1.700189570450371335e+01
-6.194773834321898320e-02 5.456141631464591635e-01 1.590716456745630225e+01
-7.496790494198477539e-01 -2.937498121341656443e+00 1.478585427651279005e+01
-7.165552339460452558e+00 4.073713694113694217e-01 1.580329284167425286e+01
-3.135139507648937229e+00 3.506314069322390647e+00 1.178072831470358395e+01
-5.400019681254251580e+00 4.032948377337904233e+00 1.489885854253895658e+01
-1.201973258036557857e+00 -1.699991132622720169e+00 1.383009546863816652e+01
-6.709745109928936913e+00 3.174920678410199759e+00 1.460969424849322351e+01
-5.765912080892649172e+00 -2.560784042836156349e+00 1.359154327003620111e+01
-6.049212705617925678e+00 4.676977871900680483e+00 1.408835232912131730e+01
-6.007386388143297395e+00 4.024359153460592253e+00 1.466307715839998949e+01
3.612628014904022411e-01 -2.878183149117104378e+00 1.512712892746553095e+01
-6.807805889108376363e+00 1.073421307828223314e+00 1.183855484168614325e+01
1.774040192034316288e-01 -9.430185968546733744e-02 1.325802684574030010e+01
-2.778774250332296525e+00 1.568865789967468505e+00 9.225861529652352289e+00
-3.199923418206605863e+00 -9.370449702611800546e-01 1.333667486622847420e+01
-4.596689618210010764e+00 1.339499153548630028e+00 9.184059074628567743e+00
-4.364871437893311779e+00 1.305181276791066214e+00 9.140353813541405970e+00
-6.534475193447164543e+00 -1.402406372026940407e+00 1.677821107963907465e+01
-3.722126814893793600e+00 -3.550761550068350481e+00 1.647096960866293713e+01
-4.642731986921569742e+00 1.487362936471990027e+00 9.288915949404515260e+00
-3.283025867193844149e+00 9.887791662629585865e-01 1.662001127553818591e+01
-6.335894306086441219e+00 7.223244073395455045e-01 1.610210928208677572e+01
4.507556613835730364e-01 -1.944355444997563520e+00 1.439548944042887157e+01
-3.098504690800791828e+00 5.779777187821636408e-01 1.679175917470383794e+01
-1.323172693083739082e+00 -2.731915755938289614e+00 1.482910192524584048e+01
-4.585801307619469469e+00 2.266218913805529311e+00 1.010755891214732216e+01
-2.303722764661902289e+00 3.503197145226469189e+00 1.291193577691982952e+01
-2.962652864939935071e+00 9.631941088107426330e-01 1.673747782308286602e+01
-2.082437711118948265e+00 -3.197912505298428076e-02 1.735715723859771131e+01
-4.413796665316771950e+00 2.061943539066925180e+00 9.725551480699461848e+00
-5.497972980131834220e+00 -3.954916528337919068e+00 1.611707266451696441e+01
-2.674635181006484341e+00 3.383757603699959482e-01 1.701359140037093809e+01
-7.336958540725921907e+00 1.222581556045377882e-01 1.236160915028176177e+01
-6.020617407731617021e+00 6.140939007311108089e-01 1.046226879170324864e+01
-2.636844268772093436e+00 -1.149979112847145934e+00 1.367138058316519889e+01
-3.337465630735966471e+00 6.268506875832555725e-01 1.079601777250190153e+01
-6.262398234976247480e+00 -9.703593642352981163e-02 1.644678875355257830e+01
-5.475542920799641777e+00 3.530318067615990874e+00 1.241775303603493441e+01
-3.577661666105520499e-01 1.858347792908352059e+00 1.455320477150004521e+01
-5.148015867321610983e+00 -3.196553021957380558e+00 1.470509314778378140e+01
-2.967813233033031572e+00 2.279853786091545764e+00 9.655287390463730191e+00
-6.579263731310870611e+00 2.222714219884621478e+00 1.238178512779023421e+01
-6.066220081479634985e+00 -3.044881924662968142e+00 1.702327422722653338e+01
-5.364336400433307617e+00 2.397807843797704841e+00 1.561073653750471735e+01
-5.143686581122704382e+00 2.425388156426405484e+00 1.565340969092795476e+01
-4.231484644539042606e+00 1.115654392143254681e+00 9.323482142785827875e+00
-6.010271720689360109e+00 -1.931011390194116384e+00 1.240133474491396370e+01
-3.561269513288948918e+00 8.840155935280008537e-01 1.005902777862009501e+01
-3.740079129736044727e+00 1.766878653127626819e+00 1.625831937526936954e+01
-3.098648950032603988e+00 1.958687359045762522e+00 1.639380318918754043e+01
-3.727511491137584621e+00 -3.589629439857995763e+00 1.547876245334703427e+01
-2.739755268309867819e+00 -2.282278891099303042e+00 1.739468092874475857e+01
-1.424535629883383558e+00 3.241821478449048222e+00 1.427660805585076886e+01
-3.188220761668438819e+00 -1.739502918811990373e+00 1.409322498276918978e+01
-4.091532599764285294e+00 1.988113700688752816e+00 1.608434863862414588e+01
-3.705873509224127282e+00 -8.127627814067170942e-01 1.305271785715806132e+01
-1.629673049545747876e+00 -1.382736754908043597e+00 1.382597372165929883e+01
-7.766093297976659926e+00 -3.763331844473052357e-01 1.517285494022035763e+01
-1.298362902379800232e+00 1.364245706429427107e+00 1.681434472889383969e+01
-6.449903001931142299e+00 -1.917291283652452716e+00 1.686175239007540583e+01
-3.430087661069203264e-02 -2.935623583197295439e-01 1.304577103603636701e+01
-2.442587004130167827e+00 -4.978204790167197746e-01 1.297092235333191823e+01
-3.864676743084889399e+00 -9.568945666112858017e-01 1.318544603108329838e+01
-3.118208830537494869e+00 1.758840022780747692e-01 1.180711135703097980e+01
-1.489499882146347431e+00 -2.287112003958782669e+00 1.450008204009420254e+01
3.402286172247248608e-02 7.132747691007140789e-01 1.349408009477668102e+01
-2.827778654722263418e+00 -2.345528109910770542e-01 1.255123367776520027e+01
-2.828012699171622124e+00 -4.298417762641444373e-01 1.281407345015194821e+01
-2.653793555449197594e+00 1.558070445034336338e+00 9.309796243562885820e+00
-3.968709835203408698e+00 1.050639644196121436e+00 9.455493739490695049e+00
4.255601290602375464e-01 -2.802773639013115492e+00 1.613675895216906397e+01
-6.415635587845470056e+00 3.249312516836716291e+00 1.293357433179170712e+01
-3.054607806998211661e+00 -4.575155895897220493e-02 1.221323230505324986e+01
-6.783012163372609038e+00 2.861768926170891625e+00 1.471866696428610410e+01
-2.228602229696241110e+00 -4.809031814686348660e-01 1.295361261649099660e+01
-3.723140703934360474e+00 -5.880957359460023959e-01 1.689056336244467005e+01
-5.697382802560730930e-01 -2.775235741258652578e+00 1.458351390455002772e+01
1.969428377209236913e-02 -3.519480936750436939e+00 1.591728443774012547e+01
-4.099595892259261243e-01 -8.700094330938443754e-01 1.308547590902051283e+01
-2.706756045294089752e+00 8.675371971933577564e-01 1.075496234429042985e+01
-2.732588479002081350e+00 2.480090538494868824e+00 1.023331731177344395e+01
-3.369721109000631820e+00 4.213079954369757019e+00 1.539488384820190348e+01
-5.690487708009969836e+00 -1.658757821740996619e+00 1.243036562866553041e+01
-3.719898780820272144e+00 1.677675454373320774e-01 1.139325541650388018e+01
-2.613872678809153527e+00 -2.036668158613211155e+00 1.442255811294680612e+01
-1.074686964101307485e+00 -4.785985453507888288e-01 1.748487361729393896e+01
-4.322260838420927342e+00 2.604362667095172057e+00 1.579555729733416669e+01
-7.271838875929642398e+00 -2.435461418696044156e+00 1.639925781573480279e+01
-6.849995759808100715e+00 -1.644894725796507640e+00 1.222575193374771985e+01
-4.052059312625226895e-01 -2.490998744991116176e+00 1.744433962873051414e+01
-1.435308950563550567e+00 -8.187339222357166157e-01 1.310854274335499881e+01
-4.620722511934832077e+00 2.777769276447753732e+00 1.565462293983906861e+01
-1.783223805968654485e+00 -1.901118655551496506e+00 1.430640364573823220e+01
-4.988381821404580529e-01 -2.922671855244948436e+00 1.752234069050582477e+01
-7.714013053110042151e+00 4.677125324005225737e-01 1.439676045796552373e+01
-3.066860399017977468e+00 1.366864251186426626e+00 1.658871592127860239e+01
1.137808635199808460e-01 -3.418222067864867597e+00 1.652894930189676259e+01
-1.053481600809069940e+00 3.510151955737085272e-01 1.710413026634340738e+01
-8.383729832962103501e-01 -2.285417850569420484e+00 1.769639567797742430e+01
2.773641302597289471e-01 -6.933506989869830939e-02 1.362526491865360967e+01
-5.599815396393733380e+00 5.016167082678535394e+00 1.416315132153551914e+01
-2.072168898582786856e+00 -8.996818529748125126e-01 1.747904446307004989e+01
-1.904734004022006211e+00 -1.490042434221548362e+00 1.757287901897367632e+01
-2.641901195201778130e+00 -7.888635234568797117e-02 1.711840369952168928e+01
-1.509467262814144339e+00 9.076405338708694037e-01 1.708757292407783623e+01
-8.466074473460794003e-02 1.250746546077500243e+00 1.534142812100850151e+01
-2.486116208130000338e+00 1.386374081357651944e-01 1.714237048391655449e+01
-7.901734528185983208e+00 -7.725129336387461798e-01 1.475674355788374115e+01
-5.674699388314929926e-01 -2.595514875787856113e+00 1.439236136754928097e+01
3.151310713257338136e-02 -3.561671468257645579e+00 1.648904971782255657e+01
-7.587326006040417070e+00 -4.753840574536245533e-01 1.313421025082822169e+01
-2.680663482213885729e+00 1.543409596294026409e-01 1.199052174167829676e+01
1.722974591356818408e-02 -3.291177435790399564e+00 1.541289057342968150e+01
-7.154137597793969405e+00 -7.096075343708785343e-02 1.194717266911088061e+01
-1.491696800021480307e-02 -8.859902455495536344e-01 1.649308421726203377e+01
-2.149232222490224498e+00 1.825456144207978415e+00 1.019972587573883160e+01
-2.262128189177706084e+00 1.225122903059026047e-01 1.725057347548175457e+01
-2.553904434353533315e+00 5.026143129840380475e+00 1.499169981651617078e+01
-3.054509482606005299e+00 1.711041199272935742e+00 8.952877169070255547e+00
-1.085595706913906167e+00 -1.257924707714524803e+00 1.769856651012235815e+01
-2.269492086251913676e+00 -7.017905416542415953e-01 1.737711216726308905e+01
-1.221367490526326760e+00 -9.725686959663542019e-01 1.319013718213689756e+01
-2.275824913886974166e+00 -9.478830258687165333e-02 1.728672360884496939e+01
-1.551876592270647892e+00 -1.517092794909293829e+00 1.389975038698381482e+01
-5.351937126490662777e+00 -2.598129060534285273e+00 1.410980468512785890e+01
-8.205398925519964415e-01 -2.047297010679230311e+00 1.769379940611760205e+01
-6.275591915680420740e-01 -3.050627596803292985e+00 1.756897687858220891e+01
-4.007834206160285184e+00 1.286169605370934388e+00 9.119361188604411694e+00
-6.189973931044377764e+00 3.848709581376532629e+00 1.334726426133840604e+01
-7.849921564503881122e-01 -2.365276704513247896e+00 1.419345303524711355e+01
-1.467026645392654594e+00 -3.833800317320018358e+00 1.637852774966863834e+01
-3.328481818159358507e+00 2.241528411134033894e-01 1.160175419809594288e+01
-2.268003683948738747e+00 -8.936686563175217923e-01 1.739289033752691083e+01
-6.131399936177679422e+00 2.964536907983954972e+00 1.239397159226179568e+01
-3.771354835660977844e+00 1.090763219446126087e+00 9.479456349478915911e+00
-5.506139909244623709e+00 -3.826935594728389844e+00 1.512603742920382288e+01
-5.472035199588452414e+00 -3.449989030925783240e+00 1.707350598990855062e+01
-2.625613379512400591e+00 -1.608136167824120388e+00 1.410102761312777275e+01
-7.261534383539268944e+00 9.222390763986653139e-01 1.534787500463429311e+01
1.869336462948318900e-01 6.517583596962519543e-01 1.469437712353753156e+01
-3.721898552191310827e+00 -2.709748226230246360e-02 1.181443921833148991e+01
-4.931468751937980954e+00 2.569235499889736207e+00 1.079013801305329778e+01
-5.338688188372607613e+00 7.676823204425053948e-01 1.619489281248431567e+01
-9.320411980004256192e-01 -3.209708019789020206e+00 1.515758977530475349e+01
-7.574828332826265553e-01 -3.098992801909125294e+00 1.498591811778945626e+01
-6.865349324757863414e+00 -1.819373205082549294e+00 1.232791241649267633e+01
-6.900281715723243892e+00 2.119553550141491716e+00 1.282953238450597766e+01
-6.455403087588205580e+00 -1.973877154336794781e+00 1.230216932374132810e+01
-4.120481314628739788e+00 4.986391556006045001e+00 1.389719028243881738e+01
-3.244052563886842044e+00 -2.116238696917267514e-01 1.239130900453292483e+01
-8.393345525851405586e-01 -3.103984270931481326e+00 1.762490099110405950e+01
-4.397691683057761480e+00 8.608843406938833098e-01 9.678784308941914105e+00
-2.054701957885805452e+00 -3.770693041575395199e+00 1.675277977663343520e+01
-8.140055772262522193e-01 -2.506376377378816578e+00 1.768493812845693824e+01
-2.729041163153584026e+00 7.564117439649788999e-01 1.093610387915461857e+01
-4.779856373011531545e+00 3.221128650033886931e+00 1.545176554694501547e+01
-4.820112503449500707e+00 3.823004521442257442e+00 1.518802713819199468e+01
-3.297119236263413633e+00 3.789112215884934409e-01 1.677414982726654458e+01
-7.750992157835982610e+00 2.437627934701759314e-01 1.423165881455260617e+01
2.337223592844333009e-01 -3.132436470684708318e+00 1.536250940157931311e+01
-2.842665287696103160e+00 -8.786842436405162271e-01 1.335683313920353399e+01
-9.487261960915670533e-01 -2.857327946865933388e+00 1.473782756356926527e+01
-1.114357685343685622e+00 -2.897514772747019851e+00 1.487895429767396038e+01
-1.450416802627640722e+00 -3.785309598912597551e+00 1.697287425549044215e+01
-7.460151255842919493e-01 -3.884128906958315142e-01 1.253860177325413972e+01
-1.932394503946780029e+00 3.662604680299433202e+00 1.579609399113681079e+01
-1.885793578345239530e-01 -1.795790851221620521e+00 1.707977506163961223e+01
-2.188363248070702038e+00 -1.809068157033608681e+00 1.427892477123942072e+01
-6.409530640131540835e+00 2.484744775376728221e+00 1.231910681941458918e+01
-3.469932057935913861e+00 4.439058488204731034e+00 1.322875687057243610e+01
-3.267340411646636467e-01 -3.762812436989629639e+00 1.633621279385073777e+01
-4.142028167019620177e+00 5.671696545433142500e-01 1.024977572580857910e+01
-7.028613945589590628e+00 -8.218092093487578964e-01 1.196661765510411968e+01
-2.019754186753143443e+00 -1.089414332224696524e+00 1.751473517486757103e+01
-3.937501279561955503e+00 2.384631769726380135e+00 1.598232650896138196e+01
-5.621233098683926954e+00 3.471035639529381545e+00 1.248261485297541995e+01
-1.888212143580238145e+00 7.097259112017088034e-01 1.719188819113518107e+01
-2.208068622256448510e+00 -1.540697330227127182e+00 1.405948957423595758e+01
-4.393840796146794681e+00 6.118241165963347328e-01 1.004388973294507892e+01
-7.097609706361721393e+00 -2.661230409064634372e+00 1.651000254860307948e+01
-4.429074605341465798e+00 -1.477321842339640146e+00 1.697368646894021893e+01
-4.099269531999592431e+00 4.804247814180394371e+00 1.351646585025966729e+01
1.763025568340583771e-01 6.140333437814518014e-01 1.487418030395071256e+01
-3.995516185055766112e+00 1.636459736780205176e+00 8.933182334728769547e+00
-1.615285102515086058e+00 -2.173442377268929970e+00 1.447604364137866284e+01
-6.113365535315598009e+00 -2.263634607971222845e+00 1.695907633514275048e+01
-1.798381278420883689e+00 -2.104034006620699504e+00 1.446875817019013155e+01
-2.067532763487883507e+00 -3.204030683485718178e+00 1.522532943358919866e+01
-1.155524980151800163e+00 -2.311140530774976831e+00 1.774107721271161253e+01
-1.554575270972832435e+00 3.512934768924820261e+00 1.445376543520778156e+01
-1.175126171851324841e+00 -2.103993928274158431e+00 1.774747985603196909e+01
-4.606923045102714553e+00 -2.339229292006481220e+00 1.420411785346814426e+01
-3.682654302309374739e+00 -2.442510131411335106e-01 1.681307625811428963e+01
-1.304507347193019084e+00 -2.255240470422114285e+00 1.772618495835963515e+01
-1.262512367479341480e-01 -2.466445802316626246e+00 1.713267686951789059e+01
-2.188903443033237473e+00 -1.037374927462786367e+00 1.743735268917268044e+01
-1.640358011749878830e+00 -1.654226286826906200e+00 1.766737820505417389e+01
-1.060410177424012002e+00 -3.816295288739478764e+00 1.676059913469996232e+01
-3.963293167407995199e+00 2.807754165559821491e+00 1.582939688928010824e+01
-5.926096021288875804e+00 -3.382301473976939477e+00 1.459074450473290696e+01
-3.891573751777257506e+00 -2.290600100752504531e-01 1.205459278303499460e+01
-5.868395350929727528e+00 -2.508277991545799779e+00 1.318926926071121031e+01
-1.087343173180617129e+00 -3.833860465745884127e+00 1.655785184611327665e+01
-7.709021236382170628e+00 -2.653815465578249544e+00 1.411842053394972751e+01
-2.863034178663733442e+00 -1.484016988986414987e+00 1.395844556654082069e+01
-2.413598570232752927e+00 2.538341769717319174e+00 1.093665644358052802e+01
-5.440663182921573693e+00 2.278358029075938429e+00 1.563987584247650275e+01
-6.360522431826123313e-01 -1.491649995289324071e+00 1.350747084809247056e+01
-3.083575648099925903e+00 -4.399198942322501971e-02 1.694524205441320319e+01
-3.883452856832777300e+00 1.154059228892355682e-01 1.134156272194523396e+01
-7.377727246178640286e+00 1.859718309059080532e+00 1.442104361451724159e+01
-4.877605063684856468e+00 4.493448350343930642e+00 1.306015431263546489e+01
-4.933751356945109023e+00 2.394196236480711448e+00 1.059097632273987344e+01
-4.692397444421058772e+00 -3.903867681510966747e+00 1.572836265454379756e+01
-2.564213768571951491e+00 2.287995927102248750e-01 1.187275819613005368e+01
-1.422477096821995968e+00 -4.537492226652346528e-01 1.755057091032238148e+01
-1.960142873387738183e+00 2.687974092916861846e+00 1.211569629035416895e+01
-1.622986508692297880e-01 7.824446843941642582e-01 1.302330613526304504e+01
-1.658621862520484491e+00 -1.051327797699106448e-01 1.745920721614368532e+01
-6.951730597495603403e-01 2.696884858815121522e+00 1.521127613253654332e+01
-3.859315453530938633e+00 -8.484522295513321488e-01 1.304859348994215296e+01
-6.144736928366848261e+00 -1.577667473758358252e+00 1.205621104969482715e+01
-1.949424020003176050e+00 2.533042450549789493e+00 1.185226632839176020e+01
-1.666053011255475447e+00 -2.895891984332030766e-01 1.751427075762278562e+01
-6.705373119569239648e+00 -4.369791296260847613e-01 1.152569528186032599e+01
-6.351225373031995858e+00 2.157943421108986737e+00 1.198756594834613409e+01
-8.899358082647712553e-01 5.486940342418860084e-01 1.693221825086187593e+01
-1.464973583946190372e+00 -1.402323116422479199e-01 1.744881385761964410e+01
-3.062163553597031740e+00 3.347424989007841134e+00 1.154317467504465000e+01
-2.523472889181717527e+00 8.628587780365676307e-01 1.082221799496605641e+01
-2.709453073817015500e+00 2.755578585492187038e+00 1.622125479268708759e+01
-7.169095216424132389e+00 9.711122862216118312e-01 1.234580009347407170e+01
-5.730219658992364629e+00 2.004869860861084874e+00 1.568513917733101337e+01
-4.902864312321570495e+00 -2.857771535126282902e+00 1.450609827613957847e+01
-3.922967720762489119e+00 2.481407747076488368e-01 1.103122411665280467e+01
-5.186741976284269029e+00 4.801393624155964268e+00 1.464528773354090774e+01
-6.861578811569339464e+00 3.255323558191852040e+00 1.428585825964300327e+01
1.538368929619540193e-01 -2.840596980326610677e+00 1.677254717299026865e+01
-1.977298645796425891e+00 3.003567623433531786e+00 1.266319095432045216e+01
-7.701921027424500465e+00 -2.597578040297490176e-01 1.532484816412763351e+01
7.245704146544462709e-02 -2.648879656242166369e+00 1.689790757070379001e+01
-3.826987166008881225e+00 1.485625420859205903e+00 8.946551310355584263e+00
-4.216386327731607153e+00 4.864628499973690623e+00 1.492317565463107698e+01
-2.521419709630537964e-01 -2.101598417352720016e+00 1.724157262738067331e+01
3.112177232517510106e-02 -2.893375436654623378e+00 1.481047880288177865e+01
-3.102033438080471495e-01 -3.872558633765665892e-02 1.253721158016066184e+01
-5.957032180662047427e-01 -1.880609982178726547e+00 1.379303674757839460e+01
-1.180046774784386354e+00 -1.525074325182222967e+00 1.368070345144110789e+01
-2.122431681476423471e+00 7.925775268707099253e-01 1.099259699784088085e+01
2.962329637124649917e-01 -3.198358867747920442e+00 1.575187272929204241e+01
-1.868422251310816851e+00 -7.419193328271433963e-02 1.743064197372301649e+01
-8.702490628058083821e-01 -1.465106182132700940e+00 1.766449514384431652e+01
-4.977740760044204293e+00 4.018896051696049909e+00 1.505440145413531994e+01
-1.647991887701551805e+00 -2.690571624782448268e+00 1.763023602293227654e+01
-1.664422246281420215e+00 -7.294082241711639103e-01 1.310051355037730403e+01
-1.884879238262297863e+00 -4.603229146262330929e-01 1.751138935515036721e+01
-1.194783259630233907e+00 -1.280231326088306254e+00 1.347562831292423979e+01
-2.014016894965499738e+00 -6.641621463457019203e-01 1.748546051869583451e+01
-5.749477195405637175e+00 5.165177208501303685e-02 1.640508068076338688e+01
-4.821233508514881194e+00 8.814670980169642123e-01 1.624085139231938868e+01
-1.660780487717358866e+00 3.239366785489654621e-01 1.731839071959695175e+01
-1.434221005536013838e+00 -1.042218226591613561e+00 1.336903926098812079e+01
-5.762929376330114817e-01 -2.354238204487496322e+00 1.416289089377748311e+01
-4.443257064406689771e+00 -9.829013735846556798e-01 1.293860242502045921e+01
-1.615951964768335802e+00 1.712117862334304075e+00 1.109038123465543535e+01
-1.111609292106275237e+00 -6.398359774538486811e-02 1.731626565497431258e+01
-2.673311477469209496e+00 1.158074398208020828e+00 1.679066773041605742e+01
-4.684776523957840944e-01 1.988814634171310436e+00 1.443931586390512578e+01
-2.667091509192992760e+00 1.286715004245852612e+00 1.675254518289129990e+01
-4.733862217231757263e+00 -3.823740699007232458e+00 1.654423225418826249e+01
-3.934110815741670653e+00 3.359017367942629839e+00 1.563470824135243831e+01
-2.125073458202084709e+00 2.776589004774936864e+00 1.628510646792421213e+01
-7.859824525359593750e+00 -1.579297539456893329e+00 1.417336665290146058e+01
-1.219179955635128820e+00 -6.972531313724839030e-01 1.287613074053409079e+01
-5.502864880944345671e+00 1.416859061285270283e+00 1.019281677635470729e+01
-2.699977449051880640e+00 3.365452424337768367e+00 1.192536922663564880e+01
3.262026969902960261e-01 -1.539312143645830133e-01 1.408363741762937238e+01
-5.560866790967013529e+00 4.970057971580360778e+00 1.442991024318287074e+01
-7.655191987518259467e+00 9.995412400307326362e-01 1.405043865803515146e+01
-5.626388979191967010e+00 4.653869422282694401e+00 1.453869976621821891e+01
2.635855168244105595e-01 -6.149717409170494253e-01 1.567859677489756010e+01
-1.588941993554875198e+00 -1.104708026699110723e+00 1.352730612978379199e+01
-2.961963913428765416e+00 3.654552076944609595e+00 1.219120090474526208e+01
-5.502647856206953847e+00 2.966279898052451180e+00 1.179255318545961373e+01
-2.914584268943236189e+00 3.163480669712836590e+00 1.132430833889798194e+01
-6.252014313932031442e+00 -2.287105939135383625e+00 1.260258139237547326e+01
-8.376998016741744602e-01 1.137111775880217834e+00 1.665727206320833531e+01
-1.069043665852480673e+00 -1.082378819947919402e+00 1.766609911825404922e+01
-2.434092040372565435e+00 2.333957434456352509e+00 1.052300691070152894e+01
-8.649866932843170986e-01 -1.091756157021670504e+00 1.760461109613961028e+01
-2.112453170695337779e+00 -3.009627200982193607e+00 1.509314311153183397e+01
-3.098735297446407744e-01 -1.450363758403178771e+00 1.719768017086117950e+01
-9.316268291223283038e-01 7.252409064862490595e-01 1.689071936568872090e+01
4.139690227263830291e-01 -2.974276257445546356e+00 1.596251056777921562e+01
5.600855376903008942e-01 -2.335335538756061258e+00 1.526171877262448717e+01
-7.711249631814713013e+00 4.344808775874308693e-01 1.372274593612879201e+01
-1.997398458281432809e+00 2.157171192935976034e+00 1.105826194643475091e+01
-2.167986222392120688e+00 1.160486016521564245e+00 1.038347710268454804e+01
-3.329517587856567484e+00 7.970296475563334315e-01 1.045448543340002701e+01
-3.416725437353251404e+00 -2.513138215393029729e+00 1.733860366440393008e+01
-2.014226221127008998e-01 9.934627696702915678e-01 1.588624994367656384e+01
-5.699966607224377313e+00 -1.437122650539115476e+00 1.683846073188709269e+01
-3.894566479996793840e-01 -1.297755088304425097e+00 1.729289893763003860e+01
-7.689891827805960034e+00 -6.071435656916492896e-01 1.559961695907695756e+01
-9.406248347296319867e-01 2.620094966107987311e+00 1.582749152812954563e+01
-5.729071028341785166e+00 3.162394127837154567e+00 1.518037208361169732e+01
-6.791528779695642726e+00 2.004519535591328339e+00 1.520701557318407637e+01
-4.464213011028386191e+00 3.317673002975055407e+00 1.550493019854351573e+01
-7.249182921836226257e+00 -2.110135006458669693e+00 1.284027993350892061e+01
-5.640147702821867171e+00 5.209182265421074653e+00 1.432041169221146859e+01
-2.968773983155056140e+00 6.983099503678527054e-01 1.093236420445020585e+01
-2.207599292082197628e+00 3.932497768724513953e+00 1.389495297144855002e+01
-1.558561490444904774e+00 3.653699681970048907e+00 1.467301367520593303e+01
-2.231837635287138077e+00 -3.226393068029647093e-01 1.274152547562876592e+01
-6.105912291466180974e+00 -1.172460602714799904e+00 1.174231677694444542e+01
-2.280540866427831048e+00 1.671276048215752930e-01 1.197438080604613120e+01
-4.407503398272916151e-02 1.162135636109506542e+00 1.526531705167485242e+01
-2.249670724809230471e+00 -7.528109296808127571e-02 1.238018657917083587e+01
-2.034872063960295741e-01 -1.452602185661190592e+00 1.702134863310983448e+01
-2.285877929213623982e+00 -1.454888537858853859e-01 1.250209726099346241e+01
-3.554437358547774650e+00 3.599613886615318670e+00 1.563714074289720557e+01
-3.897969791395313521e+00 -1.654887954192166166e+00 1.711202666618262569e+01
2.925343676304288376e-01 -2.406953660483698965e+00 1.656444582056196069e+01
-5.512231244443626110e+00 -3.984569445654856601e+00 1.591509083228759280e+01
-2.376145001473159546e+00 4.848366596232515313e+00 1.501571188427220349e+01
-4.475763989623207095e+00 -3.808964094797746114e+00 1.627805166551671689e+01
-1.804277415754369507e-01 -2.295285805556865011e+00 1.414076266105380242e+01
-1.670157858469029311e+00 -2.785921732161416031e-01 1.251654308140847505e+01
-6.206411199102680243e+00 3.042280965948208848e+00 1.254293740330007623e+01
2.932416863898186232e-01 -2.606780450746199573e+00 1.656219840714984670e+01
-8.654525567252936424e-01 1.802709154275471848e+00 1.626684206091096385e+01
-3.566153889657221576e+00 -3.118615567126298949e+00 1.495456663944657194e+01
-5.644439421176491223e+00 4.306711670927793278e+00 1.346182505855658817e+01
-2.089751307847204309e+00 5.353145819729370203e-01 1.720853736702075665e+01
-2.715302287814661319e+00 5.116755378252799691e-01 1.135901553082274162e+01
-5.859766191063053853e+00 3.085585512924692964e+00 1.227101036587565019e+01
-5.161069102182143098e+00 2.618341401886549402e+00 1.557668744329659560e+01
-4.884284538771039408e+00 -3.849996416944265754e+00 1.651024169732187019e+01
1.362446715714149548e-01 -2.711645355664692669e+00 1.462863039694603273e+01
-4.189416644912760113e+00 -3.730641510331360600e+00 1.546773352876397567e+01
-2.105222291427173431e-01 -3.729160949769130262e+00 1.649438228344532220e+01
-3.816835538909642001e-01 -1.912485663250799384e+00 1.381966553960460331e+01
5.776394654348848690e-02 -3.075553026431776527e+00 1.691928077252168450e+01
-5.341389105994474917e+00 -9.804662291956245390e-01 1.674666287756881999e+01
-6.495436446851936552e+00 -1.617143588659692988e+00 1.681538766553600439e+01
-2.277887706529440504e+00 5.362228069876688874e-01 1.713860389063612999e+01
-2.243366307076919419e+00 3.275740404097052805e-01 1.720996828888939589e+01
-3.680760599484875772e+00 2.544401526454346474e+00 1.600598648033318838e+01
-6.512025166637039675e+00 -1.238332719444522834e+00 1.675322407291586657e+01
-2.620662157110089652e+00 -2.669737478675622722e+00 1.743814589140363935e+01
-4.181235998912337104e-01 -1.549082978868128180e+00 1.356448957498950492e+01
-1.281901678504017372e+00 -3.688915660567426702e-02 1.736062843536610600e+01
3.615177728749121577e-01 -9.268623549444554577e-01 1.424113019030236060e+01
2.919465220473487221e-01 -1.221544810876370235e+00 1.602752880166933735e+01
-1.453069822662631516e+00 1.422700485511417812e-01 1.734255212277701830e+01
-2.110862100210737946e+00 2.626681928625679063e+00 1.635497984873311239e+01
-2.365636963456024811e-01 -1.225448033401577597e+00 1.702498267707465729e+01
-2.041388831900395218e+00 2.436224571170649833e-01 1.181882829166056226e+01
-1.295626857713205071e+00 -2.901933131225533646e-01 1.746897055947815502e+01
-4.189880500682648723e+00 2.600319078169762044e+00 1.583427254302403142e+01
3.306911206824900695e-01 -9.332327583912296554e-01 1.402698509409005467e+01
-1.058694408935094033e+00 -1.098826939458736218e+00 1.325216115535341643e+01
-2.711789328408779731e+00 9.623810820798117671e-01 1.057734489181660464e+01
-7.077763045737119896e+00 -1.059113223945770343e+00 1.651397227207678142e+01
-2.709258029086003106e+00 6.751982586071265668e-01 1.108224175343931606e+01
-1.820938107197218159e+00 -1.088521045411201538e-01 1.233123549806976982e+01
-7.372683209801694559e+00 -1.877200501762477547e+00 1.283445135164197737e+01
2.014285259081656232e-01 -2.919096011991481721e+00 1.495218044455758033e+01
-1.978395900062425383e+00 -3.974306534111589073e-01 1.279891304968692722e+01
-7.735658054160779784e+00 2.821259024622546630e-01 1.400032893623270880e+01
-4.251907340856524442e+00 7.339212497133917879e-01 1.640983395758660279e+01
-2.197931058329690046e+00 7.277211980310817063e-01 1.711227239099066466e+01
-2.245730013381984413e+00 1.136871880679411362e+00 1.695740664970266565e+01
-1.926667236103561276e+00 3.195082827877107512e+00 1.604359677645234328e+01
-2.909841482444879279e+00 9.734365931992960963e-01 1.043197267597520650e+01
-2.004298143848278091e+00 -5.118919452388366320e-01 1.295536208674285561e+01
-7.222075860760309496e+00 -1.033110759170498882e+00 1.220840131565964626e+01
-7.717335653383070593e+00 7.256179041684285291e-02 1.369604469982826700e+01
-1.873522564750476516e+00 -3.722286575658442231e+00 1.721682610594470120e+01
-4.541258955462975422e+00 -3.360839301608016250e+00 1.495404770412170947e+01
-5.711974896302134397e+00 -1.923687123381051745e+00 1.693238130083691217e+01
-1.687330934139278593e+00 -6.134522158940665104e-01 1.296818382727887453e+01
-7.140299133503102524e+00 -1.632705886568164733e+00 1.657317637044479497e+01
-5.862103402468619606e+00 -1.673260411324008157e+00 1.228521538548243441e+01
-3.213147028105283187e+00 1.314242340952506360e+00 9.462212835132159938e+00
-1.426516956013878179e+00 -6.803286535479666775e-01 1.293663257607622441e+01
-5.685275271246906570e+00 -1.084281571710880909e+00 1.180250945393968109e+01
-6.178153948221762448e+00 -1.712434270790798241e+00 1.215015487271181271e+01
-2.889808059670679441e+00 5.482867269456075388e-01 1.123651519199458804e+01
-6.287055694050170729e+00 -1.689877381218799268e+00 1.211120895966401534e+01
-4.706870804067047942e+00 -2.892219783036853453e-02 1.653166507055476941e+01
-3.750562876273858315e+00 3.190793598316036928e+00 1.575565013393793024e+01
-7.361049574822049024e+00 -1.412384652784085315e+00 1.636075675744392655e+01
-3.841314169059575345e+00 -1.125227905344607482e+00 1.338705783157883999e+01
-2.350622261725053619e+00 3.314260398603001256e+00 1.602623417426564956e+01
-2.514516943638780866e+00 1.563294988579034372e+00 1.671207855939231379e+01
-2.403555335060167941e+00 -1.334404415125397758e+00 1.386954624120325619e+01
-2.755757562998621957e+00 5.834901262833636082e-02 1.213516406790312274e+01
-7.559953432819769503e+00 1.225409813859620334e+00 1.443163637086029283e+01
-2.906599172447345669e+00 1.345060947680129404e+00 1.664960434757708541e+01
-1.456828673057154910e+00 3.452683537484448895e+00 1.574689541434370810e+01
-8.813363990168054940e-01 -3.837540985795753201e+00 1.636604670750756085e+01
-4.036097639566515127e+00 -1.346342538283522572e+00 1.356617156871962138e+01
-5.711092487360584613e+00 -3.623322348802991755e+00 1.489247166999681227e+01
-1.255807243900330938e+00 -3.843677429167281723e+00 1.637909401547060284e+01
-1.096102325204786343e+00 -3.849238465519326802e+00 1.619363124783406604e+01
-2.603095083775930352e+00 -1.025191207393791437e+00 1.354815842992445241e+01
-2.756046119149787366e+00 3.262171458771407906e+00 1.599480119939137879e+01
-4.095493380918050264e+00 3.997940438622979098e+00 1.233685523576773235e+01
-4.468331031108167650e+00 1.374260801698837797e-01 1.077721527598559348e+01
-4.891689493741946393e+00 -1.038102119254417310e+00 1.679702688673060251e+01
-4.766017774431071885e+00 -1.538365389824245533e-01 1.105481818663232119e+01
-6.855046699276707844e-01 7.577376401246087578e-01 1.191838258637339365e+01
-1.898778157539850797e+00 1.545334020464636637e+00 1.685618458572002609e+01
-2.311051358842206138e+00 1.137762768427329485e+00 1.039379133895843310e+01
-4.824768436161159357e+00 -3.055993587662192645e+00 1.716786595165621421e+01
-2.572038800665432667e+00 2.932564082305433306e+00 1.133923544682062712e+01
-6.498702481138394660e+00 -1.405129613840117031e+00 1.193362985392536402e+01
-3.873066634512359663e+00 -7.688842248921425870e-01 1.293845169848640708e+01
-5.063853486855546038e+00 -3.642652141965399437e+00 1.505949743163315802e+01
-3.766095186029268405e+00 2.628909643874544955e+00 1.012819441216510441e+01
-3.601886536904893799e+00 -8.874574372626609087e-01 1.317685063045192706e+01
-7.881923812257275230e+00 -8.330410187133709954e-01 1.495113109794750628e+01
-8.050384516533295454e-01 -8.575223243337932733e-01 1.752758559812707873e+01
-6.061504732259015427e+00 3.012133386545841951e+00 1.512032961519214425e+01
-1.876744507997558209e+00 -7.824431040770978285e-01 1.325381209240648062e+01
-7.023014095658561828e+00 1.894537313423314995e+00 1.286354347939288445e+01
-2.087648803272915909e+00 1.525102575512770064e-01 1.731584954797834897e+01
-2.752362156159392725e+00 2.594933689785095421e+00 1.627192568292985797e+01
-7.373123637819336551e+00 -2.007564168651235104e+00 1.293847330535269080e+01
-1.405165042097144212e+00 -1.526110497627852780e+00 1.381877449854176021e+01
3.625341605097531783e-02 -3.114126008365037279e+00 1.513778000043638983e+01
-4.279658183969676788e-01 -4.554402447463739012e-01 1.708352653398704390e+01
-1.455776855524413271e-01 -3.171674243759062151e+00 1.514075068027308291e+01
-1.118977050894521152e+00 -1.842107752759252648e+00 1.388709545850135285e+01
3.663181311708996191e-02 -1.846284287710411309e+00 1.675897265695281746e+01
-2.744508111628519931e+00 3.119194288124474301e+00 1.606206389512528077e+01
6.558173518678600544e-02 -3.332498243808935001e+00 1.554671235723010980e+01
-6.528954487288920916e+00 3.044043945318981148e+00 1.484015350346786377e+01
-6.143395313447237882e+00 1.419009164663239453e+00 1.584802092061058332e+01
-4.519170275415206106e+00 -3.686759327183370516e+00 1.521936162880902899e+01
-3.768007245626725510e+00 2.817368289280258065e+00 1.588622057751342354e+01
-5.844369506704859774e+00 4.880151170655608439e+00 1.433873958530767467e+01
-6.907330439607200390e+00 5.498466621244710861e-01 1.594875784077234826e+01
-2.952238342637248714e+00 3.477596947084667933e-01 1.157266373898901080e+01
-3.451696715793871828e+00 1.838208667598900670e-01 1.677380405289478560e+01
-6.456670058884284913e+00 -2.138426528801893767e+00 1.242465176156273188e+01
-2.846428894890765893e+00 2.402379656070289249e-01 1.180520901555577140e+01
-1.742628348950563844e+00 8.976207345220187372e-01 1.086571317086944433e+01
-5.052678564283416662e+00 -3.061689825766561679e+00 1.714079903614982570e+01
-1.304269532688053568e+00 2.631680160607028363e+00 1.609661323255749821e+01
-3.830506640397145723e+00 5.020500304155709692e+00 1.405547691665636378e+01
-1.136037396919774567e-01 -2.664725218465657797e+00 1.714737867244231140e+01
-1.731604159107548169e+00 1.243886528349400722e+00 1.039547233203631649e+01
-1.019117429527913732e+00 1.724720913553607238e+00 1.258526042446606752e+01
-6.770350814500371683e+00 3.014130043607353482e+00 1.330256607007725833e+01
-7.301217669748464090e+00 7.729593550502676935e-01 1.539014237987342071e+01
-3.353322416011841778e+00 3.970624761827395766e+00 1.551598420353108665e+01
-4.207676582129473708e+00 5.297807445743194066e+00 1.470444645779913984e+01
-6.922377501888103524e+00 1.799179907036909221e+00 1.521162019696604872e+01
-6.085999780296905470e+00 -1.823167214058556418e+00 1.227812904272793659e+01
-4.388182416518027651e+00 5.218074162277752670e+00 1.473780346151858467e+01
-1.755210916451371395e+00 -3.591274352945123205e+00 1.556599380459945436e+01
-2.382990745028666701e+00 -1.595691256061144703e-01 1.252510356380919276e+01
-5.717391277933558946e-02 6.545608235644688744e-01 1.578104057226314794e+01
1.489549421481213276e-01 -3.035504784695676417e+00 1.675117003860114195e+01
-4.082596478457845457e+00 -8.148523592838232688e-01 1.686808212814534258e+01
-5.592080541066199117e+00 2.078918057676228059e+00 1.568619041011956128e+01
-2.276300293124608132e+00 -3.731447337034867751e+00 1.598312633097046032e+01
-2.256420837782238564e+00 -3.184780412489613965e+00 1.517729027516670826e+01
-5.153615430173910994e+00 2.161044808534892780e+00 1.575110840835482051e+01
-3.238739472364553951e+00 -7.665497458338252912e-01 1.313060334286914710e+01
-1.823490412988003184e+00 -3.788662789194072289e+00 1.677165118504868602e+01
-4.685502256739807692e+00 9.601461755684396193e-01 1.624522665787504039e+01
-4.918552052265504848e+00 1.573456809678793533e+00 1.600928704191727903e+01
-5.820859628365326444e+00 1.252998480254780889e+00 1.049016918059480119e+01
-5.074544897401056076e+00 1.783885464926784570e+00 1.590324266299846911e+01
-1.903993810566103395e+00 4.123589250568748810e-01 1.154779651000432850e+01
-3.511140724764915788e+00 3.375018977460086944e-01 1.671823746661424437e+01
-1.900864575589378269e+00 2.237653759826056632e+00 1.652871490778572294e+01
-4.102852424073116788e-01 -2.403064420000540213e-01 1.695645036790905991e+01
-5.340468969142133204e+00 1.859668141172519995e+00 1.582257580700672506e+01
-2.153277807220348450e+00 -2.315945304772409674e+00 1.464574496833840200e+01
-8.980702478877742312e-01 1.356931045712989281e+00 1.658331277694462003e+01
-2.153518309121852603e+00 -2.575976114128244010e+00 1.481730042567125238e+01
-4.708730929841600243e+00 1.370079067309245779e+00 1.611807108971784785e+01
-1.865160721897585860e+00 -2.116039059134154687e+00 1.759408912835349881e+01
-4.892058433505581228e+00 1.166192790467587947e+00 1.614040349973449295e+01
-1.429189007632864383e+00 -3.304080164440325262e+00 1.760612011124000631e+01
-3.586259602518248046e-01 1.607581531785773787e+00 1.576191447359983400e+01
-7.322553520425088003e-01 -1.611153260548325861e-01 1.234423966572741804e+01
-1.666934188698790287e+00 -3.247378550358091864e+00 1.532041803407676994e+01
-1.270741154247512661e+00 1.223547629255534952e+00 1.116077924452298831e+01
-1.542091146815789182e+00 -3.385260716410831705e+00 1.542716852294356400e+01
-2.763835345563366630e+00 2.081296265485618413e+00 9.645874131597487633e+00
-7.398727452883406386e+00 7.852840353453527378e-01 1.522875321696685447e+01
-6.516978984479573356e+00 4.029589502310193971e+00 1.427457491651365373e+01
-1.758200802376368888e+00 -3.382622752938010180e+00 1.539833670373654329e+01
-4.904679186651498490e+00 -2.864919230553931939e+00 1.713983351419835444e+01
-1.975164436469451390e+00 -2.802024959629493051e+00 1.498162613349463967e+01
-7.367570840497910112e+00 -4.929102327950498630e-01 1.246324110437482702e+01
-1.703393213189974942e+00 -3.038139894402625885e+00 1.516864184473189781e+01
-5.094831432455123377e+00 -1.076111819646032641e+00 1.678957029717104987e+01
-1.906015464466133347e+00 2.126134281535192461e+00 1.658886342149186888e+01
-8.761627565941859652e-01 -3.835906788083884855e+00 1.615892779809496815e+01
-5.121492990941248991e+00 5.668409285252480334e-01 1.628842953093967694e+01
-1.142537883536829169e+00 -3.829053822554237207e+00 1.597723302607034768e+01
-1.387356989611786773e+00 2.045271878320916725e-01 1.182800329955717089e+01
-9.907184370709354315e-02 1.449865088962254855e+00 1.492893651899901286e+01
-6.108669110575039696e+00 -1.853665163660122239e+00 1.689454984503489143e+01
-2.076661629994632996e+00 -2.263687759772593733e+00 1.753300138714768863e+01
-2.471769624579406521e+00 -8.802861191183115608e-01 1.730357663743044938e+01
-2.081985652300318623e+00 -1.845064771242350687e+00 1.752302582546634468e+01
-4.186975393643310284e+00 -3.170019996770399029e-01 1.194290337851163386e+01
-3.844984916574661238e+00 -3.101066919906272368e-01 1.223900875656289955e+01
-1.023757429012304820e+00 5.727965221531405859e-02 1.203474748230130231e+01
-3.763463275318321699e-01 -1.355627511215500292e-01 1.685220596960609996e+01
-3.625294044341356603e+00 -1.068779440731758124e+00 1.337997069054287280e+01
-4.701434959905623323e+00 2.938669330629617882e+00 1.102666865781447214e+01
-6.725911070154877436e+00 3.380884289933100195e+00 1.443769236058921379e+01
-2.267279336150465952e+00 -2.491499928933321950e+00 1.749199623951163929e+01
-4.354786445195296452e+00 4.638139499046061154e+00 1.497853348000694851e+01
-3.864011221489997538e+00 -5.457564300930681789e-01 1.261097464507851029e+01
-6.001834012888306091e+00 3.770375355221495806e+00 1.478616444053792023e+01
-6.669223479728040971e+00 3.889193233640668157e-01 1.121184267076054297e+01
-7.147962743324050905e+00 3.672327119921536820e-01 1.194832324604396590e+01
