-3.950387510454108853e+00 -3.918793102997354172e+00 1.820176828157867277e+01
-2.103350298180112432e+00 3.459641572783514363e+00 1.737597990575884666e+01
-2.526221999557707321e+00 -8.736478621247512066e-02 1.830692184564797031e+01
-7.148282968061955955e+00 -3.765022043971077981e+00 1.724296132779924307e+01
-2.721162755028601943e+00 -2.895973451703226953e+00 1.867760083977830732e+01
-1.851062653538555036e+00 3.029521330758081277e+00 1.750600788697233412e+01
-2.757513943339505946e+00 4.115152935046910709e-01 1.185118302514033672e+01
-6.871667592611525599e+00 1.605455966754837593e+00 1.733222501580345210e+01
-4.337256831186243389e+00 -2.457784966383427250e+00 1.867103156687458210e+01
-4.372797747973939053e+00 -9.040133630368112350e-01 1.518763466115321137e+01
-2.756222972982385500e+00 4.277148226328431058e-01 1.816119553497161832e+01
-6.305187391149901011e+00 6.155203277753542590e-01 1.767945010370070946e+01
-7.291962357797230787e+00 -2.973457941485693201e+00 1.803342223652865783e+01
-6.062943610143258333e+00 3.475154717614686639e+00 1.697138630907259937e+01
-3.148983395926790774e+00 -3.844822951675227696e+00 1.752214462746778878e+01
-3.483006221823483628e+00 -3.490601073465299020e+00 1.851299347660489758e+01
-3.355494103861785149e+00 -1.514181039998416356e+00 1.589263860509237958e+01
-7.497808257320601300e+00 1.872648303005325365e+00 1.427251509909787330e+01
-1.363044128433310798e+00 -1.870911713367946483e-01 1.337614529245297490e+01
-3.955410825404058084e+00 -3.508798602023861068e+00 1.847414660300509581e+01
-5.045488638819077387e+00 3.475584134079121590e+00 1.721536939485715578e+01
-8.001981061869319234e+00 -2.392763187587356732e-01 1.371210644869434958e+01
-1.948403840847746427e+00 -3.172169801160017233e+00 1.697127112302860752e+01
-8.399226520092362591e+00 -4.988829403172672095e-01 1.687085156668581476e+01
-3.718008008475833570e+00 -2.912579354492123240e+00 1.866091157456221339e+01
-7.951549163122630937e+00 3.255399388189745835e-01 1.374592554247983145e+01
-4.518743230265806154e+00 2.968323742502146700e+00 1.337839893216522569e+01
-1.755078030920228294e+00 3.016572531384063005e-01 1.281679276062369155e+01
-3.115532992756136821e+00 -4.426825042798387955e-01 1.831573677151187951e+01
-7.600161310637584933e+00 -2.516485438542302777e+00 1.472387961387840960e+01
-7.374437303418095446e+00 -2.561865849172799248e+00 1.470005223926010274e+01
-7.707879038243763858e+00 1.101645953334586814e-01 1.339161985748189210e+01
-5.929012319216099947e+00 -2.021595584285278857e+00 1.833704632729580908e+01
-9.133762169337719117e-01 -1.519955298388677711e+00 1.852882384294736795e+01
-9.280008801292674026e-01 -3.485388466980934741e+00 1.817411662231954494e+01
-5.873292649839749302e+00 -2.999251391416494439e+00 1.838680316002869830e+01
-7.616061746555227607e+00 -2.609231155552901971e+00 1.513492381744090665e+01
-5.082005720593011588e+00 1.181383156883139884e+00 1.783336538690045359e+01
-1.444413883404457755e+00 3.230016737471697930e+00 1.685908235050133896e+01
-3.953711802971556999e+00 -1.886559382569357179e+00 1.613211621018390218e+01
-4.404955736470947514e+00 5.218895256809819028e-01 1.129899497680236209e+01
-4.511534317283671935e-01 -1.883554271755555565e+00 1.793300772979488755e+01
-6.058317781284107362e+00 4.052331740757399992e+00 1.673230256505760138e+01
-7.587009572682957170e+00 -2.668337394855818001e+00 1.532010854638795649e+01
-3.529428062525369558e+00 -6.871089800093668210e-01 1.500778546182257145e+01
-6.847732673687336735e-01 -2.494881936618173146e+00 1.822234111613594365e+01
-3.046425408760108366e-01 -1.359741183675321707e+00 1.591041681930799001e+01
-2.594469094692783973e-01 1.141136366110298006e-01 1.500767506807864748e+01
-2.540200971766911398e+00 -4.022366100016144586e+00 1.794464032002036902e+01
-2.317560625084199355e+00 -3.685178197790953458e+00 1.733985402309528467e+01
-6.032360552345376270e+00 4.491685812989841153e+00 1.655324874066732121e+01
-3.094464017490379693e+00 2.494051823461713724e+00 1.376747850676502338e+01
-8.098926212543833714e+00 1.215766552590253902e-01 1.392369688699024266e+01
-3.546874796256768825e+00 -3.952195029723576614e+00 1.817859441176390334e+01
-4.541500596101913700e+00 -7.827965352517600728e-01 1.499762692428621591e+01
-2.227450635295490589e+00 5.323827722564089537e-01 1.249178711734861480e+01
-2.170048168385467324e+00 -6.642614036900371666e-01 1.434657175842734489e+01
-8.239186744818137953e+00 1.807715025805337827e+00 1.568188633900461326e+01
-2.973541743231123302e+00 -1.539308646659755642e+00 1.590172304527808933e+01
-3.274653278023398784e+00 2.200518349560848019e+00 1.778048910087846934e+01
-1.749428489318210378e+00 -3.798748890028183833e+00 1.757954643758264979e+01
-5.099421899858686658e+00 4.410499182285761322e+00 1.517651966964726284e+01
-2.151811751586436117e+00 -3.442410506335476850e+00 1.718704398886266915e+01
-7.328554143792665343e+00 2.870452334044375498e+00 1.489024210707897566e+01
-6.605359774158688246e+00 -1.684037007956964427e+00 1.378242931391216786e+01
-4.372770152376420638e-01 -3.013534188235662103e+00 1.770589812852664124e+01
-8.116860784271491269e+00 2.048548288757682911e+00 1.524672293267404655e+01
-3.135685896869670586e+00 -1.127742582130074833e+00 1.552799424045660714e+01
-8.292561868760586208e+00 1.053322490956493995e+00 1.481372116163576891e+01
-3.765548123238077416e+00 2.107006396910485524e+00 1.260055273773968310e+01
-6.991371191135431040e+00 2.909724157674522527e+00 1.462495089048040597e+01
-4.928331659082510363e+00 -1.673402080544501569e+00 1.574465772870647839e+01
-7.991865524277186772e+00 -1.749612268103295509e+00 1.766224905547698398e+01
-5.566778852038001268e+00 -4.468282387741235873e-01 1.304570814831336634e+01
-6.640345421362600753e+00 4.555463245899254332e+00 1.604221717481284770e+01
-4.886814525220546379e+00 -3.091933725713174486e+00 1.859883630633814988e+01
-9.665048348121808575e-01 -9.630955806431837907e-01 1.440459028009400555e+01
-6.752001609648282887e+00 -2.457000375190737440e+00 1.532235120364258307e+01
-5.194466765639869088e+00 -1.611799945735004069e+00 1.562140417068822984e+01
-7.701951665605727193e+00 -2.168903646722028622e+00 1.788764721306893790e+01
-2.564174144653318610e+00 7.414012045220390590e-01 1.226908285455024128e+01
-6.814377396734899506e+00 -2.566420676549518998e+00 1.550448670557167929e+01
-6.958714698066372328e+00 -3.773815969862168718e+00 1.766032578725153002e+01
-6.814151872368134022e+00 -2.386157214636178470e+00 1.452006294504137429e+01
-5.310008032712284276e+00 -1.022183405141630086e+00 1.826904565715879869e+01
-1.523270442517991263e+00 -3.167799772893944432e+00 1.684858970926071464e+01
-1.352942285542072298e+00 -3.915770484369563764e+00 1.814377557874947655e+01
-6.454164937859835582e+00 1.212298047901402720e+00 1.754005653205300064e+01
-2.412503709795422502e+00 1.312483909997848031e-01 1.280351818960826193e+01
-4.003453806824378347e+00 -1.167726462339988558e+00 1.849699976117101130e+01
-4.749699909557985933e+00 -3.252848706174169546e+00 1.858278748519271062e+01
-6.545176995386587926e+00 9.721681998947686587e-01 1.274176125876721244e+01
-9.660991609595128704e-01 -2.343970038280458024e+00 1.584084215353065872e+01
-5.719289340879487149e+00 -1.856028537258067157e+00 1.836254465507469291e+01
-3.300942967541242279e+00 -1.291637971903353943e+00 1.851466763766764956e+01
-5.330666034041544599e+00 -3.590504053071501556e+00 1.834867089776944482e+01
-6.465965170688837027e+00 4.742033585464002776e+00 1.608169099944618807e+01
-4.557716191978362197e+00 5.810655773622652731e-02 1.283516340349398632e+01
-8.200059978894120860e+00 -3.067965044477380498e+00 1.650858724703660840e+01
-1.131427277303210799e+00 -2.317883367104526915e+00 1.864392186364585768e+01
-2.670789024018804803e+00 1.953548494817164416e+00 1.791594271866305377e+01
-7.938480282713200609e+00 -3.467494819435155140e+00 1.687031975993283339e+01
-7.408050685429419246e+00 -6.491404243822103126e-01 1.302836037816953052e+01
-7.593543125410084471e+00 1.356864720205957386e+00 1.710056178570821572e+01
-5.141567629346354806e+00 4.617438756778564635e-01 1.133857590389600034e+01
-2.686329146846393456e+00 9.265516170710985655e-01 1.809140884882194911e+01
-1.031092620989302766e+00 1.942635858990906961e+00 1.549967728027345970e+01
-2.254758737351951314e+00 1.486860902312767241e+00 1.806276983545139814e+01
-7.690580941678664573e+00 -1.409431057105560825e+00 1.777198174944759046e+01
-7.531180722757942370e+00 -2.306762881227896411e+00 1.438716592918540016e+01
-3.942333274410578792e+00 -7.521910278645767001e-01 1.509375562036807850e+01
-5.411314363288290963e-01 -3.277306911786300514e+00 1.715584252549204081e+01
-2.373986955305223745e+00 -8.930244246150738086e-01 1.495747868814097359e+01
-1.488371829652428868e+00 1.579809474054725715e+00 1.799482841824848123e+01
-3.774322497913406682e+00 2.303171655776881988e+00 1.283616744018609523e+01
-1.347950990568123508e+00 -3.634152113496815328e+00 1.738621108301266815e+01
-3.696980771701950719e+00 -6.580893689051681150e-01 1.835805940979400219e+01
-8.056676456565828204e+00 1.955939548166750974e+00 1.629085448772929112e+01
-3.942813886295288395e+00 -6.457357518639330607e-01 1.496369518562771361e+01
-8.296335012956442156e+00 -3.215355553797265564e-01 1.469568292247262775e+01
-6.571671738919302008e+00 -1.492351474182451732e-01 1.232975509379774337e+01
-8.880123119341319926e-01 -2.301001435573365672e+00 1.848321240826458478e+01
-6.500697615656322981e+00 8.470323882505652602e-01 1.759558366636732529e+01
-8.249495762911260854e+00 5.235421969510676288e-01 1.678535425954571991e+01
-4.770325529209679338e+00 -2.229279247455677737e+00 1.620206549064595691e+01
-4.084047050226482511e+00 2.367379508300075486e+00 1.768047958099130312e+01
-7.925464737176756813e+00 -3.176005543326721803e+00 1.751119223089704491e+01
-5.549442313626017587e+00 -3.898120532048116704e+00 1.783150886646659927e+01
-1.759110288190582239e+00 -2.891725224545736328e+00 1.664869926698283820e+01
-8.054608025185601150e+00 -1.382656629493768996e+00 1.756740230948337711e+01
-4.511881974496505521e+00 3.722967932837331961e+00 1.424265241897451517e+01
-3.385447232085828873e+00 3.626325216784471728e-01 1.186157618298611993e+01
-2.483180168380006769e+00 2.100404221417914385e+00 1.393507556018470694e+01
-7.759895276708088652e+00 -3.185323656556359406e+00 1.771872286474996372e+01
-7.861604648175872789e+00 -3.104858881305327056e+00 1.765197697284389733e+01
-4.583372114640289041e+00 -9.712167148483348278e-01 1.520003128956633276e+01
-7.198205847559322024e+00 -1.722254897508991522e+00 1.372169159990924214e+01
-5.291543839226555690e+00 9.566699535363671902e-01 1.161963964972531471e+01
-8.201664337730699472e+00 1.847734489703027894e+00 1.523708460822005861e+01
-6.113406491955362121e+00 1.671911656381164235e-02 1.783819915828467373e+01
-8.523678590931517363e+00 -2.566533297576114592e-01 1.612082414054489732e+01
-7.605572692177353211e+00 -2.572516121635798125e+00 1.494635874458137437e+01
-1.536301717229073827e+00 3.384989399476252103e+00 1.687635574102439762e+01
-7.419651290057069914e+00 -2.616504102556362010e+00 1.510193809550933963e+01
-1.459265656284963519e+00 1.109150599699417983e+00 1.401439005622609102e+01
-8.445966169828668768e+00 2.545337842078940760e-01 1.521118839718059945e+01
-8.046277469354397027e+00 -2.815430806459469082e-01 1.387757177180476731e+01
-2.265256955075768630e+00 3.587318693194471830e+00 1.734032010080555608e+01
-1.520513126853023866e+00 -3.890199535569017097e+00 1.834085972808609455e+01
-4.578170163342045740e+00 -1.304124393087688460e+00 1.552364698891648942e+01
-6.395416800137728508e+00 -1.085791184146278621e+00 1.321738327488148457e+01
-3.507023871129925308e+00 -1.485064155456651491e+00 1.855304938513340574e+01
-6.728030540624858169e+00 -3.609959134914979995e+00 1.802479546998806370e+01
-3.779032868305092663e+00 1.053760705840188994e+00 1.149627569399324756e+01
-7.806268104602022362e+00 -3.404276900549383367e+00 1.751469598100823077e+01
-5.594992847474062003e+00 3.450965603000311077e-02 1.205738679476478126e+01
-8.166657640781018745e-01 2.005826683603579408e+00 1.716225016152365868e+01
-5.346648751652957721e+00 -3.910380234728535687e+00 1.760194723360422131e+01
-6.000334350785347937e+00 -3.727918023720615537e-01 1.249189412332381011e+01
-3.653857968031763548e+00 5.220918406844681670e+00 1.661177989468816918e+01
-2.551605481929176467e+00 -3.429779485754636870e+00 1.715229968679093275e+01
-4.922124633403317517e+00 -1.905413062127032653e-01 1.811915526320423453e+01
-4.862805755769785243e+00 2.096676421126922651e+00 1.249813521578290931e+01
-5.746780249553486541e+00 8.798527173237102872e-02 1.195198076625125339e+01
-6.618779431417521897e-01 3.375248236785823863e-01 1.788048170261524206e+01
-6.323150210472398669e+00 -2.936728424629297063e+00 1.622618925662152378e+01
-7.782399156856148359e+00 2.815446620462773275e+00 1.596070879622542549e+01
-7.523267346999419125e+00 -3.677138204047055492e+00 1.740873662573280001e+01
-5.330907269985336150e+00 3.490845448382879468e+00 1.427594218654029845e+01
-8.047706885245798247e+00 1.272451880845321792e+00 1.673078142043475935e+01
-5.356701655768365100e+00 -2.096281126992802779e+00 1.595934147615558629e+01
-4.579885892313746432e+00 -3.366736207596670027e-01 1.421685076628736510e+01
-5.588459198982103082e+00 1.559829691635843396e-01 1.184389084070893716e+01
-1.168807799391056168e+00 -2.120635718285368565e+00 1.565140099188148071e+01
-8.353916936047623309e+00 1.398349045868155560e+00 1.564313588518687936e+01
-8.068273558366492182e+00 -3.313118996511934089e+00 1.705304738469363457e+01
-2.557337636300173411e+00 4.409952930840594476e+00 1.663055044832914575e+01
-4.801622574110709252e+00 -3.596983066884703373e+00 1.703671197019814798e+01
-7.667416346901474000e+00 2.502811029415977551e+00 1.646220709526747328e+01
-1.362304203090894061e+00 -2.816212425780936446e+00 1.640576799768873428e+01
-7.944589533450817420e+00 -6.638362138445184080e-01 1.366947955263963621e+01
-1.736733711856740525e+00 -3.328393676596739237e+00 1.706199784578853951e+01
-1.774785785188452758e+00 -1.588104776002818852e+00 1.545432996660910874e+01
-8.492145908853160563e+00 -6.893778977999232005e-01 1.630037926612559573e+01
-7.905403661204601029e+00 -4.660756474572269603e-01 1.352774135880500950e+01
-7.534016550165420156e+00 -2.489963761816996968e+00 1.460022723258416022e+01
-4.591738035893790482e+00 -5.315291181264387710e-01 1.460226779665426022e+01
-3.080150597415888480e+00 -2.757177252096565390e-01 1.827517522641212366e+01
-4.514951599707146102e+00 -4.287011859419287418e-01 1.826867630757353567e+01
-5.844315235493913185e-01 -3.006143139712514678e+00 1.659953904277132608e+01
-1.718858954472325395e-01 -4.904502697521473387e-01 1.557889736371918588e+01
-7.208304145490745718e+00 3.897964488514570558e+00 1.578678032832485911e+01
-6.978611832650107871e+00 -2.482477859625948913e+00 1.453046877476968746e+01
-3.254572713060838174e-01 5.919875144625623697e-01 1.725269794884024321e+01
-5.962474700089376078e+00 -1.353017697561715416e+00 1.437828161597364129e+01
-5.746489054489109627e+00 -3.880568498460176929e+00 1.782004158742822142e+01
-1.797634722087056991e-01 -9.878850435709018996e-02 1.541202954321323659e+01
-2.721989192606552255e+00 -5.040432073323932727e-01 1.446502328104036650e+01
-5.192048509892466690e+00 1.872400151780211353e-01 1.189366305544611890e+01
-1.227555360595151912e+00 1.640683054019981491e+00 1.489252268418867686e+01
-6.099997978575156132e+00 2.099120662158902473e+00 1.327368988646455961e+01
-5.351090823137575114e+00 1.757496040255349889e+00 1.241721566752325145e+01
-7.606552097822436131e+00 -3.238551355534384779e+00 1.626546874577768165e+01
-6.990815015701856261e+00 -2.377500405499382463e+00 1.435765755553408241e+01
-8.327998961103929787e+00 -1.398249513170018776e+00 1.521673464332204162e+01
-3.757764246560074017e+00 -2.744658265025603061e+00 1.665174342435378918e+01
-7.834739803095838617e+00 -9.193567557217328101e-01 1.361200547126715321e+01
-3.736476070535357685e+00 -2.361201267591115371e+00 1.645223326848457646e+01
-7.073280555546856974e+00 3.306714560920887891e+00 1.654180240255429624e+01
-2.638002392885869796e-01 -1.197514000842041515e+00 1.673285910039249558e+01
-6.906202874456633722e+00 -2.409317707731834179e+00 1.442372420919676301e+01
-1.871434454021222216e+00 -1.518441468396062533e+00 1.866091414151191685e+01
-3.769151281359701233e+00 -3.685324888263813659e+00 1.836726866559693150e+01
-5.501836456478199189e+00 -3.093115005413875185e+00 1.845805830893937838e+01
-2.066928525772514291e+00 2.417328988027018788e+00 1.477022700989788717e+01
-1.864934430292062739e+00 2.074804191123663877e+00 1.789346966661738492e+01
-6.650468779742452874e+00 -2.322259089009583111e+00 1.473984343348423920e+01
-1.099015371356923731e+00 -1.756415613866742387e+00 1.865075871155402609e+01
-3.540370462683912756e+00 -3.654899929237624523e+00 1.841273433246034585e+01
-4.317671991344957050e+00 -1.052610726818742570e+00 1.846886748818013757e+01
-9.159374810240639153e-01 1.138626263700816210e+00 1.784964920063750071e+01
-8.249137199579958946e+00 -2.929735221405905587e+00 1.646593214845884035e+01
-1.164778897284746373e+00 -9.596262105518733598e-01 1.435872433746195753e+01
-5.532468202654259315e-01 -1.899754266016708382e+00 1.809214270223915833e+01
-6.939095268861144028e+00 4.206781629268311562e+00 1.599889457559921624e+01
-2.482338259669617742e+00 4.405191202770240011e+00 1.677140676030580124e+01
-6.941809691821512196e+00 -2.637573972745984374e+00 1.551534035287157565e+01
-2.145962850642023412e+00 -1.013863435333673291e+00 1.497049985288044383e+01
-6.288572770483405350e+00 1.569425899186183138e+00 1.751276949371362690e+01
-4.764436959634837265e+00 -2.100485835498837606e+00 1.611197811860870388e+01
-8.144921947954745889e+00 3.405826213209439679e-01 1.413611466825619090e+01
-6.194317846988732779e-01 -3.120307044215715475e+00 1.796585021444334274e+01
-7.869655252171482651e+00 2.610760963856554540e+00 1.529416308763282473e+01
-7.169704525037493781e+00 -2.702545734423959178e+00 1.549013130693717244e+01
-7.358252475490058231e+00 -3.724122412470364463e+00 1.722333263565299433e+01
-4.471562933388634420e+00 1.618600721482521543e+00 1.784082785660525872e+01
-2.819559949419825351e+00 1.097526530753255791e+00 1.235984839153664439e+01
-7.927704469181192870e+00 -2.765133798210960503e+00 1.770731903499093107e+01
-5.101819834647416396e-01 1.410787486235776100e+00 1.691227708155949472e+01
-4.340852325708673298e+00 -4.494160637930812996e-01 1.461484522614752279e+01
-7.156916708310853359e+00 -2.807391210541517967e+00 1.567810597072453049e+01
-7.361305516299956331e+00 -9.878680007211126934e-01 1.324109791599732944e+01
-7.925235505063423780e+00 -3.484946623984152669e+00 1.703737624259974837e+01
-8.292976933990919619e+00 -2.684724907320235499e+00 1.694576636727834540e+01
-1.971745623239592238e+00 -9.991305465122479745e-02 1.321761273231707889e+01
-6.134633393409714142e-01 -1.961211834342328597e+00 1.818179242092901404e+01
-1.282107017891276346e+00 1.526575985647969258e+00 1.793578140062857784e+01
-7.537383817132553787e+00 -2.186778748669788275e+00 1.796342644213441986e+01
-7.098129703038761562e+00 1.255980607109638214e+00 1.734807209640131020e+01
-1.185717115185255466e+00 -7.145506196860931247e-01 1.404817179785752046e+01
-7.961253454705270904e+00 -3.339897460827556674e+00 1.729435131702032891e+01
-6.929928110536697439e+00 -1.187318362322950627e+00 1.795155215992058828e+01
-5.896845747923065595e+00 2.033719316702429225e-01 1.783640612627497291e+01
-4.975921017738143881e+00 -2.258042639707089627e-01 1.349078604800256187e+01
-7.169730911499619275e+00 -2.579316420996613513e+00 1.473001346409092349e+01
-7.175085409048799434e+00 -2.589391578740599886e+00 1.492760655810838699e+01
-4.273887828292316726e+00 2.416243453337580505e+00 1.766035472204573153e+01
-1.875710311074836767e+00 2.187781125917411362e+00 1.785145311615885078e+01
-6.556317605321783759e+00 -6.148160360478134301e-01 1.265233956944587845e+01
-3.744047975553840502e+00 -3.905128948120836885e+00 1.822543317415073716e+01
-4.151014534387751809e+00 -2.899481401606087250e+00 1.865925055736457949e+01
-2.367624030320651940e+00 -1.121221576752309712e+00 1.529026407040077373e+01
-2.331311226578370199e+00 -4.063574676535663954e+00 1.813244823932141969e+01
-7.764611743167118441e+00 -2.995884109879439539e+00 1.592116120269086110e+01
-1.346016779689600762e+00 -3.724042664396861380e+00 1.838634418553378680e+01
-1.176700050321466406e+00 2.750541364536496225e+00 1.675187726190299742e+01
-9.737338173350766901e-01 -3.696767579147632876e+00 1.794452904529617143e+01
-5.455933734849238270e+00 -2.454536541793966631e+00 1.618107399387401557e+01
-5.373003469240992480e+00 -2.962087472576292679e+00 1.650730756351091344e+01
-1.461696261820804921e+00 2.572870510453077575e+00 1.757483540525961274e+01
-7.540560882704059331e+00 3.428619399301708448e+00 1.576074608905891949e+01
-2.894617803211971374e+00 -3.687397867457946621e+00 1.850563281887340139e+01
-8.203745157216157935e+00 -1.923409644772455795e+00 1.743082662518143877e+01
-6.456254468720767470e+00 1.030582919721343194e+00 1.268691237767266955e+01
-6.933832515367731375e+00 -2.530426086059894164e+00 1.506916204458470077e+01
-3.995052578890990080e+00 5.690824549612134575e-01 1.128319014338432424e+01
-7.334990850305522336e+00 2.139489824483011393e+00 1.694201683016989790e+01
-7.307894706771834059e+00 -2.556447023289811771e+00 1.806578300518174274e+01
-8.153986346602081881e+00 -3.112594278674076786e+00 1.707315573925273355e+01
-2.829678262279011758e-01 -2.653298410410316333e+00 1.738563109626768721e+01
-6.154537026515719766e+00 -3.825501720108048342e+00 1.784270249468416836e+01
-3.189849435467203564e-01 5.148419397880119597e-01 1.504826112417901385e+01
-7.531385645981005794e+00 -4.157542065445687385e-01 1.306654596727364748e+01
-7.857370030864417210e+00 2.556458140820363045e+00 1.610417529658251823e+01
-2.556832413872688115e+00 -3.777771290091388234e+00 1.742000422589944009e+01
-7.144710955086586601e+00 -3.587371934668836193e+00 1.787920834145885607e+01
-3.127535498763629462e+00 -3.998678244311330676e+00 1.798356426449931433e+01
-3.220496260337676997e+00 4.785326664577675970e+00 1.691793913827749662e+01
-7.398752990677796681e+00 -2.348560970865116726e+00 1.435159494729447971e+01
-1.271520128597179777e+00 1.134990385253434653e+00 1.806746370398636259e+01
-7.444009028422235552e+00 3.320449006733781960e+00 1.538772887889739849e+01
-6.814253304644257714e-01 -2.658295533886862128e+00 1.617917112164971627e+01
-6.616191094513313331e+00 -2.037179625618162238e+00 1.422232829225924888e+01
-1.361361856009074112e+00 -3.852952817917131956e+00 1.775163508864921624e+01
-8.204554474743170900e+00 -2.140961512004415201e+00 1.740278655234133254e+01
-2.280279941263337662e+00 2.255874270879010268e+00 1.434512659036338533e+01
-3.270119646777371436e+00 -3.448851383795787040e+00 1.711392931794837580e+01
-6.501548743863780899e-01 -2.030645653966367536e+00 1.567930828507668650e+01
-3.777376113377324707e+00 1.898733162861665491e-01 1.265750809775821750e+01
-1.978542554654345587e-01 -2.722051260086777447e-01 1.499049475088588679e+01
-1.366602527845817594e+00 -9.046568163963213394e-01 1.427602388164874725e+01
-7.265022177602942222e+00 -3.179021259614446482e+00 1.799353013962134895e+01
-7.186791973783269505e+00 -8.586727254805772702e-01 1.303496728540101657e+01
-7.350347075194163082e+00 1.686766585713099786e-01 1.308334772961522674e+01
-7.217958276167920850e+00 -1.289687406999553865e+00 1.337672201549086282e+01
-8.120134463872577868e+00 -3.274906250244182804e+00 1.687394399417905078e+01
-2.337322303647787702e+00 -5.322604279115221715e-01 1.423693938483643251e+01
-6.809197868282169885e+00 4.067327228017783014e+00 1.634156398349141170e+01
-4.971022424570360698e+00 -1.528538609121707914e-01 1.323520973375789822e+01
-3.729791988971782324e+00 1.842406722411100262e+00 1.231563329393204498e+01
-7.521905326473189213e+00 2.965479130597566293e+00 1.630704266609313180e+01
-4.070633725667930136e+00 -4.891800113624196200e-01 1.830661116343443240e+01
-5.346533211133434049e-01 -2.296264071235885051e+00 1.803653260399550362e+01
-1.151220014056274721e+00 -3.508964183701932971e+00 1.838423939439173438e+01
-7.780816603367680884e+00 -3.458172054622679514e+00 1.665633200137794034e+01
-5.045218366518075648e+00 1.649008887566176362e+00 1.210569258047240737e+01
-8.525221944260415796e+00 1.923561640631419323e-01 1.594235552083973317e+01
-1.763001154445563490e+00 -4.050037611479879729e+00 1.816451725995696620e+01
-4.369254121193332452e+00 -3.489862985476501311e+00 1.850985523367877050e+01
-8.431123951923261473e+00 -3.779946893965275834e-01 1.529384865733904775e+01
-7.689019985216640762e+00 -3.495816971813862306e+00 1.758440003350848002e+01
-5.384312257597744455e+00 -7.401601042793561902e-01 1.439029138454850454e+01
-6.395038272995170026e+00 -1.983491965982724370e+00 1.452639834752117309e+01
-6.256969672001170935e+00 3.687702092016816202e+00 1.680703225795107159e+01
-3.604422951581321755e+00 3.228092650800911123e-01 1.204404570983910361e+01
-4.937930236671710382e+00 1.692180889165260105e-01 1.207103153451333100e+01
-4.150190148407304491e+00 -3.980021843005931981e+00 1.797219467719195762e+01
-7.899734663711665661e+00 5.042081970667224855e-01 1.377577407645930663e+01
-5.203054418476098064e+00 5.287356067229380230e+00 1.645523663262517289e+01
-2.513737072437199238e+00 -2.280389071624254971e+00 1.867094833894085326e+01
-1.158337551544806887e+00 2.404658154519232927e+00 1.586440314537104257e+01
-2.798118230190353994e-01 -2.841256830330217031e+00 1.738856370110952554e+01
-6.296890461904603997e-01 -4.117363035477246136e-01 1.808061203992647137e+01
-2.551399558607435836e+00 -3.439270729778995950e-01 1.401141883928005427e+01
-4.471646049355596730e+00 4.454406951526737934e+00 1.692792761344269792e+01
-3.543954955394295947e+00 1.041229984698927913e+00 1.166232016126072324e+01
-3.928904539089303594e+00 -2.131591646073172086e-02 1.360404380896989096e+01
-4.133353967977212662e+00 -7.356778260335730124e-01 1.505468951855501558e+01
-7.652537357495532433e-01 -1.303496538251796455e+00 1.490180631156605529e+01
-6.463511591765356279e+00 -1.887415611404611671e+00 1.419909657317758445e+01
-4.648928474788291076e+00 2.981251816001618593e+00 1.744710382549569516e+01
-7.991416761369835697e+00 2.274708638269426153e+00 1.521654215209377270e+01
-3.691459235164438635e+00 -1.764531648216681514e+00 1.608293952483215605e+01
-8.095735803859941626e+00 -2.521652842139798789e+00 1.753108266090989531e+01
-3.164581535990820260e-01 -3.045958343316078842e+00 1.738323177517858653e+01
-2.855524028115481450e+00 3.640779590212061212e+00 1.737078245119049313e+01
-2.748912092520570116e-01 -2.848091920899768592e+00 1.721300489881010520e+01
-3.248166555140906464e+00 3.477502298833798910e+00 1.484778511246447863e+01
-7.351074544281121170e+00 -4.157877821526181350e-01 1.289418191234749145e+01
-7.340456897179587159e+00 -3.695479325392934111e+00 1.761355405623780968e+01
-4.784236485531146776e+00 -1.626091903508057435e+00 1.574315328210836640e+01
-5.151646051420089911e+00 -3.896897231326494460e+00 1.800629824582507155e+01
-1.729828188431093539e+00 1.472681132185908570e+00 1.808254066180772668e+01
-7.124027809921160248e+00 -2.918199014235523858e+00 1.584992614257706833e+01
-6.351674393235929195e+00 -3.221758185975251987e+00 1.825223397850670182e+01
-3.801903889619602683e+00 5.016365355739496046e-01 1.149568615702596475e+01
-4.346457678520891932e+00 -5.699290671357535309e-01 1.481224786631175760e+01
-2.096414398603496210e+00 4.009570460952328830e+00 1.674734955150677962e+01
-6.703657751748805183e+00 3.805625592383767852e-01 1.763885928392675595e+01
-3.926730991668985649e+00 -3.267790612163035124e+00 1.857303497980601037e+01
-2.352359454725351462e+00 -4.033214925629367897e+00 1.796106568385201996e+01
-9.473802436908344005e-01 -3.981885819261274939e-01 1.378679464122028975e+01
-4.173492715876667702e+00 1.298684557339431223e-01 1.286985837019312839e+01
-6.758848946923581735e+00 -1.727254052573016008e+00 1.373195062089071428e+01
-2.940239226811592665e+00 -3.334457548077652600e+00 1.861384439087636622e+01
-7.102145903504698765e+00 -3.700853184299641274e+00 1.778504469725498183e+01
-7.908573416850011029e+00 -2.818865297738475384e-01 1.352455604594002381e+01
-8.347452322913468947e+00 1.172038799833664768e+00 1.619841560501752298e+01
-4.150060361929190478e+00 -5.559579128611296106e-01 1.482660008818962183e+01
-1.094026291106862114e+00 -1.103542874007907848e-01 1.836120508236010807e+01
-4.972604744073560568e+00 -1.794879482430372430e+00 1.583013573286451248e+01
-3.873566754325183936e+00 -6.048613779815452673e-01 1.834208967794121747e+01
-3.728215845727131494e+00 -8.315085470428185133e-02 1.818486974449987059e+01
-2.161801403708723868e+00 -3.543013982322911648e+00 1.725383842701069881e+01
-2.398365475799049129e-01 3.715789967058742427e-01 1.535842065435903692e+01
-8.158074185519474497e+00 1.150720197566470482e-01 1.413939546653421786e+01
-5.558175497415704491e+00 -1.975471447942729331e+00 1.842472082847236692e+01
-5.814741367097453484e+00 -3.305628958023788311e+00 1.835135384150569848e+01
-3.741612073003838912e+00 -1.652779231116172642e+00 1.598968132768712280e+01
-2.568681001207743453e+00 -3.541746783695077117e+00 1.722228930235432642e+01
-8.311940712915456331e+00 -2.473626829258785964e+00 1.613412707691879433e+01
-1.046319466036731649e+00 2.376422388995194979e+00 1.719243084561719570e+01
-8.016390636537222392e+00 1.897765577780718305e+00 1.643241178793859802e+01
-1.288043151507686890e+00 -5.046365174211189242e-01 1.852226927088250363e+01
-7.229889032408167715e-01 -5.028145260478340539e-01 1.820948732772141909e+01
-7.120212551555280989e+00 3.080225830632456141e+00 1.489905304356883420e+01
-7.995685803940932423e+00 -3.360259285499109350e+00 1.664340557434502443e+01
-5.808217920855657468e+00 3.965296829238665222e+00 1.504563401118755195e+01
-6.605906079023435851e+00 -2.105930430210227744e+00 1.433899885873825752e+01
-7.994704573464892938e+00 1.825709107481147342e+00 1.651710365397200064e+01
-2.496550349559211401e+00 3.008270979314499716e+00 1.501515697930801707e+01
-6.700580475457550200e+00 4.389536800101651259e+00 1.622307421142510009e+01
-1.117642977433868534e+00 1.521799017714782210e+00 1.784595477406362107e+01
-6.911291236898468249e+00 -3.572890281516702959e+00 1.799037121286645657e+01
-3.103756924773773296e+00 5.516911802384767416e-01 1.808530775334547513e+01
-5.252248368773558163e+00 -1.698192805689848761e-01 1.285401456249688579e+01
-3.463389086494705005e+00 4.347583672682329592e+00 1.708934040108198360e+01
-6.750221647788293033e+00 -3.232543845898840029e+00 1.631610303015015262e+01
-8.738780857771293320e-01 8.455301137642836640e-01 1.442269192461211702e+01
-7.981564643586773755e+00 7.371346435176786560e-01 1.704223697166357709e+01
-3.893976757637877206e+00 -1.570714224944221638e+00 1.590806155295272362e+01
-5.737832239736526674e+00 -8.397809112667835585e-01 1.810534118740463327e+01
-4.160465700823976931e+00 2.496045636274259127e+00 1.288153154204843531e+01
-8.486624231156453035e+00 -8.637726264471763393e-01 1.606351778039334732e+01
-1.559616692487863610e+00 -9.222136275129866334e-02 1.319536385397611156e+01
-2.513958063378038954e-01 -9.645763354490703989e-01 1.652969430020620933e+01
-5.539835259268412138e+00 -1.882277290147817528e+00 1.571604048561426481e+01
-8.483052626420047204e+00 -1.961539097152962263e-01 1.551369525075894984e+01
-3.356809140159777716e+00 -3.995038277660327264e+00 1.797563958209602220e+01
-6.595674340408437253e+00 -3.449068999682740166e+00 1.815246691942754609e+01
-2.705361400196366617e+00 1.600256841497169402e+00 1.307128750634243630e+01
-3.354543857290230857e-01 -2.882658180297085426e+00 1.755974038731659448e+01
-8.477048823375199049e+00 -8.783777625155080315e-01 1.646631212273257461e+01
-7.716678991444313462e-01 -1.670469725083827850e+00 1.527704864357368564e+01
-4.738764964870237684e+00 1.630687538192936437e+00 1.195950981762867116e+01
-7.186819457173848846e+00 -2.377372362897003821e+00 1.432319546828563972e+01
-1.161050566870701406e+00 -2.307811563154752665e+00 1.583054210063307465e+01
-1.671841387915009580e+00 -2.976565532251460588e-01 1.349411862847024679e+01
-5.311807223515791598e+00 -1.533183283971239597e+00 1.550317409701629856e+01
-2.287966097818683320e-01 6.666870472023043170e-01 1.665379052506131785e+01
-5.183692264291506646e+00 -2.645198902760754756e-01 1.327083946725331742e+01
-4.764918099685826469e+00 -3.957461187121524393e+00 1.793579313911970985e+01
-5.538061403877009070e+00 3.145886075923761460e+00 1.402200066810567591e+01
-6.087939113572536698e+00 1.250291549659939827e+00 1.761937719198993335e+01
-3.585909241435945027e+00 2.438444302395201824e-01 1.230923098885450173e+01
-5.737629710800004723e+00 -1.189806265882374703e+00 1.477930263310995684e+01
-6.158096072901384943e+00 -1.785227985626727243e+00 1.497499377244283636e+01
-4.874956147079516633e+00 1.360586480265465248e+00 1.784357276052266883e+01
-2.776007978424500422e+00 1.009795902432144565e-01 1.283026702885516812e+01
-1.663770510804730929e+00 3.176597412358229011e+00 1.739539988499275580e+01
-7.536578608880905250e+00 -3.547189087692440790e+00 1.766170451450872037e+01
-5.256784114748937142e+00 4.215427134708869872e+00 1.690990361340961101e+01
-4.193672539779733199e+00 6.556958438002080669e-03 1.344261826469573862e+01
-6.754533505185073672e+00 -3.738069294888425542e+00 1.783958772234353063e+01
-1.552366855824575342e+00 -1.299617171507705837e+00 1.493927838005802755e+01
-5.717666422292263739e+00 -9.609958895433918791e-01 1.420696107202529390e+01
-8.218455513838227589e+00 4.737188947972879038e-01 1.685743192229949017e+01
-6.907215983520917923e+00 -3.744407191265670232e+00 1.778060138997194883e+01
-7.743464032393081453e+00 -3.587985707610898078e+00 1.704187700987039022e+01
-5.319382051624883090e+00 -8.038125856821398685e-01 1.456662801338237756e+01
-5.042598446068850215e+00 5.310235410017789093e+00 1.646821475404376400e+01
-2.245804873288918202e+00 4.238439902691447436e+00 1.693160536192833376e+01
-1.015660131570377711e+00 1.263510404795574971e+00 1.473137325951562815e+01
-4.315233264459910956e+00 2.607767664415436837e+00 1.296732749066065793e+01
-4.533220236971255090e+00 -1.242800172274871606e+00 1.850175578772865492e+01
-7.567760652833822377e+00 -3.578356014993433920e+00 1.684137507225339192e+01
-4.562354485643498769e+00 -1.520414064822610545e+00 1.571194235451772414e+01
-5.958590284073785881e+00 -3.858366249424835193e+00 1.781138788062009581e+01
-8.300130655794708545e+00 -2.661011791914542624e+00 1.633461848439896613e+01
-6.164214800643030845e-01 -2.899904912518892264e+00 1.644667330616057654e+01
-4.068966812538718614e+00 4.894134696745241264e+00 1.601871623084690555e+01
-4.461774336494843674e+00 -4.844550726385778994e-01 1.461493461777317293e+01
-7.739849003552293993e+00 2.571270210428434400e+00 1.632322944944037602e+01
-2.737802311597936189e+00 -2.313500049128969227e+00 1.646806497667559199e+01
-2.281227066940514359e-01 -8.179033372172881400e-01 1.496502413987739288e+01
-3.248902021592449119e-01 -2.406430196987714876e+00 1.665315654446627036e+01
-7.662533682366256649e+00 2.760571320192346523e+00 1.627847623383166109e+01
-8.269930515903176627e+00 -2.877040667203826008e+00 1.651795899672062262e+01
-8.449942726588199449e+00 -1.446794148895900634e+00 1.641590150317844632e+01
-4.974486819855827413e+00 -1.068224839678602045e-01 1.305930337906404048e+01
-3.317728366524212102e+00 -2.483349015853967057e+00 1.655412988338571978e+01
-5.668829157948656494e+00 5.364406986822073620e+00 1.622643993746812185e+01
-3.323206915772419112e+00 3.057880230799110866e+00 1.424357365461911940e+01
-8.205375549378377542e+00 1.281931805076940822e+00 1.472032676454467293e+01
-8.235779832420924151e+00 -2.913583091139447578e+00 1.635031085457445243e+01
-8.103171244021492470e+00 -2.994453753794024120e+00 1.613503718903346140e+01
-8.269215557243914105e+00 -1.608132953605228010e-01 1.456893004291120519e+01
-2.757143418128808143e+00 1.334936366342457825e+00 1.270236636113325090e+01
-3.722623283416600426e+00 -3.101314435689549232e+00 1.862638841435328629e+01
-4.752701837513987115e+00 3.272526613697797959e+00 1.372212972798854480e+01
-5.341022484274510873e+00 -2.806820502645814841e-01 1.300963673330470272e+01
-7.253483493361637890e+00 2.082434718072941671e+00 1.701425527794449266e+01
-2.543846414415252610e+00 -3.971502854663390369e+00 1.779846524119951567e+01
-8.883480671058093803e-01 -2.127383061352503102e+00 1.850082696752212286e+01
-6.832642878034281608e+00 -3.659030981063742249e+00 1.793310996020468195e+01
-7.383384601028287975e+00 -3.643121691327952494e+00 1.768831374134309442e+01
-7.860623630820298580e+00 2.998925755116474967e-01 1.363153401100984041e+01
-8.031879427818561012e+00 -4.892202695373066845e-01 1.389540475364186278e+01
-4.760737793810033480e+00 -9.400405150500468210e-02 1.326987410473495999e+01
-2.129188262076064486e+00 7.302295373953302526e-01 1.821596501120011169e+01
-6.010897518292313890e+00 -4.747442590820445396e-01 1.263483969582976840e+01
-1.579772031323692261e+00 -3.780354723576331288e-01 1.360114580234393600e+01
-4.577385919023578831e-01 -2.262077254220702383e+00 1.792365134638079383e+01
-1.046040973748823877e+00 -3.560201708326158343e+00 1.825131703161368080e+01
-5.860965556880467275e+00 -3.436146083062829870e+00 1.670889563492917063e+01
-4.634509808281515930e+00 3.247068382988546276e+00 1.735415590860432644e+01
-4.332236520930335288e+00 -3.900466177499312348e+00 1.818888672843613108e+01
-6.168698599590396903e+00 -1.770451865305691097e+00 1.477267653967633265e+01
-2.138414850893614716e+00 -3.315499911688573942e+00 1.864136068422421744e+01
-1.261979344575092643e+00 1.454308372564161900e+00 1.464132411850404480e+01
-7.768403101954313605e+00 -1.501361385746891042e+00 1.401093671501233473e+01
-2.337160305845077168e+00 2.628069211177102904e+00 1.772786433017395780e+01
-5.925638227387096890e+00 -2.909502307604787674e-01 1.240986362059074821e+01
-7.219197869462663508e-01 -3.529456806560427484e+00 1.775515332086299480e+01
-1.493842567175632352e+00 -8.958845408566178392e-01 1.860286939614800161e+01
-4.552952865338179222e+00 -3.334992726570602972e+00 1.686881478570205672e+01
-4.202047993329872000e+00 -1.806482475330923432e+00 1.602159379535904549e+01
-1.338235214345400159e+00 -2.692374682035487243e+00 1.626997117286097705e+01
-1.102468902999463651e+00 1.912741857589332906e+00 1.536451809632829679e+01
-6.783644151873956751e+00 -1.924629688371047198e+00 1.394148315082134104e+01
-2.565426945734616382e+00 -1.496890848671843521e+00 1.578080928714238951e+01
-6.220064574747529385e+00 -3.070489747766462774e+00 1.634952321821022991e+01
-1.928199064123204298e+00 -4.982750026003679444e-01 1.385487304111870088e+01
-8.004314428812680404e+00 -6.800140125359144250e-01 1.383889416257872540e+01
-6.781296551564031994e+00 -2.446907106087027994e+00 1.512882082978452303e+01
-7.919918168728183439e+00 -1.984082586252312819e+00 1.773839522859346118e+01
-1.129209431031019895e+00 -1.946400809560251854e+00 1.866586120254537917e+01
-1.967293561753305609e+00 -2.322675218120178631e+00 1.870639972946302265e+01
-1.766123211415305150e+00 -3.029362871826563275e+00 1.677848407170378664e+01
-1.380890896060861905e+00 1.905438594132648156e+00 1.500711345177490585e+01
-4.556332044466881115e+00 4.260773791981440350e-01 1.150511232728582911e+01
-5.299771048447766697e-01 -2.808053057248546924e+00 1.643061102416513819e+01
-3.544186966559476737e+00 7.347913110384451940e-02 1.304711109296982841e+01
-5.242582531531405188e+00 2.621745963190570183e+00 1.747610478734195283e+01
-7.835736974130481869e+00 2.004190113381167926e+00 1.474247801123105717e+01
-2.750681376005753798e+00 -2.816741709131124427e+00 1.677682201707673926e+01
-2.024706376163505350e-01 -9.974717761239526581e-02 1.519880264626009136e+01
-3.578185463318231729e+00 -3.763163782392217716e+00 1.738904555591921053e+01
-3.357865452285938801e+00 -1.146788929450042183e+00 1.848470970665236024e+01
-3.973278274461165882e+00 3.407899457842722413e-02 1.342444289221463549e+01
-6.785530128314773535e+00 2.993988697954158784e+00 1.686459632852812263e+01
-1.266788491976472919e+00 2.345541912777199478e+00 1.756310784938733605e+01
-1.330388898143489262e+00 1.209070931269861315e+00 1.428274082675826406e+01
-3.519967688004999040e+00 7.331656855497492575e-01 1.801930048944289098e+01
-3.008903221154386021e+00 -3.790500439093653195e+00 1.844367558150445063e+01
-6.998796134935791891e+00 -1.244480182122456924e+00 1.321639887270383440e+01
-3.109283035957389529e+00 3.928147172797227249e-01 1.811339554600169777e+01
-6.306490100647446972e+00 -1.800157632054360857e+00 1.435418802035601971e+01
-3.666971127305791889e+00 2.989127840256718294e+00 1.752646018394451488e+01
-3.120663128913610862e+00 -2.899967409235798765e+00 1.867256242250208942e+01
-5.038016872190866913e-01 -3.039655063497002541e+00 1.673538185633518083e+01
-7.292713420488098564e+00 -3.334025521329655906e+00 1.637638976688963055e+01
-3.730567454085598200e+00 -1.045326130623318583e+00 1.846422813590231016e+01
-6.361985295301492371e+00 -3.743689129022307771e+00 1.798965486167856653e+01
-1.821471841101632849e+00 1.377917842460250064e-01 1.269131247439370469e+01
-6.725372150467042509e+00 -1.507848286174540586e+00 1.350571000479375527e+01
-3.261320627853066423e+00 -1.069769253797849373e+00 1.846853273992837075e+01
-6.360576796598729210e+00 -3.668078054571788815e+00 1.809526855411997559e+01
-7.909449085815259295e+00 2.570142873255682137e+00 1.590688407025857032e+01
-7.984713532398626690e+00 -2.985540382938789872e+00 1.753218528810734966e+01
-7.483341229162821406e+00 2.094279237026107410e+00 1.686240676816802875e+01
-1.790475766474551200e+00 1.631933030980452504e+00 1.804541776958103583e+01
-8.219953315298244689e+00 -2.759582274411103153e+00 1.717774562514038195e+01
-2.145186395373896548e+00 -3.677121429651161844e+00 1.735669287081593382e+01
-3.393453554498409019e-01 -2.097198674156404596e+00 1.767144889402930374e+01
-5.727491351994427049e-01 -3.574479326848387650e-01 1.399957048602673382e+01
-3.440876336450425788e-01 8.608579065725510127e-01 1.587292446707165539e+01
-2.679808456590379695e+00 4.458745750480066938e+00 1.700636952254104983e+01
-2.898699603759300469e+00 1.580528475107319863e+00 1.796164491729646073e+01
-6.486121270394161975e+00 -2.287764220737394272e+00 1.546439864306159251e+01
-4.953961970814939164e+00 -3.721660354538883109e+00 1.720535185264876077e+01
-6.294644661385153661e+00 1.710417882157757585e+00 1.748384149425019274e+01
-8.138810707750113949e+00 5.134408471274598540e-01 1.695111347764702714e+01
-6.332980804768431504e+00 2.277316158894339804e+00 1.732759321978791434e+01
-1.144719599419739886e+00 -2.535939114607959954e+00 1.863380434719395851e+01
-4.578342745188226814e+00 1.862259941525854279e+00 1.211234482401227552e+01
-7.753783007558716633e+00 -2.531125839333135286e+00 1.492376610205337784e+01
-2.377094529421941882e+00 -2.960521144624126411e+00 1.687056881634168093e+01
-6.053795161443569661e+00 4.970973452258786729e+00 1.607027207967459503e+01
-3.636735413434532660e+00 2.753460803145177493e+00 1.760008140104431362e+01
-5.427375153078106251e+00 7.013644093914628286e-02 1.206216592903477647e+01
-2.693828899542724642e+00 3.370759740186424658e+00 1.525482925331084516e+01
-4.749866898403702464e+00 -7.562431824637227962e-01 1.485326930540663426e+01
-2.648330906092346115e+00 2.190530597326763029e-01 1.247098646252000265e+01
-5.788702326448470714e+00 -1.171414695037305442e+00 1.459883003509629162e+01
-5.864211671096867029e+00 1.944735541184783534e+00 1.753760667046661581e+01
-5.884211417035954739e+00 -2.817183015213605923e+00 1.839995157658809433e+01
-2.289838020308558875e+00 7.067605995214820691e-01 1.819362174887167782e+01
-1.952684378215625349e+00 -3.636016976069286866e+00 1.734771882978071034e+01
-5.517353266490895081e+00 2.681421202445694707e+00 1.350607994967954539e+01
-2.953989445210886355e+00 4.518803368818418154e-01 1.169666123229514199e+01
-5.534529499639380568e+00 -3.886281510580721577e+00 1.751625905048099696e+01
-7.738032289139114006e+00 -3.533395376658367670e+00 1.742671757439563152e+01
-5.151202016685130225e+00 -1.573589542646971484e+00 1.845820637982047430e+01
-4.944042265928287327e-01 -2.647591624849269909e+00 1.633497145849058541e+01
-6.161957723938719766e+00 -1.547594935739448285e+00 1.418133071657634048e+01
-5.612261006566067856e+00 -1.105703786406331268e+00 1.479979925298101762e+01
-8.496219833770481955e+00 -5.505452823935952367e-02 1.631213268767400848e+01
-3.547060545467934922e+00 2.640497344591058226e+00 1.348689717332385385e+01
-1.909923010401836763e+00 -9.108088689759776813e-01 1.856440170666130030e+01
-6.086198075571829236e+00 4.787120851701152091e+00 1.597186741932393517e+01
-2.884373412446113782e+00 2.317933239366604337e+00 1.376654098883489041e+01
-1.523734231196236744e+00 -1.898233594197928031e+00 1.871953445089607015e+01
-1.286623329759383205e+00 -1.356461999892064618e-01 1.844173257704677127e+01
-8.320227354171557010e+00 -2.127506550907565686e+00 1.713052400404311726e+01
-1.375604889609902903e+00 -8.275376898117841051e-01 1.417609942908282505e+01
-7.472664852279146119e-01 -2.924082676617185239e+00 1.821892830362694582e+01
-8.164037967169775811e+00 -1.344555964725862918e+00 1.746748519613468886e+01
-7.574886880087647434e+00 3.005429608319926782e+00 1.620460795542096832e+01
-3.976388219047404249e+00 5.070795160874990160e-01 1.147490631414041218e+01
-3.124469372660795496e+00 -1.941606192324950353e+00 1.862498575246599586e+01
-3.426853758142735185e+00 1.523594551203900416e+00 1.223866654405308196e+01
-6.194024280271029248e+00 -1.979746869547899468e+00 1.537012725764839161e+01
-4.203341707763313395e-01 1.078121569600424268e+00 1.578708407831735627e+01
-5.682508014865453205e+00 3.787114592470242513e+00 1.479600776778770665e+01
-7.934647575846490497e+00 -3.312733294867118428e+00 1.649439175758035958e+01
-1.342391230933916990e+00 4.685472049369947545e-01 1.344072533893308474e+01
-8.180284246017290428e+00 1.998122791607733983e+00 1.544701221674991132e+01
-6.310221112854164538e+00 -8.215611074861208785e-01 1.799370260835442537e+01
-6.724398811913679275e+00 -3.992436628449058666e-01 1.780208774035681785e+01
-1.655470382349605973e+00 3.590073217247312876e+00 1.709178208055100612e+01
-5.497037520085645390e+00 -5.774392646495982717e-01 1.361126866244583766e+01
-1.548569238999341735e+00 -7.042236426825434492e-01 1.403177254299493626e+01
-3.031975020184840552e+00 4.883899706091971993e+00 1.680109714857315595e+01
-2.418178674888852520e+00 2.172071629242680046e+00 1.788561981280523838e+01
-1.743124638345485700e-01 -2.940647274527314892e-01 1.537365681572624965e+01
-3.970982612626087871e+00 8.194303638301401183e-01 1.096257616922127198e+01
-4.685505261794689069e+00 -3.107457883293044620e+00 1.862291913958255662e+01
-4.333796517023179362e+00 -1.882389871984911256e+00 1.861751760356058583e+01
-4.124844954012372611e+00 -2.108368871066957251e+00 1.865130179716037162e+01
-8.787163611906130267e-01 1.018808144015599382e-01 1.371570706648760307e+01
-7.148145481973604554e+00 -1.637567076602595595e+00 1.361600989377055981e+01
-7.438013583832272957e+00 -1.793739689488167421e-01 1.300347350163416849e+01
-7.913559577314915217e+00 -2.291921953435660964e+00 1.481023373631352058e+01
-6.310370317167676824e+00 1.174118798051666523e+00 1.263083196233875327e+01
-5.522292021014530761e+00 6.657444110560779560e-01 1.782060145884967994e+01
-3.852059456168510199e+00 1.449816653942890277e-01 1.812429646809764705e+01
-7.702546276667794345e-01 -2.320894702029161483e+00 1.585841069428578010e+01
-4.268521029488713481e+00 2.248107610849246818e+00 1.770562132142191558e+01
-7.933052232922020330e+00 -3.067468085082315721e+00 1.609079767621913959e+01
-1.112411266097800278e+00 2.089637315330673317e+00 1.555735316365890242e+01
-7.221787032451378430e+00 -4.568922591506350273e-01 1.278598513707614615e+01
-2.290613604802945069e+00 1.045732157065279999e-01 1.830628708621879497e+01
-7.128210142825025741e+00 -3.205213646531632765e+00 1.803851741607250858e+01
-5.890277344446589680e+00 -1.239433499682942585e+00 1.436504918907179018e+01
-7.662644257658805635e+00 -1.334743732947791361e+00 1.377880606267436292e+01
