-4.945252904511991510e+00 3.132627813823858354e+00 1.769994964078319910e+01
-7.341076523778114371e+00 -4.126776047042413964e+00 1.730021650251201848e+01
-6.850998574772292571e+00 -1.359670488996403304e+00 1.406347758989036478e+01
-3.680311708647103774e+00 -1.886205086200702485e+00 1.878105831556743155e+01
-2.147643133612796351e+00 2.285486127848168181e+00 1.813150700757793388e+01
-3.833208112048351879e+00 8.468473404353272782e-01 1.232393853668089534e+01
-1.055086813764116727e+00 -2.739109653766972574e+00 1.624187082015923878e+01
-6.510032866408683283e+00 -2.597702945646314543e+00 1.830340944029827099e+01
-8.273659354038340297e+00 -2.860171246557137614e+00 1.652016649711993423e+01
-4.615986552980761104e+00 -1.799348121055260208e+00 1.590821750817880442e+01
-4.050678147672512885e+00 1.884924986455314699e-01 1.304377284990769326e+01
-1.403879210651031606e+00 6.211207333584023438e-01 1.840827110971677527e+01
-6.096456831636615448e+00 -2.830002060748300519e+00 1.836443793992858176e+01
-7.483850147333086511e+00 9.947756745189219041e-01 1.526945343141357014e+01
-2.185115931216711438e+00 -1.419335418163881757e-01 1.400640768304275596e+01
-5.309672759153091448e+00 -2.460762331865128161e+00 1.852684129285421122e+01
-1.387279629537172987e+00 4.697692261806007963e-01 1.844503617293396402e+01
-3.077092476029605006e+00 4.323661977845379312e+00 1.736304419165576363e+01
-3.254006396041265070e+00 4.848336899429051883e+00 1.703433056745908303e+01
-8.232148160932483805e+00 -3.074361332545234138e+00 1.667569569595613288e+01
-3.024507705373820077e+00 2.846631289193405578e+00 1.322038406282221601e+01
-3.143596064931880374e+00 -3.929326751685126240e+00 1.862475047761564539e+01
-6.451982043933046640e+00 -1.195863107544942405e+00 1.824838321690275578e+01
-2.472743053139220493e+00 -1.616839708082862259e+00 1.595747923585291161e+01
-2.160565200172456901e+00 -2.750896219254272967e-01 1.388714775400561408e+01
-1.479671354088085700e+00 -2.828991987444108958e+00 1.635591868749289901e+01
-1.553888988507302837e+00 8.159035327705521645e-01 1.384205383307261528e+01
-3.975440375420851602e+00 -7.947180744986469536e-01 1.493180156799697400e+01
-1.058922863410080684e+00 1.620727811717958211e+00 1.703013067609416353e+01
-6.767749036610144486e+00 -3.019547330951551256e+00 1.556329323079316040e+01
-6.104780943411733496e+00 4.289282418580238065e+00 1.640104783695742796e+01
-6.616951233130483168e+00 -1.021366503079891075e+00 1.387880248667520178e+01
-3.710928367405096129e+00 -3.287828627928532921e+00 1.867261022136998250e+01
-8.890119454965133006e-01 1.199670288053014122e+00 1.706951821009330317e+01
-4.549358558626904525e+00 3.400013394017126434e+00 1.353093591357228220e+01
-7.600910436775814016e-01 -2.138937199087616037e+00 1.808641330111001011e+01
-6.694003142241043314e+00 -4.100823546030006872e-01 1.810716259569910491e+01
-2.332295134789018842e+00 -4.211821912986458472e+00 1.826982359512469500e+01
-1.066557171267116022e+00 5.893111496092313661e-01 1.798281700469501132e+01
-1.901672702739371612e+00 -4.217647739824491815e+00 1.804601324636566417e+01
-3.473168308000154969e+00 -1.152869085677450833e+00 1.557932017050690732e+01
-9.138605620376718530e-01 -2.413321814620063677e+00 1.600171695995843990e+01
-1.463918527079705267e+00 -1.346205295693154280e+00 1.885487317903434601e+01
-7.315927332543319395e+00 -2.638431825860608093e+00 1.476087414895362215e+01
-1.019874971910058159e+00 8.709584430425409973e-01 1.769499430162033704e+01
-1.149333307630872936e+00 9.377451206926492588e-01 1.792225300159328683e+01
-3.630896017652893271e+00 7.230171537178512464e-01 1.247330562454745717e+01
-3.804611850094054226e+00 -8.003239457047944816e-01 1.500904407981972000e+01
-1.694174361963461273e+00 -2.977146036340168500e+00 1.889466505880414005e+01
-7.994054247977504524e+00 -3.370216431712490746e+00 1.715906003208766961e+01
-1.094438211230482239e+00 -3.804649019702744939e-01 1.836336095121075473e+01
-2.521153026666947294e+00 -3.888445768471408215e+00 1.733050280068691151e+01
-7.610016580752675175e+00 1.440017488280054270e-01 1.504742210362542565e+01
-7.945159016758358561e+00 -3.155475624448387251e+00 1.731322582307065616e+01
-4.299999019308811121e+00 4.834692879664400422e+00 1.704308682968587974e+01
-4.457982001952200513e+00 2.927886015287934462e+00 1.786911729029742091e+01
-3.836296473473854718e+00 7.424134483543565199e-01 1.242814992235535954e+01
-8.034804916153522214e+00 -2.736005343709744686e+00 1.724893109753123710e+01
-5.639434052425723820e+00 9.820936837637677108e-01 1.812957039907220391e+01
-4.496724087376417600e+00 4.830945020110855914e+00 1.700977698428301821e+01
-1.743370019641875990e+00 -4.207595466864732181e+00 1.789506122232795704e+01
-5.569083966563251664e+00 1.804168953905380235e+00 1.251968744659122379e+01
-4.347169657952548505e+00 -4.100536910051675754e+00 1.845333609441854961e+01
-1.834850150068142671e+00 -1.595104155446680494e-01 1.424020719656721568e+01
-6.517382603880217395e+00 -2.685021285865310414e+00 1.536005248880016083e+01
-3.071465419239624683e+00 -1.825243372497349803e+00 1.619925644250879415e+01
-5.073032019763036082e+00 -1.634666399137296722e+00 1.855989387671099067e+01
-6.684241224884689636e+00 -2.903673831065775701e+00 1.548669382131718564e+01
-7.112799199332381583e+00 2.020337211647366793e+00 1.687524668602221922e+01
-1.065856293507270625e+00 -1.860566251426464479e+00 1.554456230219476609e+01
-6.963713824151506415e+00 -2.816426468431317165e+00 1.821487600632935866e+01
-7.299691238271967642e+00 -3.071456710223637199e+00 1.510571083023830496e+01
-6.562918381347323304e+00 -3.011485802817067015e+00 1.576693314719524253e+01
-7.555726257056117667e+00 4.651578171671092443e-01 1.721213333815125779e+01
-7.021946639115249411e+00 -5.730635762690804436e-01 1.801617672775065060e+01
-6.686766026393798690e+00 -3.188509427571767141e+00 1.585628113896288838e+01
-7.529609893189325831e+00 -1.664312424561431136e+00 1.471951632262222986e+01
-7.644699176794897078e+00 3.481975020780816998e-01 1.524615841189465115e+01
-7.989420793889657091e+00 -1.111292117525057854e+00 1.698001939414538342e+01
-4.623396832464574224e+00 5.349044694653263265e-01 1.261413715546525793e+01
-7.697953289232803975e+00 5.862225197696226964e-01 1.559260172069005890e+01
-4.731073030079323338e+00 -4.199167340566614115e+00 1.829755080321932681e+01
-7.364756068096888875e+00 3.684356003879427632e-01 1.450115798653265742e+01
-6.221639542390213329e+00 2.697628359147606236e+00 1.740716582764017417e+01
-7.525419138574258149e+00 2.921028056712011156e-01 1.488606860931596643e+01
-7.665977363509703046e+00 5.504366894126146992e-01 1.544748674186263671e+01
-7.597844416670818113e+00 5.472519506067411443e-01 1.523723210398297212e+01
-4.507377998478157011e+00 4.234131172765772000e+00 1.499883331598145375e+01
-6.029783439392122801e+00 -1.074041738597714346e+00 1.831331474215609845e+01
-6.564126927475822271e+00 2.258986010593383220e+00 1.737751933945061111e+01
-6.281573390255944744e+00 -1.829244822182139352e+00 1.439107336836028495e+01
-4.488553124340487699e+00 -1.568868989677972170e+00 1.576441862905587854e+01
-6.474428784634025824e+00 -1.863684063532808022e+00 1.431169965562794388e+01
-6.818853667076646197e+00 -2.611258525679505560e+00 1.825118720924546167e+01
-3.551593989471939050e+00 -3.813942546989602000e+00 1.712737267786475925e+01
-2.505063765852092228e+00 2.283500622029206006e+00 1.371770397683473774e+01
-7.145916054114354488e+00 -2.787276277645339473e+00 1.480224287488912083e+01
-5.215870988876891268e+00 -4.771538264130803508e-02 1.326117674980345029e+01
-2.460233110906338894e+00 -1.044196147412056241e+00 1.520191275855104962e+01
-5.792589929449682984e+00 3.781730511209254519e+00 1.473015958822073301e+01
-1.090643104534053665e+00 -3.473933920670533304e+00 1.672544115577843726e+01
-1.022390621715925985e+00 -2.413781896828613771e+00 1.857787145594164357e+01
-8.197410316088468818e+00 -1.898185082905439192e+00 1.670697299225319554e+01
-5.689578596692674850e+00 -1.687421662573607151e+00 1.516267192502435179e+01
-6.769780426604115497e+00 2.561273279927439805e+00 1.491926268706152925e+01
-3.744333253716982668e+00 -3.999907721881638345e+00 1.729115201607848107e+01
-4.710614126315661565e+00 -1.947000609525388892e+00 1.598284959500141511e+01
-6.508076956264174484e+00 -6.495882349429406011e-01 1.372600470044386256e+01
-1.166826344634515067e+00 7.271796787506858983e-01 1.626142779778522751e+01
-5.327723769240731322e+00 4.953371319804654505e+00 1.614807232865151931e+01
-6.930304252691427358e+00 -2.809798869794452258e+00 1.498667894815617885e+01
-6.413425977271709932e+00 7.794994715274898844e-01 1.326242960196496412e+01
-7.938839412027562048e+00 -4.490261520296058295e-01 1.660826871212183775e+01
-5.343888164978832123e+00 -1.241756630981231790e+00 1.486466456190578000e+01
-8.687884286587015392e-01 5.684926306405440055e-01 1.487320517711436807e+01
-2.083644452518830903e+00 -1.610996192492682777e+00 1.895297416097838905e+01
-3.604322009075779931e+00 1.180765073096141649e-01 1.321988853291557220e+01
-2.213005531491649691e+00 -2.346837121853084795e+00 1.644137600425758095e+01
-1.289900007700710782e+00 -5.808821538348674096e-02 1.583523077665371304e+01
-8.239056172812960099e+00 -3.096897678880514260e+00 1.652234392419846287e+01
-7.447347441631771758e+00 -8.518224496098883991e-01 1.457680038798431710e+01
-4.749270323779965608e+00 -3.440336153536830643e+00 1.854254446555900060e+01
-2.352863694489541579e+00 -4.170677308485736035e+00 1.847890295799307481e+01
-6.726054118937868864e+00 -5.559486371644323244e-01 1.811687813227051080e+01
-5.890975972783975223e+00 -2.241806938322718157e+00 1.841142154861887903e+01
-1.304452486593343785e+00 2.164918059773929926e+00 1.712585122529128867e+01
-1.728447227465025549e+00 -4.242740110912500917e+00 1.838555728154542024e+01
-1.347426811464210283e+00 9.911126581687328407e-01 1.403775001008171230e+01
-1.493068021320635541e+00 1.266464615036034358e+00 1.574153673124093800e+01
-6.889371127566901620e+00 -2.382761093332669944e+00 1.823273479166747180e+01
-7.695327421553595393e+00 -3.145997442738849958e+00 1.768935977652581570e+01
-2.725982066321569697e+00 -3.316945205928594653e+00 1.878552308217842537e+01
-6.686597638908476249e+00 -2.371642383204246141e+00 1.827294296861743206e+01
-5.107016196359748683e+00 -2.144567379841136212e+00 1.599683077542267640e+01
-6.675501768295179161e+00 -2.681415089540452268e+00 1.512343939664411963e+01
-4.936698145443367380e+00 -3.759068814464193942e+00 1.690248855488531987e+01
-5.556703392012061649e+00 -3.721662559564991035e+00 1.838810212073384420e+01
-7.152131433884626466e-01 -9.467747377932728137e-01 1.777204167760830344e+01
-5.141524079776051970e+00 -3.786330287075267087e+00 1.689859796460371300e+01
-3.913746092734612603e+00 -3.423538357209274352e+00 1.687372210485757407e+01
-3.424241311675353394e+00 -2.503449971312956546e-01 1.398482253334750780e+01
-3.551923283780143770e+00 -4.107488233106034947e+00 1.851815645258873033e+01
-7.965443349540882068e+00 -5.758845459141218592e-01 1.659835165575849558e+01
-3.692238545374721959e+00 -3.412631864723381980e+00 1.691116893928924370e+01
-4.400133015414925630e+00 1.426421885151053059e+00 1.189552016058368267e+01
-2.743509064699680255e+00 3.156029139406852924e+00 1.790197357852393978e+01
-4.869706980265466001e+00 1.866679626530258762e+00 1.184663227195191126e+01
-3.650231359075461590e+00 -3.637973767230048283e-01 1.417387343503326136e+01
-3.839329507904714944e+00 -1.194693601882908851e+00 1.557892192622361094e+01
-4.352573745738794742e+00 2.778933406581410637e+00 1.793384904593817808e+01
-5.612935521860782373e+00 1.192394226375692146e+00 1.243948183714125832e+01
-1.590876342991267345e+00 2.951204665469500554e+00 1.697020690143087407e+01
-2.531219365880282623e+00 3.319306542530632065e+00 1.776813237089217878e+01
-1.617297922160520818e+00 2.620404804805241961e-01 1.863645130847423204e+01
-8.030006100182273343e+00 -9.141192004380190861e-01 1.660376283624238525e+01
-7.347882782899409548e+00 2.367223149998944898e-01 1.758492908933856214e+01
-6.002266792457512379e-01 -2.718734335149787018e+00 1.737454845293161654e+01
-4.919569717056869074e+00 -1.026122221980721338e+00 1.484083907040448835e+01
-2.138316957815721953e+00 3.914940532511018478e+00 1.716114791843228105e+01
-1.237457821823588766e+00 4.586703213391246092e-01 1.829382280553643270e+01
-2.719735347909840062e+00 3.311018628471953384e+00 1.782256230736607350e+01
-2.907080803150220660e+00 3.525566024090212025e+00 1.774372380126523652e+01
-7.959645331410790448e+00 -1.489317018426020045e+00 1.725027611300732744e+01
-2.682089441959496945e+00 3.463938461854448203e+00 1.516063403940632170e+01
-3.443532239229611935e+00 -3.566384320850221057e-01 1.422584301522058681e+01
-2.082169341152323216e+00 3.345910926864356760e+00 1.636520869504807862e+01
-8.267577669832816056e+00 -2.267087322502632230e+00 1.614798616162170575e+01
-5.827899103109472456e+00 4.782964691570354532e+00 1.621342910749061517e+01
-4.412232747595119520e+00 -3.004252965328299219e+00 1.863737710891085797e+01
-4.647254254839307208e+00 -4.168233776144832703e+00 1.837865833974864316e+01
-8.268509548653716124e+00 -2.074776246020063386e+00 1.630686583942886259e+01
-3.929229322403704483e+00 -3.015056016743596246e+00 1.670291373145805736e+01
-2.121389855649191247e+00 -3.650257991804191526e+00 1.713153735355821894e+01
-6.636075028879933058e-01 -2.728681691277513810e+00 1.713608031753460992e+01
-4.281550898866420596e+00 9.242060988483637995e-01 1.223873693119105255e+01
-8.254927467552199971e+00 -2.059135481217043040e+00 1.614815786544690113e+01
-7.696411601169778294e+00 -6.461225436100140884e-01 1.498793782540205299e+01
-9.025664664667382153e-01 -1.686014200314429612e+00 1.659151130486582915e+01
-2.333627550313714494e+00 -3.714449216564037037e+00 1.722315408096930511e+01
-2.083708245028747630e+00 -1.240587778676852437e+00 1.534896075990340947e+01
-1.411611878151514565e+00 2.288973892029572355e+00 1.730081744616917305e+01
-7.208846743968305937e+00 -2.413116755176526240e+00 1.462440805064039395e+01
-7.464224529856066104e-01 -8.787908686689638316e-02 1.747429034442487605e+01
-5.475219545481623484e+00 -8.153621008036900930e-01 1.401014597050785326e+01
-1.367970617247274090e+00 2.328569804902376639e+00 1.712350291290910675e+01
-2.215347457477625959e+00 2.822674805639926898e+00 1.497019319389678671e+01
-2.428445992032413514e+00 -5.958623106644985734e-01 1.457801027262220472e+01
-2.370041344014311768e+00 -2.304569812543284968e+00 1.646580087511619794e+01
-2.498193104670921372e+00 -2.304560890799239203e+00 1.648848424384149425e+01
-7.318941543534665861e+00 -4.057468812108912637e+00 1.688439211301439613e+01
-5.149657763521671150e+00 4.424931274425186523e+00 1.702873763557947839e+01
-6.966616871758238183e+00 1.761996593523589283e+00 1.470605507615426788e+01
-6.289097796041208888e+00 2.747581752498407415e+00 1.417667234154827938e+01
-4.845042454009655941e+00 -2.311435029243991135e-02 1.842463881914104107e+01
-1.621346527589931696e+00 -3.883777931043851384e-01 1.443043482399423638e+01
-2.750318457323050580e+00 4.299195857059346260e+00 1.664934660818138568e+01
-2.085376686690653347e+00 -2.061674813858993982e+00 1.616282491034457891e+01
-2.151210928544396772e+00 -3.740992260114945012e+00 1.874830175057602943e+01
-1.667063022092412305e+00 -1.877516728339240215e-01 1.501193010678042938e+01
-5.118065534123611648e+00 4.674899229354353203e+00 1.689315980118741933e+01
-5.774787427120429584e+00 -2.585459617415883926e+00 1.843014963471104650e+01
-5.558424637282168845e+00 4.318312676348586621e+00 1.689276522584291840e+01
-3.446931162326832609e+00 3.191970858117986198e-01 1.860739071274228351e+01
-5.490499009873026637e+00 -2.644137892424744063e+00 1.848305402151870780e+01
-2.192550344484370139e+00 6.937023184354427219e-01 1.865735153219928222e+01
-2.166726768933826985e+00 3.072014762227605722e+00 1.773632149053998930e+01
-7.881700389390338124e+00 -2.827531794577348379e+00 1.534713502231016591e+01
-3.737526103223999474e+00 4.557248296357069961e+00 1.726539625698465485e+01
-1.094917015462873788e+00 -1.342713956049586876e+00 1.856526937955821310e+01
-4.571613187137474554e+00 1.953287887027918668e+00 1.811717321681857484e+01
-7.137907207277197408e+00 -3.168679489991051312e+00 1.812787411289102479e+01
-7.867331478217903573e+00 -3.216309376975807321e+00 1.555255463118261972e+01
-6.748043403450967759e+00 1.192748660729520349e+00 1.356295606787999120e+01
-7.369729382673127382e+00 -3.387100545382075723e+00 1.796512511619664210e+01
-7.309552969713450921e+00 1.905101228035000815e+00 1.594945168675598168e+01
-6.719045831501726518e+00 -2.389230799806149275e+00 1.456320805900491067e+01
-7.287465970408324445e+00 -1.536217443497477575e+00 1.804264887699615016e+01
-1.444851490582378606e+00 2.675995717366362658e+00 1.698897609366600747e+01
-2.871345439182681147e+00 4.053771635627899883e+00 1.596693531347984063e+01
-5.046553014618347710e+00 -7.060590314420785996e-01 1.420198858013793242e+01
-5.919708219009709893e+00 2.806163039371812662e+00 1.750950510253172254e+01
-3.965352650650149968e+00 3.540564264387297655e+00 1.770706588320873820e+01
-7.117299898968195038e+00 2.313392114404121624e+00 1.592680627337686516e+01
-6.913918389051392666e+00 -3.952477700607968103e+00 1.666682249615780975e+01
-4.118177915334514161e+00 4.351201272771873185e+00 1.732457214899828202e+01
-5.340950413354156545e+00 3.454744278441988392e+00 1.745229307368254368e+01
-2.861801213506994124e+00 2.045950042596992091e+00 1.224729949056827394e+01
-1.678308974883481852e+00 -1.743435747489800125e+00 1.893923057640266805e+01
-1.629010424460373807e+00 -4.054131341959011259e+00 1.860060541648428867e+01
-4.607068327577364286e+00 7.468024418160378319e-01 1.242231084268941288e+01
-2.941300540526837981e+00 -4.157760831171736449e+00 1.851369919268666919e+01
-9.215774687714124447e-01 -3.435368023171263552e+00 1.675422733494682248e+01
-5.244071105520802689e+00 -1.651207642240736906e+00 1.852509912191051811e+01
-5.726990383972237808e+00 4.472779911854476431e+00 1.666288397804501997e+01
-7.006625594334964013e+00 5.962740865672455648e-01 1.386899071818634965e+01
-6.979368916755509744e+00 2.509698032911641175e+00 1.573086794121851639e+01
-1.855605679758004722e+00 -1.175509782701145145e+00 1.890346916021172419e+01
-6.108008672015313500e+00 3.657513482587384068e+00 1.694275342728328937e+01
-9.528270889730960924e-01 -2.974133524422100106e-01 1.812187152864001050e+01
-2.957319608102119801e+00 -4.205809099811813390e+00 1.822123300866984508e+01
-3.170130947235232366e+00 -4.197592204308401520e+00 1.807503378344019396e+01
-2.483545612891405518e+00 -1.084175702297246691e+00 1.888005774888008759e+01
-1.588192728105824125e+00 6.701925419721290744e-01 1.851861296636797150e+01
-4.021761593292131565e+00 1.378813774133001768e+00 1.188902547211333882e+01
-6.123672844301900398e+00 4.050594987035277761e+00 1.660797811858390460e+01
-6.219535926666289072e+00 -8.100996235332807993e-01 1.366737405867860033e+01
-3.045556773246204330e+00 1.841868483598545936e+00 1.180484126432714831e+01
-2.855342043625148651e+00 -2.678283006723482629e+00 1.883932214781765779e+01
-7.779773858733485703e+00 -2.471196173699093723e+00 1.510167289686051717e+01
-6.776702163440503135e+00 2.160608710443948866e+00 1.451258374929667738e+01
-7.774804835301523553e+00 -5.213309693084156038e-02 1.544693170479587607e+01
-4.156645224426020135e+00 -4.094593827164935362e+00 1.846916133718704245e+01
-9.227359009810869317e-01 -1.878826592273493024e+00 1.653822874689202749e+01
-3.990945989040851849e+00 1.627546387459154253e+00 1.173017225520563045e+01
-4.906086891268065742e+00 4.117317905089069363e+00 1.480012455117372738e+01
-5.023215314710895107e+00 2.676402771019312343e+00 1.783020396426839582e+01
-5.295633213010214391e+00 -1.306080183266362660e+00 1.503476210245201727e+01
-1.278345024463490631e+00 4.499886565744404265e-01 1.430661048504201815e+01
-1.247614676871635409e+00 6.636194290663410822e-01 1.428000776069726996e+01
-6.150064686779536771e+00 1.568259577139445859e+00 1.785102213765030754e+01
-1.768404532532389384e+00 4.238308968435029467e-01 1.379901693892572823e+01
-2.552970012310027847e+00 -4.210895890880767212e+00 1.823876541625119430e+01
-6.270878814427778281e+00 -2.321383004734130395e+00 1.513072404166818430e+01
-3.098322183305206590e+00 -2.265414419267708368e+00 1.647329651590450439e+01
-7.370180206733628836e+00 -1.434435432437597413e-03 1.764700797188990222e+01
-1.456195333117586976e+00 2.108088621410333818e+00 1.638898520459134645e+01
-2.394250215942576254e+00 8.749261856661515457e-01 1.862627933082424292e+01
-7.286699241334130939e+00 -2.358412177222775963e+00 1.809451416613929453e+01
-6.099939378820440794e+00 -1.838096620648731694e+00 1.461209624608310875e+01
-4.692379968907000709e+00 -2.163550335778708700e+00 1.611959563841218923e+01
-4.422129210090066209e+00 3.406112920923242138e-01 1.845768572564526622e+01
-4.375777252534740924e+00 -4.101377611770486986e+00 1.747417106524789787e+01
-6.679281299431101715e+00 5.848029506079275297e-01 1.792987820810945365e+01
-4.960566118612201869e+00 -1.640490081771290853e+00 1.565176471469797193e+01
-6.484067125071711679e+00 -9.944535132096484764e-01 1.382026128482698724e+01
-1.711766267215160786e+00 3.950117778035631688e-01 1.494633644940142503e+01
-4.631011905281506635e+00 4.229362523723081413e-01 1.272407609286955577e+01
-5.514093999910308241e+00 4.284399320655885468e+00 1.520947320202969522e+01
-2.076009290227419424e+00 1.485037210967698140e+00 1.297373989096968572e+01
-1.433118023928180662e+00 2.648244758774652485e+00 1.679700439756716079e+01
-5.091678669425284021e+00 5.044703469120044304e+00 1.662985345911978285e+01
-2.296770209977569088e+00 1.691442539663840616e+00 1.388031280956389324e+01
-1.067219418999552083e+00 2.021287249449887913e-02 1.822219942877761056e+01
-6.037254898774705225e+00 -1.535790721290617888e+00 1.433129009516349228e+01
-8.015463789491274582e+00 -1.798873570052342608e+00 1.540864774534697190e+01
-7.896664234559643170e+00 -3.528891638640843098e+00 1.728826020370309280e+01
-4.238497090054902827e+00 -6.973081733241704994e-01 1.860634815968166933e+01
-4.535891214104617930e+00 -3.937484273715420535e+00 1.712852675411179248e+01
-2.212154011403216991e+00 2.051502362814930258e+00 1.824370316714862028e+01
-7.457376346413362889e+00 -2.795571225435170337e+00 1.492989275899661195e+01
-3.846225305320846832e+00 4.967882966838716996e+00 1.700691799972102203e+01
-7.131802754339562789e+00 9.290258932849171369e-01 1.410096434757889838e+01
-4.180286846700454362e+00 8.285187133164513273e-01 1.232535980313516433e+01
-2.559011419594813930e+00 1.284695534371389503e+00 1.852753015309407303e+01
-6.644416912086601457e+00 3.288483216011191868e+00 1.522714173150313499e+01
-6.524014433391021051e+00 1.945204473685180346e+00 1.376623658088979951e+01
-4.204097258951406957e+00 1.791010682322496717e+00 1.165715842256614110e+01
-7.082724354276795253e+00 -1.585296147462389893e+00 1.813574223300490829e+01
-1.027135498305417727e+00 1.702749572937368949e+00 1.684235531065225544e+01
-1.519283536169640847e+00 6.134130897453988762e-01 1.538704702965431537e+01
-4.495659859672542780e+00 3.977760551975686454e+00 1.453357075136008447e+01
-7.053018206211257635e+00 -1.205909745546207557e+00 1.810485977298047189e+01
-7.994283095836226316e+00 -3.556724368652349533e+00 1.708579990298488482e+01
-1.111929619681372383e+00 -1.184420312974729494e+00 1.855939270553830411e+01
-2.735732476593933704e+00 -3.894549126957705276e+00 1.731983815125174786e+01
-1.669885087217588326e+00 -2.289406075960344733e+00 1.607922526194948531e+01
-4.119862373050801274e+00 4.139320846907697415e+00 1.492576913845561748e+01
-8.352179244150474968e-01 -2.479462193870599851e+00 1.612677125879378437e+01
-2.028289118839771810e+00 -1.771165510316252689e-01 1.422432635339822937e+01
-2.639063834805787767e+00 -3.413079245788172011e-01 1.424146543851187019e+01
-6.394445643820679592e+00 2.227545487792391921e+00 1.750305401820194717e+01
-3.512520408378646763e+00 4.960267225440830430e+00 1.689554659363753686e+01
-1.431336657506725007e+00 -9.366650416719618510e-01 1.877168468758938147e+01
-5.016334595060628843e+00 2.447642084348562008e+00 1.249239323577070593e+01
-9.117528433683370626e-01 -5.827774756584136462e-03 1.794281902480089386e+01
-7.110397837191158921e+00 -4.070527795589068631e+00 1.708091260037567949e+01
-2.123686901219742573e+00 1.622859947320888896e+00 1.429509481093189649e+01
-1.459605995215866869e+00 -1.149644198128530359e+00 1.882311222715508237e+01
-7.146254162924879694e+00 2.303761782447421247e+00 1.632672691665976927e+01
-1.223554300090011537e+00 -7.576237258467274360e-01 1.859302189201995148e+01
-4.988875352347372782e+00 2.625399236440220108e+00 1.268381919994109097e+01
-8.206310524852607813e+00 -1.670385144845119463e+00 1.640043931797690036e+01
-6.299293243207296555e+00 -4.003901082042625958e+00 1.820001736501582101e+01
-6.707357960509129136e+00 3.299199169493601591e+00 1.617245406976520528e+01
-2.672308307809850625e+00 2.934112313133045991e+00 1.409986106947344453e+01
-3.153392064162183317e+00 1.975749910162615919e+00 1.170105899010257389e+01
-4.059744498702681170e+00 4.339661206521221892e+00 1.533354028130151292e+01
-6.334250803783357142e+00 -4.106375461007047534e+00 1.747005208274529409e+01
-2.177324621806939753e+00 3.499276211058317987e+00 1.638907401111537254e+01
-5.575716082497265802e+00 -3.725335625646607696e+00 1.676572795547075501e+01
-6.980225025413593798e+00 -3.651977861841097628e+00 1.615142757411983254e+01
-5.357893956114810230e+00 -3.577251842286374384e+00 1.671762939779498325e+01
-3.261751687866610183e+00 -1.008594160361764747e+00 1.539225040470339323e+01
-7.446238868978478642e+00 1.566797971506773912e+00 1.588975835141819815e+01
-7.330914346072724186e+00 1.895745987713078229e+00 1.629650286767344980e+01
-2.483677206701195850e+00 1.549701111640479301e+00 1.334607779749517320e+01
-7.635977244309210654e+00 -1.464967476695452575e+00 1.478744007727505405e+01
-3.445940580490181926e+00 -2.193213306282240094e+00 1.638255413349609668e+01
-2.017308467548518891e+00 -1.977748092891136622e+00 1.605802509321686600e+01
-8.103878992175328477e+00 -3.326678961009608582e+00 1.693552062211997722e+01
-6.598462525031385084e+00 3.531525262425280864e+00 1.620031014815549142e+01
-7.481668684609586784e+00 -2.403401920392405078e+00 1.480356277570523460e+01
-1.602797085380474273e+00 -1.959468654641950192e+00 1.583518630918820591e+01
-1.706597487902760335e+00 -1.861411779861320781e+00 1.579806791576429603e+01
-5.356873979420081255e+00 2.775562894999238583e+00 1.316888446861335282e+01
-8.281710127700034008e+00 -2.662160492140175805e+00 1.633473548040275958e+01
-1.324817470452994250e+00 -2.733411634837823456e+00 1.625852327721422697e+01
-8.184017905327998221e+00 -1.513831367391062610e+00 1.633435280680716417e+01
-4.604532044887182707e+00 1.585260756650302305e+00 1.185228075872223030e+01
-1.500218530373845560e+00 9.269610094374496345e-01 1.835579626712293688e+01
-1.284623358396345782e+00 7.735556375705074927e-01 1.821020996003281667e+01
-4.978814202523729193e+00 1.620189616782384601e+00 1.198060319956476150e+01
-4.725061765461362029e+00 3.516277710772357512e+00 1.377843947351392373e+01
-5.810710043921447188e+00 4.091677909669247271e+00 1.688118922696105173e+01
-2.638160604203299453e+00 -1.681199758339007033e-01 1.398929192945358224e+01
-6.872898910344519940e+00 -2.956976901618272535e+00 1.532797916868102206e+01
-4.842533288767097766e+00 2.346790964138256719e-03 1.322752458385054197e+01
-4.309151914573892128e+00 -4.185367084381376834e+00 1.839212573091431224e+01
-5.174994210031139907e+00 1.818740007969551264e+00 1.213367861947784476e+01
-5.016184774158272575e+00 7.480840998660146512e-01 1.250186722747286083e+01
-9.082579040090841271e-01 -1.108604076995548304e+00 1.660744515343492722e+01
-4.490925484857122285e+00 5.262803949913488211e+00 1.662284519153638129e+01
-3.768955652609965234e+00 1.357593625889797151e+00 1.838888055970975799e+01
-3.158479882939710048e+00 3.248143472244130248e+00 1.377980477564424078e+01
-5.954574035454578862e+00 2.034644298141565333e+00 1.312013402251916361e+01
-1.966598992282589276e+00 2.505683907041954317e+00 1.792161041409736910e+01
-7.828967734728982997e+00 1.029091930433831958e-01 1.666640486288887857e+01
-6.520637824859304210e+00 1.197874836018478995e+00 1.334065138210550927e+01
-6.681643596821606579e+00 2.729861668054677004e+00 1.479293970833365179e+01
-4.519951129422485891e+00 -4.073401737200970096e+00 1.844084512497743233e+01
-8.219002665086154735e+00 -1.876566145426384224e+00 1.657569488621279774e+01
-8.244879265281750413e-01 -1.252809698345687561e+00 1.559795723209588303e+01
-5.860327824029338828e+00 4.409616933477947143e+00 1.659802175057125950e+01
-6.024406166633840876e+00 -2.154766028433598102e+00 1.530440249355067195e+01
-3.010851703813705260e+00 4.659869208787301709e+00 1.715310836161078711e+01
-7.505945069743535036e+00 -2.746853122446484718e+00 1.793722904532717521e+01
-6.618791466170412363e+00 3.549221836197015367e+00 1.577289619708468749e+01
-2.608681497056616561e+00 7.507576355866181217e-01 1.293211086744858207e+01
-2.493380358731954960e+00 -2.566644039676075018e+00 1.890131083161000802e+01
-1.868568662367058320e+00 1.917110753488952213e+00 1.517907754568926393e+01
-2.864835467241998668e+00 -1.116397671607134878e+00 1.883904440470758956e+01
-1.867185918233611019e+00 7.109507861676420681e-01 1.352621012395522726e+01
-3.124843598956704493e+00 -3.881530891286639751e+00 1.726095346957361798e+01
-2.767697328922056332e+00 9.459659591947281454e-01 1.265140181014137966e+01
-3.777661205064219541e+00 1.948371264413035320e+00 1.824917755803605601e+01
-2.619682567862606781e+00 8.956194030748985124e-01 1.284646805802209002e+01
-4.862411583960501993e+00 -1.099653668668858941e+00 1.500572225102194679e+01
-4.327400932905046460e+00 2.957764928188917342e+00 1.788182474916996867e+01
-8.878375639306489431e-01 -3.363181802971880963e+00 1.831571866382799030e+01
-7.034951489599893470e+00 6.331511327444141468e-01 1.771350586734315513e+01
-7.160393886785546336e+00 6.037178372729158360e-01 1.762151792665718730e+01
-7.470547983726988583e+00 1.100023597243587226e+00 1.692869810817251519e+01
-2.127205311626215511e+00 -3.341461708036545630e+00 1.883728616201393535e+01
-7.432685042795011299e+00 6.689058594926733381e-01 1.728475289057022124e+01
-5.728204662662609969e+00 -9.863690651721800373e-01 1.402179251670481008e+01
-7.069590104518604257e+00 -1.401407126827926231e+00 1.811990211923477645e+01
-4.720818410545829735e+00 -4.103532088202877404e+00 1.746521518343111623e+01
-6.691420456387616511e+00 3.272606178948602729e+00 1.635751880256941959e+01
-6.758759671503629107e+00 -8.198270000020045911e-01 1.389612606296192254e+01
-8.273904865658676666e-01 -1.910373563437541833e+00 1.674306148036911779e+01
-9.689015920882975141e-01 -2.094634765981343349e+00 1.642744621271929262e+01
-2.956129024236676006e+00 1.899290074669917061e-01 1.333554305300006959e+01
-4.735445081949744228e+00 3.180001779509175730e+00 1.772907472310795995e+01
-7.133863997705466309e-01 -1.940805677550733410e+00 1.797604927977939937e+01
-3.244337228707675269e+00 3.030357778611972197e+00 1.321174825998377500e+01
-3.837036333696113299e+00 7.462854095804338783e-02 1.323631975663740334e+01
-4.305236435298867015e+00 4.591734230113977411e+00 1.718346730745857442e+01
-3.543707095255647310e+00 -3.025141638879105255e+00 1.678363387683785746e+01
-5.619100943188044539e+00 1.558271104575559285e-01 1.307808075121439728e+01
-1.971831427383403001e+00 -3.921895425846773087e+00 1.726789767617185234e+01
-2.366403148704062431e+00 8.709536548514067444e-01 1.301758077493250099e+01
-1.873619471591827290e+00 -1.348934019337117984e+00 1.892387376412535005e+01
-5.301347445936404057e+00 4.238323806136481409e+00 1.505545842449192051e+01
-1.378517528770441647e+00 -3.774081671232829116e+00 1.699083022739940319e+01
-7.777601248265906264e-01 -3.344218919720303163e+00 1.810394761676469599e+01
-2.042399380858191726e+00 -2.169749197664768481e+00 1.621440807515907423e+01
-7.458399582769712488e-01 -3.554099295344358644e+00 1.789072825480338835e+01
-8.027271408264505803e-01 7.028149645946670798e-01 1.704916021034628315e+01
-6.497895257986543882e+00 3.659466184309243530e+00 1.634327254814960284e+01
-8.921948334235195732e-01 8.359805515243822205e-01 1.727868581439307505e+01
-7.237330815963772146e+00 -1.741059532816359390e+00 1.809123835202752772e+01
-3.878970416512730779e+00 -2.497566464832966737e+00 1.874043410921096964e+01
-6.167326485457891749e+00 2.404505616004207980e+00 1.755060876132142411e+01
-8.448604524304773600e-01 6.696622571738152230e-01 1.723145150743650689e+01
-9.944983309397030791e-01 2.189318480030403302e-01 1.802403476663129211e+01
-7.531914827362763631e+00 -2.059750653834532930e+00 1.477865038361937522e+01
-5.194809146878790251e+00 2.385614848455699377e+00 1.787390069852032681e+01
-4.936936527490434656e+00 3.329736109233158547e+00 1.356682743093506005e+01
-5.092960148019595401e+00 3.822458255091150559e+00 1.735508712834272771e+01
-8.072601962582220736e+00 -1.243348778436640156e+00 1.580628225197565584e+01
-3.691540773624351512e+00 -1.701690066134554424e+00 1.877520493899452347e+01
-4.491025491300415950e+00 4.467586316753870079e+00 1.541748633500669641e+01
-8.233738811978279504e-01 -3.267626753486496227e+00 1.820618336405405913e+01
-1.000956390171529709e+00 -4.282473241734833236e-01 1.499287223899876764e+01
-2.928159520438780472e+00 4.017377615956127634e+00 1.578932792707277954e+01
-6.674811412769291685e+00 3.312257634032746534e+00 1.554661591016531119e+01
-2.377161456260941108e+00 3.345334926068742831e+00 1.558296505462216786e+01
-8.200252086453446054e+00 -1.660282034474523272e+00 1.613238212555814144e+01
-5.532897095392374176e+00 4.133302036568495375e+00 1.499538922800457996e+01
-4.199587728654037733e+00 -3.530379519298826985e+00 1.859234742488125747e+01
-6.890410912678117228e+00 -3.885085630515130894e+00 1.651644905787475537e+01
-3.545290590997880020e+00 4.169901337104371386e+00 1.746763685628460294e+01
-3.133148662632306625e+00 -3.651151103752631855e+00 1.713521982381137221e+01
-3.743261094755653939e+00 -4.092243177500270335e+00 1.748491078261520570e+01
-6.113018551485084551e+00 4.109326871074759246e+00 1.541202401586813764e+01
-1.798512557500683950e+00 2.038415610702669634e-01 1.397492183858280512e+01
-5.275067130251560599e+00 1.824254647009768693e+00 1.223051588227276909e+01
-7.759155229200358050e+00 -3.291373174637030274e+00 1.550005602336163335e+01
-7.182139477227442725e+00 -3.455981064730945462e+00 1.575882894153096103e+01
-6.534508857736284426e+00 -3.990548794978447056e+00 1.690302378466541100e+01
-1.964669069729252371e+00 3.100832716188412164e+00 1.754067470335554546e+01
-4.069749452372290577e+00 -1.673124038880687614e+00 1.872909918661221340e+01
-7.004700230300421104e+00 2.145759357704257742e+00 1.527616752106370157e+01
-4.058729638517776017e+00 -1.900711550129917882e+00 1.873823623949202855e+01
-6.956289531358450517e+00 -4.121737811676254637e+00 1.748834543768409233e+01
-3.860024164172179084e+00 -1.882142033543290349e+00 1.876096851754261152e+01
-1.702575313716059524e+00 3.079976928395379954e+00 1.718520180278941822e+01
-1.371462688160912435e+00 1.475861440436184502e+00 1.792078217658932360e+01
-2.587281297912013667e+00 4.979863983103857139e-01 1.869363580528333202e+01
-6.723531521401859834e+00 2.948659379452426510e+00 1.516119067075012694e+01
-3.656960820874113338e+00 4.987826012658569397e+00 1.698747938591529660e+01
-5.112651231604687041e+00 -1.678180885190353244e+00 1.562349031347021722e+01
-5.536155173357631298e+00 3.425587396159635922e+00 1.739965004387568470e+01
-1.995259671122801448e+00 1.298370232830748261e+00 1.846156921380195470e+01
-7.140750605962034925e+00 -4.024704355836474789e+00 1.681528318657750631e+01
-6.271410515732051216e+00 2.290276913864586650e+00 1.375687282846326909e+01
-7.430730120211037182e+00 3.511529207612632542e-01 1.466859355184302771e+01
-7.737151242639568771e+00 -1.527036140727646707e+00 1.763968423252758200e+01
-7.651212253548942410e-01 -1.275980002576226457e+00 1.691295024397259184e+01
-2.854968714655996997e+00 -9.633723611515422336e-01 1.521815327492064895e+01
-4.967198989222492145e+00 1.293397800211040227e+00 1.820204467949803373e+01
-7.569939943422062001e+00 -2.451286425756415976e-02 1.488005583654581798e+01
-5.336871789620857065e+00 -4.153510176115179142e+00 1.767443545198063148e+01
-5.537537329857797452e+00 -1.223568418790487389e+00 1.456374293822765154e+01
-2.087983805315571484e+00 -2.853701011510578756e+00 1.668349883231693909e+01
-1.150135998490283473e+00 -3.979115283227197430e+00 1.719931721569306049e+01
-5.084930753580058749e+00 5.180825576043869951e+00 1.642120124799188474e+01
-7.512113829421453559e+00 1.300042476447455631e+00 1.566855245111174710e+01
-5.734334219545326405e+00 2.759253248556159388e+00 1.355108141820149470e+01
-1.999379730010919509e+00 1.110894002665469671e+00 1.852633410366213340e+01
-8.069148134194517041e+00 -2.870321119744061455e+00 1.569531513082807450e+01
-6.904234238117315847e+00 -7.335371959005331233e-01 1.808968534373297743e+01
-1.100178965230985906e+00 -2.875942008427931906e+00 1.631466691483511866e+01
-1.072913763078990224e+00 -3.555418720805038291e+00 1.854415270550943617e+01
-3.862142872654229731e+00 -1.016760096969256733e+00 1.533286253335976212e+01
-7.230281930280907154e+00 -1.546303842732172917e-01 1.780488731315864115e+01
-6.024826910116785506e+00 2.010910764386258931e-01 1.323557347134807927e+01
-5.916778263655086079e+00 3.357926171239653979e+00 1.437726936944075007e+01
-5.820254066916249691e+00 -1.519399315138669770e-02 1.326530901079430080e+01
-7.917017721100896299e-01 -3.511340755379221967e+00 1.710727390859213770e+01
-6.162479785034188140e+00 -2.228452315234646264e+00 1.516150829111068177e+01
-5.944094302498330151e+00 3.435306411741857247e+00 1.720918521303349635e+01
-7.272243954587044534e+00 6.496824415476576409e-02 1.771054023937012900e+01
-6.532677493926021484e+00 -4.069571599957109598e+00 1.725206178937921564e+01
-6.252686440041165028e+00 -6.804194320322864975e-03 1.345827120478103112e+01
-9.742863371878847101e-01 1.729658754833339751e-01 1.482389888187847404e+01
-4.599893921961840881e+00 1.205092803088489539e+00 1.207080722014240592e+01
-6.905410886085881828e+00 2.692012484107483505e+00 1.574136636311074611e+01
-5.852142854108360659e+00 -2.116588216919249588e-01 1.342336105508450927e+01
-6.037239476566721663e+00 5.624874003048094817e-01 1.298523292941199259e+01
-6.056971650795225592e+00 -3.899088537543545785e-01 1.350599029337459811e+01
-1.324627742719710621e+00 1.342334742292577543e+00 1.794167996986751845e+01
-5.668645849616798849e+00 4.276050822642616378e-01 1.287884919852697863e+01
-6.030467173664646019e+00 1.038663866010367087e+00 1.264600191613687841e+01
-1.894986437311101390e+00 -3.120733851981110085e+00 1.888059482311477311e+01
-8.243859382447517703e+00 -2.675937239004851254e+00 1.612961233988652410e+01
-6.492715717326934310e+00 -1.856972759779349946e+00 1.829436551429420277e+01
-1.715415897545752744e+00 -3.340603918057166943e+00 1.882665595539797820e+01
-1.079306089695174720e+00 2.052612974265401458e-01 1.466478784926156820e+01
-2.808704623192224581e+00 2.685534966132369306e+00 1.333038107673164419e+01
-4.596892876992000332e+00 -2.940164126181121773e+00 1.861983248409432079e+01
-1.795197655803613568e+00 1.654796067197860987e+00 1.824156766358325754e+01
-5.652519778259931904e+00 -1.046598661899358351e+00 1.838193662367895698e+01
-2.168427290694327159e+00 3.012314750590276091e+00 1.535787194776527897e+01
-6.609208785901554251e+00 2.406167647041109747e-01 1.802936617613542225e+01
-1.421735253340852712e+00 1.548776848818442353e+00 1.610726348149051645e+01
-1.190521386007854066e+00 4.035866263562759571e-01 1.444199460799364587e+01
-6.217799549535739878e+00 2.051634456245901905e+00 1.346881546893441239e+01
-7.271365304411712138e+00 -1.368698219268367655e+00 1.802726827361810180e+01
-7.740817027892785696e+00 2.036990721734351362e-01 1.696875392909906211e+01
-1.188884713210393684e+00 -8.627831904412613939e-01 1.515435144235957310e+01
-5.851171928188487747e+00 -6.561150647401713387e-01 1.366946717543171630e+01
-2.442341624828967994e+00 1.719738557520633204e+00 1.252296138974309869e+01
-5.599853786132310773e+00 -4.624430657227504016e-01 1.359443090979626945e+01
-7.488153282360507035e+00 -3.353850343377328791e+00 1.787328410456588657e+01
-5.241128055025385812e+00 -1.119621690975642903e+00 1.475189527592848648e+01
-5.718651383727139326e+00 4.313072147425066838e+00 1.540712539192556463e+01
-2.242961363615827430e+00 9.114568611394996411e-01 1.309214375530521224e+01
-1.249442913149712897e+00 -2.599360392989157553e+00 1.880217252222020718e+01
-8.295475742869007352e-01 -9.206822065068366312e-01 1.679002821644862919e+01
-2.032960816011558869e+00 8.892132790887097293e-01 1.329023267572987166e+01
-5.676607226077386770e+00 -3.311322834267945936e+00 1.841170657922060272e+01
-3.820544550120424265e+00 -4.586699466952167681e-01 1.864242013265587516e+01
-9.147991290685095755e-01 1.526838149095868014e+00 1.651734637050381238e+01
-5.966268666579295221e+00 -2.026600492506119622e+00 1.519973075511532912e+01
-1.360813386016470394e+00 -2.925291112610326039e+00 1.883141416112808386e+01
-7.886995155087529241e+00 -4.415947125784690508e-01 1.560607880997892138e+01
-3.306963531157767200e+00 4.582588625699023588e+00 1.725140013544608664e+01
-8.175412222946512486e+00 -2.750302619251073555e+00 1.695316933907637136e+01
-6.305485202851232707e+00 -3.573148735877106574e+00 1.644660312868269969e+01
-1.720821873118708600e+00 1.715451373604893970e+00 1.816217722625438924e+01
-5.195859682666768009e+00 1.638942876788613834e+00 1.211685591221628044e+01
-2.942787111046036408e+00 -1.988116087051489123e-01 1.873868340960158108e+01
-5.259592736646630406e+00 1.442800841259768818e+00 1.217934667591468312e+01
-1.438228874928091372e+00 -3.667933823964920625e-01 1.441541843323245686e+01
-2.225397661564560536e+00 -4.011645068709542850e-01 1.435247160317586079e+01
-1.432024791668249808e+00 5.223841767946524328e-02 1.858320300884876630e+01
-6.437802265018031989e+00 -5.908926423911456949e-01 1.367530392279643436e+01
-2.451310072799807394e+00 -3.264205189711577582e-01 1.423194802045832219e+01
-1.942434017110524991e+00 -4.146303398228948112e+00 1.765640028046599852e+01
-2.325520162408286851e+00 -4.182881977147792085e+00 1.789033975089199302e+01
-6.130362847530805848e-01 -2.156289979505391141e+00 1.775585480138654404e+01
-2.672075521325334435e+00 3.610478830500185587e-01 1.326873996122445121e+01
-2.924051608545039205e+00 -3.702487966026001942e+00 1.869574495801501612e+01
-6.224633151860649027e-01 -1.738260284917101384e+00 1.778238006319682896e+01
-1.144635504541823057e+00 -2.568993449377684479e-01 1.613905783070588384e+01
-4.432193712018793974e+00 2.286238597316225807e+00 1.188308120442196270e+01
-4.729976141715349414e+00 3.671505827501075903e+00 1.402871182138285988e+01
-6.354914890028755536e+00 1.397627240975952034e+00 1.783073395139996009e+01
-1.612377222274388178e+00 8.547370635178171971e-01 1.846638656142734547e+01
-4.740594716767453143e+00 2.198832613501430000e+00 1.197671506415014164e+01
-4.565799495299134314e+00 1.067141930299901009e+00 1.216093074410312269e+01
-5.631046860007123733e+00 -2.092780392264318445e-01 1.339160781408732603e+01
-4.126703395756859294e+00 2.175669530606508140e+00 1.160665792402391006e+01
-2.415666418855347164e+00 1.538328358095755632e+00 1.253304752900932328e+01
-3.161577598745974882e+00 -4.029295560926394515e+00 1.859141141833660171e+01
-4.444137401664381315e+00 -1.055852350214483870e+00 1.861392815288431635e+01
-5.764351046363649367e+00 3.876043385813594089e+00 1.705285864231253967e+01
-3.205475718838834087e+00 -6.952210073470205254e-01 1.490080000329113474e+01
-3.121139831676412513e+00 4.593578576397869817e+00 1.721972022511109301e+01
-3.122072457774857313e+00 -2.555338296414177091e+00 1.663431881724114092e+01
-3.616497875658175154e+00 -6.142614939393061801e-01 1.473399203175608463e+01
-1.948324206981578710e+00 -4.192376603080353981e+00 1.787031377639195640e+01
-4.452541194850960338e+00 7.361865934038966941e-01 1.241275889127055265e+01
-3.436568766613085302e+00 -8.976450124038551914e-01 1.524336445527705663e+01
-3.737957233944705582e+00 3.326902023754645388e+00 1.336051934458214063e+01
-4.862593658381612727e+00 -1.549814469981721565e+00 1.560643319295842346e+01
-6.113229704477761040e+00 4.383057855078559051e+00 1.574261439998511136e+01
-1.131413913896620382e+00 8.506483686318787596e-01 1.442566069237173920e+01
-4.246105168256102402e+00 -5.128322197851221675e-01 1.858413750089428973e+01
-7.224517129567738394e+00 1.713513444359638260e+00 1.692524814178710457e+01
-5.367473343622150672e+00 -1.181335143713936109e+00 1.474305205783293005e+01
-7.680727206637878446e+00 -5.153043571561594094e-01 1.746333108754857832e+01
-9.147451935543885471e-01 -2.265818405970951410e+00 1.653714596216844157e+01
-1.758136115651859566e+00 1.039310224926735415e+00 1.846836536422668118e+01
-5.277831128399185445e+00 -1.058892389629002562e+00 1.460019552890836181e+01
-1.443971221380683012e+00 9.700707978568174905e-01 1.567980422916918215e+01
-6.464111766787767444e+00 1.902813803774521251e+00 1.759563450228183612e+01
-2.893919434585830341e+00 1.179094578824767758e+00 1.234014223745075967e+01
-3.316698561500705189e+00 3.278907996033677108e+00 1.787419213113095040e+01
-1.618223135372981680e+00 1.066049338673343838e+00 1.366982064193305391e+01
-6.684629451814712020e+00 3.032402750980764061e+00 1.673934361238016422e+01
-4.608652246498204264e+00 -4.436385857107708608e-01 1.401155411819646801e+01
-6.819102807295630342e+00 1.057926634823311174e+00 1.771503494320674221e+01
-1.018654751597008357e+00 -8.778442660623674287e-01 1.638033684876279850e+01
-2.790925002735649141e+00 1.735493402672581009e+00 1.233484050888818473e+01
-1.472821179822236370e+00 8.719342510306398175e-01 1.392012620023497860e+01
-1.617176863513572815e+00 6.250565714093196945e-01 1.384321474492424997e+01
-3.689669704323693455e+00 -2.218272418356582953e+00 1.635248994122961719e+01
-6.492548412551005121e+00 3.737119318032735560e+00 1.538743948108305304e+01
-1.648566031028571466e+00 4.417236267471050248e-01 1.386466621528227350e+01
-3.373028316604911758e+00 2.860769944775426232e+00 1.274439430116665761e+01
-5.252275207651302402e+00 -1.911670230862511088e-01 1.341624742346904853e+01
-1.221367395812189560e+00 -9.738833455477137191e-01 1.863473054478698643e+01
-2.739283535288631999e+00 -4.083838075591014416e+00 1.859943770623209147e+01
-1.300447465144268566e+00 -1.366796580133119665e+00 1.543718022831545866e+01
-4.519523450058809289e+00 3.767265788710228325e+00 1.415584752799102475e+01
-4.444965979455985483e+00 -2.001955042393943174e+00 1.608896722725463846e+01
-1.465262320825532871e+00 -1.232728632421038473e+00 1.537322508900321694e+01
-6.734079753801416324e+00 -1.982659298173147455e+00 1.825395603985009885e+01
-7.154095462596934851e+00 -1.255312085931151511e+00 1.433693096890842256e+01
-3.873017739868777287e+00 -6.692371231799509879e-02 1.347306820864402610e+01
-4.048888544160298864e+00 -1.919820628677394447e-01 1.368072604279597826e+01
-5.803009808073610110e+00 9.650841248295827235e-01 1.259725726411164715e+01
-1.062783144016803405e+00 -2.632741278407166874e+00 1.614186141060919866e+01
-7.521804358748005015e+00 1.086957593030432934e+00 1.545780422249839958e+01
-8.148120890114931569e+00 -1.706676161137012926e+00 1.676847036443012584e+01
-1.685675521717391767e+00 -3.762415567191981225e+00 1.872198153666553466e+01
-3.794367597312918505e+00 1.758923330805565843e+00 1.166718784297246003e+01
-3.382691417874113426e+00 3.799781601386312602e+00 1.463579183631965108e+01
-1.586820216355930402e+00 2.479196307338324967e+00 1.750128948912611193e+01
-8.121134357710675378e-01 -2.749088344166490394e+00 1.819615150697996953e+01
-2.934923534700007330e+00 -3.878658092526550583e+00 1.729277573396695900e+01
-6.631575804033118970e+00 2.116106324890117740e+00 1.739406091980806579e+01
-4.201719673069834293e+00 7.273298789624067506e-01 1.843784637171425445e+01
-9.031486866090566723e-01 -3.674879659421222966e-01 1.803556781656746821e+01
-5.752307311328558548e+00 -4.185603103033226802e+00 1.787878163455676983e+01
