-3.344681184802677620e+00 -2.976309640557058156e+00 1.818021889320482032e+01
-2.288473562326022837e+00 3.536635582332691374e+00 1.643467669239992901e+01
-2.270018847494259528e+00 3.755593926666999760e+00 1.944105642529340017e+01
-3.204806701293032134e+00 3.148936106808745805e+00 1.319336816953930125e+01
-3.195939311726968768e+00 -3.399307747205957853e+00 1.804413586027146366e+01
-3.018387019840556462e+00 -4.489615149523341842e+00 1.751052166780007369e+01
-3.465266666405110385e+00 -4.604277182494749709e+00 1.724000968314780735e+01
-6.438751463986980283e+00 2.035654851385986785e-01 1.412465469327039713e+01
-3.028496576944223584e+00 -4.587507628940432625e+00 1.744309537763176721e+01
-3.076314918572165880e+00 -2.524313021346451080e+00 1.850657621497542848e+01
-3.257471601589557508e+00 -4.441486998049816393e+00 1.743956343226390615e+01
-4.970679398544311844e+00 -1.634025109980290491e+00 1.339507145058935222e+01
-4.040086264020862572e+00 3.032232885638738829e+00 1.269160262563481112e+01
-4.786827343423715853e+00 -2.363143596933853452e+00 1.771315003208625072e+01
-4.986074563167163021e+00 -1.586956125413640395e+00 1.790282283508004824e+01
5.867470210642287132e-01 -1.467700053128380366e+00 1.950042439220048252e+01
-2.505776072657941889e+00 3.861466054490109379e+00 1.803186266833162321e+01
-3.070289474865106616e+00 -4.580336128641404159e+00 1.529787588711655744e+01
1.117374211664923900e+00 1.658976615463335191e+00 1.725363943148523660e+01
-2.381448426108684124e+00 -4.171333905527356833e+00 1.796171646018762047e+01
-6.302029704111390629e+00 -9.951612615343639057e-01 1.706391018372146462e+01
-6.397325097023172091e+00 -9.481567255538354555e-01 1.697819581459375016e+01
-2.003187297563816749e+00 -4.401685460700531571e+00 1.797378888449681611e+01
-2.173751908681464950e+00 -3.985854989178684527e+00 1.813953498841292244e+01
-6.383536067317754359e+00 -1.909740339472587589e+00 1.634066245201337253e+01
-4.783927625046946908e+00 -1.370757657102388949e+00 1.812356976310637791e+01
-6.813105754319273899e+00 4.470681892776494082e-01 1.457949472533141133e+01
-4.971409300022570754e+00 -1.152973009118024583e+00 1.809292266842526331e+01
-4.811083618123533689e+00 -2.132534684182623153e+00 1.346769456159366385e+01
-6.884456354283042145e+00 1.267786023121431516e+00 1.466169861719894740e+01
-1.533100394698702296e+00 3.345620868259234548e+00 1.835391048019834059e+01
-2.463432600174408904e+00 -1.595654516983526339e+00 1.909265544928701175e+01
3.206016426587567913e-01 -1.834554072591548346e+00 1.945887954377095141e+01
-3.214818326829003148e+00 3.605929787550672394e+00 1.603814342289367900e+01
-4.388894160770886010e+00 -1.402530285879712180e+00 1.834310961860829181e+01
-4.574451596745904958e+00 -1.208562921660101042e+00 1.831390771249488481e+01
-5.725251550520318311e+00 -3.757594345881309472e+00 1.593484015447801383e+01
-1.771341535318474492e+00 2.983110480606312009e+00 1.377858545093266329e+01
-5.566028566531774580e+00 -4.146411538129764374e+00 1.571553449510425438e+01
-7.177217592079376818e-01 2.733084524199249632e+00 1.571343724613049986e+01
-5.698484256334446663e+00 -3.934665134340519899e+00 1.552865189340491625e+01
-6.062580312237618507e+00 -3.103568143096602228e+00 1.553130016249314238e+01
-1.743545567559762643e+00 3.019529382201094236e+00 1.416879603764096984e+01
-2.485811875717125474e+00 -5.519197283738518367e-01 1.496386552363375344e+01
-2.687826282981495396e+00 -8.009377301176229258e-01 1.493182282123231985e+01
-2.633208976186328432e+00 3.598529011505668063e+00 1.983271371319855447e+01
-4.928832825191509670e+00 4.356923394055497667e+00 1.835971992820261889e+01
-4.140224233121034381e+00 -1.394992007305065451e+00 1.358506541514561761e+01
-4.221023152003826162e+00 -1.936929836519252213e+00 1.370630834061223524e+01
-4.687556053953771951e+00 1.614152931487931042e+00 1.909655617515610615e+01
1.438278070348237181e+00 1.222576816670565725e+00 1.698757116903675879e+01
1.510986778372231720e+00 1.113231173446127986e+00 1.699253371755871100e+01
-2.295125415726746443e+00 -4.195114889836625061e+00 1.569270226530592893e+01
-3.165235962028008387e+00 -4.962163569248042805e+00 1.538578695231513294e+01
-3.557428788118898844e+00 -4.961321898213144621e+00 1.518789054675725581e+01
-4.800953282257886201e+00 -7.521725601637400116e-01 1.836141762975755753e+01
-1.060802431401847601e+00 -5.200298828647896165e+00 1.664029221945660098e+01
-1.676790692699815066e+00 -5.397999180019994014e+00 1.648980461986899471e+01
-1.272615407683255651e+00 -5.349219803173498988e+00 1.666228111361586528e+01
-1.469353011157197297e+00 -5.220830853612262068e+00 1.642878354997976587e+01
-3.983206498005437801e+00 -2.161706201334796518e+00 1.405477925620568058e+01
-3.768523695465537671e+00 -1.947152507923522569e+00 1.423538797318654403e+01
-4.008324235601621766e+00 -1.714522101941446497e+00 1.385329781563252638e+01
-3.838449639600584717e+00 -5.485324230227821118e+00 1.634105358487763127e+01
-4.106294182207038901e+00 -5.206897167037858765e+00 1.644962572209503904e+01
-6.081913242648055551e+00 -1.962731251264746346e+00 1.680119846119688631e+01
-7.405854576048120919e-02 2.466008782546905032e+00 1.547228428258910427e+01
-5.942933491544581948e+00 -2.063531578704221658e+00 1.690314135781264682e+01
-5.809074137880251065e+00 -1.764529635372581173e-01 1.785325048011452864e+01
-5.807657018999801579e+00 -3.784293580208151209e-01 1.777632823514118954e+01
-5.880113800597469798e+00 1.106208861696423434e-01 1.789523299993853911e+01
-6.599212384763844419e+00 2.967517170802544069e+00 1.591217740242122503e+01
-2.367409290184476767e+00 -2.972331448348610294e+00 1.562020808353329571e+01
-3.748925642365394495e+00 -1.800283683118161226e-01 1.912372214387256619e+01
-3.504732393908271959e+00 -8.089715645730463089e-01 1.901411610631023663e+01
-3.932823707612134179e+00 4.187834754584384811e+00 1.828182582860360483e+01
-2.315061466607327922e+00 5.850064870742174294e-01 1.432580677326621199e+01
-1.063340710812081813e-01 7.501387653113741338e-01 1.538648941695108974e+01
-6.261490173214056654e+00 -2.551554305366471542e+00 1.555760531275857872e+01
-6.302814227741549757e+00 1.976947247932403950e+00 1.389581134116545158e+01
-6.220845444770182198e+00 -2.674031670508426384e+00 1.577224509248291540e+01
-6.391857462285550184e+00 -2.161613616906109758e+00 1.558290218686212469e+01
-2.643571925186209981e-01 -2.017891933682595340e+00 1.642593407687094142e+01
-6.005345418446417227e-02 -2.162679558675316915e+00 1.650758816594399647e+01
-5.552281536326800548e+00 4.169259845158966582e-02 1.813719011848978724e+01
-5.545742641588310207e+00 2.187933797135518388e-01 1.819993922339119408e+01
-4.514012289860119154e+00 1.616965861071982813e+00 1.919330898142927211e+01
-1.263293101446631095e+00 -1.024878255889506429e+00 1.952670409986573574e+01
-1.465612846943119774e+00 -8.304624184585178703e-01 1.954625581757353459e+01
-2.260871548697496181e+00 3.681284386156841837e+00 1.754215785822311702e+01
-1.663631150388575897e+00 -8.392414472228931777e-01 1.950509657136023733e+01
-6.593149858189596424e-01 -5.202211778564786115e+00 1.686964749051866264e+01
-3.348935588255318452e-01 -3.601300012995587885e+00 1.869638470608429159e+01
6.471985419252448413e-01 1.116918227926678497e+00 1.896928800664785442e+01
-6.633464540413329225e+00 2.599107218642303874e+00 1.793962500686035000e+01
-1.375559609074201717e-01 -3.818775122700318825e+00 1.861028610161600838e+01
1.633710889246515752e-01 -3.678245917857384750e+00 1.870903219036533116e+01
5.389289598264479508e-02 -3.587819333864362914e+00 1.874834725576571870e+01
-1.755250953481262588e+00 3.139292886717952591e+00 1.518369999240880830e+01
-4.452148201007331885e+00 4.734874090931015522e-01 1.293771495931443027e+01
-1.787969251109094770e+00 6.447624306075210310e-01 1.986938068799027590e+01
-3.611226719923417150e+00 -2.434968563702629041e+00 1.831484989209445402e+01
-3.574930507564936022e+00 -2.591686647582443825e+00 1.825802430707775770e+01
-4.920422446323719612e+00 3.541795476547169308e+00 1.557133867452507658e+01
-3.943741177256417707e+00 -2.364029708153469134e+00 1.818578712629620853e+01
-3.858545480642090908e+00 -2.666765695580613826e+00 1.809050144464628929e+01
-4.929635082417568093e+00 -2.374134403580374197e+00 1.761307325863436191e+01
-4.797239443842401307e+00 -2.773430087090201113e+00 1.752146146873779387e+01
-2.465274687164775713e+00 3.692212742636269418e+00 1.973686707033152388e+01
-4.783881140358643869e+00 -2.564059589049306087e+00 1.762677214289346850e+01
-5.530784311099250061e+00 1.839799277233024277e+00 1.862050324066408891e+01
2.208367816466259015e-01 2.454168552709163009e+00 1.724861628545223979e+01
-5.442952955077759114e+00 2.064283930860927097e+00 1.872799646460187617e+01
-5.026272619530154806e+00 -2.368116322805111640e+00 1.754985740871026323e+01
-5.383570464236603570e+00 -2.330684207240802497e+00 1.729410868331690310e+01
-8.659551991013463290e-01 -1.570054653083467366e+00 1.614311253811300517e+01
-6.814411391634195292e-01 -2.190982632238256844e+00 1.631311871208134434e+01
7.184466038218222383e-01 1.184801477161048000e+00 1.885097708802740257e+01
-5.166757060255861012e-01 -2.013137019779682735e+00 1.634545989907574537e+01
-4.849018998540253200e+00 2.603056108781120148e+00 1.918927454285466538e+01
-4.669068580450706385e+00 2.618615476463400427e+00 1.929278718582213870e+01
-7.214015881289848053e-02 -1.845652349102482326e+00 1.944544431495612358e+01
1.610068495478933492e-01 -2.393939730480965533e+00 1.660333665641816125e+01
-6.333416448104272511e+00 2.683279389067318110e+00 1.503275031901442915e+01
3.528576613302210063e-01 -2.586649042869576753e+00 1.668253403822983572e+01
-4.831836967598709620e+00 -6.612326075645553747e-01 1.319403262793252551e+01
-2.906985472744983312e+00 -1.000592495976488250e+00 1.917399689647187344e+01
-2.908061371905633852e+00 -6.786079671595384166e-01 1.928220932957122002e+01
-3.300203560741569397e+00 -8.247822957556911749e-01 1.909131449131990266e+01
-3.317304448663170646e+00 -5.588741818480689183e-01 1.918001594403632382e+01
-2.501528467538761014e+00 -1.043614277099206511e+00 1.926849507198171452e+01
-2.442060710111854771e+00 3.384666892770300972e+00 1.986862552518085678e+01
-1.496357562572375288e+00 -4.181431939978041967e+00 1.607639843491257992e+01
1.247539080057573635e-01 2.396401584146972130e+00 1.506738666558185358e+01
-9.195940267467694884e-01 -2.831015681600050904e+00 1.893970814324423557e+01
-6.767540436315743868e+00 -9.445704151157757744e-01 1.560755181069800201e+01
-6.642984515370170762e+00 -1.343393016230364001e+00 1.560333213670483232e+01
-7.205070419712388263e-01 -2.716276225056922566e+00 1.635995683849388271e+01
-1.410733932558777548e+00 -1.197737476410221991e+00 1.944596055395986767e+01
-4.592255037894140690e-01 -2.602373887571367117e+00 1.645014029006277312e+01
-3.495008806723395089e+00 7.816847699655636861e-01 1.949625638304221908e+01
-3.456520278301232096e+00 -3.905067550502779317e-01 1.918283164838380017e+01
-3.431922647831820328e+00 1.168826472773909275e+00 1.958508976584676375e+01
-4.278335199624946128e+00 -9.389317544649595781e-01 1.334252472003962353e+01
-4.389748620478516328e-01 5.811478014688380433e-01 1.986704571857793056e+01
-5.215176698463255711e+00 1.254859126090274168e+00 1.869723328360658243e+01
-2.598804904367995050e-01 1.871244201481216396e-01 1.982633581835439074e+01
-4.139770729995312593e+00 3.233513003655403839e+00 1.390358734468537349e+01
-3.948725875850060962e-01 -2.016880361389677745e+00 1.638914279793818096e+01
-2.390533711192565747e+00 8.705153936977866325e-01 1.402487990600909384e+01
-2.324622846404887699e+00 7.911565828886271134e-01 1.414643771144708140e+01
-1.991874040206764729e-01 2.503047616101278905e+00 1.549530562103053555e+01
9.282691834812888398e-01 1.813099663047966104e+00 1.577489175939377830e+01
-4.817253091120322850e+00 3.044958051334511584e+00 1.927483438240829017e+01
-6.215063031237539448e+00 -1.357924759602275877e+00 1.697701824822754801e+01
-5.535325690950120503e+00 1.423461100550946212e-01 1.324997070904002427e+01
-6.240259444340233941e+00 3.214874313441573150e+00 1.836658759122652285e+01
-6.134496231670496513e+00 3.230619482344511795e+00 1.845125076475177295e+01
-6.252210331679655120e+00 3.422647449846506706e+00 1.836885506152020398e+01
-6.930318259208796405e+00 1.055822925089579867e+00 1.718894634652673759e+01
-6.781942417936734024e+00 6.725754351561782363e-01 1.721916198596579406e+01
-6.007734925357641309e+00 -2.555333196754442149e+00 1.651802308372975503e+01
-6.208827134210314291e+00 -2.324555544829625120e+00 1.635043212314413452e+01
-5.062305515461669181e+00 4.664376771945269451e-01 1.298568805599785136e+01
-5.265941082159697473e+00 -5.584446776392807399e-01 1.325436588875385624e+01
-4.832631603485969762e+00 4.016070267320072773e+00 1.930321071602918792e+01
-6.199989775358038635e+00 4.490860358142377551e-02 1.758046629865105004e+01
-6.417004417204129396e+00 3.869568207174282626e-01 1.749720029282179823e+01
-4.967469851799406477e-01 1.364248386306060379e+00 1.482640036300866271e+01
-5.420029966232282170e+00 -1.600608686116981705e+00 1.757877974993936832e+01
-4.307346103259562575e+00 2.020571189860727590e-01 1.897567514883728634e+01
-5.766873737267455446e+00 -1.554626950720007006e+00 1.730830914599381387e+01
-5.372236779212722801e+00 -1.358734010751293741e+00 1.772098572631659508e+01
-5.711952509316123638e+00 -7.495136810985097986e-01 1.770822765155684309e+01
-5.632583212015065399e+00 -1.161472822505293045e+00 1.759695508619778437e+01
-5.108592103358440273e-01 -3.387789484039656962e+00 1.877141856053216529e+01
-6.358147200835856161e+00 3.188000442303843052e+00 1.592204516145408277e+01
-4.009492078371953205e+00 4.348748217314131748e-01 1.918412886253014094e+01
-5.536167647597647345e-01 -3.474540811895963532e+00 1.872566415945865614e+01
-5.288763122700496089e-01 -3.197683741759662190e+00 1.885275713780604079e+01
-3.189635827046282124e-01 -2.998588817073253310e+00 1.897503863564400106e+01
-3.125033570664067506e-01 -3.415301966395011490e+00 1.878798041030330879e+01
-1.928988808884615214e+00 3.326519995543394614e+00 1.602454042289948077e+01
-5.040041356041236931e+00 -4.528877267306054222e+00 1.624182584343479263e+01
-4.940218637272104196e+00 -4.553199719774406518e+00 1.632656486736125956e+01
1.251811366719792096e+00 1.383502907069602550e+00 1.739158835139426529e+01
-7.145622424036933040e+00 3.076523324415703531e+00 1.705906382188700476e+01
-4.053203955114294210e+00 8.476843031772904880e-01 1.926844934061179160e+01
-4.097070752914074632e+00 1.007609067147805515e+00 1.928212048007597801e+01
-3.852953971897618679e+00 6.070931198966911246e-01 1.930144704310028558e+01
-3.823965322872009409e+00 3.679844517535740600e+00 1.628957869077961718e+01
-7.280146269667133296e+00 2.464961591201134450e+00 1.646794740660017098e+01
-7.299057248806607667e+00 2.516186898074701972e+00 1.687049309127313634e+01
-6.640816138509826327e-01 -2.815143206593097691e+00 1.639103961890838335e+01
-4.545152740754381249e+00 -6.173253966544582916e-01 1.856469218233213425e+01
-4.684719468427116063e+00 -7.519394405121282432e-01 1.843095976568261207e+01
-6.494214766418054730e+00 -1.746983985675209849e+00 1.618257416896618750e+01
-6.307051822611950520e+00 4.037287822553872196e+00 1.825672927197616602e+01
-6.149699008937528077e+00 4.084308231414638612e+00 1.783340822525102354e+01
-3.066365989535005276e+00 -3.689911652833552935e-01 1.933495826369435733e+01
-6.220654683840112220e+00 -5.264921107450741822e-01 1.399796844665268125e+01
-3.157233691450698210e+00 -5.325834810789543461e+00 1.562264223259057516e+01
-1.605554188990306885e+00 3.329437145125404562e+00 1.759444457181759347e+01
-3.123411929711508606e+00 -5.513815042496826635e+00 1.582290126176424039e+01
-3.100216277527612085e-01 -1.611704917529216852e+00 1.633591711674936064e+01
-1.375794337992331196e+00 1.275031696243722035e+00 1.438474802660853058e+01
-6.381403761048716206e+00 -1.704559199616126230e+00 1.652620965935707531e+01
-6.422594376915225389e+00 -1.546075902498772248e+00 1.657023096635469628e+01
-6.345602331571044807e+00 -1.586764910261417638e+00 1.667670668826896119e+01
-3.657396570618742793e+00 -7.157087788740726930e-01 1.384400809007810906e+01
6.632078709609254830e-01 9.768256185794136348e-01 1.900759162694082605e+01
-2.099589552985629215e+00 -5.322555550240242184e+00 1.618093611141263111e+01
-5.692995610590780409e+00 3.476752440450474602e+00 1.559324702271623764e+01
-2.474044791903670770e+00 -5.431049642844286041e+00 1.609416465830430454e+01
-8.987838738107096770e-01 -8.220602741410546477e-01 1.964383034135530792e+01
-1.069643810439961040e+00 -5.985876659752911166e-01 1.967785741036804481e+01
-6.386613645440244014e+00 2.746307927898343770e+00 1.521975928759470165e+01
-1.443214997494613350e+00 -4.293285996731033838e-01 1.966325416134965920e+01
-3.892646050198027119e+00 -1.268927543136885994e-01 1.331654958533575339e+01
1.132902038044979909e+00 -1.839861786922845077e+00 1.648249841874347865e+01
-6.578319378495807612e+00 -1.301637121691979759e-01 1.713845386643275148e+01
-2.630001990389472688e+00 -4.246694883536921594e+00 1.782522206859612268e+01
-6.209835154699269388e+00 2.743731978911617020e+00 1.494824670346097051e+01
-4.926237715728895239e+00 -1.877520185829494537e+00 1.782455519466178728e+01
-2.652562086223730908e+00 -3.960944703901719599e+00 1.548062579861949573e+01
-5.593098654533105396e+00 -4.136384256429079365e+00 1.531160642711281028e+01
-2.819710701743066039e+00 -9.141924434016722723e-01 1.488351750278391350e+01
-7.334720240157182936e+00 2.103166732402075745e+00 1.602740132144079510e+01
-4.833405742689894424e+00 -7.634475217412555192e-01 1.321467095588505103e+01
-6.636524450467569558e+00 -1.340542995965807060e+00 1.619725859728420758e+01
-1.444643256593986846e+00 -1.835060102359856171e-01 1.972766430753587841e+01
-1.449674512681588201e+00 -5.440477352605343597e+00 1.666338799142139848e+01
-1.647304494869114011e+00 1.806037519480296893e-01 1.978590028731140293e+01
-1.472475230310439809e+00 1.746732183962501073e-01 1.981213657871072442e+01
-1.638796963377941562e+00 -2.500798246460108065e-01 1.967659642777013218e+01
-5.374335022530803307e+00 2.594415583760373512e+00 1.887499082222946711e+01
-1.835413643725435140e+00 -2.403652583100101270e-01 1.964293845002702810e+01
-1.667879048441184509e+00 -1.295305539520129334e-02 1.973421352712632526e+01
-2.049346885501001303e+00 3.523440255334762128e+00 1.718082385675440449e+01
-3.487770030004107014e+00 3.392777588433555813e+00 1.976735364016870378e+01
-4.906368758048563983e+00 2.538614289266677204e+00 1.267153307281862951e+01
-3.530603022624987375e-01 -4.050895162086114887e+00 1.847719095437841119e+01
-3.795873981550297316e-01 -4.329158569437152160e+00 1.834167198658073872e+01
-4.024746178977449240e+00 3.784726029757713661e+00 1.672898246423328672e+01
-1.834590997497661746e+00 3.496609319189552423e+00 1.814426063696380353e+01
-9.536398647585131449e-02 -3.948312112059225942e+00 1.854823601590507920e+01
-3.758411656188967775e+00 4.014638422458905787e+00 1.772805793364367943e+01
-1.043965346005819361e+00 2.947749753730171562e+00 1.652986701034692274e+01
-3.831880683617893801e+00 4.639548919371777047e-01 1.309307777440424658e+01
-3.627962974375388505e+00 8.314155307500662451e-01 1.301950514701427508e+01
-3.914497778131959649e+00 2.582818910620899855e-01 1.314090903134396981e+01
-3.360966294574373237e+00 4.002898609248616957e+00 1.791405585094662811e+01
-3.832039454854000660e+00 6.454876726106580920e-01 1.300956888412962442e+01
-2.803587151774471931e+00 -4.571471323171428125e+00 1.544813225758997177e+01
-1.742301160158348239e+00 -3.400306115628934478e+00 1.853257248629791221e+01
-5.378231198585825545e+00 2.376822078600171029e+00 1.306140105970567689e+01
-1.742378350690890532e+00 -3.614214356858811428e+00 1.844098586185055311e+01
-6.641728814055587904e+00 2.343835506723442319e-01 1.437811098616282024e+01
-9.785062384631508792e-01 -4.416331625191347143e+00 1.823137548185676948e+01
-4.649468148720096394e+00 -2.436979404514006298e+00 1.777068350085221837e+01
-1.180003925068209503e+00 -4.401303756639777021e+00 1.820487076760402445e+01
-9.873711560445083135e-01 -4.793477124442689252e+00 1.804626477168380561e+01
-1.403182941972624276e+00 -4.818303888184138017e+00 1.792916324019174468e+01
-5.376947898957617156e+00 -1.758957313253697752e+00 1.754702201147442864e+01
-5.473012629602034274e+00 -1.986206993924376274e+00 1.737144450456197475e+01
-6.521245082872213494e+00 1.473839321064454033e+00 1.775506466250004323e+01
-5.288471303005484181e+00 -2.219813178780702945e+00 1.742080467543786071e+01
2.816196728818889383e-01 1.552986874219027147e+00 1.919672825842632236e+01
-6.061251005450813523e+00 -3.081564147773314666e+00 1.537724856246311944e+01
-5.767275913281896926e+00 -2.070934379185555230e+00 1.707573856549012348e+01
-4.646116875317411576e+00 -1.336339351658871966e+00 1.332689015242054964e+01
-4.625516487739592009e+00 -9.361604688028389853e-01 1.325330672147815747e+01
-4.402357878926031809e+00 -9.172588461434922902e-01 1.329124922081878069e+01
-4.668508884968757044e+00 3.830121587175929321e+00 1.938772122224008498e+01
-4.815278190517163992e+00 3.383005344464651731e+00 1.930890142573990076e+01
-4.892769322520011066e+00 -2.991452363407683279e+00 1.735156363653012690e+01
-6.715902175083016346e+00 6.658915221609912338e-01 1.443479336024359228e+01
-4.725776246270616099e+00 -3.110723866072864663e+00 1.740636896943585654e+01
-5.023665462187621777e+00 -2.801574779357903555e+00 1.735577572976300686e+01
-3.419965434956423245e+00 3.173170675095817739e+00 1.326043842318608412e+01
-4.985261780594398395e+00 -3.106607495265114149e+00 1.723239668141364334e+01
-7.386837870245490656e+00 1.623199504602433452e+00 1.575128777391699586e+01
-6.873269020543326668e+00 1.862579233904008591e+00 1.484623529152050381e+01
-3.711433300105699828e+00 -5.586241350747213730e+00 1.557293698229538492e+01
-3.313737034888896815e+00 -5.576398109811576020e+00 1.578956078205933622e+01
-6.965143439762661259e+00 3.245745380169342109e+00 1.764676812900227176e+01
-3.730230319472082279e+00 -1.607466628463263270e+00 1.860877901563879178e+01
-6.021468001662524827e+00 4.426980964915702699e-01 1.788318739734857488e+01
1.242565262404068394e+00 1.179393178618853177e+00 1.611706879840292927e+01
-5.310972097506403422e+00 2.807610566012814779e+00 1.894946566934290288e+01
-1.825386922361187381e+00 -5.206618498532851191e+00 1.751529155084909561e+01
-1.591904571639119137e+00 -5.014129672883941069e+00 1.774357955182243884e+01
2.004531859550853223e-01 1.390461571408198926e+00 1.933799806028645563e+01
-3.937990395294565182e+00 1.028992177522720208e+00 1.935657625848025631e+01
-3.531310353460468399e+00 -1.142609451885577387e+00 1.420394023601967959e+01
-6.438861587983371493e+00 1.073206546448095100e+00 1.394423684156678078e+01
-3.588023672758121840e+00 -9.507955296696561920e-01 1.404311117481961091e+01
-4.734452924723608902e+00 2.353158210100411374e+00 1.921089642160513122e+01
-4.283596738076888677e+00 1.617722646179310608e+00 1.930910428779142407e+01
-4.770890228112257603e+00 2.592947079456016546e+00 1.258818075792213520e+01
-7.536913874737345420e-01 -5.102112141220810138e+00 1.673616949627902883e+01
-4.952085201816605498e+00 2.789087636792881408e+00 1.321908166829017617e+01
-4.607861600906060229e-01 -4.991531034177396187e+00 1.682050259223187894e+01
-8.638595129046483523e-01 -4.278742202569199571e-01 1.974650879428232386e+01
-4.599680993054218181e-01 -6.263058624349574499e-01 1.973284309056053942e+01
-5.123820483626203348e+00 -4.001706962462113104e+00 1.658787620220344294e+01
-7.089919515815106266e+00 2.066401790052848408e+00 1.546120627060614439e+01
-5.082799227886039439e+00 -4.176769058353212216e+00 1.649798752141746760e+01
-3.526449319971696639e+00 -4.461443430170503710e+00 1.730268526127451523e+01
-3.815123709756880643e+00 -4.105287033730690816e+00 1.737890479187105441e+01
-3.812044308526383318e+00 3.134370865556457719e+00 1.308972474637417704e+01
-3.664744786416835431e+00 4.377908643844146575e+00 1.908789003724363553e+01
-3.822547187043428885e+00 4.445914700662612518e+00 1.913095694699373084e+01
-5.876818891253948962e+00 -5.797281815101660296e-01 1.763505252359611930e+01
-5.428051491235763137e+00 3.820243792259400806e+00 1.661034206971051574e+01
-3.919631586688608671e+00 -1.636336906706671535e+00 1.850494123215533548e+01
-5.440600200712364831e+00 -3.366990937546841867e+00 1.669912421856106377e+01
-5.819872237541486193e+00 -2.550570501928478340e+00 1.676973028593385706e+01
-5.900550235014155653e+00 -2.762363883456238511e+00 1.652930437636112160e+01
-7.138625455021852417e+00 1.103796808936435836e+00 1.683350588041343698e+01
-7.261181376641933305e+00 1.259644520968993042e+00 1.649350483161002856e+01
-5.929103236153025591e+00 3.438841455465636798e+00 1.862277528961474005e+01
-3.560018420844285103e+00 -9.633415060869234825e-01 1.893488940016439770e+01
-2.117585024497487201e+00 3.247230321153641519e+00 1.478478665042161211e+01
-3.701555001079821494e+00 -5.985776911526735633e-01 1.900567407232739114e+01
-1.866100752128559304e+00 -7.931155848015105647e-01 1.947867767096104430e+01
-1.630971637737858249e+00 -1.015165841457217333e+00 1.945915518325625371e+01
3.280919321650910270e-01 -1.050060956967727721e+00 1.960566323849811354e+01
-2.308757220294194390e+00 -1.384219206691509330e+00 1.919934845933933687e+01
-1.875942226105139055e+00 -1.206680927183777063e+00 1.934970652856530293e+01
-2.087239264868098854e+00 -8.124849287833547651e-01 1.942901809530831869e+01
-2.247960564187463817e+00 -1.122456461297782315e+00 1.929909804923084593e+01
-1.891660564375519105e+00 -1.418646463753355791e+00 1.927906279308530557e+01
-3.244421766503609028e+00 4.232828384276939637e+00 1.950413326301056216e+01
-6.464774567080842971e+00 -1.795108127503680651e-01 1.723977099488083908e+01
-7.040466846214836316e+00 3.249584212679922146e+00 1.751726228666300145e+01
-6.146034121923057647e+00 -1.306705994976233576e-01 1.756574321007993333e+01
-6.345992860134872515e+00 -2.662194429741078783e-01 1.732501039605614679e+01
1.078594190045006895e+00 -3.071850894314795077e+00 1.901893899911791763e+01
-1.582898783086346572e+00 -4.831965672294180614e+00 1.786180747448355177e+01
-1.956747532018941138e+00 -4.574735801732916940e+00 1.788745615699606262e+01
-6.188984869203436823e+00 -9.070158961611990422e-01 1.403618534490842151e+01
-1.786010939288914967e+00 -4.591036626532484455e+00 1.794120113286257734e+01
-2.413709358266326710e+00 -4.788682118819351352e+00 1.757080445653893364e+01
-7.135478037473197865e+00 2.435064697933096323e+00 1.729476697388732376e+01
-3.439041922006854435e+00 -1.107551920932460909e+00 1.430314900351207186e+01
-4.989306682746747157e+00 2.835747789653647821e+00 1.336252172541914618e+01
-7.258930447417320408e+00 8.511696359653224686e-01 1.584003919031443175e+01
-4.185208946419115783e+00 -1.640651617088650482e+00 1.836264195299282775e+01
-3.960880718760884989e+00 -2.036718187234679789e+00 1.832102273606897214e+01
-1.247290974762552684e+00 -1.359285978081659074e+00 1.942803528441254812e+01
8.788955876806519019e-01 1.201581935258701606e+00 1.565680487294870815e+01
-5.514671325833428561e+00 -4.152079024924979933e+00 1.590240515686886269e+01
-5.365890291245383636e+00 -4.373866184566491455e+00 1.591773803479710736e+01
-4.840233687950509456e+00 -3.554327937992781461e+00 1.709928029459358712e+01
-6.276006765050077263e+00 -2.344634050021195737e+00 1.519399059634590188e+01
-2.623478350140531212e+00 2.994912937602403513e+00 1.244468867214964902e+01
-4.257670706385698445e+00 2.080803810987585045e+00 1.235945780425431550e+01
-5.540133745798193843e+00 3.032732248213682258e+00 1.884255485035057021e+01
-4.990082379372297261e+00 2.631037720244846501e+00 1.911094126638239388e+01
-5.303264145142994046e+00 3.203082732933150378e+00 1.900742488984937850e+01
-4.331373168108364702e+00 3.256063352553506540e+00 1.412852807297372593e+01
-5.060073040121737087e+00 3.829715531038756282e+00 1.919105050387151934e+01
-7.114499142994121783e+00 2.467013011743454332e+00 1.604582595287446267e+01
-5.081341844430234289e+00 3.645590691263016936e+00 1.917499261216002182e+01
-5.002656114925499331e+00 -1.543701835578518144e-01 1.310746447421299976e+01
7.223572270871552181e-01 -2.013515466616720762e+00 1.938985549979383549e+01
-3.591206942449670869e+00 -3.936421066846652383e+00 1.486084462631561465e+01
-3.369945615461770849e+00 -4.161949628725464478e+00 1.503846118666222154e+01
-3.118964428469539030e+00 -3.589179766747787159e+00 1.515773612278279003e+01
-6.608260324983017853e+00 2.121811291405149458e+00 1.456715817721037709e+01
-2.898991064501182935e-01 2.669313565735045302e+00 1.790464620640721094e+01
-2.937796417256939741e+00 -4.362719355049334169e+00 1.533380814162459771e+01
8.985512632734320437e-01 -2.842479704539531138e+00 1.912896745615399752e+01
-6.234740461949147772e+00 -2.421117380338841052e+00 1.509975757247705630e+01
5.615384286317750551e-01 -2.611149984144309766e+00 1.673129531507234091e+01
-7.102260478538311439e+00 3.042177934091087721e+00 1.743560843833535401e+01
2.515004508755558366e-01 2.342839569348266426e+00 1.846387005101080447e+01
-3.123072670007661422e+00 -4.449900071230779575e-01 1.929042221280980485e+01
-1.324245140048301739e+00 2.351126663322212540e+00 1.324463126781349231e+01
-3.085683673839795027e+00 -2.395939696782783956e-03 1.944178199353696002e+01
-4.073842110143556461e+00 -2.106430584701392661e+00 1.393166656160861194e+01
-5.460273967179486654e+00 4.226947149204399068e+00 1.894872688277822093e+01
1.871224279685832714e+00 -1.847575521160585765e+00 1.853912735019885005e+01
-5.920617787215980421e+00 -3.349683275866637722e+00 1.594694525426282539e+01
-2.908380132384446259e+00 6.673835121470851339e-01 1.376984986080904250e+01
-5.870093316226199676e+00 -3.555146881986736673e+00 1.574564026197441180e+01
-3.976349198818575736e+00 3.914004846439724350e+00 1.725305353636141703e+01
-6.037455791163544028e+00 -3.158800164727905813e+00 1.576282232247342208e+01
-4.062301661377064832e+00 -3.248314251034038591e+00 1.771323681835898967e+01
-3.564696965508064253e+00 -2.772719159855360438e+00 1.817763980582892103e+01
-3.566846018195501067e+00 -3.189514622706687508e+00 1.797880058262410685e+01
-2.019569182846048694e+00 2.976392850075875618e+00 1.318180418923473596e+01
1.632365259058641493e+00 1.726598069050421236e-01 1.814541883744000828e+01
-3.012013490188262033e+00 -3.969678619849605017e+00 1.782767532101897601e+01
-3.171319444624932871e+00 -3.994796917003843095e+00 1.774621317663907050e+01
-2.813979712706327962e+00 -4.433984162239484661e+00 1.763147841037090657e+01
-1.014600747114251744e+00 2.882534109672430844e+00 1.592903458907430903e+01
-3.210477413989583972e+00 -4.183796107431304812e+00 1.762048158978433676e+01
-2.909956537517548014e+00 4.104127032055354896e+00 1.905216935231214492e+01
-2.797352949381244791e+00 -4.195829366682798600e+00 1.778703604023776208e+01
-2.424085513301757810e+00 2.939220961696263679e+00 1.237936558195943704e+01
-2.485027670129340116e+00 3.446893586785887642e+00 1.560797074427669529e+01
-6.142698603958602455e+00 -2.387737637390637158e+00 1.642416481880808377e+01
-6.035467908170923934e+00 2.564288476579045017e+00 1.437466617972024707e+01
3.895245585996960358e-01 1.590753996144887550e+00 1.907029973216407726e+01
4.893429287191264354e-01 1.777253090495333643e+00 1.883899439952690713e+01
-7.443095868943707671e-01 2.869305705159417297e+00 1.730656351130969384e+01
-3.960662532838994387e+00 5.930188973821665099e-01 1.297631156093209270e+01
-2.918166709110815660e+00 -1.856796934423661005e+00 1.884844704093992718e+01
-5.278813471598131635e+00 2.032167560391399341e+00 1.882473745017711408e+01
-3.964078562404774964e+00 4.136643861510059139e+00 1.809332608685575750e+01
-5.094541306091260324e+00 2.374342982941718638e+00 1.900459064432360989e+01
-5.135893406702615849e+00 2.634041324400731021e+00 1.902451910749752173e+01
-6.626842632076166417e+00 4.834346690098738075e-01 1.433266693461004948e+01
-3.101889948752928561e+00 -3.140286995623671196e+00 1.513560519346684075e+01
1.224304659625993663e+00 1.410342891725213876e+00 1.613563312301958419e+01
-4.437302001722952305e+00 2.175200931300532714e-01 1.300677445151589140e+01
1.285632746031401874e+00 1.396076696483383728e+00 1.624742684778665947e+01
-5.191464541391681564e+00 -4.788649575001787007e+00 1.549029031870386675e+01
-1.677030562684876269e+00 -1.179669845431499775e+00 1.939860696984418453e+01
-8.023554110689299357e-01 -1.572454093021463384e-01 1.981286119958839365e+01
-1.054345755644146232e+00 1.763959650876276153e-01 1.986119427927267722e+01
-2.252923964457657746e+00 -3.947957726454535687e-01 1.952052289206319458e+01
-7.104482707362449467e+00 2.667609267727925060e-01 1.603763829548994480e+01
-7.172441399408349127e+00 6.625385183190077854e-01 1.622824632845742698e+01
-5.812297216316371085e+00 8.783147595666073171e-01 1.333077179190152250e+01
-4.271272692531212556e+00 1.797376774636410213e+00 1.934700914233856750e+01
-4.038417187007783404e+00 1.623298020215636406e+00 1.942172412570082329e+01
-6.090353165111764611e+00 2.443029908245087256e+00 1.836273788635601178e+01
2.343461055926896464e-01 2.299136499036739778e+00 1.863039181598270844e+01
-1.680076695180785507e+00 3.342988878432668454e+00 1.954118859895237748e+01
-3.974388865968769835e+00 -4.731746307986707478e+00 1.487520760278091458e+01
-1.638516517625776547e+00 2.809539965818354190e+00 1.294958548694601674e+01
6.692673133659734486e-01 5.686532120537644008e-01 1.916713565468121416e+01
1.641134589688354906e+00 7.702657387341573791e-01 1.736725910921454030e+01
1.510158193654416836e+00 1.886169483461462293e-01 1.835341393445358094e+01
-2.635470374343350741e+00 3.596709440652249956e+00 1.624038653688436895e+01
-4.556436829604406213e+00 2.128915654067017882e-01 1.300011797583028894e+01
-3.711548375464074567e+00 -1.178026280093660283e+00 1.399215044902071625e+01
1.536212282741293178e+00 2.272831643676907765e-02 1.843807450884964894e+01
-4.217659671331186466e+00 -2.588956255467936174e+00 1.794481954404053070e+01
-5.791969781657670069e+00 -7.287608122465635274e-01 1.355731046228074987e+01
1.096806550562305915e-01 -1.022853001814202134e+00 1.963840254597485213e+01
-4.161503824104722860e+00 -2.939111687225907321e+00 1.781267318673846134e+01
1.361391089505041840e-01 -6.239969327919774322e-01 1.970129124888795147e+01
3.324507596484460592e-01 -8.359367600464352455e-01 1.963678548121952971e+01
-5.808288334108347994e-01 -1.213322326787663830e+00 1.617425761435578480e+01
-5.780998128070476305e+00 -1.113711549251599875e+00 1.360005413002614105e+01
-2.608613293909459729e-01 -2.189086362525212992e-01 1.979437384424513269e+01
-6.900713866262754514e+00 -5.475855520788788233e-01 1.563042268767423693e+01
-9.634393383824382262e-01 2.892323728532967042e+00 1.632114448117912175e+01
-4.884304833905527055e+00 -3.775415906652537679e+00 1.694507283213537008e+01
-5.361003106176179145e+00 -4.554823875942264344e+00 1.529388000998019592e+01
-2.464483633807988738e+00 1.600686316934258890e+00 1.989139947478217962e+01
-2.228979794754052612e+00 1.565721257251960541e+00 1.993064193143016283e+01
-2.051844406664900422e+00 7.879954417808825440e-01 1.985699320765334264e+01
-5.671751273372339419e+00 2.119645982401712647e+00 1.314541338673831561e+01
-1.877976250335693376e+00 5.464388255396386285e-01 1.983506384991826010e+01
-1.885257812134228050e+00 2.139360685677980656e-01 1.975331689825493342e+01
-2.044845265090401654e+00 -3.829738920524032864e-01 1.956454904350306734e+01
-2.271824768549922879e+00 1.400676442479550365e-01 1.966813792998980048e+01
-5.611802010349501657e+00 -3.348127047943031176e+00 1.651829172631437714e+01
-4.640032232579643257e+00 9.605419543245995451e-01 1.279706507613382982e+01
-4.655550740924508268e+00 1.468476601400021675e+00 1.263738982616855466e+01
-4.888008942541304691e+00 1.213208388513661085e+00 1.889587672632614002e+01
-5.767913139702327108e+00 2.676459796573999128e+00 1.417736916959050220e+01
-6.273884510381461332e+00 3.299271616281211017e+00 1.600778724498806938e+01
-4.767578230075380397e+00 1.384795833491970551e+00 1.900590155357155098e+01
-4.901947192221276062e+00 4.331297536873101595e-01 1.869937642261012556e+01
-4.952834283582475017e+00 6.408992474470022183e-01 1.872360205824016433e+01
-4.964121159078030310e+00 9.946336729376993313e-01 1.879866160763802085e+01
-5.986740278593363662e+00 -9.628467081424172402e-01 1.380711409342922380e+01
-4.668122902268311947e+00 4.712927063015954210e-01 1.884865993813510343e+01
-6.534323838348974789e+00 -1.534848111018935590e+00 1.518582437609932967e+01
-5.590794720050935140e+00 3.998016166876941502e-01 1.822250267982966321e+01
-1.792585861310694195e+00 3.466795585270385338e+00 1.940202281397688822e+01
-2.495887445437876551e+00 1.732138663677282198e+00 1.989814336202131173e+01
-1.651745963258418382e+00 3.378249739407017227e+00 1.937211162923453500e+01
-6.674195816525243963e+00 3.760631521928454735e+00 1.768252359589947176e+01
-6.443312300280779503e+00 -1.141859163273262867e+00 1.680943978171998410e+01
-6.592873035142392091e+00 -7.507589632599405149e-01 1.682024931491153907e+01
-1.465610878927473104e+00 3.283088570440507059e+00 1.797439931041003192e+01
8.253673044148672755e-01 -2.569242928273989257e-01 1.934913149676379263e+01
-3.933801444044447315e+00 -3.596109700641697549e-01 1.338084326919339517e+01
7.512746041942537367e-01 -2.279712188871460266e-01 1.940397091436939903e+01
-4.176200635302352637e+00 2.776891477245169604e+00 1.218938972391160647e+01
-1.327794725694237510e+00 -2.061430687449880228e+00 1.916626186507459195e+01
-4.600834817421051604e+00 3.918270781129740588e+00 1.705837809937558447e+01
-1.291831912515945424e+00 -1.843810955580190925e+00 1.925413677114614686e+01
-1.503297088372406831e+00 -1.602802189233432539e+00 1.929557176802370222e+01
-2.108046461371583469e+00 -1.804501310633705558e+00 1.909973918751114397e+01
-1.699652979834382460e+00 -1.815303031771868802e+00 1.918245805106557711e+01
-3.673198066385195304e+00 9.175758945524571386e-01 1.294452026133414435e+01
-1.514473997175818543e+00 -2.425516318113003944e+00 1.898646275602571976e+01
-1.712519697303064303e+00 -2.406778366438084404e+00 1.895353730228860556e+01
-1.485184686819803757e+00 -1.971491712764669613e+00 1.916804519692295727e+01
-1.707704241269701884e+00 -2.001957126685114385e+00 1.911140627813845683e+01
-4.094293079637626676e+00 4.227918591102618251e+00 1.830876902287426233e+01
-5.451559483630227909e+00 3.637985128815715452e+00 1.599308951719475758e+01
-5.380833858494953326e+00 -1.824015478601960227e-01 1.819363164605153216e+01
-1.480780846005005147e+00 3.277598348976197062e+00 1.776326716132424721e+01
9.301804929079684481e-01 -2.270491371817734139e-01 1.923539599504706743e+01
-2.507597575299655990e+00 3.531644637084698335e+00 1.605302133456536140e+01
-9.993454756519153381e-01 -4.633296788126893162e+00 1.812432232083821404e+01
2.608359855584263531e-01 -2.799941713758935968e+00 1.913677525708417804e+01
-6.682005363512888430e-01 2.865974542281304771e+00 1.793219190458673395e+01
-7.235942772563984882e+00 2.841357180903329560e+00 1.707485078600496919e+01
7.010850825310035450e-01 1.567557860782641033e+00 1.863755081860024276e+01
-2.533725581814496586e+00 7.984487325277462855e-01 1.397298655080318852e+01
-2.661971499511929018e+00 1.067269707777125598e+00 1.362085653740082947e+01
-2.439225006725536993e+00 3.171060733126314091e+00 1.990081058462976316e+01
-1.734781248907368845e+00 -4.174922871919121370e+00 1.596871703681145860e+01
1.252773897523565827e+00 1.643497648844041148e+00 1.640786977611066888e+01
-2.954051564727449453e+00 -1.999652557622470184e+00 1.877962184187927974e+01
-5.223969529025314529e+00 6.776288597188327989e-01 1.299609832796890529e+01
-2.734170614278206735e+00 -2.004894066077140380e+00 1.885507878799598913e+01
9.432910479197811338e-01 -1.398153094735873125e+00 1.633818248469144052e+01
-5.338067614608550393e+00 2.607254193283982779e+00 1.341557294404962519e+01
1.298226139125184586e+00 1.515625963416614930e+00 1.674184730190670578e+01
-4.000554068955038289e+00 -1.146739951676792879e+00 1.363555970285797159e+01
-6.879054359481449943e+00 6.369302429401331178e-01 1.708380598804078332e+01
7.472802172500292439e-01 -1.155581550391989509e+00 1.626904320919852509e+01
-5.643204849515019994e+00 2.551670400659662441e+00 1.375918821906575928e+01
-3.715853687563029695e+00 -2.955492522646070430e+00 1.458623363762652403e+01
-3.568172498092240019e+00 3.251546206351225710e+00 1.385021576493803863e+01
-3.967610116963013134e+00 3.263496389167698464e+00 1.409139737368474599e+01
-1.542980887618431440e+00 -1.707738691352284621e-01 1.535968476335476041e+01
-4.588714065880064030e-01 -4.413325894647279313e+00 1.659086571511793906e+01
-8.532674119019795222e-01 -4.392877887869296671e+00 1.639132882479495734e+01
-6.771148772176923458e+00 3.633144493854493007e+00 1.766574780661364841e+01
-7.003981301204791343e+00 2.384175714812142743e+00 1.567060954640355064e+01
-5.204466873134914628e+00 -1.728854959634670729e+00 1.347377645995981865e+01
-6.521787986146830640e+00 1.637794365316674217e+00 1.780246056555760603e+01
-3.683536688853573438e+00 -1.215411400793508623e+00 1.878269192154747103e+01
-5.401188616750843607e+00 1.072753596237501661e+00 1.301153461496525310e+01
-5.411700461924531247e+00 2.922299841881337290e-01 1.315627721846985665e+01
1.678152097918464980e+00 6.044685723163174540e-01 1.695927692566580092e+01
-5.245286010983730485e+00 -9.136422823211887145e-01 1.332140790312009315e+01
-5.015748964462519943e+00 -1.125185822417298809e+00 1.330793813248299173e+01
-5.032516576898796501e+00 -7.504044292558296192e-01 1.323790664942391615e+01
-6.839281114862986399e+00 1.999228708039748614e+00 1.489696785884359898e+01
-4.519403982572948841e+00 -2.281424598886305333e+00 1.357138766067945213e+01
-6.013638832598086736e+00 6.538718829821499323e-01 1.355912301733282632e+01
-1.466386443650853577e+00 -3.989169245829844890e+00 1.608285280880366841e+01
-6.128669916977914411e+00 6.918985199571813238e-01 1.366194876932546620e+01
-6.157714236616205206e+00 -1.506097509019364011e+00 1.417184389689746737e+01
-6.028443328044129856e+00 -1.328966214991373018e+00 1.392940058777469758e+01
-5.999659844766934924e+00 1.297025218225696497e+00 1.337836897081625054e+01
-5.946865370480886703e+00 9.184917282687966589e-01 1.343967536282268682e+01
-6.136978103998125711e+00 1.374363390828293729e+00 1.347361744892007707e+01
-5.221660397877609050e+00 3.806125213091032133e+00 1.657293503556354253e+01
-6.279505689972889826e+00 8.925569088585044719e-01 1.375814089164406440e+01
-6.008541485123846115e+00 -2.144042750673919695e+00 1.415776113333852848e+01
-6.073182695537168385e+00 7.293142795496292130e-02 1.371313311919302791e+01
-3.184919848059854175e+00 3.970633228782715296e+00 1.784890039927764249e+01
-5.749971750666263759e+00 -3.175892876672946064e-01 1.345883411228423299e+01
-6.110283727765587258e+00 -3.199282602948396725e-01 1.381045080861566632e+01
1.858450007098080059e+00 -4.132389017306610790e-01 1.716024467079924065e+01
1.824542972706012067e+00 -2.202560795277230810e-01 1.716483547382396679e+01
-5.910588103047516917e+00 -2.166172083584452679e+00 1.402506833952283571e+01
-1.444549860637283967e+00 5.907279504124736125e-01 1.990501545575894582e+01
-1.259681393857335019e+00 1.743793350803449216e-01 1.983991963423752125e+01
-1.429357386932384122e+00 3.955374984470412802e-01 1.986684802346639955e+01
-3.383463326776455560e+00 -2.733661778334772752e+00 1.485837897173299282e+01
-2.436618464911207482e+00 9.820404467308258001e-01 1.982516081419822385e+01
-7.306057976904480000e+00 1.261645363026380862e+00 1.547020486869453393e+01
-3.760618255207603955e-01 2.675142927291482842e+00 1.688847058506406640e+01
-4.424398540337809216e+00 -1.240483336837260087e+00 1.838637259336210761e+01
-4.084389823715243395e+00 -1.578688211229297256e+00 1.844099354115830991e+01
-3.909445148265843883e+00 4.320483546890118376e+00 1.869682741876406951e+01
-8.491616966694224278e-01 -9.929767977785921573e-01 1.601477595515381935e+01
-4.347324343255314361e+00 -1.583532645782996351e+00 1.829592072519615797e+01
-2.084854728837262083e+00 -2.396940905176216052e+00 1.572704603871956053e+01
5.599890898404062956e-01 -1.177051636470708429e+00 1.628582841949677018e+01
-6.772889630510942283e+00 1.488824266823742137e+00 1.445064694939761907e+01
-2.036995643339997386e+00 3.643910242727553150e+00 1.918868225412240847e+01
3.468801954005145127e-01 -1.159792895056559248e+00 1.628736107454546911e+01
-2.550297220949626631e-01 -6.067913496289177866e-01 1.973634011575979841e+01
-4.231118448892762451e+00 -1.772682434554058162e+00 1.363542484070154259e+01
-6.548137993051359462e-01 -4.176004516882844797e+00 1.646082779992346801e+01
-4.338248523904496778e+00 -5.987216009708192788e-01 1.868606503188274459e+01
-3.905073306949797818e+00 -5.221505303063408987e-03 1.911043326151125044e+01
5.489103140170183970e-01 1.806051266802052857e-01 1.943372383827450633e+01
-1.215849500157216267e+00 2.615467318522168405e+00 1.332754880265072828e+01
1.271946235671438385e+00 -3.025529179710781058e+00 1.900206425204553184e+01
-1.522466660358193558e+00 3.300541631486223260e+00 1.929837268503033343e+01
-6.861707557624512788e+00 1.206757758950957271e+00 1.732271103213824048e+01
9.044030943194554251e-01 -3.045351357264222791e+00 1.904395284667568333e+01
6.658418260406169242e-01 -3.045543634018735180e+00 1.905193398247781644e+01
-3.386242532488079604e+00 -4.160338697893151583e+00 1.755720296926973489e+01
-1.557183732625831318e+00 2.696852864080097056e+00 1.286695569430976249e+01
-6.265663488633977707e+00 -1.956375216112348658e+00 1.452306697395264123e+01
6.329478018060041844e-01 2.224992939912832313e+00 1.743857824325412409e+01
-6.194374516566404587e+00 -1.949743781461585002e+00 1.438577115739983370e+01
-1.768441611539444125e-01 2.604001314498460395e+00 1.728080383444896384e+01
-6.329455596216808644e+00 -1.522958428201718784e+00 1.443921607225712123e+01
-6.121854567417740256e+00 -1.730263240062927421e+00 1.420130027191368427e+01
-6.036579832123301514e+00 -1.939738810701236771e+00 1.414224928965495209e+01
-5.387980066600008833e+00 2.517803429692244688e+00 1.885389621007543681e+01
-2.724175574115114351e+00 -4.949531791781915935e+00 1.560518475304810337e+01
-3.290535091774396292e+00 -4.093265330256423140e-01 1.924151440415093006e+01
-3.233451827861919092e+00 -1.467027844206975629e-01 1.934914765009373738e+01
-4.219421698811125943e+00 2.541891765438423767e-01 1.302598024799373277e+01
-4.529771503937947141e-01 2.615388594819528123e+00 1.568452220948355702e+01
-4.410485528167654046e+00 2.801152667253378858e+00 1.944776582384590924e+01
-1.993621741127821423e+00 -5.266512864861550014e+00 1.739794951177262661e+01
-6.002794559917666639e+00 -9.501262922371764841e-01 1.736841652681691173e+01
4.809604208296052175e-01 2.016565444404853746e+00 1.525095028469533887e+01
5.481231563590738265e-01 2.306887428535192797e+00 1.720436615680994308e+01
-4.079084634666199527e+00 -1.146013287511289169e+00 1.861344746646449622e+01
4.056402206543965328e-01 -2.673318793610025779e+00 1.671324143894515046e+01
-4.145853482867212669e+00 -7.701989510166690200e-01 1.872440820889760360e+01
-3.936271712767600128e+00 -5.700972592865841682e-01 1.890555784838280218e+01
-1.992058969188924777e+00 2.918929055315300669e+00 1.299204751187984286e+01
-4.095575313448902577e+00 -5.954490040118316507e-01 1.881786168577071905e+01
-2.817568126061682499e+00 9.001419001627081196e-01 1.364450899182479660e+01
-5.763101169994253148e+00 1.984651856692850824e+00 1.308115247770198053e+01
-8.638169819701003727e-01 -2.499740104745363234e-01 1.978709675886424080e+01
-1.037156840781371159e+00 -8.752932801201929180e-03 1.982319161629937909e+01
-6.237603800318479053e+00 1.024321744080996410e+00 1.787621104637468150e+01
-3.295093514574253923e+00 4.161483228840132220e+00 1.868549149251747465e+01
-4.915574136079375656e+00 4.537866021895992752e+00 1.882137642026423308e+01
-5.808075436749330578e+00 -1.369546330076740981e+00 1.735544259797908140e+01
-5.223550187833416736e+00 -1.326119324125192067e+00 1.339633831353038929e+01
-2.743742274555375893e+00 6.068762335939508201e-01 1.396318459023615688e+01
-2.331220326700025325e+00 -3.602258387954770935e+00 1.827658918987608772e+01
