-2.321133684273490039e-01 -2.351404065064207849e+00 1.849589872704804350e+01
-7.227695530776571786e+00 -4.151749826831428791e+00 1.700461932840060086e+01
-4.982119189318037655e+00 -5.668187824843640144e-02 1.339457994599226254e+01
-3.471241141688510723e+00 -3.800075351188422879e+00 1.848261936196357880e+01
-4.832149602328021376e-01 -3.620784532039018622e+00 1.653694465859286566e+01
-2.314430038712506743e+00 -3.232103524960578955e-01 1.844436049923932330e+01
-7.620745063389600560e+00 -2.632742317778314245e+00 1.531920435771138500e+01
2.804390098781984753e-01 -6.268008036940631023e-02 1.751592326570708025e+01
-2.409133917410528181e+00 9.653090261516716897e-01 1.261991805823204515e+01
-7.447253480284831140e-01 -2.424894646282134136e-01 1.397779726920401799e+01
-6.163331221047052111e+00 1.057170718012442556e+00 1.251932115317665506e+01
-2.183476445974639635e+00 1.276245544708323187e-01 1.354216961074158831e+01
-6.393851842128935203e+00 1.865877478009575707e+00 1.780783289634278077e+01
-6.222913030185930339e+00 -3.814724400233332702e+00 1.833827496012244040e+01
-2.049171338017171884e+00 3.226581824581176150e-02 1.368743956225102920e+01
-4.424560435617108212e+00 -4.886989274775472847e-01 1.464091999881139827e+01
-1.291040011598292736e+00 2.684689719935270169e+00 1.603896426248130069e+01
-1.070761878931500100e+00 3.275117949822131891e+00 1.714608316274375710e+01
-6.564035647781521376e+00 -4.335204419412336030e+00 1.791438931001180634e+01
-4.778332532568648205e-01 -3.519561988073010017e-01 1.839807551003389818e+01
-3.689104732768363704e+00 1.595445939658710621e+00 1.125855357186716077e+01
-4.568666983402861481e-01 -4.080685553202108906e+00 1.711193565517302062e+01
-5.601105219272778157e+00 2.430713041829316357e+00 1.393988211158859514e+01
-6.883830740283190863e+00 -3.422627762992638267e+00 1.562524026318250492e+01
-6.393709570027802158e+00 2.441254970936385327e+00 1.762514388970185308e+01
-1.888721557680812513e-01 8.163158826871221851e-01 1.540511448101020164e+01
-7.120070696581024094e+00 -9.711422820312471949e-01 1.404260311266458672e+01
-6.159118513509936221e+00 -3.206818618270294685e+00 1.561808801256312762e+01
-7.350688522221249244e+00 -8.141781185340155602e-01 1.418517954854688412e+01
-7.121912946417227275e+00 -3.724024484203360075e+00 1.601638770746009754e+01
-4.966823783907297951e+00 4.503539803397556440e+00 1.723409350584149990e+01
-7.886376358204792325e+00 -1.517497475931746997e+00 1.616598925434549017e+01
-5.959063684928092020e-01 1.819203616594140094e+00 1.605051479566120776e+01
-5.414043534186816942e+00 9.853644949468784997e-01 1.186967581694264595e+01
-4.788800079600083137e+00 4.587460434178104229e+00 1.720864715075443030e+01
-3.539820942901563239e+00 8.265183018127041370e-01 1.838869183249371986e+01
-5.003691414513617985e+00 4.460510600937830361e+00 1.712163935300689133e+01
4.639428546795694441e-02 -3.534639415352027747e+00 1.806198336733781673e+01
-7.635226653054079549e+00 8.696439085903207022e-01 1.673522319529879354e+01
-7.625218875509885308e+00 -8.491339863445470648e-01 1.494575610265643206e+01
-4.356171114439510994e-02 1.321381068842604867e+00 1.717314691887170852e+01
2.012366996791329909e-01 -3.227330226442051142e-01 1.467976701423516062e+01
-7.122308516223041508e+00 -6.093727916965019364e-01 1.387120057416294117e+01
-5.787355228593536793e+00 1.649215831281765077e-01 1.308503982031232482e+01
-4.556807375688089579e+00 1.827608733970459198e+00 1.816287055914684601e+01
-2.680119388638000810e+00 -3.802458461638982268e-01 1.847480406253406215e+01
-3.820525525579284043e+00 1.634719699031874196e+00 1.126896956266532612e+01
-1.717312015000330039e+00 -3.561957256858809817e-01 1.846370908301400959e+01
-2.136803247562823138e+00 2.698123063862277515e+00 1.488745933055864157e+01
-6.407369040854176134e+00 3.859497188169164872e+00 1.701385957090275980e+01
-5.419909299588184126e+00 1.858370230091147768e+00 1.277890111827583297e+01
-6.361639779582782595e+00 3.847133244514591599e+00 1.688892398279337925e+01
-5.216414985606736110e+00 1.954827711933099677e+00 1.271911973522292527e+01
-2.082791082600679466e+00 -3.253318475691007627e+00 1.639071898314942644e+01
-5.819094921113675767e+00 -2.893168653197339957e+00 1.555670694339343640e+01
-6.076708616675668750e+00 -3.413789436270238120e+00 1.843886680587215920e+01
-5.732041288972620663e+00 -3.021328089307603548e+00 1.587089265785757419e+01
-4.242296220276893237e+00 -2.618429323769973394e+00 1.856162312420201488e+01
-6.931399786178840117e+00 -1.045115422004871952e+00 1.825254132905186566e+01
-9.293905193739318005e-01 -3.048173521489561999e+00 1.611706835395928294e+01
-7.859875892179269741e+00 -2.154082033607129354e+00 1.629019050356206577e+01
-7.287012750223109236e+00 8.101039999035629657e-01 1.745133727213077179e+01
-7.194962456504196968e-01 2.325011586178086009e+00 1.746298531732114157e+01
-1.393122387203677537e+00 3.173731968506362300e+00 1.654026605957399454e+01
-5.818028795877181025e+00 -3.453541097157136974e+00 1.845636536887584356e+01
-5.981785941504667026e-01 2.343464480696090924e+00 1.731693674522863802e+01
4.267031646342651086e-01 -1.086731718488947784e+00 1.748885155799133173e+01
-7.133508616829836058e+00 -1.162166689562265542e+00 1.414907928848424490e+01
-2.521822998268136384e+00 6.321554404386967585e-01 1.835515544917866038e+01
-6.793342775423163005e+00 -3.613237538638729873e+00 1.813528156967116445e+01
-7.368525079763525554e+00 2.006520847232560190e-01 1.385872230378134873e+01
-2.375512650912039447e+00 3.399732927692578066e+00 1.576230802077979121e+01
-1.762198607708313824e+00 -1.329876608863365117e-01 1.844871274877122858e+01
-4.848992684381313367e+00 -4.744503134964416446e+00 1.809590274062702520e+01
-3.768186904679415861e+00 1.539022999535011316e-01 1.339839507142358599e+01
-5.790246950369450474e+00 3.571440649669372913e-01 1.290462682363151714e+01
-3.199930060602925508e+00 3.402049311665063858e+00 1.498144248491194475e+01
-2.703790890596754259e+00 -1.589373124341489252e+00 1.569230948475078691e+01
-4.244671146788103755e+00 -4.724496761145121404e+00 1.771543987258119301e+01
-4.748097378306495031e+00 -1.263306113976316869e+00 1.530947522756359547e+01
-3.694026344207519852e+00 -2.057335359271653008e+00 1.600230456187590278e+01
-6.179016958352057998e+00 -2.702660127571903104e+00 1.500532263711388481e+01
-2.900318006522378589e+00 3.888656489927708293e+00 1.629261468669901802e+01
-4.468519348834520954e+00 -4.349703141381827010e+00 1.691914153011976651e+01
-4.156725852925339026e+00 -2.280513171655045301e-01 1.420549324222606202e+01
-1.519910577623836412e+00 7.396551142224162545e-01 1.376899100249394081e+01
-5.053604789286223919e+00 -4.646108490838944505e+00 1.821284343007896211e+01
-3.767476559359249411e+00 -1.681613722901657670e+00 1.583944866449159861e+01
-4.693004480226679931e+00 1.837283611343212719e+00 1.202884928223797090e+01
-4.001672320599925392e+00 3.301838713313953733e-02 1.360970181051548167e+01
-2.343573172712730468e+00 1.787615238648849969e+00 1.818243356680594758e+01
-5.848687680263617850e+00 -4.400713056116997812e+00 1.819370743085664088e+01
-6.977398331413743549e+00 2.131170122044775184e+00 1.516325405733595488e+01
-1.955549966201534984e+00 -2.031478628723951463e+00 1.585383009061518322e+01
-4.875479047325676163e+00 -4.675856744671389897e+00 1.821941060160858683e+01
-2.872712862382020393e+00 1.921546864978639579e+00 1.268532964623181414e+01
-2.356574010328646551e+00 3.289980849631578330e+00 1.777412660975493708e+01
-7.770433851433777406e+00 5.697983109183746286e-02 1.666481888659540544e+01
-1.752692174326826002e+00 3.495135177178300800e+00 1.754869339440920584e+01
-1.141764080030992501e+00 4.557364989253865906e-01 1.839982717150990510e+01
1.925125419864897047e-01 9.868400632007008344e-01 1.638028494379846478e+01
-3.086676483758689082e-01 -3.241955729793395413e-01 1.829892492621850408e+01
-6.547637796412896449e+00 6.033883511997401028e-01 1.809864009540362417e+01
5.368456155531999840e-01 -1.419408423124387753e+00 1.703882704861806019e+01
-7.848305444344497062e+00 -1.948792579844578654e+00 1.670769641315996523e+01
-5.562050897514550840e+00 -2.142059188822823312e+00 1.515999541522302962e+01
-4.705247222022606479e+00 -1.462469130670837725e+00 1.547185327463326843e+01
-1.071144542584166359e+00 -3.383684517607917996e+00 1.641531251724465079e+01
-5.962021539290832450e+00 -3.431771710982908452e+00 1.609224306297444684e+01
-1.536473312080337328e+00 2.883125417327874196e+00 1.777605503835110312e+01
-4.861661570846587566e+00 -4.463285007423729134e+00 1.702028762546003549e+01
-1.188998316682896794e+00 4.741304664166134941e-01 1.397219619735700036e+01
-5.560905340113297513e+00 -2.420428097767945097e+00 1.546984151002591545e+01
-4.085112542329476071e+00 -3.496345389519770031e+00 1.645155437047261415e+01
-2.282864439750080798e+00 -3.898798577531997545e+00 1.672305632473003811e+01
3.292909023315901407e-01 -2.762077995347860693e+00 1.582187711858832557e+01
-1.579339680751060904e+00 2.645333621441072758e+00 1.789613416590989203e+01
-3.377954377720675971e+00 9.775451786715658731e-01 1.834895248341689467e+01
-4.658297095856044123e+00 -3.835506264915339081e+00 1.846958417517777207e+01
-6.277266955346748389e+00 -4.443105366859436245e+00 1.803293735427484279e+01
-1.818559545281256407e+00 -4.059852079067507447e-01 1.430249584268452168e+01
-7.516417744621982422e+00 4.074618694542364583e-01 1.728037855228870256e+01
-7.109422846482637226e+00 -4.213465245223663835e+00 1.738163478879774004e+01
-6.700553251446482506e+00 5.900801668524143784e-01 1.802493119802175414e+01
-1.354616494779660174e+00 -5.726053635599719360e-01 1.429253180036480586e+01
-6.379650648734566332e+00 -1.180237290827071295e+00 1.396001711548120028e+01
-7.290544749265697178e+00 -7.542985235744192885e-01 1.407085611228569633e+01
-5.565206148090413585e-01 -1.080583835765671630e+00 1.454245957334995154e+01
-7.421029306799633574e+00 -2.393787374714035021e+00 1.784977569688050636e+01
-2.749094385863786627e+00 3.151313707197681779e+00 1.784661693618830469e+01
-6.600838084295270747e+00 -3.029721071644535968e+00 1.836169043124947109e+01
-7.849344560676358995e+00 -3.209289027546942119e-01 1.590059585181938928e+01
-1.187387688982272926e-01 -3.794694010789821270e+00 1.674662487724962290e+01
-5.943435462356221777e+00 5.796913556958233071e-01 1.273929654616497942e+01
-1.084960165683411804e+00 -4.051473798609409371e+00 1.824681646884799591e+01
-6.913484606730968096e+00 -1.619407101026668183e+00 1.832107682678987715e+01
-6.716615208685590588e+00 -1.609370570493904307e+00 1.840463088382901446e+01
-1.082801376718745656e+00 -2.349891778505284634e+00 1.848807950240628628e+01
-5.334417306560117922e+00 -8.100970948419101703e-01 1.413897141625416509e+01
-6.155810736492355772e+00 3.187405027693976933e-01 1.309386612110458259e+01
-7.090236194709719442e+00 -3.069018430577887813e+00 1.524799763242220507e+01
-5.852357219595038629e+00 9.119039936157206094e-01 1.222990210243935394e+01
-2.261262905869329654e+00 -4.265396460182241611e+00 1.712846207472767901e+01
-5.844200778412309560e+00 -4.137319583376460663e+00 1.829729990769850190e+01
-5.482632326986720983e+00 -3.837103289226652336e+00 1.840454815488072882e+01
-4.727602248980748101e+00 -3.283366757159259741e+00 1.636180578004084651e+01
-1.512177288772002193e+00 3.214272328742040052e+00 1.645548490107042028e+01
6.068478681893872684e-02 -5.331041181033813192e-01 1.451860956492404142e+01
-5.770004968808004620e+00 -6.738065439130802581e-02 1.326720408156903375e+01
-5.389076816207369447e+00 3.017330800670537272e+00 1.778336108797618209e+01
-3.362234233966542085e+00 3.043793530076204679e+00 1.789271038096554634e+01
-7.811375848261413068e+00 -2.488329067719313059e+00 1.617226172840948095e+01
-7.055694034267888881e+00 2.717133083609660993e+00 1.636517415695044519e+01
-5.447094079850662851e+00 -2.996830662315504767e+00 1.850426149926597930e+01
-5.007211747244259215e+00 3.517897176798343573e+00 1.562332774655357781e+01
-4.208091806058273932e+00 4.332752100667690343e+00 1.683617750520193823e+01
-6.067605336295052609e+00 1.352152620681361439e+00 1.281140656565494140e+01
4.114554535856482231e-02 -2.800292047471673040e-01 1.433338005909284618e+01
-4.127783959950727777e+00 2.621571401354790609e+00 1.800695033452191751e+01
-3.852504253606997775e+00 2.121773331505512061e+00 1.215866894279003674e+01
4.797324138872972599e-01 -7.850711984922496001e-01 1.648788287507330352e+01
-5.963926436240893025e+00 -7.518925236544400370e-01 1.374288231745557454e+01
4.992021931263120882e-01 -1.059813558462437300e+00 1.703714706229305875e+01
-1.865317262555246991e+00 -3.839413905757892209e+00 1.670203493131555916e+01
-2.390410459390325926e+00 2.285071789514597551e+00 1.390022103156072575e+01
-3.202409214856083430e+00 4.043698188471568145e+00 1.754688782543139070e+01
-2.348440166203335178e+00 5.228575703824893672e-01 1.295798473027967646e+01
-5.636626387635084612e+00 -4.589393881958634402e+00 1.812307787532623138e+01
-9.712983657780256408e-01 2.316493548666156865e+00 1.770229884698422751e+01
-6.697393490504103042e+00 -4.131561652672749219e+00 1.661607242800945272e+01
-3.075056083534359885e+00 -1.788377258603945474e+00 1.856334174533566284e+01
-5.074353147171960288e+00 -3.629497446622043988e+00 1.846945333061575667e+01
-6.994597099465682533e+00 8.117236922058117532e-01 1.327408350757577438e+01
-1.694546760697472454e+00 -2.031615605508451772e+00 1.580435594604264082e+01
2.662360145742681539e-01 -3.812339541354742956e+00 1.765034610755658662e+01
-4.864182745371843808e+00 -4.441677321647844678e+00 1.833872562192112099e+01
-3.267826571098167987e-01 -9.616137992123992007e-01 1.846712686933705072e+01
-2.375629666604558654e+00 2.258003582905939943e+00 1.809174033587670749e+01
-1.066808063574769871e+00 -3.845493526817949537e+00 1.676004695316382964e+01
-7.606605323279859165e-01 -3.392002510331977305e-01 1.405877296572097634e+01
-3.673719208655867874e-01 -1.901812371635937637e+00 1.509525244367154784e+01
-6.291779732804368308e+00 -3.105422905277192669e+00 1.539183106470967033e+01
-7.303040170069513337e+00 -2.799079314196123214e+00 1.793067289381210117e+01
-6.540514392008871247e-02 -3.888685584293869901e+00 1.688495811304492378e+01
-7.607471695576400350e+00 1.073726554528381172e+00 1.668502073194949276e+01
-7.582383177995396295e+00 -1.173822990734190164e+00 1.765296870251533790e+01
-5.398345464342930722e-01 2.395948579193964978e+00 1.683182140764396451e+01
-3.249560990548981287e+00 -4.500318085858713957e+00 1.734144949473812147e+01
-7.806084842567317494e+00 4.863616351457097364e-01 1.626150691316128416e+01
-4.235624441209600022e+00 -3.760305499738167967e+00 1.849269863793516322e+01
-5.628570002468752165e+00 6.728760865121433676e-01 1.239596613658859070e+01
-4.234626100781513358e+00 9.603165079488048539e-01 1.181076689190559392e+01
-2.469341682601430055e+00 -3.964111133711396562e+00 1.834068747604679572e+01
-2.352902403546127896e+00 -1.392868449973163170e+00 1.553268310291587539e+01
-5.876449549072283673e+00 -4.493660159493348516e+00 1.703434665163013761e+01
4.417501859075955162e-01 -2.468091075896606146e+00 1.758725894383558597e+01
-6.544933125842401722e+00 -1.586616342188802875e+00 1.416701387907802001e+01
-4.243810683039928477e+00 3.879875978954315574e+00 1.604216062328627146e+01
-4.065336569867630701e+00 -4.107026844638823171e+00 1.673545751639706225e+01
-5.023212838757919130e+00 8.715282176343228659e-01 1.196013308613758142e+01
3.793292136747321575e-01 -2.298033699664816076e+00 1.776879677702086013e+01
3.702016513500402395e-01 -2.695837870543170034e+00 1.776948082136351559e+01
-2.895221985016454891e+00 3.459263361578113205e-02 1.844787799458331534e+01
-6.753163502718162903e+00 -2.055597133122854192e+00 1.840559473259079226e+01
-3.489393304032258225e+00 -2.227610662049385848e+00 1.606924970575399669e+01
-3.708317921196145228e+00 -2.301449507981950582e+00 1.608179074759257077e+01
-7.618915747456787457e+00 6.705330167642310490e-01 1.691121975600413663e+01
2.765748642372580779e-01 -4.434835681924160777e-01 1.771623440976973995e+01
2.543641860280107525e-01 -3.322883574965024955e+00 1.785885842969184267e+01
-3.770082214624617567e+00 4.244460113414426417e+00 1.669155796538640146e+01
-2.789482099384777314e+00 5.430180971476309404e-01 1.279007626480346005e+01
-2.331960362992451685e+00 2.474825587106731728e+00 1.803700000452484176e+01
3.248852193240016617e-01 -6.870834076515519584e-01 1.771127447179916459e+01
-3.108284317830949828e+00 -2.434720165839189487e+00 1.613048373836308258e+01
-5.051998744875779934e+00 -4.031680659366688069e+00 1.841439159670492387e+01
-4.867652495065517115e+00 -2.782335170937739299e+00 1.853137028138860387e+01
-4.140023370107114076e+00 -1.249184664502036135e+00 1.550564719901469601e+01
-1.851098697388903203e+00 -4.352485091397607420e+00 1.731899207059142043e+01
-1.367202799366411536e+00 -4.491600085118712116e-01 1.417680907825219805e+01
-6.308599788208139714e+00 8.672849687737418378e-01 1.256264406291306557e+01
-4.624679961350512514e+00 -4.450172519377137093e+00 1.702014760244669844e+01
-6.550665179153928319e-01 -4.310933087216510806e+00 1.794295137097051906e+01
-7.130923011661096211e+00 -3.850466228337467989e+00 1.623610814214447373e+01
-4.931543438238463750e+00 2.859421448271130650e+00 1.789589958357747435e+01
-6.084052749108789016e+00 -3.792464969118671370e+00 1.636439457473461800e+01
-4.857912540530827883e+00 -4.370822782819726804e+00 1.691494910435188359e+01
-6.699358246832721520e+00 -8.095403696504370750e-01 1.832019883869183019e+01
-2.882420086107495560e-01 -1.122807740278241262e+00 1.847464206120126562e+01
-7.551678884712373474e+00 -3.187738069029566468e+00 1.727573135520553649e+01
-4.728483608704356911e+00 1.527455085640216037e+00 1.156519726205336696e+01
-6.698015369542519082e+00 -3.803127807009820671e-02 1.817939113996357747e+01
-3.314873204230586623e+00 -3.478549244415110486e+00 1.645615568152474850e+01
-2.459944675052085084e-01 -4.157966372155318169e+00 1.729432190274614101e+01
-1.647681417142507487e-01 -1.783383677129308786e+00 1.500521120019958943e+01
-5.985883306553700933e+00 3.662645545884884335e+00 1.626961372784370496e+01
4.313388066812978150e-01 -2.184775795403322007e+00 1.561310427787536526e+01
-7.437275620895453798e+00 1.864644507796348938e+00 1.637784908152413976e+01
-2.552899263562657950e-01 9.579652926768865706e-01 1.549377845407493481e+01
-6.999135591133651246e+00 -2.789205059128334163e+00 1.820535678694452741e+01
-6.817654829501558211e-01 -3.853227876184356582e+00 1.678963692349447001e+01
-1.516240709216889471e-01 -3.491424250748735858e-01 1.428834088544323322e+01
-3.726872988893178973e-01 -2.720707559008022081e-01 1.413145737111148748e+01
-3.276958692064248613e+00 -4.251222393388538023e+00 1.695976184787959085e+01
-7.450241787606081800e+00 4.333143037074580484e-01 1.737797695792769304e+01
-1.964910076536711347e+00 -1.823508349757768876e+00 1.574072503077175611e+01
-6.345307822552738453e-02 -3.711469089416912226e+00 1.664151981797642321e+01
-1.727522863694703092e+00 -1.816378356360427215e+00 1.567317136317091553e+01
-1.529652663791183143e+00 2.074314863799022302e+00 1.806542533486976509e+01
-1.002044817621408068e+00 2.173276032409181546e+00 1.589194521479468847e+01
-2.127550398599051817e+00 3.151055009273775021e+00 1.780327406678156166e+01
-6.893219933725065474e+00 -2.663388298247428843e+00 1.487493011596935588e+01
-2.670645052573415335e+00 -1.155362033666960553e+00 1.539092515286746021e+01
-7.095550165308360135e+00 1.538438267448473340e+00 1.437611730808878008e+01
-4.391071955001974558e+00 4.085852590734514678e+00 1.645339568968814348e+01
-6.533133349391558653e+00 -2.636300310630866228e+00 1.489570077393332070e+01
-7.180909326307242324e+00 -4.130034032225106344e+00 1.735892174971500168e+01
-6.707320805764904748e+00 -2.835586786100263268e+00 1.505367104273696555e+01
-3.065411724014819761e+00 -4.159149193836391589e+00 1.688368089683673645e+01
4.812142850960627882e-01 -1.683467123930406650e+00 1.742466749878322219e+01
5.493884216799141962e-01 -3.216260416251973453e+00 1.697844654355074567e+01
4.879647383554793771e-01 -1.275015696182541625e+00 1.726561262483611614e+01
-7.770014574999077439e+00 -9.690239150682620206e-01 1.720145606878592304e+01
-4.276947514388986349e+00 -4.117515466693319581e+00 1.673552442305220467e+01
-5.993332843205971372e+00 4.050920792891653299e+00 1.688922561866058913e+01
-4.039810284033914733e+00 -4.187637064421008581e+00 1.839150167997631513e+01
-5.215327191505316762e+00 -4.507850938865056278e+00 1.825975334018832541e+01
-7.319010016117216466e+00 -3.780326648119265442e+00 1.743206371953437639e+01
-3.541342593787773829e+00 4.092536473638240802e-01 1.294506973997923893e+01
-3.051943993863331706e+00 -3.596386981108355307e+00 1.845841414509315115e+01
-3.550000123278653330e+00 -1.010506078312144229e+00 1.531712778875461112e+01
-2.053917101775488696e+00 -4.363989150955642771e+00 1.729953561821931629e+01
-1.169642264706818979e+00 -2.584666913464639393e-01 1.395574601699568973e+01
-4.895426701900897903e-01 -5.795425471568416143e-01 1.845252135741260702e+01
-6.888242577193370408e+00 -3.970672029855742302e+00 1.638742651759109492e+01
-5.404838169447666374e+00 8.747530166989231359e-01 1.202573602218589599e+01
-6.911513755107980828e+00 1.804806274851940007e+00 1.746509946957210957e+01
-3.796166555892934724e+00 3.519216676530383836e+00 1.507306166910673539e+01
-9.480596848142900379e-01 2.926199989292041614e+00 1.733389009379932588e+01
-7.494975009722975035e-01 1.284320927888485731e+00 1.802426965764777123e+01
-6.900717336703893423e+00 -1.766184012000233228e+00 1.430938596823484232e+01
-5.251984305209456139e+00 -2.058945220128909792e+00 1.854060165937438143e+01
-6.893816397850997646e+00 -2.403545309632070914e+00 1.832408611513825036e+01
-6.313438800440286158e+00 2.381295304355110609e+00 1.768991996736403394e+01
-6.168437012088238802e+00 1.629517798784343885e+00 1.335850665622329103e+01
-6.729031504269926245e+00 -1.416078485775146500e+00 1.412238057618226605e+01
-1.313092732690470221e+00 -2.862768057813895872e+00 1.618484968244852240e+01
-2.960036146919568179e+00 2.200048291027655978e+00 1.809786077450836217e+01
-6.488034997287938310e+00 -4.283340587731457205e+00 1.681453652716583491e+01
-4.223887706966566458e-01 1.965452415366174765e+00 1.648856960165586827e+01
-6.763309429791640071e+00 2.077683374883760870e-01 1.809345276918489276e+01
-1.393509909857869156e+00 3.270468592445120670e+00 1.749640609646161948e+01
-4.307682083896258618e+00 -2.243224989635688615e+00 1.599971107053299590e+01
-4.719698050834418623e+00 -5.244914752930096569e-03 1.845750995775255632e+01
-1.763118501867286247e-01 1.011806483952159219e+00 1.564329365534682381e+01
-6.734592742722609771e+00 -1.797990182421630223e+00 1.428348114951153747e+01
-1.589974006648941618e+00 -1.010900630632947106e+00 1.484319442622187779e+01
-2.069974208819107542e+00 1.270654510207437582e+00 1.330778734771280369e+01
-3.025391114391914549e+00 1.924552035254216698e+00 1.250234713967576283e+01
-4.801822055227937369e+00 8.971505263949007825e-01 1.189701202394144985e+01
-5.194275857465649793e+00 4.419433218167085897e+00 1.711879355621312726e+01
-3.119026212408183785e+00 -2.077757466628615823e+00 1.599744151335813314e+01
-5.497977632452247576e+00 -8.359212094033341423e-01 1.848953696542749014e+01
-4.696331935320072759e+00 -1.208593164149119215e+00 1.854871197439414487e+01
1.183608475534687621e-01 -2.678204499561924301e+00 1.567199362107548666e+01
-6.149789124453782563e+00 -1.548726313064189508e+00 1.418343897633146611e+01
-3.652621181618989077e-01 -1.665944748932008945e+00 1.491739389716094166e+01
-3.489019527559704237e+00 -2.058738306964032816e+00 1.600971602069112976e+01
-5.101062553617611073e+00 -3.801218569223062005e+00 1.844598829375472349e+01
-5.584364944205223225e+00 7.680783020785557635e-01 1.224687542471423285e+01
-3.306148102806483191e+00 -4.428878689275867586e+00 1.720292941020170474e+01
-5.247574993048040426e+00 -4.001820379255039306e+00 1.839728028444149288e+01
-4.264460138691292812e+00 -2.475478333997950475e+00 1.856447221813436954e+01
-4.852415996046499203e+00 -4.018910589785797960e+00 1.843360448333879731e+01
-3.087522511146793658e+00 -1.973187966110151237e+00 1.594363923736747779e+01
-5.698574162182918457e+00 -4.648707331456017222e+00 1.733947204161754740e+01
-7.321151200782274771e+00 1.433142905614963825e+00 1.711861578834324860e+01
-8.694418137325882201e-01 -3.162085997276389726e+00 1.840664664326057220e+01
-5.501672900083784512e+00 -3.922501029921024340e+00 1.658623469677094420e+01
-1.989443174666782443e+00 2.852399992250808758e+00 1.531326689334782287e+01
-1.564179832131905590e+00 3.181056939059831112e+00 1.633163317881258081e+01
-9.729059663278257775e-01 1.267798649994037463e+00 1.498500821413262685e+01
-7.035417118233002753e+00 -2.455613544336245457e+00 1.823555504389918980e+01
-5.677727881396076981e+00 -3.934731952858451898e+00 1.656848719037905937e+01
-1.514507629310570591e+00 1.005769170247234889e-01 1.845532573862773518e+01
-1.943647196241657493e+00 2.638182458632656324e-01 1.841220752547602046e+01
-5.276029370316178913e+00 -2.588326577508612836e+00 1.852554124773709532e+01
-3.204226982776412491e+00 -4.515942300398651632e+00 1.827795800981007091e+01
-3.623346862442276439e+00 2.669577246008697280e+00 1.334974031678299866e+01
-5.837074858505490127e+00 -2.819165496478310828e+00 1.851043986295524491e+01
-4.555069925454821700e+00 2.945309462248154375e+00 1.425860867961377210e+01
3.899448691319971072e-01 -3.464822327602377072e+00 1.645288225922441683e+01
-6.405156723054512113e+00 3.232998924938312868e-02 1.334411650211597333e+01
1.217148954422285767e-01 -1.916479663369174524e+00 1.823156203150600874e+01
-5.364504808656937129e+00 2.224513938878603270e+00 1.800594188895252756e+01
-5.912321735545585710e+00 -1.077138364178846341e+00 1.847866338278529952e+01
5.802216348003803870e-02 8.242719478424120894e-02 1.474630412698658688e+01
-5.161483607239762961e+00 2.041324859695830884e+00 1.807390044940198237e+01
-3.875602165789009401e+00 -2.699301427847603740e+00 1.619107476005802226e+01
-3.662395143994843782e-01 -6.035436302663277353e-02 1.411624469368023682e+01
-5.807694885297534526e+00 2.957461948407645203e+00 1.500089363259834840e+01
-2.337194328166444790e-02 -6.994031598166450259e-01 1.819983496582104010e+01
-6.522163074711192721e+00 2.312721537607015598e+00 1.484100603050379164e+01
-5.272356126756230665e+00 -4.277329552055656237e+00 1.681611248419053339e+01
-1.483736680482530712e+00 3.678763790408537293e+00 1.734781310853590242e+01
-3.163722280371856321e+00 2.654782954995633659e+00 1.799705677203169074e+01
-3.743536924344605943e-01 1.500400957612395336e+00 1.759290940501048084e+01
-4.180805029790422012e+00 2.071868514657325022e+00 1.215898277865841237e+01
-5.730205517191467868e-01 1.611902184496166290e+00 1.775161265710674741e+01
-3.421525980196653105e+00 2.718878538427614178e+00 1.352767995044820282e+01
-2.027362712004933343e+00 6.159619230502895171e-01 1.306714459247667293e+01
-7.421727906933373475e+00 -3.207615826018326288e+00 1.761357984110706809e+01
-7.066216767464718274e+00 1.006841146704558376e+00 1.761872706988904014e+01
-7.490060329804217432e+00 -2.857215719262750753e+00 1.531673688115177612e+01
-2.946866663987931290e+00 3.115480513185438838e+00 1.468062507217172197e+01
-4.060159147203875052e-01 1.249962523158397953e+00 1.778526853681874087e+01
-6.994152207905742102e+00 1.865230333003181862e+00 1.735961760416452648e+01
-2.007239357038717031e+00 1.334103961628920088e+00 1.346443720359007301e+01
-4.943444374983364753e+00 1.615933642844709306e+00 1.817548479905854464e+01
-7.456713451115998481e+00 -1.869535832660234043e-01 1.760293856980751315e+01
-7.213969108567795274e+00 -2.996056955369989616e+00 1.798416433046462970e+01
-2.971327769358676374e+00 3.879201457004756382e+00 1.759766875896126237e+01
-6.946705277060775785e+00 -4.399795819068668123e-01 1.374711512706804939e+01
-6.256530066634539367e+00 -2.833295406482041479e+00 1.847834662328297384e+01
-2.143768089217140904e+00 4.360001583637272971e-01 1.838593970334281380e+01
-2.868690836861933491e+00 -4.476914933123678608e+00 1.735094613777246764e+01
-4.875990427241484682e+00 -4.537822473791719879e+00 1.712284193642597785e+01
-5.848136938002509666e+00 -4.581676291670524037e+00 1.717875332787091480e+01
-6.102750911455306237e+00 -4.478070842232878768e+00 1.703006075874869651e+01
-5.834024478220515064e+00 -4.562267300350660193e+00 1.809727312335581217e+01
-6.301245384717951481e+00 -3.441348118249503152e+00 1.586242262956216820e+01
3.972116881307266589e-01 -5.323322658288884845e-01 1.745312876103894695e+01
-3.275586376090187546e+00 2.621344059629850065e+00 1.340884777503073622e+01
-4.290869653016786245e+00 -2.192430311534000253e+00 1.856662466865220296e+01
4.075570938311313118e-01 -1.100792236292031934e+00 1.758680121776834682e+01
3.923346877086982265e-01 1.395266521470326371e-01 1.694455768038933741e+01
-4.197787437333975191e+00 1.572246910937951547e+00 1.126430209661757686e+01
-4.004375317237194309e+00 3.542313147033778531e+00 1.521032372360228635e+01
-4.121038323092971467e+00 1.826721743495000938e+00 1.817618046788505382e+01
-5.357789357447737544e+00 -2.063188333902151950e+00 1.550032645115030050e+01
-7.552606929049808793e-01 -1.164117063309263234e+00 1.461478122969820959e+01
-3.266985861886865461e+00 3.350800344969868227e+00 1.484782382761284225e+01
-6.254879028134682883e+00 -4.552631660832203941e+00 1.716979401239597536e+01
-2.694869903456695859e-01 1.960412647985931622e+00 1.679896142440401974e+01
-2.759463722166567656e+00 7.113389525361918375e-01 1.255693015173265792e+01
-3.644395780105653682e-01 1.720204333948203157e+00 1.742905188431646479e+01
-4.034937132320769670e+00 4.063437755775574978e+00 1.755111618342701973e+01
-4.914957527757305655e+00 -4.432777236397886789e-01 1.415084043962083626e+01
-8.707035458023509866e-01 -4.339384635516707611e+00 1.753604446111312853e+01
-5.041711697585375962e-01 -2.573675383946279371e+00 1.562726172413972847e+01
-1.128747159437009318e+00 1.417886464735242491e+00 1.815614884605670909e+01
-3.084243605700678348e+00 -1.388132845402845650e+00 1.857678911487916196e+01
-6.970316896696527875e-01 -4.310055421521711061e+00 1.751987537506475689e+01
-5.250757135320117897e+00 -3.207771741618765660e+00 1.849534644526089266e+01
-6.809755418670333071e+00 1.673333308797751773e+00 1.760046093001465550e+01
-2.887823750181508053e+00 -4.149506395233560241e+00 1.689779133021021096e+01
-6.869634300738368893e+00 2.449487777522277643e+00 1.727230972033937206e+01
-4.604380156582349670e+00 -6.603197025258289443e-02 1.361207185505175232e+01
-7.277541725608774215e+00 1.825311791045509002e+00 1.526658392271244225e+01
2.485130619353186354e-01 7.923903903935640702e-01 1.637107814548188855e+01
-2.623822812011030514e+00 -3.995135263976725248e+00 1.834910628860821191e+01
-2.376829667517668554e+00 -1.793685266557061286e-01 1.415961138274100506e+01
-7.046526570070726692e+00 2.905251133661043372e+00 1.678407815210244536e+01
-6.596448241655972211e+00 4.002841749312493480e-01 1.813264173028343151e+01
-4.766582944703358748e+00 -1.026069456136324831e-01 1.357129729243352045e+01
-4.429855500902023735e+00 4.179772206435391269e+00 1.660097478076360034e+01
-6.878808469889593269e+00 -3.021383084525468554e+00 1.822972347020845518e+01
-4.139600908659730294e+00 1.622891539243787484e+00 1.821785071480955054e+01
1.161593140710757421e-01 -3.621311616028158653e+00 1.654409356927797603e+01
-6.775065869539410812e+00 1.400063242133441577e+00 1.772273569624331913e+01
-7.261871679663515877e+00 1.475611122110594975e+00 1.462478587230521043e+01
-7.335816979819750117e+00 -3.946323889959446607e-01 1.780612939190449850e+01
-2.576531542612406689e+00 1.296440366846705050e-01 1.358033538783477923e+01
-2.942869983549913027e+00 -1.315303366441460398e-01 1.414770247269873948e+01
-6.091109473311602684e+00 -2.822727873384345720e+00 1.850058047055586741e+01
-2.934067006998732907e-01 -1.324412563453915670e+00 1.850015813157290978e+01
-8.577771070258337349e-02 -2.129481754090413403e+00 1.842767063413062090e+01
-1.740825659730553587e+00 1.661773048163926347e+00 1.821174762477841114e+01
-2.616082228285546929e+00 2.108179670201921319e+00 1.329543214531214801e+01
-1.587980302129352039e-01 1.514513534019606533e+00 1.725020124718714243e+01
-5.568526325967326329e+00 -1.755554524088812407e+00 1.478481329986355775e+01
-3.504189406023597630e+00 1.459311488594378980e+00 1.825186259611492545e+01
1.273800079359328763e-01 -2.085939966069061846e+00 1.822542072843133809e+01
-4.661765053688679217e+00 1.405212511425774302e+00 1.141185518881102468e+01
-5.907968693518808934e+00 3.797687984517833515e-01 1.829504590528679131e+01
-7.302942943317612290e+00 -1.810091060524522177e+00 1.451929206908623371e+01
-2.138601784733668243e+00 2.268776919978534146e+00 1.808647286585222247e+01
-3.247295529334967679e+00 1.949029623465974304e+00 1.227292266835353018e+01
-7.485288491211223416e+00 -3.548008887253651267e+00 1.622756065960351179e+01
-6.908434947888400401e+00 -1.960076653492537790e+00 1.438710083493215564e+01
-3.063726345565948250e+00 -4.672691221506291903e+00 1.802369663626522822e+01
-1.339447895079878270e+00 1.874333705099471725e+00 1.807823857998147332e+01
-2.891978780035316943e-01 -3.789053099528159052e+00 1.672964609748388654e+01
-2.755634475069084655e+00 8.111688204670383096e-01 1.833591813613499966e+01
-1.146246939720997782e+00 1.253022446642771071e+00 1.821628332213759904e+01
-1.811955192831561812e+00 3.887135113484908366e+00 1.717727455208668630e+01
-7.242234800546880180e+00 8.198110074635044375e-01 1.387203834470716401e+01
-3.680076012428300736e+00 -3.088463617546231887e+00 1.632325968911342784e+01
-1.783008948054518372e+00 3.867090589668200185e+00 1.735088549693219306e+01
-7.301144163353022520e+00 1.842467939275913569e+00 1.695558271563316310e+01
-3.846140180382862539e+00 9.331764181584412121e-02 1.849325399132849412e+01
1.479833172138007025e-01 -3.711028168838148567e+00 1.666108077163757883e+01
-4.566326515994436619e+00 4.232732678549723460e+00 1.669958292094495533e+01
-2.183443783380948577e+00 3.295557493695525864e+00 1.775284738096325299e+01
-4.253328435550388420e+00 -4.495703655938450005e+00 1.714207635755845871e+01
-7.272351437102024363e+00 1.620908780444487052e+00 1.710609130417697799e+01
5.248029329017033229e-01 -1.851166576997682167e+00 1.725132915649440690e+01
-7.279302924391266583e-01 7.177880295130403265e-01 1.469918085565973342e+01
-4.582802318573138578e+00 2.705785479393862936e-01 1.302060596514892410e+01
-7.592176725839205886e+00 -1.971729552123772322e+00 1.762063365738742959e+01
-4.453347571167770025e-01 -4.210625454408329915e+00 1.798107196338521874e+01
-2.682106511721884967e+00 -2.850331298485818010e+00 1.625376967198872791e+01
-7.660712801022938834e+00 9.949517070752265102e-01 1.601088174827896893e+01
4.794765127433660012e-01 -4.036159521688933438e-01 1.689387365397897156e+01
4.928361067121060923e-01 -6.543059334359870860e-01 1.687418274169368715e+01
-1.260448130822762192e+00 -3.751163826939925450e+00 1.831852221049130947e+01
3.249961165253474338e-01 -1.120215156219375174e+00 1.506745578618189541e+01
-2.261335588100450877e+00 -3.407525377515104203e+00 1.645176911458042213e+01
1.016123642699685858e-01 -3.765170684201986973e+00 1.673115966372654384e+01
-1.733951307963488286e+00 1.248888351822073250e+00 1.829810057587662442e+01
2.467161124933973659e-01 -3.775061954218640103e+00 1.681887192000571929e+01
-6.016119866387635184e+00 6.979405675126405528e-01 1.263589037698410067e+01
3.392810176861670302e-01 2.419007723269781529e-01 1.717401302988584888e+01
-1.116605467401774687e+00 3.133566078786273135e+00 1.739568378677125082e+01
-2.317036811560891252e+00 -1.591629251169609738e+00 1.853376349021032610e+01
-6.719087473594742121e+00 2.620868853499959350e+00 1.733543629975719824e+01
-3.053637807983698327e+00 -2.777383607669338339e+00 1.851710238380440643e+01
-1.362838958206006312e+00 3.555815927114711172e+00 1.732575964996407691e+01
-3.589974449042354077e-01 -1.951069512806850703e+00 1.853814267444895592e+01
-8.999671359214623800e-01 -1.568519066222412217e+00 1.855986674657270896e+01
-6.804818322664218044e+00 2.263653105059853843e+00 1.739776648544091131e+01
-4.210913418408999576e+00 6.603201762138700692e-01 1.237924936599478798e+01
-2.480574359056034073e+00 -1.143453527848558693e+00 1.536880822923907886e+01
3.348121908590837581e-01 -3.312840248336395454e+00 1.772718639922948825e+01
-2.384805089769364006e+00 4.146187361420107464e+00 1.719871084675457951e+01
-5.448111350118141516e+00 -4.740428740193462609e+00 1.796663580957098816e+01
-4.192225686161723530e+00 4.100742836557360604e+00 1.644955186525635327e+01
-4.452986846594248149e+00 -4.602679464168701884e+00 1.826060160326050408e+01
-3.680471982469844416e+00 -4.108548715093975900e+00 1.676691130681176389e+01
-6.648626541260020062e+00 -3.428689413030310718e+00 1.568597510083913704e+01
-4.967599775145654206e+00 4.609652502633921900e-01 1.263035448953260698e+01
2.678169387948046154e-01 7.290850635284218395e-01 1.678680464669793793e+01
-3.616087319111326526e+00 3.189565215688799249e+00 1.441941342263784520e+01
-4.202331256082388222e+00 4.498827854704494200e+00 1.709312975316748151e+01
-5.748887586408065076e+00 3.427497675982306813e+00 1.757072751248379205e+01
2.939868916662229381e-01 5.669266613488377349e-01 1.693768852690572402e+01
-6.531094065098489665e+00 2.392640068996297664e+00 1.755308681955581562e+01
-2.577790736934076676e+00 2.052495797271926659e+00 1.812913757586246533e+01
-7.613230017848808373e+00 -3.152749711266756627e+00 1.667873634282793915e+01
-2.705685825110895504e+00 -1.261649382830202892e+00 1.547818969191522598e+01
-2.613139748263936024e+00 3.736406260898772036e+00 1.619097121363233072e+01
-7.176045167818761783e+00 2.304056679155455978e+00 1.595661220522617185e+01
-6.881208435140596436e+00 2.793838795688623478e+00 1.609310415593761689e+01
-2.922444534505737490e+00 -1.227536831938587536e+00 1.546291728538334809e+01
-3.645137646382031971e+00 -3.931005060981273225e+00 1.847486822976953391e+01
-3.846765624087329360e+00 -4.002949077547667933e+00 1.844984226778412761e+01
-3.768449619295093089e-02 1.524438476369237794e+00 1.682554851253598116e+01
-1.713102142818773821e+00 2.665995431506960500e+00 1.543088949775628294e+01
-6.286149724735841104e+00 -2.046524815824207089e+00 1.850984384426070761e+01
-1.419099330203557496e+00 8.942684421479083490e-01 1.401738634862650912e+01
-5.545437634968608975e+00 4.207954147445086335e+00 1.694362033261070621e+01
-5.581138300661057983e+00 3.983917916684120097e+00 1.656848976165710496e+01
-3.013237321875001040e+00 4.032125065600672187e+00 1.753363203903249712e+01
3.226304716025437114e-01 -1.329958670370188223e+00 1.786702239447063079e+01
-1.977213400078046412e-01 -6.147536624270202310e-01 1.440048309924474523e+01
-6.240069528995634940e+00 -2.225041966324120768e+00 1.851569048380745386e+01
-6.863031538999770476e+00 2.068483740293120210e+00 1.490934304425545065e+01
-4.395526882428979931e+00 3.250577302176876238e+00 1.781844966102871552e+01
-6.328056196349313822e+00 -1.634734288097458688e+00 1.848851994301934099e+01
-3.461615690619335717e-01 1.822228764676950163e+00 1.642704676350596316e+01
-7.129641328842746262e+00 -2.531951790344533215e-01 1.796108052660650145e+01
-9.279475731406533479e-01 1.309723663412398320e+00 1.811745676699535323e+01
-7.125217576836915256e+00 8.669402722252916860e-03 1.789679593701438876e+01
-2.280355052773225033e+00 -2.357290792303603499e+00 1.848463532360221251e+01
-5.516102182027783130e+00 -7.853932140937160966e-01 1.393910599777818504e+01
-6.149353938182628099e+00 -1.800267616030459816e+00 1.432982458682769789e+01
-5.300656522728109721e+00 -9.904058128958723728e-01 1.851522926516346246e+01
-3.761420815468597301e+00 -1.024629285447169913e+00 1.534417375925203686e+01
-3.209779870038055538e+00 1.043076450056409143e+00 1.184133971416981979e+01
-6.919912786527280701e+00 -3.700974693563400919e+00 1.598945566725869583e+01
-7.497611152722251759e+00 -2.427204491518584195e+00 1.771906973952937392e+01
3.467705596675456081e-01 5.733780829304890858e-02 1.607307115404516651e+01
4.831495754191623693e-01 -4.258731286015842166e-01 1.670235633020791965e+01
-3.304573306215615069e+00 -3.179477193367022281e+00 1.851484649339568733e+01
-4.624051238607005843e+00 -4.739894426627615509e+00 1.772631170180378035e+01
5.281068146731472401e-01 -2.224691663501733974e+00 1.721621625001485967e+01
5.487652635132385104e-01 -2.212425502605433802e+00 1.699750631949811464e+01
-4.996745361580192224e+00 7.213353208322681454e-02 1.321076737127495448e+01
-1.920370574832784838e+00 1.322939941721533952e+00 1.359536615371340673e+01
-7.583058190634737628e+00 -1.395577718942053735e-01 1.737974914162487039e+01
-7.215784836459336660e+00 1.645625330513700080e+00 1.717892954095023583e+01
1.976031813910846813e-01 9.941850929048119401e-01 1.675786160078486375e+01
-7.881013495765625265e+00 -5.026390155954607586e-01 1.621655544243564151e+01
-1.282896315977859469e+00 -2.741323444227148798e+00 1.843280365378591767e+01
-2.336787376218784740e+00 2.675187308796900254e+00 1.798352455787601656e+01
-6.247167486519638047e+00 -4.292189408545718621e+00 1.682394760728934102e+01
-9.510563728924160687e-01 4.455687390006989324e-01 1.837040933848691537e+01
-7.589653454257746290e+00 5.358654070664606861e-01 1.507331095750438266e+01
-3.137052732796412169e+00 -1.268152117418855696e+00 1.550339251692820852e+01
-7.643718865315427990e+00 -1.177533610908567674e+00 1.755143518552186066e+01
-7.070991810451043857e-01 6.588812533906771574e-01 1.822513442447518628e+01
-2.967298610194406994e+00 3.463882921845541585e+00 1.775161053826514035e+01
-1.957515702693390647e-01 -2.445945827450183963e+00 1.550432162972199279e+01
-2.943742647211417207e+00 2.412445905490885334e-01 1.842678832472426365e+01
-4.044779755477117433e+00 1.707931903764952963e+00 1.152909804114204917e+01
-2.665882892713950625e+00 -4.618917316467558543e+00 1.768048481857253051e+01
3.750741557095176870e-01 -1.255582054161072048e+00 1.771107619675224498e+01
-5.213004193767099004e-01 -1.583512550575105760e-01 1.836736635143525120e+01
-9.171793480789306452e-01 8.618749465820697564e-01 1.825962806439896013e+01
2.713187375133884749e-01 -2.085656192077554927e+00 1.800599147732361160e+01
-7.654390660875781904e+00 -2.955222915538501027e+00 1.668475232602324354e+01
-3.080598100539362338e+00 -3.546367252173649121e+00 1.648485942720517272e+01
-7.212343063281595690e+00 1.206583942467274184e+00 1.737664003512414013e+01
-4.415051055487429821e+00 9.265646502394853101e-01 1.185428935073313284e+01
-2.712392738506039791e+00 1.305234242030416159e+00 1.232042403627664839e+01
-5.958630183200684272e+00 2.004444678116783951e+00 1.792678291293355386e+01
-5.575967225947037420e+00 2.074833759880927886e+00 1.800385091033721352e+01
-4.412208213412094793e+00 8.211566069949677305e-01 1.204048996291604823e+01
-6.974268239902100319e+00 -3.739561604884388046e+00 1.792827660912542598e+01
-1.661457486204668488e+00 -4.055094757019234386e+00 1.694159514978348824e+01
-4.372214875579038207e+00 -8.978467929123867819e-02 1.380282737933441695e+01
-4.675034814466998867e+00 -3.392845182818954974e+00 1.850714628569735254e+01
-1.978982970683552445e+00 -7.896065764612374416e-01 1.488606578451732076e+01
4.770476785762854943e-01 -3.588784030739248898e+00 1.694694972740924044e+01
-7.496825975260801300e+00 -1.206737727320670306e+00 1.777882350503993081e+01
-6.879723488112803764e+00 -4.354598964119989368e+00 1.701416745135939834e+01
-6.299348965949628010e+00 -3.438077270219868531e+00 1.839503807185877093e+01
-1.423676831675555032e+00 6.670838191108258153e-01 1.383666090807887628e+01
-3.761034954871821601e+00 -1.226261321156349560e+00 1.552183303720035212e+01
-5.171302355408318618e+00 2.276388019619062231e-01 1.294192784797851203e+01
-6.445267832539494535e+00 -3.229568671873879637e+00 1.838543567827662883e+01
-5.120951823844407613e+00 -1.984224224934232339e-01 1.352143030649237687e+01
-7.723593511198242112e+00 -2.556493727708126773e+00 1.691748708555858371e+01
-5.488782122903782534e-01 -2.673151186220930953e+00 1.570702272088097118e+01
-6.298200215794254930e+00 -3.306852457938215473e+00 1.566914700165968100e+01
-1.998587964413435003e+00 2.457833149205816969e+00 1.803213486235845409e+01
-5.578861532917294141e+00 4.117868471384104723e+00 1.733411564095857216e+01
-2.920008355276750844e-01 -3.219539613032604386e+00 1.614297367845393438e+01
-1.949744221496062746e+00 2.662475368829148259e+00 1.796296584174486810e+01
-5.854645188786578913e+00 -3.953117031478407206e+00 1.655194639072455942e+01
-4.347878235436470007e+00 -2.215830208640012788e-01 1.414366815217874063e+01
5.154191546712707517e-01 -1.463776547182846777e+00 1.724785283446088613e+01
-7.000411288993444003e+00 7.037328367303307131e-01 1.322370961584677929e+01
-4.683108142916793781e+00 -4.279876667139587809e+00 1.683794607906168039e+01
-2.229440466686943623e+00 4.048063231969054598e+00 1.741363397386469813e+01
1.874903245810635999e-01 -3.926447092597203259e+00 1.705693135881573141e+01
2.835444541955845499e-01 -2.696963509179366447e+00 1.794169653109298679e+01
-1.741523294982375569e-01 1.598795082030846970e+00 1.640200669170467762e+01
-4.224147438766388873e+00 3.277565306352217878e+00 1.476798861036375143e+01
-6.665843571114963950e+00 2.910928362866876284e+00 1.726433800814103137e+01
3.150416820101225035e-01 5.751772628732335635e-01 1.657037355831351988e+01
-3.634890751797698272e+00 -3.601688377017722154e+00 1.851142286555590744e+01
-2.324094927192295490e+00 2.059246352401083335e+00 1.813448983528182623e+01
-3.585285646686650729e+00 2.691003085104806125e-01 1.320247698857112084e+01
-9.418165637847151217e-01 -1.248004794451307298e-02 1.845717431537565290e+01
-7.237333927248434051e+00 2.329318508789544051e-01 1.358196308427646670e+01
-7.331301386852189239e+00 2.618569134527759523e-02 1.383088728512640131e+01
-5.263758146168507679e+00 -4.045301288335397594e+00 1.666973666959239608e+01
-5.558656128307045918e+00 4.224825386644550651e-01 1.832727994015015582e+01
-5.141683581547487947e+00 -2.837743055602540032e+00 1.612463052020521559e+01
-5.384809906673892144e+00 -3.385000670514393128e-01 1.357266894775680299e+01
-7.350807454753699233e+00 4.094526727170011426e-01 1.384103259215285675e+01
-6.344736005552118030e+00 2.218985214499738845e+00 1.772546081557097608e+01
-5.989131442678569783e+00 2.572851660202454926e+00 1.456628260782679973e+01
-1.656110796599366219e+00 1.813335209030163764e+00 1.449791283245676254e+01
-4.969356609503586597e+00 2.417104128428761101e+00 1.800900500266280346e+01
-4.770166083667382040e+00 2.457221104450378668e+00 1.801727766886553184e+01
-1.306571448280297920e+00 1.384977609617776828e-01 1.368585665495456283e+01
-6.183100468004276706e+00 2.231035693180649204e+00 1.779261029262048055e+01
-6.109440512278862201e+00 2.425230059835789653e+00 1.776255467156318701e+01
-1.716358980976346649e+00 -9.622558758748205321e-01 1.849657428951748983e+01
-9.617799006462690592e-02 -3.343747279562293784e+00 1.624397859244529485e+01
-6.693712654090232306e+00 1.768243447617698250e+00 1.765469339476711497e+01
9.731063891961821977e-02 -3.431715620921361065e+00 1.632461939255949090e+01
-6.099860261883080170e+00 2.147172527115192686e+00 1.784651505404674765e+01
-3.519449354213135539e+00 -2.404515485536568242e+00 1.612356072835883225e+01
-1.858126892311861900e+00 -4.544352567126527020e+00 1.771478315655473068e+01
-7.013609305233174496e+00 -7.081498805499180094e-01 1.814317925861889336e+01
-2.207440795093027486e+00 3.883785845988563246e-02 1.370264473638714264e+01
-4.752540127117326207e+00 1.011902191433536657e+00 1.830272102013508118e+01
-2.589695830108312169e+00 4.094013643393390467e-01 1.303788431045368412e+01
-4.819184515863154772e+00 -4.248403519864464073e+00 1.839232328559107543e+01
-2.352881497355896467e+00 3.469566606837782174e+00 1.770100141164354568e+01
-2.248956824218219630e+00 -3.740025292347320729e+00 1.835704576938801580e+01
-1.603281940982918874e+00 1.489511139859277300e+00 1.426336663923135006e+01
-8.572740808158988424e-01 -4.374242080015487311e+00 1.767743302506003289e+01
-7.690508039291513498e+00 -7.983086246641657446e-01 1.737753354722562449e+01
-3.455739984169575063e+00 2.452683152808376121e+00 1.297649103354894606e+01
