-4.988016638760046639e+00 2.396305698779897853e+00 1.245156852657701307e+01
-4.726326150538921134e+00 4.091893592991555195e+00 1.814558745370557347e+01
-2.695197024657065121e+00 5.849846161725765548e+00 1.742746155572997679e+01
-7.477280539365525058e+00 -2.532731519251738561e-01 1.445829493102049668e+01
-1.680962073577717542e+00 4.050617449616463084e+00 1.857055920334625654e+01
-1.574185046601857429e+00 5.646260992394043221e+00 1.728222169959123278e+01
-1.668414217483078055e+00 4.178741737655949251e+00 1.596890555780216658e+01
-4.795894090087593042e+00 1.983940824111172230e+00 1.205182137647536678e+01
-1.971214373144834497e-01 2.985022329160776922e-01 1.516626099562153485e+01
-1.095561297809010792e+00 4.896416712314151098e+00 1.746067767201559917e+01
-1.058686826529809055e+00 4.674437143105500958e+00 1.722536995999076481e+01
-1.502999969421350501e+00 5.512282187194650795e+00 1.724780200571309052e+01
-3.785713787680506925e+00 3.329744771221830213e+00 1.310030057840754125e+01
-7.508324064438591350e+00 2.285361209342215094e+00 1.471509460432564964e+01
-3.402130034545879145e+00 -2.568856734132378250e+00 1.851161317307447973e+01
-8.140015871148484905e+00 2.656509384978309463e+00 1.692567407333037011e+01
-4.812155251751842333e-01 3.693702138690561299e+00 1.740097201793790305e+01
-2.996553450720190970e+00 6.218916726876170920e+00 1.637204003256108109e+01
-6.600629245017548552e-01 4.059570068198659953e+00 1.741160576825355122e+01
-6.423152886252506910e+00 7.969685623237269256e-01 1.929112707400703641e+01
-6.187115806170222498e+00 6.236085175549019866e+00 1.566606566060804795e+01
-5.110917214427155297e-01 7.786586918014652969e-01 1.509866137609237313e+01
1.874282032063193659e-01 2.133783850693823148e+00 1.750297484572126194e+01
-7.089243326751293317e+00 2.824551708558514562e+00 1.816367792560011196e+01
-7.274683596857563828e+00 2.423618149084184381e+00 1.830251790716031479e+01
-4.984908624920797671e+00 4.880635317494275149e+00 1.437717394973828533e+01
-2.734017740554985920e-01 2.386365534143991551e-01 1.500772502990717783e+01
-7.298512935230215604e+00 2.656239401633488484e+00 1.815347519346975247e+01
-4.269800781242154564e+00 3.414835905695367657e+00 1.864359024709796842e+01
1.871186252006890038e-01 2.305929062612523062e+00 1.771140639197981415e+01
-5.866975548332236556e+00 4.022910405072099849e+00 1.786579755841182049e+01
-4.525589170246740345e+00 6.075155053352820467e+00 1.536352375009738580e+01
-5.892118107220113643e+00 3.894337289236318611e+00 1.793838129528369052e+01
-5.501433806245117353e+00 3.837363176304606327e+00 1.807949593295079893e+01
-2.028990168979318831e-01 1.096506335415393663e+00 1.581091065674350205e+01
-5.902557981842523560e+00 3.501315895775203302e+00 1.816644652340539068e+01
-7.261175481861581460e+00 2.823144996219009606e+00 1.807602243634153893e+01
-4.684051435421141107e+00 2.822412070106251836e+00 1.882204349576948488e+01
-5.103540828849921773e+00 1.139858545274824442e+00 1.168645505592527201e+01
-4.438837168908264630e+00 2.834071038532083087e+00 1.887965090183227090e+01
-4.842559418016909589e+00 3.000276497377757146e+00 1.869846664560407135e+01
-6.931576151838389599e+00 4.283948566785657164e+00 1.496995130883588132e+01
-4.833585188226285467e+00 3.312766537215666496e+00 1.855125354484722067e+01
-4.668883582525354292e+00 3.029163227584149798e+00 1.873242292960424749e+01
-6.963035133419676725e+00 5.137686089573154646e+00 1.552198366077870872e+01
-7.327364976901661997e+00 4.688163359838312338e+00 1.558293334305292888e+01
2.472181749439587017e-01 -2.360224821788307281e+00 1.942917183454198238e+01
-3.433301586012170059e+00 -2.018985257840365755e+00 1.806957294484224263e+01
-5.863875115120479542e+00 7.923810271478424205e-01 1.233540338972861150e+01
2.923257988324652334e-01 -1.925350711722946029e+00 1.921648991512995508e+01
2.782190520135097156e-01 -2.170657117653531643e+00 1.925371181786982788e+01
-4.981000008054990325e+00 5.537398250991632409e+00 1.491440943859669233e+01
-2.185143585648310349e+00 4.698278308158207572e+00 1.588355643958004038e+01
2.469166968982168253e-01 -2.153897286254744081e+00 1.943939364104191014e+01
-5.246604685400551027e+00 -9.662149464532749921e-01 1.670625331004432468e+01
-3.946379062546953698e+00 3.355017758976998721e+00 1.309662303265402983e+01
-4.456215587682545554e+00 8.638230402461370971e-01 1.968164927349926785e+01
3.426657515990748637e-01 -1.758278061699350525e+00 1.863462880216214757e+01
-4.795627910939727734e+00 -3.185958275561786124e+00 1.887402396988248654e+01
-1.183975595231025357e+00 7.750021494268939382e-01 1.392000828221067366e+01
3.238691062592725656e-01 -1.720264842089366253e+00 1.879140576889734149e+01
-2.890663669430550975e+00 5.946069624407262388e+00 1.625039119763613371e+01
3.265171079309495683e-01 -1.936488685014224442e+00 1.880854740831432537e+01
2.770926016183941076e-01 -1.332974861129008870e+00 1.926602938556639799e+01
-6.557338927314925847e+00 4.706715261398523253e+00 1.495709834678000050e+01
3.663332583595605429e-01 -1.328041951441085500e+00 1.823507009472185558e+01
-3.149862470520487179e+00 6.077786639560915916e+00 1.612824199636936839e+01
3.520247421117935760e-01 -1.506668389429957733e+00 1.843403932476773832e+01
4.752601450614369893e-01 -8.985701501318021922e-01 1.705353959458684443e+01
-3.751452767151078893e-01 1.682628141926240772e+00 1.598171288003923252e+01
4.530069177253880364e-01 -2.878334760131280312e-01 1.682995232616156756e+01
-2.462929030483906878e+00 -1.075490533716652708e+00 2.020563693060981336e+01
4.648661446392997609e-01 -4.815990511811774066e-01 1.687602950484759390e+01
4.645341136154073070e-01 -4.919850581432947401e-01 1.724142637512632348e+01
-6.358644058562777701e+00 3.536914930605169261e+00 1.413181089494574394e+01
4.314056627053050041e-01 9.240480269176443162e-02 1.687575071778028502e+01
3.550865521121377988e-01 1.486527573336988706e+00 1.775886128320782831e+01
3.680298520030814702e-01 3.629038305379932439e-01 1.645184406062564619e+01
3.066690028192685658e-01 1.696854669869988452e+00 1.750181008815628303e+01
3.489497036634163774e-01 1.307376999908163473e+00 1.746794627018879709e+01
-7.895541199201636218e+00 -1.503473049356274016e+00 1.600552200599168629e+01
-8.017371698934514512e+00 -1.548728651127168510e+00 1.637986910551934727e+01
-8.138194852872205232e+00 -1.117428693416173457e+00 1.660462624987680158e+01
-7.945899911970387031e+00 -1.532081545166129599e+00 1.619071604207243809e+01
-7.888334495112879097e+00 -1.125706042163936216e+00 1.577663364748728725e+01
-8.000936590624796452e+00 -6.235181722511586866e-01 1.591437119181230742e+01
-8.029985285482968749e+00 -6.926566933652575919e-01 1.604506427443474337e+01
-1.157744225409776728e+00 4.473189952777962830e+00 1.684941167415000507e+01
-2.994338749400823119e+00 1.947249008444716045e+00 1.205244147169918989e+01
-7.946109043682933581e+00 -1.111255471445091514e+00 1.598427304547457339e+01
-7.711132780387757180e+00 -2.986758096488111303e-01 1.502526969179290717e+01
-2.910358403878154476e+00 4.201020948077751171e+00 1.461357283501700266e+01
-7.968660977233064990e+00 -1.312842488405969732e-01 1.565874759832327356e+01
-8.000400050826865339e+00 -8.857714170421671085e-02 1.574257792672587186e+01
4.301694987480310095e-01 9.040067588699707279e-02 1.788235340674008000e+01
-7.973601677094764639e+00 7.895708571754200822e-02 1.559057559164102713e+01
-7.893047809673685578e+00 -5.106899223835057455e-01 1.558765313611490910e+01
-7.410812153130287072e+00 5.599170213815557462e-01 1.399972626913699258e+01
-1.921944877880208402e+00 1.437438013328926623e+00 1.293326860665492006e+01
-7.404536755120535219e+00 3.174126553564091680e-01 1.404782381003809633e+01
-7.489131142413910425e+00 3.341948691249276848e-01 1.421379757006342714e+01
-7.666271550367141252e+00 3.108901819484103379e-01 1.466231502560921740e+01
-2.385824293364339432e+00 2.568060917160197576e+00 1.341063000114789361e+01
-3.629482639355707807e-01 3.157972728621949443e-01 1.494562325638784017e+01
-7.104007749422314610e+00 8.948310235938202739e-01 1.368231513054014670e+01
2.171519689076605308e-01 1.939632765495632238e+00 1.735602766789884299e+01
-8.970311631053836665e-01 -2.167952190988419403e+00 1.778666259201659727e+01
-7.417654287800801161e-02 2.902435625968110777e+00 1.756719752299983384e+01
-1.614315153071901321e-01 3.018868089995464743e+00 1.743882882613598895e+01
-5.100012486584017957e-01 4.152046560945631404e-01 1.482921329439558633e+01
-1.825814621976862284e-02 2.535719279231736678e+00 1.730718412991077315e+01
-3.467916795908115302e-01 5.296025449971998311e-01 1.515205562315564691e+01
-5.975809247831898041e+00 6.270598998101444721e+00 1.565481108343999495e+01
-7.763004536462944749e+00 3.283259022373422376e+00 1.551291847694045600e+01
-4.890620259051319252e+00 4.850212668960756979e+00 1.763022958116602013e+01
-3.071235342220413056e-02 1.937477046602816166e+00 1.673822035007695774e+01
-6.964523104105771800e+00 3.317389840840387905e+00 1.450879003250175714e+01
-1.423327483612555899e-01 2.694818594391223066e+00 1.715493545716547175e+01
-5.959935214202241038e-01 1.109927173458508776e+00 1.520116239226199184e+01
-3.632480188232186102e-01 2.709580132035540601e+00 1.676067654705965282e+01
-3.364291157465940874e+00 6.535586414683739243e+00 1.631841233775885769e+01
-6.345657254751698950e+00 5.278747073227580522e+00 1.520508294766536039e+01
-6.170458976912517102e+00 5.557825912064346952e+00 1.529988495734464493e+01
-5.979971605861717165e+00 5.285225774984238178e+00 1.502653080534587815e+01
-5.891532601378713707e+00 5.633306319183747135e+00 1.521160535199540220e+01
-4.596175904370176646e+00 1.599344762914657547e+00 1.166804897142509390e+01
-2.316028873078258776e+00 3.582641231040827101e+00 1.460026691261109733e+01
-5.739551167503479157e+00 5.331012564238798213e+00 1.492162920105950263e+01
-5.782301095825190806e+00 4.936112054543527528e+00 1.467680634734151823e+01
-6.749387772770863769e+00 4.489113065104299416e+00 1.494766875809523299e+01
-5.793198525595288473e+00 4.588210227740979086e+00 1.444891885062320824e+01
-7.890801097052114521e+00 2.103899220687320604e+00 1.513776322649911776e+01
-5.976409279661369034e+00 1.775875865273201848e+00 1.283628320019983704e+01
-4.684143728434512211e-01 2.712916382729941844e+00 1.657210671175109695e+01
-5.302488123418765964e-01 3.534025438240758099e+00 1.714878432277663478e+01
-1.224904589711349079e+00 1.715870340683272932e+00 1.439873602656954432e+01
-4.478565037819036698e-01 3.131148768721288889e+00 1.694510388400931333e+01
-4.595556833070866265e-01 2.900222381389991444e+00 1.673499213782832840e+01
-7.017255603140026388e+00 9.215726667542513129e-01 1.360536960469758583e+01
-5.591130506840351622e+00 3.960702920767491086e+00 1.390044983647855759e+01
-5.527928015649202997e+00 3.854443813756858184e+00 1.378607157109983916e+01
-9.060799856394428087e-01 2.164372910087566382e+00 1.534265045716212228e+01
-5.186971286659392888e+00 3.377199763181757852e+00 1.325982132560887550e+01
-5.828431208180697709e-01 3.305227214392520096e+00 1.683437094935523959e+01
-6.505544259328984724e-01 3.127738411897811766e+00 1.656013730321653554e+01
-1.616646890442077655e+00 1.384475402418103407e+00 1.340724489523090313e+01
-4.867389900416294601e+00 6.004238518829250193e-01 1.967845677629983925e+01
-7.148799391525318292e+00 4.104317068592724382e+00 1.510974556947514458e+01
-9.334165045538452832e-01 3.511688384964739562e+00 1.635558795418823763e+01
-1.155514781412930514e+00 4.678748158826696368e+00 1.704130302725248924e+01
-1.374341136981725331e+00 5.045854359606358308e+00 1.706618541652683518e+01
-1.855390052183492511e+00 5.385319108265514743e+00 1.677181564763935029e+01
-3.380357190761913877e+00 6.554384421576213704e-01 1.986336394697090668e+01
-6.475316261889290104e-01 1.970151823157858084e+00 1.569981634310456542e+01
-2.142357087514330960e+00 5.690258178065094263e+00 1.671116741595730559e+01
-1.945269383605558344e+00 5.309164670476667069e+00 1.661843663900439338e+01
-2.914867916772759138e+00 4.584114412241863334e+00 1.500132236956072518e+01
-7.665795047003897800e+00 7.229249819634623320e-01 1.450137137592963654e+01
-2.358136016460908202e+00 5.676455238577564621e+00 1.650631650713921061e+01
-1.740243309795650228e+00 1.594323558848846245e+00 1.337250495462713928e+01
-1.945771474954712144e+00 1.219054929490851258e+00 1.271398813156296370e+01
-2.000070258616828855e+00 1.804030286310834619e+00 1.316072027660947441e+01
-1.905256116302892044e+00 2.812479993081424823e+00 1.436444452018790940e+01
-1.905330303748717480e+00 2.617583096373121254e+00 1.415902950359270562e+01
-2.298288580450395191e+00 4.750834335460077718e+00 1.581455668254557168e+01
-1.909627170420530984e+00 2.234638279944080708e+00 1.374800311610177062e+01
-2.713828016307509472e+00 5.312629435508178233e+00 1.588152735466178456e+01
-2.930972032427551444e+00 5.564198016857281992e+00 1.587623373370095692e+01
-2.185254210714666634e+00 1.241347435602279781e+00 1.235237835755484070e+01
-2.000413064808244101e+00 1.410625497766400560e+00 1.278424230749578783e+01
-2.389008217964320835e+00 1.405903666985079958e+00 1.220049327528798244e+01
-2.492426751256875406e+00 1.479698365953217465e+00 1.212517236944634647e+01
-2.241277524654681663e+00 1.580268325574018640e+00 1.257312454741970953e+01
-2.395243909809112282e+00 2.958961000934404506e+00 1.382692273443679198e+01
-3.110481470698989614e+00 3.835499007832781970e+00 1.399880826722743166e+01
-2.304673820670072537e+00 3.184944212433301836e+00 1.418618311517369079e+01
-2.572885767542554714e+00 2.029589583082015203e+00 1.257184481733951031e+01
-2.624930307220999293e+00 1.571057149002906383e+00 1.203712939658966263e+01
-2.586853953384920857e+00 3.172943088668214173e+00 1.383731000869428840e+01
-2.772490726623858315e+00 1.458997644993703435e+00 1.177363761648581431e+01
-5.185512043693915274e+00 3.843357762308886372e+00 1.361672358378459080e+01
-3.800581944763101738e+00 5.486448949609961545e+00 1.514282981742802292e+01
-4.026010724601436053e+00 5.864081390117252823e+00 1.534776368827169790e+01
-3.947100789403231058e+00 5.546251349845446654e+00 1.508040984022570541e+01
-5.329253885310341943e+00 5.625686672142731659e+00 1.501952927958283368e+01
-4.986773204200704690e+00 3.979639247293802917e+00 1.364759485100223912e+01
-3.554634682289875336e+00 4.313824239342898714e+00 1.411531460146961336e+01
-5.418114041569647155e-01 -3.441855349102493911e+00 1.931578175549327625e+01
-7.683744295280982683e+00 3.675802689964700498e+00 1.557688452203420582e+01
-4.614232664156642016e+00 2.180795175724365098e+00 1.206314057446099497e+01
-1.520947620087474972e-01 2.506239654615648682e+00 1.697631365461232633e+01
-3.980211372097451683e+00 1.692290806941216808e+00 1.151575693869821038e+01
-4.437425279516505228e+00 1.870828739912858918e+00 1.175861189831728382e+01
-4.965066738543212566e+00 4.112117962893237610e+00 1.374701411248337024e+01
-1.627836668422359967e+00 2.915056943994061900e+00 1.484709226003484872e+01
-6.943745745351781018e+00 -1.685840969449783566e+00 1.990439619559715823e+01
-4.790011646447281279e+00 4.135537908001287732e+00 1.372466041676161552e+01
-3.226013090319972410e+00 1.614395894372400830e+00 1.160634311889243264e+01
-3.033176381780788411e+00 2.765044779776553163e+00 1.912237237081791363e+01
-3.048116643034378459e+00 1.573854463436028972e+00 1.165066178992414336e+01
-4.019410026854874474e+00 -2.918645173587178121e+00 1.875815636097421191e+01
-3.212392137881173504e+00 1.813244279272157700e+00 1.180084268190889674e+01
-3.117815248480012347e+00 2.671026616745909799e+00 1.273519947738649449e+01
-3.267344170827328309e+00 4.073755843241254837e+00 1.410868053178737824e+01
-3.202464060715263017e+00 2.793637032304268519e+00 1.280557090487241112e+01
-3.204640981914269826e+00 2.209965691031270829e+00 1.220403040199859390e+01
-3.372554238015307071e+00 2.260473904909791720e+00 1.215519960148632350e+01
-3.389322377315837631e+00 3.560781561739496226e+00 1.346373159193113622e+01
-3.521480013353195826e+00 4.192544560287520206e+00 1.401590801083245452e+01
-3.563723659547667566e+00 4.123035618567995719e+00 1.391738786821525053e+01
-4.003485323941847085e+00 3.155113800060572515e+00 1.289879221877637150e+01
-3.986320871586248593e+00 3.460075337400456696e+00 1.318882666316452656e+01
-4.227601241388342146e+00 3.369008172923992461e+00 1.306887417148322328e+01
-1.620746498889843235e+00 5.274874711614478073e+00 1.693782384290735621e+01
-4.334233180879220271e+00 5.398626717134574093e+00 1.483429931190531903e+01
-4.389891059214454216e+00 5.885116748243139462e+00 1.521324401097736967e+01
-3.577520447054768127e+00 2.215381577359504917e+00 1.203925445493845814e+01
-4.003921073314034018e+00 2.437333922488948090e+00 1.218356261825363163e+01
-4.394653637596525719e+00 3.377682730998381899e+00 1.305947173148993556e+01
-3.783424390481590738e+00 1.816992300160471974e+00 1.161035673993357165e+01
-3.425093329815103171e-01 1.525609576447497728e+00 1.591922099849107752e+01
-1.457800657557860369e+00 5.340694589839818818e+00 1.718985932554637230e+01
-4.018620094836114376e+00 2.206933961681823320e+00 1.195297286273417114e+01
-4.313981730109157198e+00 1.912247836662436251e+00 1.930721125969018459e+01
-6.696373061634372625e+00 5.669719693302902819e+00 1.562536011636454703e+01
-6.660778269496852033e+00 -1.150014838139069129e+00 1.449903603604510494e+01
-7.366821604256768907e+00 5.590471625331485672e-01 1.916880755459595775e+01
-6.599603432147653770e+00 1.152683415813914092e+00 1.323596234755842715e+01
-3.230067976615033309e+00 2.202214968172027998e+00 1.932740518322432877e+01
-5.172212806624674641e+00 4.940874038405770996e+00 1.447884279447053757e+01
-1.930554783341478675e+00 5.831610969299796388e+00 1.739604182632189833e+01
-3.246310386340452325e+00 2.405784064445422032e+00 1.924324441170031719e+01
-3.976195127370742100e+00 2.775116277140512455e-01 1.273913438570172474e+01
-7.781936104350488215e+00 3.042816162723391393e+00 1.741536295610715968e+01
-6.134826349184929306e+00 5.699756618078840376e+00 1.539227371571535485e+01
-7.844297934368006153e+00 2.842895011739292599e+00 1.748141289839108481e+01
-6.452825663250344457e-01 5.229254360874957541e-03 1.439488939857427852e+01
-1.945915389181754218e+00 -1.384117885147376326e+00 2.018478865568483371e+01
-4.967152024993279902e+00 7.084772311943798861e-02 1.304753325488428572e+01
-4.718620738044143614e+00 8.190913677914890556e-02 1.309558713813238739e+01
-5.879110970067351616e+00 6.044137951857123880e+00 1.632025283957575112e+01
-5.246167820655219138e+00 2.582264641767249458e+00 1.877661072379861196e+01
-3.673387869237886849e-01 1.299135157464317736e+00 1.961827497762824635e+01
-6.862727928068078853e+00 3.199802754213215472e+00 1.804579829395985513e+01
-2.665568667230965083e+00 5.396370740680580980e+00 1.600748134670762823e+01
-3.630153268236715025e+00 6.478748680431856144e-03 2.003618239808398727e+01
-3.626430341673481106e+00 2.003659336208079011e-01 1.998203955459731418e+01
-4.992039267201693775e+00 -1.021658897080157891e+00 2.013649480800614811e+01
-7.726127562847650232e+00 7.283802352658080848e-01 1.463827671978707201e+01
-1.188268097606669738e+00 -1.797689049921999738e+00 2.016880073976094678e+01
-2.008364617648816797e+00 -3.074730864738810965e+00 1.892802888279677376e+01
-6.564014037867921481e+00 -2.598102911265438131e+00 1.786830564819379674e+01
-8.386062293225759134e+00 -3.807405116684212665e-01 1.743664386603091998e+01
-7.846058587348268887e+00 3.588986815902295291e+00 1.667573335496145859e+01
-5.427512800770373680e+00 1.419766726576063398e+00 1.216322740255214541e+01
-5.518064500688940832e+00 4.329047821449809597e+00 1.777330683056663929e+01
-1.016345503868613775e+00 4.551412161307458071e+00 1.718372121287011112e+01
-7.501238984796692932e+00 3.293501760379425214e+00 1.513253772022852672e+01
-5.150106667456630483e+00 4.463361541121774856e+00 1.779643736038708113e+01
-5.531417554591299357e+00 4.882590482440472002e+00 1.741490926348939894e+01
-7.990757963388320562e+00 3.154735035868998949e+00 1.586131314131201719e+01
-3.035607553728246089e+00 1.872150074389037577e+00 1.947264084165511377e+01
-4.522360657570279940e+00 6.381323946411836090e+00 1.565591113806601697e+01
-6.083267048828648882e+00 4.599178800844934578e+00 1.742622721069362512e+01
-5.100197798880361510e+00 1.909154060070564762e+00 1.911261928205138361e+01
-4.852048315527275335e+00 2.086508443863239304e+00 1.910353803784786209e+01
-7.970859011327559029e-01 3.087113744518079628e+00 1.624912451536658153e+01
-1.533895054136790614e+00 3.789403303185775229e+00 1.871927925406854598e+01
-6.137614746971869373e+00 7.755110325755012468e-01 1.264428325481667770e+01
-5.908449715146806724e+00 6.197042487959249613e+00 1.613773090081329542e+01
-5.663990387771416835e+00 6.211418359235841180e+00 1.626892967430298143e+01
-2.877147736043183190e+00 -1.898621234268271785e-01 1.560366636927616213e+01
-2.427522618010327093e+00 1.947618645458963016e+00 1.949915203312397693e+01
-3.031978548543558638e+00 2.355440522979479034e+00 1.245662076103464244e+01
-4.036896184980339974e+00 2.020143241733341810e+00 1.931066994408779181e+01
-4.800308483352223377e+00 3.557563913989922000e+00 1.323251403412325544e+01
2.506518737632953409e-01 9.247142664282931301e-01 1.898730827872752513e+01
-2.322591960828154001e+00 3.952974978380884075e+00 1.498742547819246340e+01
-3.269191245281127145e+00 -1.248228896280317413e+00 1.741364447262154869e+01
-2.156303113798522242e-01 6.810808889561836832e-02 1.492111228907516107e+01
-1.483247189605030769e+00 4.929079212494043460e+00 1.681992305021667278e+01
-7.801925288116461132e+00 -1.461849953418984827e+00 1.564345790016472648e+01
-6.857497805897748044e+00 2.054628109786656998e-01 1.329576785921464221e+01
-5.610386452626574538e+00 1.425571631269427986e+00 1.919622136473526552e+01
-5.804279544356293563e+00 1.609644881898637081e+00 1.907121162729464459e+01
-5.799131213829763709e+00 1.358766738321801837e+00 1.918145616771971618e+01
-5.217668589989382433e+00 -2.909952868396255887e+00 1.858200004962834839e+01
-6.167118782505506047e+00 4.928542555212596099e+00 1.489484602183733841e+01
-5.959897380922764221e+00 -2.832043761743335608e+00 2.024599829352370506e+01
-1.863585763437691334e+00 3.898143619723787090e+00 1.867309563202301348e+01
-2.054778712420928799e-01 3.371383824295762111e+00 1.774782407866639744e+01
-5.771281593222148842e+00 3.761218510226082223e+00 1.388047689257297179e+01
-6.739421506415510521e+00 2.933407870071047086e+00 1.411182421419655242e+01
-1.444696291389743648e+00 1.510571654619382809e+00 1.381907821584707108e+01
-5.609683815954964459e+00 1.002573635927370699e+00 1.936887927345486560e+01
-2.743706300211611993e+00 6.486893440546880996e+00 1.674620221532047282e+01
-4.613719904567830099e+00 -1.147462085920022856e+00 2.023263386017290344e+01
-4.610246439058751200e+00 -1.261393751576457278e+00 2.026369269706282239e+01
-5.638857170664884677e+00 6.596528475226228760e-01 1.949134131799552705e+01
-6.033495749749555159e+00 6.380577765285217140e+00 1.584162075630490563e+01
-5.970881390674700029e+00 1.738356390852939803e+00 1.898170760972414683e+01
-6.032007574608409861e+00 1.242907883108471445e+00 1.918287821626829270e+01
-1.241598470780460373e+00 1.530259190485134368e+00 1.423270525977658707e+01
-6.244401866933724676e+00 1.404724249446509754e+00 1.907366795414326077e+01
-6.428104169084482677e+00 1.558049042952878827e+00 1.897511723650577409e+01
-4.981880417708807407e+00 6.368232937413110584e+00 1.644442006836450787e+01
-3.295021522704142836e+00 6.343245525746864288e+00 1.625824912687469492e+01
-5.410166538239653988e+00 -1.060335326714582083e+00 2.007297242163392781e+01
-5.145996528870858455e+00 -8.787628649546390669e-01 2.006989378281026859e+01
-4.120526810633625914e+00 6.825029293793680729e+00 1.629711836944505876e+01
-6.825357106358509007e+00 -1.373497467573594699e+00 1.987829465035470378e+01
-9.013195866737627737e-01 -9.731764148381045754e-01 1.533806107129124285e+01
-7.721208884134638240e+00 6.932235692694350693e-01 1.893542558374534224e+01
-4.059876486586105671e+00 -7.861330356844271616e-01 1.685341593136707417e+01
-7.772837704740432230e+00 5.055355925603393086e-01 1.897996544282759857e+01
-2.359127209050397411e+00 3.005061751417365201e+00 1.911200895435747782e+01
-1.832182934835006494e+00 2.670463526933005483e+00 1.928608786643564343e+01
-1.840431632711415189e+00 3.118663167321401808e+00 1.909919440851749783e+01
-5.904762931532926196e+00 1.890158051060369715e+00 1.892594106651691988e+01
-1.200469983527271856e+00 2.904738215514295785e+00 1.542069353193137005e+01
-6.064193338000923639e+00 2.043420552247364519e+00 1.882569066568755289e+01
-6.610067761815602516e+00 4.023890516619208491e+00 1.762824159998744022e+01
-6.669945213081787116e+00 4.423564639437081780e+00 1.731103069582760412e+01
1.869588701702717959e-01 -1.549177490234684873e+00 1.676538990949253360e+01
-7.782760029478485997e+00 -6.993059946894206735e-01 1.537147144152665845e+01
-7.329436735492121713e+00 3.307886322477936680e+00 1.491765693035012674e+01
-6.401883490824696210e+00 -2.070567492041006652e-01 1.964755809853159718e+01
-4.215919709386716008e+00 -1.664794230208899162e-01 2.003061032784479067e+01
-4.442616684761560464e+00 3.786889233126381482e-01 1.983406801409655884e+01
-4.589476462093175613e+00 -1.771423753605172458e-01 1.996930037095361143e+01
-6.411231271551677047e+00 2.347882293795749753e+00 1.861903992492297988e+01
-8.381837521039273042e+00 -1.529539994093942479e-01 1.732401903782810137e+01
-5.010129656184219904e+00 6.180585270817728016e+00 1.660683567027857777e+01
-1.161498005981248749e+00 -3.674927745456354700e+00 1.989696523967432995e+01
-4.285228059683230839e+00 -3.685142143138711468e+00 1.937729369159541193e+01
-6.184172349206805031e+00 -1.404560149523807366e+00 1.637031880036617792e+01
-6.370274472115140085e+00 -1.636005382629667215e+00 1.660181307646021054e+01
-7.387058146832276684e+00 -1.437296221996288592e+00 1.972809652995866259e+01
-8.373117242649090741e+00 7.619968054943844216e-01 1.759287002257772770e+01
-3.200365068357668541e+00 -3.774949815843207546e+00 1.986087850730793036e+01
-5.201671011599248828e+00 -2.014134894298118539e+00 1.785414843478147162e+01
-5.641916105209278776e+00 -2.102186250380525756e+00 1.777644313895763162e+01
-7.719901372452129706e+00 3.484068069402065149e+00 1.554353710117572973e+01
-2.538366979018674030e+00 4.998249332722455307e+00 1.799066951091232625e+01
-3.463633733589210895e+00 -2.232408752869305957e+00 1.823946437841311763e+01
-7.599565101109939214e+00 2.793606418698393767e+00 1.783751768006587923e+01
4.131873360897084790e-01 4.913711640634553790e-01 1.807419080813533441e+01
-4.153648488991068533e+00 6.313375430859590409e+00 1.570862385472961620e+01
-3.169638296347035755e+00 -1.653973327709110652e-01 1.565774228697492276e+01
-4.340671144473990495e+00 6.213217895316271999e+00 1.683674132064116691e+01
-5.386115350426151416e+00 -1.210933484044469877e+00 2.011753681031819951e+01
-5.652139586944404215e+00 -1.154432224339871693e+00 2.005366140629913474e+01
-5.864289673127089486e+00 -3.313380598361197471e+00 2.020833134018575095e+01
-5.932558669381369221e+00 -3.183694184747321465e+00 2.022643679825936402e+01
-6.823381886904644311e+00 3.958035626788330319e+00 1.466622466088002597e+01
-5.903005884713567575e+00 4.354666463064362780e+00 1.764620761570313334e+01
-5.702957465533708081e+00 4.404824567959404469e+00 1.767282542365735054e+01
-7.218168663559564990e+00 2.347646602067827715e+00 1.440480771570100416e+01
-6.441876012876377899e+00 -1.340887485903661913e+00 1.490468648621408221e+01
-6.646964312559518362e+00 -2.190565704089239674e+00 2.005064692005338856e+01
-4.724120629774162694e+00 -2.846797728450151332e+00 1.863028164015574362e+01
-4.753690642832870239e+00 1.777340822084402028e+00 1.189157996975856690e+01
-4.517009559737016566e+00 -2.687700912384464402e+00 1.854249945506624186e+01
-7.614105018940246161e+00 4.363401134292464789e+00 1.591186267701443313e+01
3.866065720539768602e-02 1.310578446760236826e+00 1.919253318407141506e+01
-1.023000520754752563e+00 1.143226397668216210e+00 1.441450367214515182e+01
-4.648348318554795355e+00 -2.500471061893453140e+00 1.838112465466887357e+01
-4.834075817256475283e+00 -2.537033046671980152e+00 1.837598962485679976e+01
-8.035436860902704925e-01 2.532401212852144923e+00 1.925081651323726106e+01
-2.815506467812387115e+00 1.041822734016341290e+00 1.975880981204532105e+01
-6.395479740194498497e-01 2.089573294060341979e+00 1.941724856672208688e+01
-7.860281757854681306e-01 2.137198770957371430e+00 1.944237087272838949e+01
-1.460899771861419172e+00 -2.839967388667347770e+00 1.875916195920392227e+01
-6.482489172543018263e+00 -2.507866612491418401e+00 1.781354207276894641e+01
-5.261870368618312810e+00 2.964291275427252348e+00 1.860405823197857700e+01
-4.578297268113894702e+00 6.355031258448811116e+00 1.662292815805891877e+01
-4.724349004594150081e+00 6.109245869328118417e+00 1.679003352488188483e+01
-3.037677974113888624e+00 -8.797925268447444047e-01 2.022394442712202078e+01
-5.606007368289841253e+00 8.695166579111190952e-02 1.291863120848076107e+01
-1.241534213205370607e+00 -2.836227077353618675e+00 1.874238647021094550e+01
-7.586512600673639639e+00 -3.099112583464332715e+00 1.821717898796686086e+01
-7.453242615914472680e+00 -3.064916995367939379e+00 1.807823110717792758e+01
-3.268060046197377666e+00 2.123815658557112407e+00 1.208091671068260098e+01
-7.959969830453414552e+00 1.449633309658497238e+00 1.837591623417377917e+01
-5.371712945560211061e+00 -1.553109807070698345e-01 1.346358790777171066e+01
-6.155155523643029980e+00 8.045368853904580897e-01 1.933501667092120613e+01
-3.762540328896617048e+00 6.492434867528786846e-01 1.176321033043614506e+01
-3.802705660421256351e+00 7.435415936174623042e-01 1.154853783753620888e+01
-4.014187357923621136e+00 5.054026715135891967e-01 1.204970116026566274e+01
3.553462168225370865e-01 -1.734068627665793505e+00 1.842324704528336810e+01
-2.825663925444614311e+00 4.367457052023736352e+00 1.835492602211253654e+01
-4.644625765546837926e+00 2.238972582206736117e+00 1.909063668320413854e+01
-4.493015026328489370e+00 2.409565870175205404e+00 1.905457430712421285e+01
-4.437401683375053807e+00 2.168334413090438950e+00 1.917250719261405578e+01
-6.285730788586350926e+00 5.417454410721508573e+00 1.668679084296486792e+01
-9.131298668786242967e-01 2.165022536951814569e+00 1.945837128165615582e+01
-8.213310918970048391e+00 2.584033985890187957e+00 1.670095449889417694e+01
-4.694612186778878815e+00 5.060772204408666930e+00 1.755345289299838640e+01
-8.033223856484121850e-01 -1.821997252253499733e+00 1.712637920357131804e+01
-2.174738821957828971e+00 6.211663301650629521e+00 1.708924962031353090e+01
-4.967993621488534295e+00 3.337555686488024698e+00 1.312554569068040422e+01
-6.678463012082326067e+00 1.051967258231592872e+00 1.914319280165583592e+01
-2.391803044956326119e+00 6.330873928906989967e+00 1.695946536474853872e+01
-1.061890059084133586e+00 -2.052523662620917122e+00 1.770309789492995378e+01
-1.084471853352879656e+00 -2.221171643627379844e+00 1.798618746574895511e+01
-8.389198980682856188e+00 8.200173240316080969e-01 1.743216436537055358e+01
-8.367792948314715318e+00 8.857149539693673912e-01 1.753996361713952723e+01
-6.011495686793637994e+00 -1.141675310103493990e+00 1.578682940792276668e+01
-5.025185477029617820e-01 2.178358740878640010e+00 1.931088039381703680e+01
-6.959077093964148197e+00 3.519052520450583366e+00 1.781078878245030239e+01
-4.243755349985521619e+00 -2.238040095064202539e+00 1.821888387993790559e+01
-7.806713867019285935e+00 3.756740050141640808e+00 1.652244419150109422e+01
-2.692515221495027422e+00 1.699628581703976238e+00 1.208435580430450074e+01
-5.443891574320416815e+00 -1.578934081000808787e+00 1.733558874799323490e+01
-5.412659798714394732e+00 6.369266579957081120e+00 1.624028515216688362e+01
-9.188020459222354663e-01 -1.617377748688168415e+00 2.016107990036562114e+01
-4.378580074868971828e+00 4.965556998190215232e+00 1.446881769664393858e+01
8.646570072846748722e-03 2.739011420995455026e+00 1.820823491022841978e+01
-3.328824728426460933e+00 4.792271016880681245e+00 1.483715429914514772e+01
-6.865021263920308314e+00 -1.362734867240247505e+00 1.470188821272564184e+01
-4.410816230991214226e+00 -3.704957178110054983e+00 2.016523763471946751e+01
-1.063093691929484219e+00 1.981126773637315708e+00 1.490659835018746548e+01
-2.777979048148111918e+00 5.082590858913971221e-01 1.249102335381115125e+01
-3.576517465726219980e-01 6.622384941071901565e-01 1.980017694700759279e+01
-5.393647595959577323e+00 -1.426112092800895459e+00 2.017140047973803973e+01
-2.918703698645924050e+00 3.992237099875532991e+00 1.856567834691586683e+01
-2.206657739205983404e+00 3.497832543208929224e+00 1.466228245415769749e+01
2.804442950030480164e-01 -7.885325073185809330e-01 1.902181677105078705e+01
-4.562922375479552706e+00 2.134312478764206489e-01 1.274615508690143884e+01
-4.082289219683357118e+00 6.043263904152811783e+00 1.705295222960368307e+01
-4.283495972390498174e+00 5.491476272262536540e+00 1.738858660025605474e+01
-4.219929313351107325e+00 1.440280611695302415e+00 1.139679597591691618e+01
-3.950449750994200038e+00 1.384983278385477412e+00 1.129241305837187781e+01
-4.116804403712660765e+00 1.336974857310655684e+00 1.129403256428609836e+01
-4.546722189996855512e+00 1.144782396674091984e+00 1.123465887674814923e+01
-2.145105314165464350e+00 3.952211468114053439e+00 1.522162445667644448e+01
-3.090440259497894360e+00 6.163996898872571073e+00 1.624545475511052217e+01
-1.297041232301441749e+00 -3.241359368312164424e-01 1.440626139964993513e+01
-1.092429572114598457e+00 -5.590837358741342911e-01 1.474410754878180541e+01
-3.910609614440850645e+00 5.820544712207420091e+00 1.726022420195562290e+01
-7.074341186548561922e+00 2.700257322906009616e+00 1.437134824602705407e+01
-4.787495508022336033e+00 -2.064463653814303079e+00 1.801428653201286778e+01
-7.817524981789023997e+00 3.361153253893871096e+00 1.704704350562388271e+01
-7.308371559460609568e+00 1.909712217639391696e+00 1.857221912700833855e+01
-7.542954455877330933e-01 2.906158853637626827e+00 1.619032860271340724e+01
-5.798675622066234325e+00 2.385441422196370453e+00 1.303472408094836510e+01
-3.094920426897243448e+00 -5.589297280493554787e-02 1.496148690735456199e+01
-1.371496769259959780e+00 2.737272801785800347e+00 1.926372531914935848e+01
-7.422179344447489946e+00 4.011798907743863829e+00 1.707006149751179436e+01
-1.937233357771602327e+00 4.363038778517853267e+00 1.838567727327301071e+01
1.211749966498262276e-01 -2.662293342725184253e+00 1.844233447156926076e+01
-5.965269318467886883e+00 2.188535984389045730e+00 1.878028693019414419e+01
-5.502152413033632783e+00 2.110359190725396239e+00 1.891685320990967512e+01
-5.305682494188973308e+00 -2.467440212292831170e+00 1.821160878733720523e+01
-2.624965097102494038e+00 -2.604519885989323491e+00 1.858389426573230452e+01
-5.494094185894362603e+00 6.665634488342715436e+00 1.588295763676723027e+01
-4.759552399649519039e+00 -7.057607980005231596e-02 1.990603001946826822e+01
-6.734507995266904024e-01 -3.104304260919878988e-01 1.460081541813962502e+01
-5.157057579532247082e+00 6.707522918658944455e+00 1.577099165432925076e+01
-6.476481533961466752e+00 -1.953979725271336454e+00 2.005856153407705023e+01
-7.369599452088337443e+00 4.140610037868192705e+00 1.701128582955991675e+01
-7.969171426023723193e+00 1.298909695454701030e+00 1.507934191488050857e+01
-7.434818755442244687e+00 4.189062361919419608e+00 1.687574468747551748e+01
-5.342866662196422922e+00 5.057260286590917531e+00 1.460690510910816897e+01
-6.028752752736376230e+00 3.352210891038200025e+00 1.821517688718063965e+01
-6.261239034570203366e+00 3.310388114638829649e+00 1.817826260210799205e+01
-3.562213530967142994e+00 3.000938511126613584e+00 1.283621655813477958e+01
-9.138590533917390069e-01 2.947056482398105359e+00 1.907340132465873239e+01
-7.783125153126270845e+00 -1.346222502289121215e+00 1.554539691821362624e+01
-2.307820903251155409e-01 -1.581512077118730319e+00 1.652992957929308915e+01
-3.612455537295844454e+00 9.311038978245607112e-01 1.125636105432851508e+01
-2.563088759789348137e-01 2.142616273650399084e+00 1.651398117765208440e+01
-2.115990348152781308e+00 5.242824952937102267e+00 1.782338324219517744e+01
-1.939745972042119737e+00 4.763490832103626005e+00 1.812925700802790629e+01
-3.350046495854140272e+00 2.462022198357157521e+00 1.236717899215327066e+01
-1.988553401402418208e+00 4.997119186225510212e+00 1.797726248055617759e+01
-6.436938383592027080e+00 3.155041790868470919e+00 1.821640872723931892e+01
-2.594204342444287104e+00 5.006454021060506854e-01 1.260704545653953090e+01
-2.404860472172369867e+00 4.870874015731355700e-01 1.274012882174670835e+01
-6.176859311870749103e+00 -2.638926456028802825e+00 1.808326933282094018e+01
-7.070653283428695701e+00 2.380763773941914963e+00 1.842054760930790280e+01
-5.742837184909568293e+00 5.087703108253808004e+00 1.720617925297347028e+01
-5.585384524240210702e+00 5.154184898689972094e+00 1.721459521884941068e+01
-6.535830916796943946e+00 1.181262252967095749e-01 1.952132279675078053e+01
-1.601318588114509556e+00 -1.650476667280974530e+00 2.017694028611926882e+01
-5.757705740043405740e+00 -2.272476141919717030e+00 2.025415776633948184e+01
-6.603452201483847261e+00 5.547538452452926983e+00 1.551460803343973538e+01
1.113753909546734144e-01 -1.182964882745014323e+00 1.976767866623374204e+01
-3.718075646890156349e+00 -9.884097991550788720e-02 2.006176858220757708e+01
-3.862577754917358774e+00 -1.046358878326782982e-01 2.005640324887833259e+01
-5.261861532925901308e+00 4.995225982095391259e+00 1.742610563638675103e+01
-5.156987593056669539e+00 5.366193754933315851e+00 1.721394830183109548e+01
-5.424428951236514251e+00 5.166104552185107224e+00 1.726035197831505741e+01
-5.925325425622479436e+00 2.702924927167456026e+00 1.855593183693196124e+01
-6.011202969362893889e+00 2.578947830127870766e+00 1.859375260396326013e+01
-6.713970336982584719e+00 2.699347875182762202e+00 1.837846506041333328e+01
-5.843877289773370620e+00 -2.873841394492679058e+00 1.840395885568914025e+01
-1.561538793538911341e+00 -3.235981634372981919e-01 1.442919664737111418e+01
4.260707346388578065e-01 -6.896394342015370604e-01 1.632537231004230449e+01
-7.667219113731730040e+00 2.870309170352039807e+00 1.517168498928124620e+01
-8.149940222518429422e+00 1.280044098044399004e+00 1.816158265655681703e+01
-6.295862717737769287e+00 5.817696643358279296e+00 1.627325348511591585e+01
-1.168616067111381884e+00 4.788275593540399555e+00 1.795821557021954362e+01
-5.333130326608103822e+00 -3.682678699422003099e+00 1.919606597431954498e+01
-7.525149882804055501e+00 2.687499016348572134e+00 1.797772376108635228e+01
-4.298941726630588711e+00 4.647279416410151853e+00 1.792393542924936867e+01
-3.630631249488008638e+00 -2.225660913941187147e+00 1.822349864392056418e+01
-7.701207513459034537e+00 1.872423589559712775e+00 1.836068864420776237e+01
-7.218102268397339927e+00 -1.817611406457445122e+00 1.985124170590646031e+01
-4.309497630696984771e+00 4.650809032626715300e+00 1.421646101671306184e+01
-3.875702142351905799e+00 -1.082665029160531533e+00 1.721302152551331943e+01
-8.394025883102692376e+00 9.092977412220550892e-01 1.697246276350750094e+01
-2.278868708379630181e+00 2.083204496698980002e+00 1.946245898528970031e+01
-4.577465240876522401e+00 5.362331689426692805e+00 1.739453123597964890e+01
-4.595573012930063150e+00 5.372428482438972308e-01 1.193755310542130843e+01
-3.559680726365545222e+00 2.284702967941641738e+00 1.211418397272603897e+01
-4.409114022887502315e+00 4.884249437992871368e-01 1.204456618428093151e+01
-5.578513796406663339e+00 3.356303642804872034e+00 1.348523682478958818e+01
-4.462123176099569433e-02 2.548356448153069609e-01 1.964827980361261694e+01
-5.144949580263381783e+00 5.985941893399541414e+00 1.527393233873907263e+01
-6.383997021933248028e+00 5.114112351159954883e+00 1.511747736254203289e+01
-6.283140218802565791e+00 2.420739469094130403e+00 1.861016664473518745e+01
-6.605314820298308298e+00 2.344718452126061337e+00 1.858093956900732735e+01
-5.613975367760904334e+00 2.224033290558272036e+00 1.280030248100526080e+01
-3.832509728886510203e+00 -2.779493405183266042e+00 1.865439151854232591e+01
-6.380863756242979967e+00 -1.066642568610042252e+00 1.989626097232893898e+01
-1.656758412920424250e+00 -3.685160989962223965e-01 1.455975112724618725e+01
-1.824147694941019138e+00 5.359234137680313204e-02 1.996698274926591665e+01
-2.187881333416341612e-02 1.016680667478179423e+00 1.602611428583227848e+01
-3.831153009568317280e+00 4.349992850981342585e+00 1.821908415745993892e+01
-2.332180677116784673e-01 2.345112822748680159e+00 1.670744664128631030e+01
-1.454343535443034519e+00 -1.362470771760126986e-01 2.000029210905260157e+01
-4.138780737679280008e+00 3.447164430811134217e+00 1.315483090494583962e+01
-1.409936349506517805e+00 4.487759615892538134e-01 1.992080667573071651e+01
-4.204046095795348492e+00 2.555441609832475258e+00 1.228186813985916359e+01
-3.009790029891719954e+00 6.676148775784827016e-01 1.985881670635258445e+01
2.816666515854659991e-01 1.076980216591066908e-01 1.900811007188815438e+01
-1.623380660602406378e+00 2.713450093834680388e+00 1.465282368068425001e+01
1.892710398399912730e-01 5.695128524636561274e-02 1.929227496080651605e+01
-8.305566333007363689e-02 -3.056025224289654396e+00 1.888220327982993751e+01
-8.191271633010522635e+00 1.770052831868631049e+00 1.766027620398337206e+01
-7.220490775240387293e+00 -1.630962354433165284e-01 1.393731204446489613e+01
-2.445910214451834985e+00 -2.621100495131154062e+00 2.036669904895639860e+01
-5.228689105500992973e+00 3.046829832122740500e-01 1.249332779916748848e+01
-8.022645612611924548e+00 2.002112141552575331e+00 1.787393602668402082e+01
-4.426378336135179836e+00 6.642918165892291782e+00 1.582843019378877614e+01
-7.419136613200987718e+00 -5.817535769059609674e-01 1.452166733051887348e+01
-7.430458059757715894e+00 -4.180558535653045027e-01 1.448441827943107540e+01
-8.183112669174150255e+00 -9.467385753616583965e-01 1.667805110734816054e+01
-1.894871065985805902e-01 1.069904237782962841e+00 1.955278092512428145e+01
8.325303839475139966e-02 -1.814203411484787809e+00 1.710122596574814935e+01
-2.975740122320064796e+00 2.233907110039317079e+00 1.236883172041529377e+01
-5.468800353005986103e+00 -3.516864409782218814e+00 2.018669559212029441e+01
-2.627406372943585922e+00 2.153080556744003005e+00 1.263934829274221272e+01
-5.002173133963101925e+00 3.431404983653379759e+00 1.321472910403641521e+01
-5.356547983689508463e+00 -3.529484352642872302e+00 2.020501536785093322e+01
-2.342187192024298703e+00 -1.843407180122165867e+00 1.796590370342131848e+01
-2.268662267722906023e+00 -2.269229503760957556e+00 1.832475333659242978e+01
-2.435515445854246952e+00 -2.262434766756626914e+00 1.831885846177534916e+01
-2.062881161569748212e+00 3.536710402641579876e+00 1.888242793610707082e+01
-1.627920243944424472e+00 4.975856600095212023e+00 1.795136848871997870e+01
-2.968314209991536501e+00 3.185530424060905474e+00 1.342117210436225605e+01
-5.176535420417098798e-01 3.188869685786589692e+00 1.869545729399162326e+01
-5.026847206626438025e-01 3.447383420704184687e+00 1.848746819450671097e+01
-5.971510778239634831e+00 2.950986044301574740e+00 1.350233552161003558e+01
-5.040319170176493557e+00 4.757132622595416471e+00 1.764450441437517014e+01
-4.497548541354763785e+00 5.096180349564071399e+00 1.758631302888876746e+01
-7.969605407562671218e+00 4.725907208885719024e-01 1.542996495020007330e+01
-4.827074068928494555e+00 -6.749894924463342161e-01 2.006884073906228139e+01
-5.073085035786860431e+00 -5.037716484274756823e-03 1.982529358945243558e+01
-6.237795272819472991e+00 -2.248333859019062686e+00 1.765843981500192683e+01
-6.773667348868603888e+00 1.162185890778147046e+00 1.344134979097486138e+01
-6.653916898244120581e+00 -3.447097602969252605e+00 1.867812779071883256e+01
-3.030528360423587753e+00 1.257439491409263255e+00 1.969024421620966336e+01
-4.730729600338277052e+00 -1.306660501455988888e+00 2.025728362845671882e+01
-4.961634415743922943e+00 -2.637117415879502325e+00 2.042444571297337319e+01
-4.921607457744631375e+00 -2.434520208946753250e+00 2.042223930207859439e+01
-7.653896213639325374e+00 4.199472330334199199e+00 1.635911501959511583e+01
-4.183991591694535828e+00 2.888937828799281737e-01 1.262220959634171180e+01
-5.607731663758403151e+00 -1.828663200846033510e+00 1.751869329443555756e+01
-2.448236529937946493e+00 1.941322358833303952e+00 1.264052753589557909e+01
4.201951080457465570e-01 -1.117560175540668110e+00 1.764934280666329158e+01
-6.021014905402677364e+00 -2.286966445462948805e+00 1.780186792695653963e+01
-5.901696737505293555e+00 -2.070538377378145611e+00 1.763484998567390249e+01
-4.173517035044961077e+00 5.489333979315726531e+00 1.494533172320398506e+01
-5.522683256516354611e+00 -1.715666786911819619e+00 1.744098603885433363e+01
-5.772803966629424188e+00 -8.259289948109427293e-01 1.537345278930674652e+01
-5.311194011262837300e+00 -1.266274963546933696e+00 1.705225625544734669e+01
-6.848270076217592539e+00 9.217845939143556322e-01 1.916482577604418225e+01
-1.718169567256192520e+00 8.993857174663533183e-01 1.983213248476469204e+01
-7.855637512594576322e+00 -1.367719691996320153e+00 1.947151865330853582e+01
-8.342670238316701514e+00 -8.564831617048993539e-01 1.857943686892116375e+01
-8.348137971496587539e+00 -9.946800423241672906e-01 1.859982021342687375e+01
-3.638999320384233016e+00 5.990939451852050901e-02 1.410025393004287508e+01
-8.193949007512108196e+00 4.528300461734473537e-01 1.622460705898771494e+01
-8.205992946283942047e+00 -3.235852542468324877e-01 1.649785319916025372e+01
-8.096045064885032616e+00 8.698166749245892504e-01 1.565254474232725102e+01
-8.368795255809148514e+00 -7.484009482092068843e-01 1.748479286484148076e+01
-3.752503404130121956e-01 3.341816038905489172e+00 1.843094686601853738e+01
-5.381611758259911227e+00 -2.032584315768568572e+00 2.029513382815711964e+01
-4.654236574382588643e+00 2.272541710497997691e+00 1.215081222388149484e+01
-4.852676398148882519e+00 3.589430561096808248e+00 1.839977522815705413e+01
-6.538403292933359090e+00 3.516408633309636933e+00 1.798011579511064184e+01
-6.445352183060546025e+00 3.788152989567267426e+00 1.784394060282219385e+01
2.527871740132110467e-01 -1.933290164289805935e+00 1.943421492942809436e+01
-6.907996539272597269e-01 1.214520102875999985e-01 1.999781510912887228e+01
-6.888000335777720196e+00 4.994962695116760720e+00 1.666191275556079177e+01
-2.553384708865559016e+00 -3.447358927462110145e+00 1.917265218270062377e+01
-2.207082339645761060e+00 -3.414466537484448949e+00 1.917137048636257646e+01
-4.002008757158669994e+00 2.406918908492673204e+00 1.916061348622559990e+01
-5.180028219390213629e+00 -2.230179652157455727e+00 2.035777045268082475e+01
-4.825769237465644679e+00 -2.173737511926262300e+00 2.041619279776383422e+01
-3.473442413518742278e+00 -2.442248519976838672e+00 1.840657341773234634e+01
-2.889990303411313022e+00 2.478605491079472145e+00 1.270865274686499191e+01
-7.251529699189317668e+00 -8.710556928422930056e-03 1.392342260549211375e+01
-5.252475869596641367e+00 5.797558215185507180e+00 1.684481086966300012e+01
-5.515437483882875469e+00 5.739065269499632471e+00 1.678170740810114836e+01
-5.815901385786795608e+00 5.532828833434402682e+00 1.682644206796005903e+01
-3.113544961492614505e+00 -8.636227480340969986e-01 1.697699751021972503e+01
1.800362868864668897e-01 1.837893778572989856e-01 1.559049675111005229e+01
-7.373657984152907297e+00 4.501999321002991827e+00 1.553143706022334669e+01
-7.807447655493021443e+00 -2.239157007628105767e+00 1.643937103089754714e+01
-1.621613189034422309e+00 5.558327833195959577e+00 1.754428460497501874e+01
-6.162944658474156512e+00 -3.279106253902287271e+00 1.863416494381109345e+01
-7.521684770759009986e+00 3.689886691219268933e+00 1.532885258279448237e+01
-2.007384706109922590e+00 -2.989238650266518249e+00 2.030922548774859138e+01
-2.267251534738612406e+00 2.418450648089866206e+00 1.933899997492129330e+01
-4.827769391822658740e+00 4.174686650730684567e-01 1.974535005588248993e+01
-8.199954639021372671e+00 1.530445484043616133e+00 1.784587718062172002e+01
