-5.839649485983242627e+00 1.505196663332245999e+00 1.611823901372475376e+01
-8.805017506162295948e-01 -1.485633601753245658e-01 1.397505418692905721e+01
-6.660409394019398910e+00 1.700325497333582181e+00 1.591527669528324651e+01
-3.143647079817700529e+00 1.601414205056405748e+00 1.200812482231967948e+01
-6.671652587610578777e+00 1.506040486160121095e+00 1.597381087337803507e+01
-6.170985089477750485e+00 -2.927699955379701624e+00 1.456022185246721534e+01
-6.026883618347459226e+00 1.529956651151739067e+00 1.609687199893249243e+01
-1.568253392490913223e+00 1.541530997423955773e-01 1.198779247358250899e+01
-3.408881615559573586e+00 2.304023369461486226e+00 1.283181602142082056e+01
-3.695592029697949421e+00 4.376688862189069162e+00 1.591952164198255559e+01
-5.538171087109437174e+00 -4.506759643694257522e-01 1.146406065285801645e+01
-4.865308759489243684e+00 1.506923485569986898e+00 1.621119153143465752e+01
-7.577018977715029635e+00 1.531666939595979660e+00 1.511858421528523877e+01
-5.569189832997210488e+00 4.069326172791193130e+00 1.505028714161741732e+01
-5.086757535222926840e+00 -4.877346674304675056e-01 1.668809325915568564e+01
-7.492225573024949625e+00 1.531452325892705968e+00 1.530475984232300846e+01
-7.432245756232863876e+00 1.356781879847227978e+00 1.554510602446482181e+01
-2.805165942727967821e+00 -2.320525062019988649e+00 1.422898124431800682e+01
-3.090721119390970717e+00 -2.918260114200785793e+00 1.748960178020357858e+01
-5.474116851973074738e+00 1.534752745546633435e+00 1.614478717764475846e+01
-5.974452440799782771e+00 -1.697119986854002116e+00 1.300241573493679681e+01
-7.233915346571246019e+00 1.208592859652513951e+00 1.351532844274905898e+01
-4.646522350550068126e+00 1.558068294998797398e+00 1.622604355693770373e+01
-6.051625285551700983e+00 2.824058062355049969e+00 1.402199557111836725e+01
-4.265569521704598799e+00 1.727403016359143617e+00 1.621130320873567143e+01
-7.672194205911349485e+00 1.326056373915016406e+00 1.513091055016803921e+01
-4.406628592872999128e+00 1.400538387315492628e+00 1.628956707557747308e+01
-5.704612765799706331e+00 3.542166099914417110e+00 1.570034681124922571e+01
-4.557267573249904835e+00 1.817468169594205429e+00 1.132893464814833351e+01
-3.468432800568462593e+00 4.320191853030758367e+00 1.590253761675461419e+01
-7.353638298589122435e+00 1.892061281954738883e+00 1.463066796742103293e+01
-5.943766020418561169e+00 3.814899199582031830e+00 1.530551143049990515e+01
-9.009017873965416978e-01 -2.261005515662369181e+00 1.622999447105686244e+01
-3.596540647350461306e+00 1.727646777208752926e+00 1.164139224990193355e+01
-8.696355089903217817e+00 -1.825462132721310082e+00 1.511693183798637818e+01
-5.918017217200826963e+00 3.784640720524082624e+00 1.551449965192058755e+01
-4.671104733032493961e+00 3.746970336754544384e+00 1.596305064374614346e+01
-8.274318982329859296e+00 -2.392148857694162412e-01 1.523729039907622251e+01
-1.694377970753341067e+00 4.920645784501354036e-01 1.637203198928497017e+01
-8.148636269720837433e+00 -3.829445377812807361e-01 1.343817575047027191e+01
-6.994322978177658356e+00 1.770807320501366799e+00 1.395966636259937133e+01
-3.917867926999278438e+00 3.789502760624885003e+00 1.606340024148821044e+01
-5.502602127418007250e+00 -2.223362743786173046e-01 1.657265095678690869e+01
-1.265616869161347191e+00 -8.346333243647672262e-01 1.634530108276949534e+01
-4.280662063940442685e+00 4.385014398908172240e+00 1.592117840613405377e+01
-5.560072491793387250e+00 -3.816363592839933538e+00 1.700674416164461888e+01
-2.865243540650900478e+00 3.769064776063394184e+00 1.588760143202737396e+01
-2.482090945348030875e+00 -1.291975740089969404e+00 1.724906239063778202e+01
-3.326670438330334711e+00 3.777082315161604864e+00 1.606221318979994095e+01
-7.792130235667109162e+00 2.259051187739212763e-01 1.306607949396570234e+01
-5.973721695825708444e+00 2.567628483346557466e+00 1.359251306980185348e+01
-1.357898409832012598e+00 -1.100756600096177262e+00 1.289287410965607705e+01
-4.601644189978630450e+00 -1.835822159445990254e+00 1.357872843130792972e+01
-4.374248330390240191e+00 1.798042990578464506e+00 1.120235876760123261e+01
-5.248748180612735403e+00 3.711381671550836536e+00 1.583079679530742823e+01
-5.381963722329536459e+00 3.718452877881867291e+00 1.578724778074069235e+01
-5.115068150983232087e+00 3.563886632283822298e+00 1.589264233962067152e+01
-5.433030398686097939e+00 -3.504318723797711144e+00 1.511659517051015200e+01
-3.689834474830975708e+00 3.724663797406416510e+00 1.609000468248209614e+01
-4.296115986256657138e+00 3.747644450623924595e+00 1.602511927654303037e+01
-5.621294491809210037e+00 2.107467874263871277e+00 1.260181909869977090e+01
-4.483575632661467303e+00 3.915858261131420548e+00 1.597184952978412298e+01
-6.088448594616954423e+00 3.545857981216815613e+00 1.546313136264072341e+01
-7.435346022718563042e+00 -1.732956733753647116e+00 1.675889534780093015e+01
-8.076148902195741996e+00 -2.108022872359371025e+00 1.658687326473049950e+01
-4.261311810424846414e+00 -2.543275122749462547e+00 1.723053443187954770e+01
-8.071954331963196339e+00 1.160468357394741079e-01 1.545006123188046843e+01
-8.299676972364267158e+00 -6.501563641493877110e-01 1.557391145798925436e+01
-7.563056355745481518e+00 1.499042742115793914e+00 1.438845754875828931e+01
-7.662948827027490140e+00 -1.570402409917890818e+00 1.663234262714343004e+01
-8.688042570200860126e+00 -3.069416731884127891e+00 1.484113679114382478e+01
-4.271243891538870407e+00 -1.307005414402931054e+00 1.700196449378904617e+01
-7.655036507267549695e+00 -1.372896994673903359e+00 1.657313858458294931e+01
-8.549784225990910258e+00 -1.473221350918632933e+00 1.553192763728466730e+01
-8.420489960873512203e+00 -1.277907133326388944e+00 1.577331548707401510e+01
-4.893820712841846721e+00 4.364456186610865984e+00 1.582211683683110692e+01
-7.261737977271455868e+00 -1.290987866377465210e+00 1.667268174881186837e+01
-3.700383189449031107e+00 -8.426549424955948053e-02 1.694169681727645838e+01
-8.030851482362033167e+00 -1.487569200988850593e+00 1.640761136032930523e+01
-6.863811651568902938e+00 -1.347767754927261308e+00 1.675770750937255826e+01
-2.901211402105229986e+00 -9.733628497107096322e-01 1.261425849577967284e+01
-1.876283873480966147e+00 1.001551011773417654e+00 1.307998176462520235e+01
-6.838472539780421577e+00 -1.712146443579825261e+00 1.684940026750918207e+01
-5.073010017900756452e+00 -1.299277717167489854e+00 1.683424712875337548e+01
-8.268633746216222491e+00 -1.095104531660928915e+00 1.599323656917992764e+01
-5.063206660246734714e+00 -1.497194868866577488e+00 1.688007394419530982e+01
-6.286971609657020288e+00 3.329202196311042972e-02 1.117206278703229572e+01
-5.629346209605317952e+00 -1.520599748947535579e+00 1.682654487267983257e+01
-5.408109918106163150e+00 3.549744109953128834e+00 1.414880911951782849e+01
-5.866315607540244059e+00 -1.326115009583883841e+00 1.677408418707470616e+01
-3.261585447500972901e+00 -1.318136653589110585e+00 1.726296611559889982e+01
-6.421522526885780735e+00 4.418284428972641953e-01 1.634876759942468993e+01
-6.477563987707805282e+00 2.620648875769204356e+00 1.436729038362199873e+01
-5.863116936534458645e+00 -1.563819596079239815e+00 1.682627957699700261e+01
-5.249541560831416653e+00 -1.329143883440061735e+00 1.681686187735977001e+01
-7.533270469717946227e+00 -2.582063460970218216e+00 1.349048962870867285e+01
-1.328043681824413680e+00 1.191936728970151682e+00 1.493552953073488254e+01
-1.149454585368206327e+00 6.739979699482773201e-01 1.445158651685348872e+01
-5.259382368439064592e+00 -1.670067513929995640e+00 1.689641554814440383e+01
-8.581502581670905627e+00 -1.278208997731911767e+00 1.517660249087438729e+01
-8.089632612207054763e+00 -2.164054619884265840e+00 1.318685539617269598e+01
-1.842478880960922716e+00 -9.648217052427328078e-01 1.268072083627915703e+01
-8.375294766235155564e+00 -1.334279593239463324e+00 1.593407673617549136e+01
-4.997506821682025979e+00 -9.468471851400437345e-01 1.221229681197676342e+01
-8.609651792319214181e+00 -1.470408388217862683e+00 1.475964581751769344e+01
-4.542539502495835713e+00 -8.605805451744321655e-01 1.188428603075864487e+01
-4.566429466638962431e+00 -1.032095029508287576e+00 1.222810010538092484e+01
-4.542050548020593936e+00 -9.482368160527667733e-01 1.205315711709131676e+01
-4.340215612950343527e+00 -9.345922760192337808e-01 1.207411861480709092e+01
-4.931986807321666610e+00 -8.837970397450423121e-01 1.206057032984678301e+01
-3.213565954825643889e+00 -6.385096157188738797e-01 1.198449721111048660e+01
-4.500933567742454677e+00 4.578565171966988423e-01 1.020886858155997601e+01
-2.364159479080722104e+00 1.768535680790696896e+00 1.341398363158995721e+01
-3.976505095923783095e+00 -7.319930057754313601e-01 1.183163652531546717e+01
-1.010401634095553058e+00 -5.829686293186306933e-01 1.282307666130651569e+01
-3.467933520112260748e+00 3.751207010794924912e+00 1.513604152364984401e+01
-9.857200138926589528e-01 -1.022358802660759292e+00 1.577210275025607444e+01
-3.585711564855302846e+00 -8.095857521345046770e-01 1.211119033873585948e+01
-1.387376307247101925e+00 -2.069940803937276641e+00 1.714908713108565763e+01
-2.762895510420295686e+00 -9.066796330224917710e-01 1.254405670418028507e+01
-1.447653870608848869e+00 1.447116895829261007e-01 1.617722334316238886e+01
-8.661928034167276635e-01 -1.581027912931468604e-01 1.420542414730510217e+01
-9.833996510555695902e-01 -8.593692720220740267e-01 1.299444475274979283e+01
-2.258098503366759768e+00 -1.288771976816099007e+00 1.722863860000870062e+01
-2.205121351258149787e+00 -7.540726374483288641e-01 1.243001904271306302e+01
-3.324933390305854886e+00 -1.010231332002603954e+00 1.255140165641228833e+01
-3.854067741342464437e+00 -1.552229598769931718e+00 1.714333012565212755e+01
-3.460646044791939158e+00 -1.306946368304297446e+00 1.722359083645562805e+01
-3.973505100879934027e+00 1.970214733777989169e+00 1.159318768183859305e+01
-8.144295803719115767e+00 -1.117390687115085601e+00 1.301474466911869143e+01
-8.589169328526587321e+00 -2.111487654271724690e+00 1.591621678060094780e+01
-4.161905330816098036e+00 1.931746494077153375e+00 1.140913136765807678e+01
-5.442606257139377401e-01 -1.141727138789392360e+00 1.492875811956660925e+01
-3.501996758673528554e+00 -7.513113920676826041e-01 1.204541569612844398e+01
-4.301771542644305946e+00 -6.987608573902439613e-01 1.165988197272979221e+01
-2.601548079067829367e+00 -3.582314470211314550e+00 1.598314124596537766e+01
-3.272218412939107868e+00 -1.523229712444363226e+00 1.729279352861851038e+01
-2.871007740956523779e+00 -1.355951425735892002e+00 1.727780712693391507e+01
-8.586953884866851183e+00 -1.257338025468282883e+00 1.494923143866936499e+01
-4.190388443115936390e+00 -7.584525060354891934e-01 1.179432521023747427e+01
-2.782625367834947738e+00 -1.145398856018315703e+00 1.286337250382907627e+01
-3.243050439325058321e+00 2.079055347698340217e+00 1.267404188789870290e+01
-1.104807708065740579e+00 -8.282814751781091278e-01 1.596830228829990972e+01
-3.668924759571786431e+00 -1.720336457068385227e+00 1.721954768021511484e+01
-5.358806205717276505e+00 -1.332335514536163057e+00 1.285347317328659500e+01
-3.324666695011436079e+00 -1.100048541229190713e+00 1.269928977958806371e+01
-4.201311987702633921e+00 -1.018670313875003064e+00 1.230051303576914279e+01
-2.966941556001889690e+00 -1.059272773587899286e+00 1.272228320708103411e+01
-4.385041454319884124e+00 -1.402658902225138782e+00 1.699112878064343590e+01
-9.540839619044192421e-01 2.532014594550847653e-01 1.483053410781051440e+01
-8.368344528986948916e+00 -1.706864923242291221e+00 1.614500648218129442e+01
-5.021876267697640728e+00 1.157917629763494105e+00 1.625840204539844081e+01
-4.529903536314278334e+00 8.691729780296351127e-01 1.018837066853271978e+01
-1.182964779527347465e+00 -1.081560767547923962e+00 1.296651192214942228e+01
-5.664787016738426217e+00 -1.729984919924568265e+00 1.687715309262565455e+01
-2.056843352558935578e+00 -1.679123229608397105e+00 1.732611806027769319e+01
-8.248161081124925076e+00 -1.836658718837717030e+00 1.329013644600242827e+01
-8.214389998625991396e+00 -7.044824685437739431e-02 1.523900302516288008e+01
-7.631725342978837645e+00 -1.753069130639007378e+00 1.670164791426243056e+01
-7.222962330641646389e+00 -1.736462333281769022e+00 1.681198171243167394e+01
-6.881277615663982772e+00 -1.910692356094527478e+00 1.689685376503624070e+01
-1.060270723852133834e+00 -1.431762976273468491e+00 1.617664747102017486e+01
-6.222384482405548312e+00 -1.420390193564778358e-01 1.651643220826732517e+01
-4.279706933982068584e+00 -1.755172051984565718e+00 1.707518817760736596e+01
-4.685051293895653224e+00 -1.731184713044023438e+00 1.699868751137628919e+01
-6.971602084521191678e+00 -1.288496510533421180e+00 1.222290460055256034e+01
-4.787852307182212996e+00 -1.246184396166535979e+00 1.266371777907830420e+01
-1.951745153601034399e+00 -2.607744579335807278e-01 1.190311822359733895e+01
-7.143502725480031401e+00 -1.520591527887380723e+00 1.243089743321415597e+01
-5.180459580535918818e+00 -1.321202447293751581e+00 1.283247227671309787e+01
-3.152325922507455580e+00 -1.860492589214874704e+00 1.371923705209880495e+01
-1.586798227411940765e+00 -4.033650951754564340e-01 1.221491126687669748e+01
-8.242363356408828778e+00 -7.777877645604485135e-01 1.357931845490141143e+01
-4.218837426134058433e+00 3.474726944694245478e+00 1.389096895255596564e+01
-1.380538979559982726e+00 -2.043688120289353649e-01 1.624543826263976598e+01
-2.623002290142542492e+00 2.405732859299608339e+00 1.408569134554991820e+01
-6.154941758690188891e+00 -1.273615655837561977e+00 1.224191055060898492e+01
-2.133556741328514139e+00 -1.233867667792294842e+00 1.298570425352551894e+01
-7.340789533587631865e+00 6.601954488188972459e-01 1.290105232638912014e+01
-3.583335623780953050e+00 1.333750883299906986e+00 1.100788655538033822e+01
-3.975152324989765340e+00 -1.149305000186139569e+00 1.263909571371916485e+01
-1.372910432304043526e+00 -2.458244086222201474e+00 1.435588544128403754e+01
-3.382544752595462167e+00 -1.253295735752807838e+00 1.293154161825287929e+01
-3.942573336029702169e+00 -1.242486997572013641e+00 1.282404431178483861e+01
-6.327191693244731852e+00 1.426373345740584497e+00 1.260757962727878123e+01
-2.290679240380314674e+00 -1.499792667672538160e+00 1.729555563697277876e+01
-3.081119619255380915e+00 -1.758395353339085920e+00 1.735345036191261414e+01
-3.258394123946097398e+00 -1.721049997320109215e+00 1.732576832378119036e+01
-1.368606086673345379e+00 5.353305827200296463e-01 1.338122995671333371e+01
-2.465019108888775623e+00 -1.706768940724737726e+00 1.736663375549374422e+01
-4.352371859886948968e+00 -2.889128062998482238e-01 1.109274301688153486e+01
-5.010770121443461456e+00 3.026460075621835166e+00 1.324759177498733465e+01
-4.115669238370621486e+00 3.195828556401125731e-02 1.072834136144980022e+01
-2.075003451540456290e+00 -1.925467616747618793e+00 1.740796010228278590e+01
-2.098414796038609254e+00 -1.524404051466603516e+00 1.728183994791060485e+01
-7.588344884371363008e+00 6.728490302899212683e-01 1.326875425666781183e+01
-7.381618398303246842e-01 -1.059716913266288252e+00 1.320462287058185069e+01
-5.571624635286748450e+00 1.360896932051157693e+00 1.156236752721841299e+01
-8.604510696216273402e+00 -1.720189646072160405e+00 1.557237671678213076e+01
-6.275920922961407022e+00 -1.486212439711388278e+00 1.680712662820455705e+01
-2.719034177812276187e+00 3.162447333353572532e+00 1.514939715291630762e+01
-4.941583310226016046e+00 -1.637800376295617477e+00 1.693287017679972450e+01
-5.969659291148500913e+00 -4.603732188980239060e-01 1.143215677134847397e+01
-4.355602448987901276e+00 -4.714603537177835535e-01 1.131417679631625361e+01
-2.841409503881275000e+00 -3.100095932033843482e+00 1.490026668796610920e+01
-3.794795119065175193e+00 -3.821613778274031703e-01 1.135256622507257163e+01
-3.555502428054983621e+00 -4.279834628113840522e-01 1.151726249866252516e+01
-2.381564385369139281e-01 -2.499908571112255284e+00 1.452621398732495805e+01
-1.405789584565070305e+00 -2.164721054677417045e-01 1.217590074782518172e+01
-4.186815560285270799e+00 2.175164168249937191e+00 1.179769367436566085e+01
-3.337220951224292076e+00 -3.831617572403308025e-01 1.154264016665927528e+01
-5.605511623781286090e+00 4.097654897705933053e+00 1.562583453748700890e+01
-6.502742487059566479e+00 1.151216358317342925e-01 1.130835380795222989e+01
-3.073849971708127349e+00 -1.080777568874091266e+00 1.721988880727145244e+01
-7.276885180434616629e+00 1.285224626282978733e+00 1.367875273450687246e+01
-4.347879483962177716e+00 -1.885553232423919368e-01 1.096960199520496815e+01
-5.768518933782309510e+00 -2.854187517694972143e-01 1.128818759979629505e+01
-2.883842258322859120e+00 -8.913177692236942118e-01 1.716335193852403052e+01
-3.474985442021683024e+00 5.220684612244187450e-01 1.026682538090332741e+01
-2.834725619803781349e+00 -1.052284534184156906e+00 1.720309215252547119e+01
-2.678545658019914288e+00 -7.240049437297884083e-01 1.710628418942297913e+01
-2.450369361625999609e+00 1.858066281953985932e+00 1.342347180762524061e+01
-2.461274896456176364e+00 -9.190315584071353516e-01 1.714615145982253352e+01
-7.513176518763868827e+00 1.623658187720033119e+00 1.451483828803256415e+01
-1.849893259526520062e+00 1.612809600084076811e+00 1.427396602938642189e+01
-2.141766467796644591e+00 -2.049712913037519679e-01 1.177083754141958849e+01
-3.683269332623931192e+00 2.020226402248118447e+00 1.201238911624673023e+01
-1.975787641325168487e+00 -3.529922614675379822e-01 1.199415351182899059e+01
-2.323221205113704002e+00 -4.316029738941559724e-01 1.198479733720606077e+01
-4.136908470857320275e+00 3.154485303586893608e+00 1.616023194936753526e+01
-7.439178855298354875e+00 3.260497092901092353e-01 1.261257414497443818e+01
-4.620760118445150333e+00 3.507369356248201342e+00 1.382530778247293313e+01
-1.956059420835418727e+00 -4.747342436055323467e-01 1.214409072963827185e+01
-1.778258307500422575e+00 -2.395245478841330766e-01 1.195652436073047653e+01
-3.434108903256096745e+00 4.634578504268622723e-01 1.669884373864149296e+01
-6.749182806266672330e+00 -2.486987809855161768e-01 1.152726288613506256e+01
-6.608209010651211024e+00 -4.735723059687264036e-01 1.158526691679031018e+01
-2.707507900866510386e+00 -4.530048162137684797e-01 1.189699253264839029e+01
-5.435937227832106089e+00 -2.585735973263472598e+00 1.433880196820300768e+01
-2.549221992383684743e+00 -2.818432655634185990e-01 1.171782902501428936e+01
-1.735251354704492766e+00 -4.372243010952505116e-01 1.217464426161525637e+01
-2.248482763909974480e+00 -6.967010369532655734e-01 1.708353445880138111e+01
-5.321667092543778566e+00 1.134363796269106883e+00 1.101346045305741939e+01
-2.932750936164716382e+00 -3.686098330470428119e-01 1.168910849486790937e+01
-2.769726079624550419e+00 -2.091480497774168001e-01 1.153798131949748296e+01
-6.940030574681523845e+00 -6.936223714978644317e-01 1.182335003778376148e+01
-2.546127502662502540e+00 3.119833724865259672e+00 1.536845120368577255e+01
-6.631196806104421526e+00 -2.510014845715002441e+00 1.360465780545029446e+01
-7.123331490696081403e+00 -6.708702591097390755e-01 1.189946882709985232e+01
-5.876204415564146188e+00 -1.896164082238880555e+00 1.349077981152538541e+01
-1.411360381511655548e+00 -1.029374428042506118e+00 1.672433096874694058e+01
-3.898026752206645185e+00 2.545517174847206743e+00 1.628840564187105855e+01
-5.849265222290958022e+00 -9.279766495455110675e-01 1.669340374721787867e+01
-5.683797389374332099e+00 2.296947993222715478e+00 1.290638468642173109e+01
-1.315452669163905464e+00 -5.229650571448896113e-01 1.628607447785294227e+01
-1.075646050192417436e+00 -6.248632276432761756e-01 1.577702382644007173e+01
-1.797975313440205891e+00 1.296976560085036700e+00 1.381023376448890616e+01
-1.072096697895021489e+00 6.173551389667151224e-01 1.462981498400772296e+01
-1.164043299595260983e+00 -5.953161850467942884e-01 1.598338492889244122e+01
-6.190635839513215721e+00 -1.155947074725653279e+00 1.673371577914738850e+01
-8.567293089317018939e+00 -1.714745267836213172e+00 1.568788105140312439e+01
-5.451806008219530320e+00 -9.093254018733873956e-01 1.671408489450389112e+01
-6.010513948028944675e+00 2.013648705314576293e-01 1.643706049134256375e+01
-5.062422360142582178e+00 -1.090570331883953470e+00 1.679617162291479815e+01
-8.783334337855996932e-01 -6.391808453319351990e-01 1.532421951694788476e+01
-4.855979672623893073e+00 -9.114393762003698551e-01 1.680588048297823178e+01
-6.248985101747993376e+00 -8.767779553784080804e-01 1.667400163995098694e+01
-8.025774583205118162e+00 -7.831361901479354515e-01 1.280346252057119472e+01
-3.535275688157128560e+00 -2.747615422597239898e-01 1.131030647501113151e+01
-7.794155428953207121e+00 -7.246207582805932468e-01 1.243916227731226343e+01
-8.547741771396733412e+00 -1.237975048888301011e+00 1.457026762957469401e+01
-6.331065020949222522e+00 3.045165457077728899e+00 1.472801803871151805e+01
-4.823926158165528832e+00 -1.131531418311668036e+00 1.684715869653339126e+01
-7.844290773480958379e+00 -1.133818824547006221e+00 1.641266086947232594e+01
-7.452457915364818497e+00 -1.145549019949507086e+00 1.658298005197914904e+01
-6.378638611678542958e+00 -2.769272707478603657e+00 1.435581700266103411e+01
-7.088543585076067188e+00 -1.089121566372872385e+00 1.666076963609657469e+01
-7.261142458984632952e+00 -9.431371968849238119e-01 1.658601938893384897e+01
-4.969867600594596091e+00 -2.888832291294166077e-01 1.119564583846496930e+01
-8.060122410914134505e+00 -2.691606037495599679e+00 1.361623981230734159e+01
-1.629720589971062061e+00 1.806708943629595110e+00 1.527364404304757528e+01
-4.942659477506878396e+00 -3.949019456111141357e-02 1.092202799328763518e+01
-4.437442275434731798e+00 3.871877388364715511e+00 1.443105649703896631e+01
-5.745784660524917875e+00 -4.883914819353552539e-01 1.147446940034786422e+01
-1.757981185789675216e+00 1.718699131843447914e+00 1.576285468888277563e+01
-5.124325561036033427e+00 -3.881413842968333694e-01 1.136742599366752415e+01
-5.912092475928434787e+00 3.239514832308413528e+00 1.435282773476303930e+01
-8.571126176358825788e+00 -1.254644770715042101e+00 1.476333103629144716e+01
-7.213527784438074519e+00 -7.257103125819894807e-01 1.197092685222604302e+01
-6.334186920618255279e+00 -7.090268642945647404e-01 1.167515942518974725e+01
-6.126207822861131191e+00 -5.844622316923884231e-01 1.154130414663087123e+01
-1.154801097844820656e+00 -1.671525155785498873e+00 1.655308085722207068e+01
-3.930659589609262206e+00 1.050811187861484808e-01 1.067665335503077984e+01
-8.508452688534420716e+00 -1.035550282720619331e+00 1.524819302967659951e+01
-6.496438737381948769e+00 -1.064931895322851263e+00 1.671509153283916760e+01
-6.335356165983465182e+00 6.531856654867860268e-01 1.158546051467912008e+01
-4.274473365378053558e+00 -6.717528412411319927e-01 1.691292941876255895e+01
-1.503288754379417336e+00 -7.153096425472051934e-01 1.672909743642404834e+01
-3.527716536869166308e+00 -9.634629922196658036e-03 1.095942059900667687e+01
-4.100839005529000936e+00 4.107442456085166782e+00 1.495982743220870503e+01
-2.039214930558204131e+00 1.620791110620367403e+00 1.614126919270334781e+01
-1.816077006099320545e+00 1.107401965249487974e+00 1.341344711880601892e+01
-3.142903812934123575e+00 7.082440821983923551e-02 1.100425942261249901e+01
-4.679947050591539259e+00 -7.156905256274270766e-01 1.681296673645984896e+01
-7.821216234298317360e+00 -5.282286439543395495e-01 1.242895737518432497e+01
-7.702112771061019103e+00 -3.238561994254692267e-01 1.227915470469743298e+01
-2.357320634286588223e+00 -7.450788841757305381e-02 1.153471720552708035e+01
-1.202306639219920870e+00 6.619163130626984914e-01 1.422161941765934756e+01
-7.672246656038234747e+00 -9.185104083217283666e-01 1.643798447580236655e+01
-7.439702688310086742e+00 -9.623701249836416061e-01 1.653986719735792121e+01
-7.849122426685987364e+00 -9.234618878875904269e-01 1.634254112272899562e+01
-8.349212176298090426e+00 -9.556187033159473376e-01 1.571954692736929360e+01
-2.959011281282077022e+00 -1.148970042429630967e+00 1.284728247476422780e+01
-8.429238201855266510e+00 -1.066888859511471388e+00 1.556252006990167303e+01
-3.892502893962121568e+00 -5.229274229966427434e-01 1.152248477342894262e+01
-6.002949481754735750e+00 -1.987340352064069782e+00 1.692593389264925463e+01
-4.342686618604783888e+00 -5.995104260467194468e-01 1.149673470481858573e+01
-5.949641886121627365e+00 -7.071969588120667893e-01 1.167426649505836167e+01
-4.571685122478230667e+00 -1.251941933627454873e+00 1.269998119630687938e+01
-4.363597384306818761e+00 -1.223170756098124645e+00 1.268763694082177551e+01
-1.740262587047455511e+00 -6.313554600659507798e-01 1.236839540873765486e+01
-6.539649240536069108e+00 -6.704768090697112992e-01 1.168213076114980709e+01
-7.034163895157759860e+00 4.279382995445183413e-01 1.623011342615203745e+01
-6.633985753899382054e+00 -1.869739591999725503e+00 1.280294775905147020e+01
-1.372080820717173300e+00 -1.671310130887614598e+00 1.694875883259165761e+01
-3.474968279544460081e+00 1.482851495824651089e-01 1.683957904583902376e+01
-1.442227094701011403e+00 -1.855956182888797157e+00 1.711378219749154539e+01
-8.496087917006116541e+00 -1.928977932436543474e+00 1.601880664416155042e+01
-4.795048028857669564e+00 -1.729819109104986596e+00 1.341326105261630630e+01
-5.200050014783386132e+00 -1.671138315457251666e+00 1.329312115457931753e+01
-6.517497928375529881e+00 -1.830331967331710219e+00 1.277750573072816564e+01
-2.678159311986307412e+00 -1.929438376159782420e+00 1.741444442931683056e+01
-6.147032193893092078e+00 -1.743593919818941407e+00 1.281778250093604044e+01
-5.664527963616287742e+00 -6.999332911372346810e-01 1.666027507916328432e+01
-5.589738024146370776e+00 -1.787928268973828727e+00 1.340611820809701271e+01
-3.136144849518166744e+00 2.543617140301457358e-01 1.075740394134454192e+01
-7.168067701598145547e+00 -1.898397673440942013e+00 1.280269479054143744e+01
-3.586928157504172709e+00 2.331285697701225956e+00 1.264788355881811555e+01
-5.804751311960948179e+00 -1.747288137739322567e+00 1.328794763748252450e+01
-7.915664454267918870e+00 -1.094408143944169964e-02 1.306677497112677599e+01
-6.428610197621507538e+00 -2.122735339643912145e+00 1.695313401320022706e+01
-5.952831779637970833e+00 -1.580899065936742565e+00 1.280449062569422836e+01
-5.401312098082494018e+00 -1.608412701140039758e+00 1.319740763338369050e+01
-5.368995234054453114e+00 -1.767642643556450510e+00 1.340907808887879327e+01
-2.398186340558175367e+00 4.099778003012556904e-01 1.086915139861446988e+01
-2.225908945262143668e+00 2.419021189940636862e+00 1.484871698689161690e+01
-8.526266796360253863e+00 -1.819012345559960719e+00 1.413942687924622277e+01
-8.492811864163344993e+00 -1.860464901240610258e+00 1.398331438286697903e+01
-7.472798568595499624e+00 -2.694609762109530848e+00 1.362232481792982952e+01
-2.129425237846176877e+00 1.157579123741109717e+00 1.280295852661997458e+01
-9.904588728298777678e-01 -1.634361850796676396e+00 1.608573877208471004e+01
-5.482594592541769174e+00 -1.434046072940051708e+00 1.296945021629550610e+01
-1.569111253199273470e+00 -1.434859620354824505e+00 1.318269863501168260e+01
-1.015959241599793783e+00 -1.859548916781959660e+00 1.630065962924076217e+01
-6.624616218768589526e+00 -1.985191926167135579e+00 1.692158377855283646e+01
-8.030624293182833995e+00 -3.614524475562423955e+00 1.506601978071032732e+01
-7.938053612289440508e+00 -2.305188943567789917e+00 1.319897892840685216e+01
-2.831128822115333676e+00 2.226143363755445304e+00 1.347119565508972983e+01
-2.569111409544890368e+00 -1.602295881256333931e+00 1.341984480518630107e+01
-2.801743840546932596e+00 -1.501205347945886226e+00 1.329753275461780504e+01
-1.958458022400852538e+00 -1.520039963811646855e+00 1.330558264913312172e+01
-8.694152273028517897e+00 -2.073175483839214905e+00 1.555218229817888442e+01
-8.596457047250884997e+00 -1.885456590127706944e+00 1.574368846847922043e+01
-8.128548485455795003e+00 4.239552342755009140e-01 1.491599101405783756e+01
-5.053067282112315262e+00 -1.913532768551535090e+00 1.698996504540835417e+01
-5.401727604318541154e+00 -1.933680450694813091e+00 1.695369354757482228e+01
-2.509327550862244571e+00 1.204619033686486818e+00 1.217736775104918934e+01
-5.428243794692082069e+00 -2.131659774119949002e+00 1.700433759513459364e+01
-3.446253647934249820e+00 -1.927060479040503482e+00 1.731516317843157537e+01
-7.383026806525314178e+00 1.261444049567412184e+00 1.566471714567985885e+01
-3.657877191532862504e+00 -1.929894580330821841e+00 1.725589362804864635e+01
-3.235321192355550046e+00 -2.094338162660096980e+00 1.739341340307841932e+01
-4.852278564733529365e+00 -1.895236251973989594e+00 1.701368488322647465e+01
-7.675537363095898513e+00 -2.143929597871562009e+00 1.679914866280765295e+01
-5.220196181269772140e+00 4.461640091594590629e+00 1.557707756758897233e+01
-7.594178955655566554e+00 1.154604419571763518e+00 1.393433272069318463e+01
-4.055262639070652320e+00 -1.978017976737371120e+00 1.716248847312019876e+01
-5.832457221102892220e+00 -2.196145009623902133e+00 1.698404280356827911e+01
-4.943609357526095316e+00 3.559711931561833076e-01 1.051366865964926944e+01
-5.892387854799835623e+00 -1.867743985254372463e+00 1.690011071468551052e+01
-8.386101516972473746e+00 -2.165864331012801181e+00 1.630363726326628893e+01
-4.065585390113722219e+00 -3.143739600011913993e+00 1.731431319405045599e+01
-6.781140509832739305e+00 -2.210231635710011133e+00 1.313352715933465475e+01
-5.631902350148009440e+00 -1.929032660537160604e+00 1.693275394820628321e+01
-5.655628157027392966e+00 -2.126546020841794782e+00 1.698090840884515274e+01
-8.508685331883038216e+00 -2.303364799953615094e+00 1.616457850888291858e+01
-4.514636124794928485e+00 -5.997456890001073848e-02 1.082364861541455525e+01
-1.053327542278695184e+00 -1.497279744432122861e-02 1.534771506707768651e+01
-8.691573221200039612e+00 -1.903660607494713330e+00 1.531619175025742408e+01
-8.728017219705531460e+00 -2.101261100892282130e+00 1.515097842451888255e+01
-8.710432970724955482e+00 -2.025307108449022397e+00 1.490743840916524476e+01
-7.231200541840815177e+00 -2.168917211172285864e+00 1.693183744344425889e+01
-3.258710303712277323e+00 -1.025305603085094885e-01 1.692884868048062685e+01
-1.872390756126977696e+00 -1.809027934507314805e+00 1.363634356668907799e+01
-5.026682793115294423e+00 1.053535028590123934e+00 1.066835347893552921e+01
-3.187025471905520657e+00 -1.778540727522935461e+00 1.361803688418741842e+01
-1.578361429307435060e+00 -1.686238737139808208e+00 1.348753513325456055e+01
-5.061453351342761309e+00 -3.774349079175035371e+00 1.593991151441465348e+01
-5.306332497143612770e+00 3.328542912607631798e+00 1.379759039562890166e+01
-3.772794305897806844e+00 -1.819794094227626724e+00 1.364892346035023252e+01
-2.359289186325425725e+00 -1.498764395404406757e+00 1.329722153808973673e+01
-4.247573080158873360e+00 -1.931712773082806534e+00 1.711630018285990928e+01
-3.592090456719544633e+00 -2.142662023210687661e+00 1.403992502859990310e+01
-6.680492958134934156e+00 2.393516259716797823e+00 1.436058402716827942e+01
-1.265158080956879871e+00 -6.005282173319981265e-01 1.261270830446531477e+01
-8.624474063762574971e+00 -1.815940871996713168e+00 1.456665279636847288e+01
-2.159596182930019648e+00 2.100375218697862145e+00 1.442964155147461014e+01
-4.019845727862599638e+00 3.871013953566952104e+00 1.465044908703129778e+01
-3.745467171187656596e+00 -1.359201742842970351e+00 1.304796386324977675e+01
-2.643642523082960327e+00 9.272422566429887603e-01 1.145664436580494083e+01
-4.953843612871303037e+00 -1.486749591300642104e+00 1.305456074814900091e+01
-2.935182446529626343e+00 8.680434428027306026e-01 1.093407922309636859e+01
-2.577226814501345498e+00 -1.810499440793466475e+00 1.739288228452081597e+01
-2.339936787170486809e+00 -1.318507711691040640e+00 1.309234594377948468e+01
-4.637993265708131752e+00 -1.102821948256488271e+00 1.688317211649420813e+01
-1.402539324420664091e+00 -1.220164554772078302e+00 1.296790236849285805e+01
-7.277460848149150507e+00 1.152654841541105535e+00 1.580958368579872797e+01
-1.259759484433485621e+00 -1.222355148772922728e+00 1.301389115706626143e+01
-4.572930010853333727e+00 -1.323542372859543015e+00 1.283672051632548516e+01
-4.398106102971945042e+00 -1.302817560167797151e+00 1.283715617656796582e+01
-3.961539129810376814e+00 -1.383598847799092368e+00 1.305748992845170875e+01
-5.462406887145132117e+00 3.108398054001365596e-01 1.645102491484646379e+01
-5.796298396517191698e+00 -1.461874793883889856e+00 1.283355672570369421e+01
-8.186282918934070452e+00 -1.941108763986885366e+00 1.645770302407541408e+01
-8.270661813934665929e+00 -1.918791590631186095e+00 1.636189907893780315e+01
-7.484328786907644471e+00 -1.942892012510534672e+00 1.680336949820848247e+01
-1.827080728694016720e+00 6.373403509178381388e-01 1.248864275632355003e+01
-8.440987104596597845e+00 -1.790680023969813073e+00 1.376872824294992625e+01
-6.382763001108210155e+00 1.476807587419193712e+00 1.274690886832515702e+01
-5.064414033205991039e+00 8.352665532317130048e-02 1.656992860486310803e+01
-8.430223110017150745e+00 -1.629452656716752879e+00 1.376226984247865204e+01
-6.429753101204314980e+00 3.767326342264614158e-01 1.139589434350955344e+01
-2.570648728592772603e+00 -1.453613036358341271e+00 1.325022784002126031e+01
-1.386190243703195213e+00 -8.452374898235368583e-01 1.658976945644787548e+01
-1.954139181127285685e+00 -1.323034367755112628e+00 1.307241415962945297e+01
-4.771892215317900643e+00 -1.474373864399196821e+00 1.305503673044535873e+01
-5.159210998111906754e+00 -1.485237984614540041e+00 1.304742741769474179e+01
-7.061691153554666478e+00 1.125318257588990012e-01 1.633350930746982499e+01
-7.254568482183028522e+00 1.008775174952277198e-01 1.626967896996730190e+01
-1.042111004039918187e+00 6.716503502901951528e-01 1.478762407414214408e+01
-6.626110291085143267e+00 5.966851758472835332e-02 1.644339188953357933e+01
-6.936293204257661493e+00 6.151173782663550416e-01 1.230067335863368783e+01
-6.263021323408351826e+00 9.063359357884254175e-02 1.645922154762389056e+01
-9.078848469993661130e-01 -2.883618284934138298e+00 1.661928860465812363e+01
-1.306289696040991100e+00 5.892657777947852837e-01 1.561042046225112045e+01
-7.633756567936229587e+00 1.315327326551898601e-01 1.605637325764914181e+01
-2.461550147943649236e+00 2.041940398201678164e+00 1.372475777818080900e+01
-7.695979361695821197e+00 -8.989557187105007285e-02 1.612479653908831523e+01
-8.430712067977497171e+00 -6.543808088217981656e-01 1.461534016284517179e+01
-1.161239651607010259e+00 2.653170898768895669e-01 1.545619497754915272e+01
-4.290573145959066359e+00 4.518209648697209424e+00 1.587294076018095268e+01
-1.835761221594799153e+00 3.747928353295300608e-01 1.660910958256354775e+01
-1.882460869597931019e+00 5.113814385285404551e-01 1.657948042542371780e+01
-1.520175662291263219e+00 3.692343515970362144e-01 1.617505683429649110e+01
-7.184343354143877036e+00 8.423112493345710217e-01 1.294351375151875772e+01
-1.397572442188627306e+00 4.409511723691427743e-01 1.590477711962964236e+01
-2.101297673191009352e+00 1.930590674393953599e+00 1.605887103311577135e+01
-8.002863542815024545e+00 9.053092319042552183e-02 1.564121849938142361e+01
-8.168419335835446660e+00 -9.221229809860864712e-02 1.540373323490867108e+01
-8.080590423728802207e+00 -9.288167600294117143e-02 1.563286373978392163e+01
-7.984396335447302206e+00 -1.261592492317679670e-01 1.585296592846586350e+01
-3.842895642040986992e+00 3.918749076546959476e+00 1.604570963278484896e+01
-4.562625400107468643e+00 1.996591934433988191e+00 1.157788138612053075e+01
-1.025111199949649166e+00 6.208801163803248091e-01 1.503528171574917138e+01
-6.073334087890533972e+00 -8.543473664539891210e-02 1.650637026752360725e+01
-3.055123988491237341e+00 3.566397371176473818e+00 1.532186168856777186e+01
-7.990310313681129983e+00 3.358683021058980200e-01 1.544242163156681613e+01
-3.502326980689391078e+00 9.013703514856122312e-02 1.686658460944366311e+01
-8.223347352857855341e+00 -4.068233059644082439e-01 1.381494014707899964e+01
-2.666168337650495435e+00 3.113436420517333159e-01 1.680610283060119059e+01
-2.668523293126253471e+00 8.799810633638865953e-02 1.688009035986920026e+01
-9.894316263945068801e-01 -2.621049005078745164e+00 1.670103122199819268e+01
-3.261336339522742822e+00 1.612762183712954378e-01 1.682120820409133444e+01
-3.258661767448250757e+00 3.393761035825964556e-01 1.674673799246456696e+01
-4.023192058033222551e+00 3.081990644058453799e-01 1.677368055558302018e+01
-6.131164804966399373e+00 1.797242003472188099e+00 1.282829251523715897e+01
-4.725764800425766410e+00 1.775118541675949624e-01 1.662028602293538881e+01
-2.951546489981510035e+00 -3.314108626480446240e+00 1.507989355014539257e+01
-8.163806508994152722e+00 1.299320651387691483e-01 1.517123515815838175e+01
-7.909889523538785383e+00 -3.439354094291224295e-01 1.260722134065692046e+01
-4.269825637122590223e+00 2.928918081400547768e-01 1.672223363853670008e+01
-2.594345655331328881e+00 2.245592744854040479e+00 1.385780460240188461e+01
-4.096798066054780030e+00 1.496058881781991701e-01 1.680440189433272025e+01
-6.638088164420308246e+00 1.500972073492025105e+00 1.311545590186033650e+01
-8.103320468962024847e+00 3.597238399497983963e-01 1.509495624249836254e+01
-5.808209652623017583e+00 2.452322629499911422e+00 1.594866065373373942e+01
-4.441617069746707891e+00 8.423096737026905534e-02 1.672243102356076605e+01
-3.484036794541072179e+00 2.872684288664525964e-01 1.677955218688650518e+01
-5.612514330245194749e+00 1.581558824218997961e+00 1.190351504540765859e+01
-4.040067683081401739e+00 -1.080202121067415644e-01 1.688638642458096939e+01
-8.347425821848991845e+00 -2.518962397770557193e-01 1.465775802840111197e+01
-2.836114238017592104e+00 -2.467322795150387549e+00 1.437491726220048349e+01
-2.159784939303123874e+00 2.886977232370925517e+00 1.574395575718131113e+01
-2.844740144124641379e+00 5.057523016020182283e-01 1.671397076510653079e+01
-3.288305646887479394e+00 -2.758795695532829217e+00 1.744959472122977218e+01
-2.436582192753893317e+00 -1.082970875373809205e+00 1.718738811424291413e+01
-1.692315605248600363e+00 1.002332032423819130e-01 1.658777244535376383e+01
-4.966093475052158368e+00 1.853413851387135103e-01 1.069782715546111973e+01
-1.656934070082826782e+00 -6.916916600195760489e-02 1.663273039462866620e+01
-1.255573717414386392e+00 1.786999542668750995e-01 1.576348565590501494e+01
-1.385746313820697795e+00 -4.637072619798950357e-01 1.639326454620169926e+01
-8.250272557337956059e+00 -5.776556214812549328e-01 1.380642073531628000e+01
-6.664990956964378377e+00 -2.750904738742780409e-01 1.652561531233884295e+01
-6.407195885040664507e+00 -8.656089719237675117e-02 1.649899100203420943e+01
-2.238934066256735633e+00 -8.481150675275767048e-02 1.695122032105451382e+01
-3.504504943122568328e+00 -1.458199971207943535e-01 1.114851719379586825e+01
-6.904079704190620781e+00 2.558763115131035715e+00 1.497108347951272833e+01
-6.846899519460213135e+00 -8.440757435403800635e-02 1.644850350728830790e+01
-1.182587645264011389e+00 -2.632867701174707586e-01 1.584168642448713626e+01
-7.054767222765559787e+00 -1.259486533174570821e-01 1.641186298125402487e+01
-7.085527345668828580e+00 -3.342030106427141267e-01 1.646975564835074834e+01
-7.647603242053707007e+00 -3.249006180326968196e-01 1.625163491858739917e+01
-6.259113437311252248e+00 1.722018497347434840e+00 1.290156973889138214e+01
-7.272058773474027404e+00 -3.118567930803583521e-01 1.640821460791548958e+01
-5.560978244432916107e+00 3.949505208727107641e-01 1.068329475883899704e+01
-6.038610644229051694e+00 -2.845470402046302305e-01 1.655286602816939734e+01
-2.438452811717711111e+00 -9.194871686778072206e-02 1.694649634194281873e+01
-2.653152974396916441e+00 -9.743368452497036536e-02 1.693506658246835173e+01
-6.739870675008056367e+00 2.732109065427426597e-01 1.167128414967460515e+01
-4.201296831168315649e+00 -1.442194140188975959e-01 1.684406100249271532e+01
-9.713865721328076575e-01 2.372887052180272516e-01 1.500018980450828820e+01
-1.305707235497443275e+00 3.901293385412735182e-02 1.229667705465786298e+01
-5.811576480981530679e+00 1.904740955427260074e+00 1.254943025273446011e+01
-4.133442840690319642e+00 9.688398546343872653e-01 1.020108663973056906e+01
-8.416616940001967251e+00 -4.790747774418267491e-01 1.479435754606112141e+01
-3.227027571431083874e+00 3.044046490051484977e+00 1.429426570539105512e+01
-1.926571625497389473e+00 -7.534336470416247433e-01 1.245901350877633007e+01
-7.979883418231910497e+00 -3.194479140320795607e-01 1.598461850538390649e+01
-6.819355593706467822e+00 1.107304770461071397e-01 1.639724571733992065e+01
-6.655669453883319875e+00 4.913267713419395832e-01 1.630796174656553887e+01
-5.774248450148244949e+00 1.668312017338263953e+00 1.219643750225711187e+01
-6.839965932816658878e+00 2.956846248980932179e-01 1.633115003215972649e+01
-4.634558771179227321e+00 -9.114247229343028778e-01 1.685418002274615645e+01
-1.801657731047361377e+00 1.852722474317447299e+00 1.576240471653491682e+01
-5.030017224368189765e+00 3.450543192143999072e+00 1.384824001842387275e+01
-1.472242683531135299e+00 7.758269763241549821e-01 1.583021500302086082e+01
-7.813649482277069680e+00 4.854384403835096395e-01 1.565054983500227337e+01
-2.281919490322029453e+00 5.242052526748791630e-01 1.675093688918666857e+01
-5.598583121280491071e+00 -3.041281973123951321e+00 1.470788647462924814e+01
-3.314524290377792060e+00 4.962398740635604044e-01 1.667747629986825331e+01
-5.396879163385496447e+00 -3.031837098127555308e+00 1.470728871219724709e+01
-7.811246900528754367e+00 2.895459300497604804e-01 1.579674807367130285e+01
-1.494169915797604942e+00 -4.875834644091074366e-01 1.659660105181860956e+01
-1.396459754308870593e+00 -3.010095723423327763e-01 1.632740492633087825e+01
-2.090241040288007390e+00 -6.625711018937991970e-01 1.706715516165549218e+01
-2.879966833610541954e+00 -5.340012702993961469e-01 1.706296473370806410e+01
-2.897983890511426353e+00 -2.753073745707514397e-01 1.698017677119761970e+01
-2.622686778713866573e+00 -5.105912093176008248e-01 1.704760922091909947e+01
-2.277618488394920426e+00 -4.312252369562398768e-01 1.702885239197757983e+01
-2.541215276902426989e+00 1.981502591446580586e-01 1.110751260661201201e+01
-2.790274622125773263e+00 2.377235562115694867e-01 1.093264459658998078e+01
-5.430581594774255727e+00 -2.721806676899703348e+00 1.445462431223416644e+01
-7.997973652728076033e+00 6.730048811257158814e-01 1.504206836896068467e+01
-2.373622764469101476e+00 1.365979196543602725e-01 1.127133096773660981e+01
-5.396793793778596360e+00 2.099455586739803259e+00 1.238427617377455903e+01
-2.321704711904750251e+00 2.400062239444252510e-01 1.115587777852115181e+01
-3.980715229695936941e+00 1.563792415506739253e-01 1.059416455200626928e+01
-3.928215667018323032e+00 2.849021600480967642e-01 1.043045432402099237e+01
-4.136420874241082402e+00 1.906899264099403135e-01 1.052117391520376088e+01
-8.433714221966663871e+00 -6.758164277455958047e-01 1.517908091235014467e+01
-8.454901585738383574e+00 -6.336378134564932818e-01 1.477788742219058804e+01
-7.787640530732513611e+00 -3.216575721679343913e-01 1.241096557804650757e+01
-7.819927571261649391e+00 -1.644195202316960369e-01 1.262144819430891829e+01
-3.963660603954394013e+00 1.344042071039418307e+00 1.061640451335182433e+01
-3.690965014474249628e+00 -1.627372850398484116e-02 1.090998155137065595e+01
-7.560764912896302370e+00 -1.510883071401979971e-01 1.226879148600120573e+01
-7.331708415150162139e+00 -9.811581166299293555e-02 1.207164374014929820e+01
-4.508873526280329003e+00 1.758286961566137840e-01 1.055107780627250946e+01
-7.230097525590020169e+00 1.467786317303966026e+00 1.568296467767490299e+01
-8.185756567590230404e+00 -5.315993875274509506e-01 1.577049824521365906e+01
-4.757828740132989509e+00 1.567463759758430886e+00 1.116322457893655695e+01
-7.153599959736486547e+00 -2.810167683053911847e-01 1.183104192707182278e+01
-6.540535111595637829e-01 -1.123247214892910906e+00 1.331604071424551705e+01
-5.945703152137377323e+00 -4.986470416560445651e-02 1.112553630059029786e+01
-8.648054376420655220e-01 -2.972863476187277976e-01 1.338309418381746241e+01
-4.429429079030911431e+00 -3.686352064208505919e+00 1.573343720687750391e+01
-6.940720350403501548e+00 -2.844154793689144811e-01 1.166510936696027301e+01
-8.203076185911456264e+00 -9.024783766839943322e-01 1.598927718888121063e+01
-8.175296647619230583e+00 -6.959737429948777976e-01 1.592077951572017724e+01
-6.286867891186735058e+00 -7.343982351035560630e-01 1.664295875768913646e+01
-6.475071631840431330e+00 -7.366501350023886285e-01 1.664044441842091260e+01
-7.046328903270718591e+00 -7.302460322830270911e-01 1.658018347742692811e+01
-7.244226288826123294e+00 -5.212535166390834807e-01 1.648191860715257917e+01
-7.635346252986943583e+00 -7.184901482055425781e-01 1.639787523658748114e+01
-8.373535848674183768e+00 -5.132980257494696996e-01 1.521332198108514433e+01
-8.352454368074559099e+00 -7.484616348642130212e-01 1.551180141314375049e+01
-5.537608746319387265e+00 1.978819515572436960e-01 1.084559549385377153e+01
-5.170762084685396331e+00 1.164743595596528514e-01 1.083801403796677931e+01
-1.050956285028465942e+00 -4.022299528777950051e-01 1.558347021198046178e+01
-5.722734735014888940e+00 3.833189450853664582e-01 1.640213639881496732e+01
-7.458758199564059943e+00 -5.333150696342985331e-01 1.641567418228527231e+01
-3.414729171370620264e+00 -5.746648721113329916e-01 1.179876290789178483e+01
-8.480441896305817906e+00 -1.395880792511506874e+00 1.415292661188509271e+01
-1.319858283521098796e+00 -2.004916273793075354e-01 1.612405952340154158e+01
-1.977994724399795512e+00 1.308018436380367522e+00 1.341182845670160617e+01
-1.140908902771192057e+00 -1.317234400266236727e-01 1.566088584327733457e+01
-3.903530628456542750e+00 4.176706652908530160e+00 1.599620346084687128e+01
-7.611493602649446188e+00 -5.674553941803572865e-01 1.636516914517228827e+01
-8.224622789354965491e+00 -4.653832238373388219e-01 1.561041908161273284e+01
-6.413535736098407547e+00 -4.037693023625373301e-01 1.657381396429144615e+01
-4.375057945415160354e+00 1.700894317883389961e+00 1.106433351917297614e+01
-8.020111432364769755e+00 -5.317241908411722839e-01 1.603982777260951309e+01
-2.743817151101095586e+00 -5.160708123893759103e-02 1.134144671375552349e+01
-6.181855471973408456e+00 -3.426769916082304412e+00 1.497132011120115180e+01
-2.219374510738982842e+00 5.225626144120631977e-01 1.142831155277738020e+01
-4.053407732931127327e+00 -5.049454086280886767e-01 1.695334457943938133e+01
-1.605117349731177701e+00 3.430585286733248696e-01 1.239172337181587835e+01
-4.843399343055205364e+00 -3.023313228523583640e-01 1.669948855145026556e+01
-5.565189104344193893e+00 4.218262893813001568e+00 1.542026652476901205e+01
-3.648802090066414650e+00 -6.813445412957306324e-01 1.708908352856539636e+01
-5.123579593602236137e+00 2.221929661509528753e+00 1.228871584606567779e+01
-6.264839479687749346e+00 -3.094135177155231120e-01 1.655391549620927805e+01
-7.859572105267194075e+00 -5.172639586549419022e-01 1.619115138135555299e+01
-3.127973029688650985e+00 5.954105947068774052e-01 1.040845979117955267e+01
-3.713212519396244637e+00 1.265441154440120730e+00 1.075549935612338004e+01
-4.112423999642367711e+00 4.471061357167442352e-01 1.017945039621165648e+01
-3.526657381462720231e+00 6.322754274275690367e-01 1.019779865269716623e+01
-3.252983353584007808e+00 -2.941332663703445927e-01 1.700379433912083016e+01
-6.157519566802544198e+00 2.904987467889534880e+00 1.427331876431850333e+01
-3.689797994917076274e+00 -5.033349720721791432e-01 1.705414520403918743e+01
-3.625884334786014129e+00 -2.807951487251137412e-01 1.701084588502266826e+01
-7.750198021133426707e+00 -2.527251992664802493e+00 1.341953929574800952e+01
-1.406423192690781976e+00 -2.153903456697696672e+00 1.399916517701014840e+01
-3.450550524831542898e+00 -2.715286198988309807e-01 1.701092711154506532e+01
-1.220884097564513437e+00 1.632185923083395718e-03 1.578509191056056693e+01
-5.785333528842237172e+00 3.162816938730901306e+00 1.409195950393947072e+01
