-2.851576924954122738e+00 2.313028207984985762e+00 1.905169667338720885e+01
-2.186585090367000550e+00 -3.897967470965613579e+00 1.893094399876880729e+01
-6.624751717965547293e+00 2.174254725287755541e+00 1.346276457586717967e+01
-5.025417850316886259e+00 2.459469846588794084e+00 1.948988830132777039e+01
-2.642360379579422602e-01 -6.617250722179424116e-01 1.727757546486032325e+01
-7.162640991947243130e+00 -4.047901534601443529e-01 2.041564130816866296e+01
-6.520984793025565551e+00 1.456768122791869624e+00 1.420145205006075528e+01
-4.671641723734654583e+00 3.483218658354849673e+00 1.389786317510548130e+01
-6.200137658675743957e+00 -2.519640672412316817e+00 2.046743016301217111e+01
-6.916679496137806638e+00 1.997594507920952278e+00 1.401455710844815528e+01
-5.314655394312979286e-01 -1.031427405030350686e+00 1.588410870258228513e+01
-7.832459991764538110e+00 1.416844096881696879e+00 1.547719745242912737e+01
-6.059308785103201256e-01 1.976586349410831112e+00 1.714164985005007580e+01
-5.035485883808830110e-01 3.849376473627708073e-01 1.531807802142143160e+01
-8.290058020979653719e+00 1.925092335418027378e+00 1.681208722540242562e+01
-6.406339626316729152e+00 7.274647300818051221e-01 2.008368978156521578e+01
-4.514171889491265688e+00 -7.472126959841378646e-01 1.690237430406514463e+01
-5.359383920019682890e+00 -2.900967682556659932e-01 1.684469485651684906e+01
-8.135997687748977025e-01 1.335046577678994151e+00 1.804327145880230532e+01
-4.555178081859732053e-01 1.404953215522339427e+00 1.649250288454083702e+01
-3.316998013740226625e+00 2.154444198348746675e-01 1.485793961155987475e+01
-2.305752042205503560e+00 -1.826813239274475587e+00 1.600564817422771924e+01
-4.924065474299939460e+00 5.039285394779596139e+00 1.782704451619398256e+01
-7.571882203583702342e+00 -2.553065106515814975e+00 1.883914005824356863e+01
-5.815235027006282920e+00 2.531587474035375429e+00 1.209492567748555203e+01
-5.992444007717010912e+00 2.429955935309972226e+00 1.233516098355303470e+01
-9.317445070525496309e-01 1.361961898423949879e+00 1.814535845439451478e+01
-5.935125302986108409e+00 -2.026529334317379583e-01 1.683895117161526045e+01
-4.937760113180800658e+00 5.238477888879767841e-01 1.539286632041123326e+01
-4.892500290891034886e+00 7.254065743997827331e-01 1.498274058769876049e+01
-6.520478855464426626e-01 -4.420737459335872810e-01 1.542864703761417289e+01
-5.468452771851695537e+00 3.183418688750069059e+00 1.348177494397120668e+01
-7.022305651893487877e-01 -2.379462478138740789e-01 1.528240192192368951e+01
-7.218374160757925928e+00 6.354363928373629733e-03 2.028898208553309601e+01
-9.987422732801451986e-01 2.736348300325954774e+00 1.752665339692120838e+01
-8.523590413864550186e+00 -3.071989155958376738e-01 1.796161572487419633e+01
-8.532610089734667724e+00 -5.181230213849232769e-01 1.793652619101539258e+01
-6.302183131611247546e+00 4.255465482448490100e+00 1.712498268662606549e+01
-6.213036600746372429e+00 -3.152460973003193168e+00 2.030439613555983769e+01
-1.846711162080227453e+00 1.458413552196232477e+00 1.367705001772687368e+01
-6.117658290330275861e+00 1.508075152034312194e-01 1.640045680700206177e+01
-8.463898282501389758e+00 1.218314695462941466e-01 1.823037943785114479e+01
-7.443139398480421498e+00 3.128707182861710123e+00 1.844265725098229680e+01
-7.375892121777815724e+00 3.053939752602182978e+00 1.863987152069519837e+01
-5.938871790886471658e+00 -3.303122253344241699e+00 2.022063604170887530e+01
-1.555833558362756275e+00 -4.287272760038341346e+00 1.772269313868532592e+01
-2.993743817946788788e+00 4.872169468054478259e+00 1.797582123374024476e+01
-2.600169101178018138e-01 -8.267976483201615601e-01 1.686501128793855386e+01
-4.367937323435113761e-01 6.764984401578765238e-01 1.764684968838691859e+01
-5.574283427613443642e+00 -3.556239398513324268e+00 2.005519372240251741e+01
-3.606629231775604794e+00 1.678822365383459525e+00 1.944934789639831152e+01
-6.005147797448555647e-01 -2.035158562617430000e+00 1.627146748784505448e+01
-1.336066371816058140e-01 3.928855028240506586e-01 1.671783424817922636e+01
-7.043838775039110267e+00 -2.570223077400826561e+00 2.049570333154013113e+01
-1.450395794370665126e+00 1.833561418416538302e-01 1.441952595737507536e+01
-1.613897420514922132e+00 1.879764967442220103e+00 1.845435324970917534e+01
-6.183384966401228588e+00 3.098336632786518940e+00 1.928823015860022494e+01
-8.507424062763014661e+00 -7.176462523105537894e-01 1.852919778612168145e+01
-5.682342156353187512e+00 2.944519071898366036e+00 1.935117539813502319e+01
-7.682614861335179235e+00 1.276669072585066012e+00 1.945795170594273671e+01
-6.180801991511385651e+00 1.934060331842910152e+00 1.973120131458259507e+01
-8.064929288410720432e+00 -2.024113126968986265e+00 1.816918908530282195e+01
-5.128876124233233469e+00 -3.679804377047401154e+00 1.850756818642657819e+01
-2.296932872530366154e+00 3.772551665046655067e+00 1.653803022297054426e+01
-2.297159925756752763e+00 -2.172579033701598661e+00 1.928177767344621785e+01
-1.137802572811065893e+00 1.229919666247877297e+00 1.470838534616510529e+01
-4.724712220733956691e+00 -3.708669210604171873e+00 1.832307230303099388e+01
-3.921257834580094581e+00 3.575562494018616810e+00 1.430913364193526505e+01
-6.281502551407691648e+00 1.845704646687975181e+00 1.345637893781817596e+01
-8.459148621808740387e+00 -8.716238598787944269e-01 1.877259958108379934e+01
-7.373652719458900329e+00 2.026634876524788353e+00 1.936170213765948134e+01
-6.952728266955590541e+00 4.716234041790283160e-01 1.573920578215663468e+01
-8.062786974176891164e+00 -7.550921933637393391e-01 1.978011022538287378e+01
-2.193890206162620871e-01 -4.191371325613548748e-01 1.648686408390920732e+01
-8.238135288613172236e+00 -5.538865707853151132e-01 1.688782872063940133e+01
-7.256010815974202721e+00 -2.832632145207345964e+00 2.035949484030405543e+01
-2.193273898134000088e+00 1.449449712953597924e+00 1.886778560623035972e+01
-2.430930808799034448e+00 -2.120610385401788811e+00 1.933569123060307859e+01
-5.761081507496754739e+00 -3.985334752283014481e+00 1.949807821485756776e+01
-7.153439769033369977e+00 3.693534054180416248e+00 1.768990571530303768e+01
-4.656311173870528730e-01 1.637877878943929666e+00 1.692077395287413921e+01
-3.215190711675965929e+00 -3.147267931653571438e+00 1.953397447279806798e+01
-7.507032722341610231e+00 3.065245863180939168e+00 1.724952439552718531e+01
-1.949183919709465140e-01 -2.429865203783513339e-01 1.666476494803032793e+01
-1.499192469881918122e+00 -2.286515934460342514e+00 1.594842502664370798e+01
-9.178530271924252304e-01 -1.894807605573240350e+00 1.864859059971102440e+01
-2.799029101383941676e+00 -4.132469563936961521e+00 1.785860130057328021e+01
-4.066147553802519354e+00 2.881814501313844978e+00 1.249796405697231805e+01
-1.711000624331934006e+00 -1.740644973587196498e-01 1.449273401532294869e+01
-1.326254905034537135e+00 -2.340712038698686825e+00 1.889275780743149014e+01
-5.538661849571117735e+00 -3.263569758355922001e-02 1.659052566964843933e+01
-8.356687607903758419e+00 -9.813589463613225927e-02 1.673916222718019853e+01
-1.730994907192689780e+00 1.803962986283199843e+00 1.433741998402059536e+01
-7.840079169439342799e+00 -3.468709104371617835e-01 1.999326423021435417e+01
-1.207933497618894680e+00 1.933617848376024906e+00 1.556260341298004235e+01
-3.250253013307121464e+00 1.081846103587572383e+00 1.940206105339163756e+01
-4.608811262890912808e+00 2.618688832697148250e+00 1.941284105920363245e+01
-2.697359138814812152e+00 -3.547928258841242410e+00 1.922920272977138367e+01
-5.134736272798503087e+00 4.077980127779428088e+00 1.554204534956526729e+01
-7.440510670106001534e+00 2.918555788926937566e+00 1.867704937829200773e+01
-2.685120555802057218e+00 -3.208678800082947369e+00 1.725952510755897507e+01
-6.221169589184857962e+00 -2.778423014330633656e+00 2.041666820223158751e+01
-5.749235538432999171e+00 4.456146388605890962e+00 1.693197079715365660e+01
-7.574862916555276549e+00 3.112367647714469499e+00 1.746773007581711212e+01
-5.519540272748242327e-01 9.580955973497345957e-02 1.788826099185456897e+01
-5.233713301773770254e+00 2.794019284567005990e+00 1.167827534885431717e+01
-2.326724316667108994e+00 -8.383666615116436294e-01 1.519603511697607345e+01
-8.207302179214675419e+00 2.145417772541784451e+00 1.698838695090468676e+01
-7.414383741648339132e+00 -1.199375898195170098e+00 1.714924699958991638e+01
-1.963121382113172775e+00 -1.747271835264959217e+00 1.916613811421542479e+01
-6.750562156842899064e+00 -3.481119102773356566e+00 1.933919741538977277e+01
-4.445543999379106825e-01 -1.262578182933345339e+00 1.618491414251588978e+01
-9.938403304338387922e-01 -1.110885989668612739e+00 1.859448210527238743e+01
-4.925498526930681464e+00 3.033874882322085131e-02 1.625407289767160179e+01
-4.494124693089617040e+00 -9.822890317890742296e-01 1.706047278667031364e+01
-5.002140906673497867e+00 2.075826526519410464e+00 1.958043458312822693e+01
-4.766370383201941507e+00 4.399773715143291852e+00 1.629508561952135537e+01
-6.387713681637017693e+00 3.881505787074178038e+00 1.886243412903774797e+01
-4.745424153718908578e+00 -1.835583998342444678e+00 1.761276742389921779e+01
-4.723473111087425735e+00 -3.797673034090875976e-01 1.666462685386383313e+01
-6.220305358752227232e-01 -2.488243376547075947e+00 1.839312904790122261e+01
-3.983210848816555405e+00 4.852147603123836639e+00 1.739957443435832474e+01
-6.269249147952177026e+00 2.960848438935244076e+00 1.427626360552134699e+01
-3.157309528941383281e-01 -1.838187569804066390e+00 1.742081907731891377e+01
-6.179431577566345979e+00 2.869942232940722593e-01 1.620701773909630461e+01
-6.306519220169439777e+00 1.543117940572489966e+00 1.396493793409662132e+01
-5.316073809817402740e+00 1.961351395879556980e-02 1.644863292129517518e+01
-3.382599144858203566e+00 -3.935307724778954075e+00 1.929238644670779834e+01
-6.574788376389389732e+00 -2.111453995670639294e+00 1.831868209320087360e+01
-6.743374645950123814e+00 -3.375169307683511200e+00 1.922107620944839468e+01
-7.271585421110395409e+00 -5.595313818302976028e-01 1.666863142391242647e+01
-5.011860384711707361e+00 5.065374229614620027e+00 1.850943525802552259e+01
-2.633030478916510653e+00 3.077943900057394266e+00 1.864981085494563118e+01
-2.476791157329960136e+00 -7.722741337910195014e-01 1.523751189884137958e+01
-6.740496547562779384e+00 2.010472502434968778e+00 1.363758351355991394e+01
-2.050693063806011907e+00 1.250693702154030973e+00 1.344324536646270118e+01
-6.801709654482934297e+00 1.345100068903230639e+00 1.990215726801661944e+01
-8.265533533819972689e+00 1.006674854502666028e+00 1.601513790354963973e+01
-8.042028666271249904e+00 -2.393375328983431416e+00 1.888790649356036155e+01
-2.910722896188957076e+00 1.124061404375333639e+00 1.333968544097643516e+01
-3.987481007855738113e+00 -3.146207327244510132e-01 1.987032997585190586e+01
-3.509071324928975777e+00 -3.050709491806129492e+00 1.759800261309110780e+01
-1.960340226084209547e+00 9.319022530432143903e-01 1.371983060371438157e+01
-3.983731784931376474e+00 2.882495040689037502e+00 1.922949833709985867e+01
-4.537620717770417755e+00 4.053569977033139260e+00 1.548328901881117403e+01
-4.529276602363583315e+00 9.398836177690093052e-01 1.442169202567947295e+01
-3.443913268410763173e+00 4.645301276079157327e-01 1.955300149541572452e+01
-7.977000973749913904e+00 -7.797120616725692344e-01 1.991716563209388013e+01
-6.526551572119228872e+00 -1.738007716589263341e+00 1.807728484191646956e+01
-2.585913949302289350e+00 -1.323117085256665826e+00 1.941449077379632726e+01
-1.348882412287970567e+00 9.195407504535124676e-01 1.414003436272811243e+01
-2.399620435712281008e+00 2.227577140166422609e+00 1.883395104284918276e+01
-3.154072188929770704e+00 -1.435418016209733194e+00 1.662186743667467326e+01
-6.773467531225390026e+00 3.550545689617709222e+00 1.646476531266523935e+01
-7.391130712008185277e+00 -3.690225794404879966e-01 2.032555095183316141e+01
-8.468685427288896506e+00 2.722662740672892046e-01 1.677689636663845718e+01
-8.254402383359106921e+00 1.299173701539897863e+00 1.603354031436916571e+01
-7.221193214720071474e+00 3.710987000134366554e+00 1.787301070016934901e+01
-7.099279544251158036e+00 3.268738266007731319e+00 1.670059512462373519e+01
-7.911670132732022687e+00 2.127736347530377436e+00 1.642650986135593527e+01
-3.419033018850588412e+00 4.618814465869733321e-01 1.453557552407189846e+01
-5.502863291589211059e+00 3.059060369699770021e+00 1.327202612849751162e+01
-7.467088538603147363e+00 1.375733766352062126e+00 1.502801164415985014e+01
-6.426065193612110704e+00 2.921601435052181728e+00 1.933726596483227311e+01
-8.255167876761355217e+00 -1.426507665235027256e-01 1.914083334640835332e+01
-2.621961893391494769e+00 4.264590483061347470e+00 1.830191419327136870e+01
-3.593141493804425934e+00 2.455471576375257925e+00 1.927811880456900795e+01
-2.993721794854848905e+00 -3.510571084186487667e+00 1.934823313108121923e+01
-5.324612737407069751e+00 -6.443001862665920232e-02 1.656603755685950219e+01
-7.456469234069843743e+00 -2.055216266471286524e+00 1.817271105279883514e+01
-1.683538317700997489e+00 2.124906878756978923e+00 1.841541707880466205e+01
-3.255761606520046314e+00 1.904252940970263985e+00 1.250962118975932569e+01
-6.391155683172805801e+00 2.245119853480522232e-01 1.625755575892978655e+01
-7.942273081591005202e+00 -1.240042800025782377e+00 1.715129168543387905e+01
-1.375342115144998267e+00 5.780191825427455354e-02 1.452765255288857915e+01
-6.120524669873800505e+00 4.036574326215217057e-01 1.602904734868338110e+01
-6.188121947878921780e+00 2.331501837596140270e+00 1.254111055859457124e+01
-8.282751912959284368e+00 2.016454692454514142e+00 1.753423148289359901e+01
-3.576497175124371708e+00 4.720994715111526574e+00 1.851012266032950393e+01
-6.922666202400018953e+00 3.158506336717793239e+00 1.604959141576325621e+01
-1.344386782727498897e+00 1.573072817821567160e+00 1.474997839744297679e+01
-3.799219459527964027e+00 5.064022533055752895e+00 1.799172573236766581e+01
-2.801467197331565018e+00 3.517390803814867795e+00 1.535800639850729610e+01
-3.741299566780190489e+00 -3.582833599081260090e+00 1.960333812722695868e+01
-5.994118983615628338e+00 2.415567884767748641e+00 1.956396563110379461e+01
-4.003008993060974241e+00 5.143897771911735362e+00 1.815191717481837586e+01
-7.119639794750215245e+00 3.845514452354876767e+00 1.791970048809153937e+01
-5.337432132880538305e+00 -3.509661259014380974e+00 1.850542057291361786e+01
-8.259299195109445435e+00 1.147981898981395688e+00 1.598405146993068016e+01
-5.427843840206942438e+00 -1.170072315864495893e+00 2.028511751389325823e+01
-5.599138680798833256e+00 -1.346901143386058486e+00 2.034245571274173514e+01
-5.610139995225012832e+00 -1.138813570223765614e+00 2.032185924295141533e+01
-6.968463023617617935e+00 -1.585187502706386420e+00 1.785925621668672747e+01
-2.789077005497282880e+00 4.741524028011665060e+00 1.816685312754779957e+01
-6.573271879512109450e+00 -3.544472808187018487e+00 1.928644591887375626e+01
-7.751068385572771113e+00 -2.173940672177630873e+00 2.022382629854307012e+01
-3.001031421353276940e+00 -1.718482504479011963e+00 1.960836971593922939e+01
-6.099106139838244012e-01 -2.439939035029281555e+00 1.647034182137075575e+01
-2.095189143095011808e+00 9.806703667702654226e-01 1.361412083656079020e+01
-5.195494820334450203e+00 4.098161095395794762e-01 1.994583716716801192e+01
-7.537786406135967177e+00 9.872564036569585477e-01 1.973964911774463715e+01
-5.195839602193678353e+00 6.718734276838765895e-01 1.988264379971674956e+01
-3.578673132756335029e+00 5.048760756159226482e+00 1.816065250677010212e+01
-3.470773340211153801e+00 -4.045296632928797820e+00 1.924543256489469556e+01
-3.390789398457713766e+00 5.024546627200657589e+00 1.833347919247748692e+01
-6.332510093228174597e+00 -4.090589953783241306e-01 1.702927114211819415e+01
-3.374963036251614312e+00 3.871568206233302334e+00 1.871225091380344097e+01
-3.404880054675991197e+00 4.862932511347320741e+00 1.840029280371846809e+01
-2.001074649692386576e+00 8.833346370495387401e-01 1.883973738272739595e+01
-6.970045278905498964e-01 -2.117047684200228375e+00 1.848810609187156118e+01
-5.256926572499099670e+00 1.296655923383208897e+00 1.389638403886698725e+01
-6.845223712319152831e-01 -2.698652862378159156e-01 1.815114365817769126e+01
-1.897569898186953097e+00 -3.971506537052613695e+00 1.880206862679861857e+01
-5.943724465300312509e+00 2.486420709506568016e+00 1.262533497575480013e+01
-3.693060086593731306e+00 8.507443241456322802e-01 1.404087671561642381e+01
-6.025208292702635582e+00 1.507318538045581580e+00 1.389158341992375867e+01
-2.919189033786456999e+00 -2.432643459476890868e+00 1.701589357213806508e+01
-1.919506704704646349e+00 -1.035427791478915172e+00 1.518104330530698931e+01
-2.168842689725058115e+00 -4.421244528343445390e-01 1.478390139738126763e+01
-4.805452262568177701e+00 4.095589524249111157e+00 1.890423743876001694e+01
-2.476878393440500314e-01 -1.077521598222598298e-01 1.720284097856648131e+01
-2.699837755169392395e+00 -6.670734647523768324e-01 1.537428302452518736e+01
-7.612210160156640093e+00 -1.615516206302296531e-01 2.014192264545053135e+01
-8.426360098401413978e+00 -7.225492679249534422e-01 1.749887916762972750e+01
-4.584819071889560504e+00 -4.202002933507547056e+00 1.929616630154326273e+01
-5.857487639908513621e+00 1.289682238653873103e+00 1.426049981394884369e+01
-3.432975867333879272e+00 2.904599697279674153e+00 1.326165929275891031e+01
-5.554253047958250811e+00 1.322029499840042366e+00 1.399320442996176794e+01
-3.768606381493876611e+00 -7.351938740491643642e-01 1.651546846148313463e+01
-6.603252474617330670e+00 2.878093913214333277e+00 1.477075491696465193e+01
-7.147580746503898297e+00 3.220806933071541422e+00 1.877245821160711969e+01
-5.904515007701278684e+00 1.403080487062431603e+00 1.404349385564600183e+01
-5.708284005873774269e+00 1.265716716655339802e+00 1.421982957243983847e+01
-4.381884356644293987e+00 2.884305989583161312e-01 1.557322217270143128e+01
-8.360756043639707258e+00 -3.403177332551940992e-01 1.891933242476693167e+01
-8.182714827583218664e+00 2.294352467694349862e+00 1.721230114062941041e+01
-8.376477691018259009e+00 -5.372939080956717905e-01 1.894655939931710620e+01
-7.533978005826651447e+00 -9.255465132547180396e-01 1.689305476942665862e+01
-1.163348201690587835e+00 -3.242750967803845086e+00 1.662413424999438760e+01
-8.117260744662446736e-01 -1.055881581335127439e-01 1.826126353669319613e+01
-9.826153822918770597e-01 -1.080331679827202240e-01 1.842112595469810898e+01
-6.946215092385658707e+00 -1.796934342482486402e+00 1.807059813002586068e+01
-5.991975797652503211e+00 -1.935201480387845896e+00 2.046995392032170358e+01
-5.330090039747580555e+00 2.746906969377359786e+00 1.240189858910288123e+01
-6.023828734248910521e+00 -2.214934390592813607e+00 2.046990752683663928e+01
-8.494735161472849683e+00 3.368750553819663818e-01 1.735517858036350347e+01
-5.784328928225230371e+00 4.957185631038003137e+00 1.812930802025321597e+01
-6.688090222536598795e+00 9.129039612575255980e-01 1.517724862177597700e+01
-3.147287882223878341e+00 4.762775700903978837e+00 1.755305280089364217e+01
-1.818746136585449147e+00 -4.416171382309356908e+00 1.799894017697395654e+01
-6.479465390619809639e+00 4.300842214845288503e+00 1.858062976277810563e+01
-6.149217492285163011e+00 4.447788787931462373e+00 1.734734137250235975e+01
-3.563987577812818941e+00 -2.928430818781926348e+00 1.972020979720410239e+01
-1.346787723620505250e+00 -2.908633550941724266e+00 1.885042409693622645e+01
-1.312055163192398677e+00 -2.732554161548335969e+00 1.885673847465743691e+01
-1.875543861845230253e+00 2.630135111047191110e+00 1.532638900309675378e+01
-6.435440174959040860e+00 6.868553434810076297e-01 1.556208147548437282e+01
-3.307327843378184973e+00 -1.228677631873810627e+00 1.659553814909840597e+01
-3.371703669696630712e+00 -1.338602164474883560e+00 1.671899315154297128e+01
-1.724404449052913346e+00 -8.315759159058495609e-01 1.497941644712084397e+01
-5.511173136458566546e+00 1.031475644021669469e+00 1.462033831414592910e+01
-6.224478322181044021e-01 -8.780810844923094827e-01 1.821707002170491663e+01
-4.634235400284500095e+00 8.665639136111307206e-01 1.976587967790669254e+01
-7.362686921698622378e-01 -2.028723082249740628e+00 1.603575619879502412e+01
-7.420490144958175271e+00 -3.001507108545894198e+00 2.015727732373290948e+01
-1.692631146972751743e-01 1.738727307409236866e-01 1.628518458740812136e+01
-6.429948835198931789e+00 2.341578962092875305e+00 1.331049032191329573e+01
-1.678441093731181777e+00 -4.372545740985926521e+00 1.788436046205857011e+01
-6.197051619758316754e+00 -3.711343827360824577e+00 1.999916378948784157e+01
-4.616490511833302612e+00 1.883974009590166698e+00 1.959368598315935017e+01
-3.583019449710890925e+00 4.937802237207684186e+00 1.842751315455430827e+01
-1.308401455283216830e+00 -2.296206256054555084e+00 1.592288816033890342e+01
-3.449628918780702769e+00 -3.677994487407076463e+00 1.945521514477288960e+01
-1.354977087788383994e+00 4.699180883419963872e-01 1.435689714495020652e+01
-3.148919238194827663e+00 -1.221254285051391442e+00 1.646043229015723242e+01
-1.073828853679215323e+00 3.599311322713283912e-01 1.463372487321226956e+01
-4.419194682321894163e+00 -3.891827329194592622e+00 1.963859981543192035e+01
-5.497360052565883670e+00 2.883836034830359552e+00 1.288490127598099733e+01
-4.933708336170831821e+00 4.802148015793733293e+00 1.864666943865756465e+01
-7.730002821992560946e+00 -1.434373199688061096e+00 2.025229828575321633e+01
-1.492892035909901605e+00 -1.584615417327677411e+00 1.545742307629097567e+01
-6.164989950094013071e-01 -2.277901737245355385e+00 1.839571037900600814e+01
-7.219720315674268640e+00 2.458935178521465481e+00 1.543736342860664834e+01
-4.780093764479186547e+00 -4.204235027120490464e+00 1.908190658240975424e+01
-7.870838992685663449e+00 -2.788779447244209564e+00 1.971637308144019229e+01
-4.976339062524719026e+00 -4.172079695940397848e+00 1.929178834123465336e+01
-6.305996138522749206e-01 -1.699156701994048335e+00 1.838439398161639460e+01
-5.203953391376510140e-01 -1.693972972680400924e+00 1.824177901024267712e+01
-6.196024042900846851e+00 6.463529689547069523e-01 1.563868703762581092e+01
-2.634550509754245873e+00 1.872872722166872395e+00 1.287774239084706451e+01
-7.484903328916511889e+00 -2.341844139148549608e+00 2.037961934281551279e+01
-8.080053462247168028e+00 -1.617210873554956185e+00 1.757493725809821328e+01
-1.892929148074001144e+00 3.827839212961090531e+00 1.728307855863701903e+01
-7.943981075373195644e+00 -1.631853969497330192e+00 1.753331797978913542e+01
-7.678237152066967219e+00 -7.271904490902874052e-01 2.021777357158804378e+01
-2.373324114496284665e-01 -5.812517342524787800e-01 1.688187502218459102e+01
-6.794469339497812399e+00 -3.062290482510619860e+00 2.036715624036122207e+01
-6.786390021402028516e+00 4.101723167874824050e+00 1.767003370848246036e+01
-3.415758593035114643e+00 9.014007482228687529e-01 1.948520490015316042e+01
-2.723986521984954390e+00 2.292266778832504848e+00 1.899379762349945722e+01
-4.901137345307105875e+00 -1.050132476947510440e+00 1.727675651148145519e+01
-2.589779907485754151e-01 -8.496979287717647544e-01 1.708257266145630027e+01
-1.417557105367341475e+00 -7.298434124324300054e-01 1.878870044322778554e+01
-4.911149528844700463e+00 3.768998782527996916e+00 1.474044372565540684e+01
-5.122206581428096150e+00 4.270384183849492921e+00 1.601169849212586982e+01
-4.975701301334242821e+00 3.081882325545551637e+00 1.926433797584627072e+01
-7.662442053539527897e+00 2.312205688099254086e+00 1.886921739045358137e+01
-2.929750568725741466e+00 -3.637997825508462846e+00 1.758647993202594151e+01
-1.742468146903053849e+00 2.593510279890176129e+00 1.553531586708370682e+01
-2.637512180248788862e+00 3.677985698811024662e+00 1.846883096060883034e+01
-7.227013320724570811e+00 6.752164453112282638e-01 2.005071827693863540e+01
-1.538643028699133719e-01 9.365919237804660735e-01 1.692088295988662949e+01
-6.396805366930269798e+00 -2.809024436564379279e+00 2.043034384953680771e+01
-2.962822242659032934e+00 -3.199694650003565677e+00 1.740785424947278770e+01
-8.388094219103557236e+00 4.869690075773088211e-01 1.835281476034325365e+01
-2.798916723293996434e+00 -8.668770903141231887e-02 1.475039720742642757e+01
-7.763047424314017952e+00 1.236966703572272230e+00 1.937460471057424272e+01
-2.262527454107710501e+00 -2.411807396591912678e+00 1.639270708684268030e+01
-6.162555732578481660e+00 -3.092572298210559012e+00 1.869883755203964526e+01
-7.851772844344607982e+00 1.280876705044754260e+00 1.921687637145892680e+01
-4.559155103785495378e+00 5.046249683791909746e+00 1.778029440337795464e+01
-6.048018164373425876e+00 2.110006394302065047e+00 1.284806888241943668e+01
-7.136124364940550358e-01 -3.536077471120146143e+00 1.802044085772885396e+01
-4.415646674063062882e-01 5.539172380003354323e-01 1.766079498556480232e+01
-2.795389269255530440e-01 1.419699079602517733e-01 1.732455997302158934e+01
-3.316478376635942027e+00 -1.044684166363132327e+00 1.646917601700348044e+01
-4.814794939103761440e-01 1.087414424462458395e-01 1.776276722365561866e+01
-3.543428765644736078e-01 1.457965889332810683e-01 1.750222818483446119e+01
-5.290860239851661539e+00 1.374261525133791739e+00 1.375709473835575736e+01
-4.832482172341391546e+00 1.454265140482815077e+00 1.967997798406434740e+01
-3.624561947154075980e+00 2.728377355608795907e-01 1.506375980937192693e+01
-3.591010661021356576e+00 -4.076027146388890188e+00 1.925353676540885672e+01
-4.618926617796814682e-01 -1.046452675207263372e+00 1.601387531610783199e+01
-6.535382116333313007e+00 9.920521736271450397e-01 1.504436050112193257e+01
-6.737745608531064079e+00 1.139750964226202701e+00 1.480986697365910132e+01
-6.703782095829745380e+00 1.072915012281403957e+00 1.490069341895310728e+01
-2.768465520047783457e+00 -4.421813477251436808e+00 1.853185311370522115e+01
-1.874525554489840928e+00 -1.443983021318536730e-01 1.445736406430313181e+01
-3.755586636866486749e+00 -3.979501464217729101e+00 1.938134086899372122e+01
-6.897123653561011203e+00 1.450895528367346810e+00 1.440568427466552137e+01
-3.159836938790170358e+00 4.718476062644509028e+00 1.836978152519491303e+01
-2.964789287838689447e+00 4.470351042004619302e+00 1.838790443755997828e+01
-3.092535424341901873e+00 4.534699224201104606e+00 1.841907549553585355e+01
-5.739918461620366230e+00 -1.482000442193731393e+00 1.779238822961094613e+01
-8.169022375662924329e-01 2.121071493648455153e+00 1.773356505237130065e+01
-2.890842322827668287e+00 -4.398290663052065064e+00 1.838315373906488404e+01
-1.094430632939569659e+00 -3.775225238672811123e+00 1.845569837072187269e+01
-2.746300504363050621e-01 -1.069096970220443588e+00 1.706406981323906891e+01
-2.085145247519190725e+00 4.179985888318340059e+00 1.804789557577951697e+01
-4.320725753492318688e+00 4.332471374907376216e+00 1.614819528524791181e+01
-1.634515959534976748e-01 9.877459444076356343e-01 1.654268800618324420e+01
-2.439911801870631169e-01 -6.618654922163826893e-01 1.684103856372694352e+01
-2.179265659532421129e-01 1.109538883162457079e+00 1.653227481912360375e+01
-2.202640917995363434e+00 -1.943494258553832621e+00 1.925883409434758065e+01
-7.374258090251267994e+00 -1.978192145639077859e+00 1.809726994852640658e+01
-7.854360422348526605e+00 -2.637994032506635556e+00 1.993876028091367303e+01
-2.944306158046351207e+00 6.168784396010567050e-01 1.399975340141277869e+01
-5.547041086880545535e+00 5.047729290341453456e+00 1.829128304515721126e+01
-5.318277211565349383e+00 2.004199275124826762e+00 1.260834328183774389e+01
-4.223064787966363198e+00 5.210582911889995117e+00 1.818699759904096780e+01
-2.147780896726533051e+00 -2.230522830201676854e+00 1.616114861257092272e+01
-6.110100661024685742e+00 -7.041599088689463048e-01 1.731327018426838649e+01
-1.594798369116744663e+00 -3.158235958703835555e-01 1.881196585325078630e+01
-1.378985980711901149e+00 7.104534138375062646e-01 1.855464389078843013e+01
-1.381108759443776979e+00 9.034215967286117754e-01 1.852320473229554310e+01
-6.335917774683915482e+00 -3.679277281513569697e+00 1.927871775281336042e+01
-4.062810654363715024e+00 1.286399606389148964e+00 1.348422348881406307e+01
-6.155672181427185308e-01 4.951430410589479636e-01 1.792971485014361477e+01
-1.423603210465788305e+00 2.725198112090886582e+00 1.796724527782837910e+01
-2.451709116464513283e-01 -2.300992538934362175e-01 1.606964125433358603e+01
-2.509351236818375686e-01 -4.841189515076094185e-01 1.624501107402421596e+01
-8.474994269015692083e+00 5.682521629502517158e-01 1.660926960332238522e+01
-4.609357940321257452e+00 -4.201014667461152818e+00 1.887186033211017744e+01
-6.161363696778207277e+00 3.780544832956306500e+00 1.588164145945964734e+01
-7.974926376434836151e+00 2.705291617303841711e+00 1.742789819904465887e+01
-5.584813260781352540e+00 -2.165873937155521567e+00 2.036597191222234571e+01
-5.748598786262595794e+00 -1.299357989154549475e+00 1.769505492947836345e+01
-5.978372328016127391e+00 -1.065829595358198212e+00 1.758603154846815997e+01
-2.738418290028034274e+00 4.389226169890753759e+00 1.713006657848894676e+01
-5.017039488311775486e+00 -1.164211575258291109e+00 2.020403942570401412e+01
-5.367517138534619647e+00 4.882495025420570123e+00 1.856030205726807836e+01
-4.472794758380369551e+00 1.774447558227069566e+00 1.278334865588145774e+01
-2.483840985967995518e-01 1.276912489977469090e+00 1.694599957359554665e+01
-5.237863472689748612e+00 6.798891628433083589e-01 1.522937714205746929e+01
-2.266606280627272429e+00 2.066871514092766815e-01 1.420630327906028256e+01
-5.140987077348994738e+00 8.528151543013985370e-01 1.481245577866765117e+01
-6.048111678860763618e+00 1.269146122044404912e+00 1.439902161013059256e+01
-1.732705239311967738e+00 3.559967482671790862e+00 1.713853922396500806e+01
-6.307403091365763714e+00 9.991899322108942494e-01 1.500997232102202972e+01
-6.294561776079832249e+00 1.193925216204860140e+00 1.463032484288031654e+01
-2.783013443567534217e+00 4.746813112504690846e-01 1.926612662990394753e+01
-7.804539536602933758e+00 -1.822193687469739087e+00 1.776607874653358365e+01
-8.460809104756823018e+00 5.504318471379251454e-01 1.779932932416470592e+01
-5.569149415058145536e+00 4.989250397718090202e-01 1.574313427743091509e+01
-4.054521025122466149e+00 3.217811809163933390e+00 1.910493654096871907e+01
-1.079070978473013920e+00 -1.691505698467812513e+00 1.873105727881143068e+01
-4.037209554593514049e+00 3.399008386357247780e+00 1.902894634481667779e+01
-1.085875414288433038e+00 2.823656459045134959e+00 1.733451819237352609e+01
-4.884819879242217944e+00 2.850280364661816002e+00 1.226269081821007845e+01
-7.866001572283887633e+00 1.500285442149421833e+00 1.562048057065463880e+01
-4.215226953377685604e+00 3.123654045582944683e+00 1.917449638280919189e+01
-2.644798228966861231e+00 2.376361484901676757e-01 1.432134580979053951e+01
-6.775222296328155203e+00 2.238274458269049028e+00 1.956667884699971083e+01
-4.143586135256708047e+00 -1.436792022155883197e+00 1.718066345927956817e+01
-8.485215192894393965e+00 -1.218976820933582950e+00 1.800690005090612189e+01
-2.599865018197288880e+00 4.448642611526032020e+00 1.740537727164527482e+01
-8.471366045760081676e+00 -9.372496307840330054e-01 1.774581230472059801e+01
-4.673650718997462761e+00 1.729617821311392634e+00 1.290233323815634847e+01
-7.122440870372541255e+00 8.184095783464434559e-02 1.610927859802126605e+01
-6.923055426246360611e+00 1.245338169423909069e-01 1.616334162407414610e+01
-2.919454902586454015e+00 -2.855485253526082623e+00 1.723022303618782658e+01
-4.145276923743988817e+00 1.132723610654534196e+00 1.381013991892109161e+01
-7.330205496068596283e+00 3.287256713480743997e+00 1.728734043905271633e+01
-8.126231224791425234e+00 -7.574925181219691606e-01 1.965712314798543403e+01
-2.681313632686276094e+00 3.844411195156394179e+00 1.615248354190676494e+01
-9.707647668355161574e-01 2.131850877560097501e+00 1.788700005965506890e+01
-4.619294229507732830e+00 2.518978641086457415e+00 1.944737422046025799e+01
-8.333803026492325738e-01 -3.440422481432725554e+00 1.836079645874962907e+01
-1.305610730774486861e+00 -4.188743183619571653e+00 1.755919246030501668e+01
-1.065294814935382917e+00 -4.176391184601363271e+00 1.803411558457195341e+01
-8.377235394833913773e+00 1.269089395318039326e+00 1.776731699268012576e+01
-9.580346223699853780e-01 1.495502435390642315e+00 1.812565367050489940e+01
-6.404309683494231464e+00 4.086400206684340120e+00 1.874418040201853231e+01
-3.937924431957743998e+00 -4.208732793147987650e+00 1.919892630677227530e+01
-4.386928315103575393e+00 1.336392368782991280e+00 1.355636516337302666e+01
-3.987424923263585441e+00 -4.125275698375161504e+00 1.931208559981022788e+01
-8.406855115580491145e+00 1.718366984180704105e+00 1.717206079723809253e+01
-8.408816739036804933e+00 1.501636877533412795e+00 1.738204564925982609e+01
-2.246489671395247356e+00 -1.187010272940094424e+00 1.544804308368217605e+01
-2.641392321053285031e+00 2.024855380695426366e+00 1.901762502772054475e+01
-9.415583157829030547e-01 -3.016841529813394374e+00 1.644751352887697138e+01
-2.967750012380920843e+00 -4.363590235572024412e+00 1.830751732563349421e+01
-2.820420282106146370e+00 1.849445172163630247e+00 1.913608019731022480e+01
-8.452444774661756810e+00 2.967188728549650101e-01 1.815106511032250936e+01
-2.133999674461140916e+00 -3.520762463426642341e+00 1.903992553510721208e+01
-3.563327912538142073e+00 -7.640387389202012436e-01 1.978721664581950179e+01
-1.906077704260174421e+00 2.795148377326281519e+00 1.553460080452022041e+01
-5.699655592755621392e-01 -1.837512096921950056e+00 1.623572861923613786e+01
-2.152567519798293194e+00 2.198843915875406285e+00 1.412324169828778153e+01
-3.774064791080127712e+00 3.924862517787964578e+00 1.880131014171371717e+01
-3.804219441640776189e+00 3.693511898285612105e+00 1.887727456704901741e+01
-2.382948026655169915e+00 -1.639396054641763412e+00 1.594647688994653478e+01
-8.463247342415513685e+00 -1.370969256862588193e+00 1.805393330615828873e+01
-1.761584222331837868e+00 -4.191209214793945925e+00 1.762908335370785196e+01
-1.742221105069249543e+00 -5.112145505590639516e-01 1.891610664334126923e+01
-8.242283768850744430e-01 -7.132272780892527919e-01 1.839060879489430178e+01
-6.799603117098290461e+00 7.474897828431015245e-02 1.628675098683561018e+01
-5.843196813725427319e+00 -1.592767765757750142e+00 1.787719008712773316e+01
-6.000486513524194265e+00 2.827531143546474723e+00 1.940564530426675915e+01
-6.886450444035281393e+00 1.271608349756085499e+00 1.464094837524664783e+01
-3.030822690659560337e+00 -1.272839872182506493e+00 1.639405533052275743e+01
-7.349212530923387554e+00 3.460278131188203155e+00 1.823462007920230477e+01
-1.752745085011469417e+00 -3.996329503549363338e+00 1.738615955282885395e+01
-5.069562220132433072e-01 -1.069859126990555520e+00 1.811214079902159924e+01
-1.915045570136163278e+00 -3.985460354789660542e+00 1.741293666411556629e+01
-3.089043902087011961e-01 1.347839210876007776e+00 1.710624350945221650e+01
-2.973298751569769305e+00 -8.615524104005702899e-01 1.596236321540218128e+01
-3.324654604194512864e+00 -1.856690282789758006e+00 1.698594369140070981e+01
-3.373542049881805838e+00 -2.052309035112362956e+00 1.711744019954622686e+01
-3.306002486582478639e+00 -1.494397622468931930e+00 1.676650398319212698e+01
-3.119297251414672623e+00 2.432246087798624501e+00 1.294698062793289139e+01
-3.350307624357800051e+00 -1.714242542764750743e+00 1.692475900408409117e+01
-1.539872362112700177e+00 -1.664667314498223805e+00 1.897934771612488092e+01
-9.574912929883880874e-01 -3.761460605799524792e+00 1.706955147610712586e+01
-1.758264915515973303e+00 -1.880507267495820978e+00 1.908441519303640277e+01
-2.373988982965234751e+00 -4.150258666585155076e+00 1.772035445974117707e+01
-3.633691040081930002e-01 -2.073966337672433546e+00 1.721873812590855479e+01
-2.188984769040045464e+00 -4.151864688967634720e+00 1.766818064933161381e+01
-1.140034361163904109e+00 1.958130697288964495e+00 1.573718577690096154e+01
-7.617997204347653373e+00 -1.819068551348432150e+00 1.779457122453257867e+01
-6.443827383811690623e+00 3.298955856135760811e+00 1.529936148848299737e+01
-7.605497012521644784e+00 -2.791774168525570587e+00 2.011334979997556260e+01
-4.316552852540683993e+00 -6.091835568949126589e-01 1.668584287544054590e+01
-7.727682007499399042e+00 1.015961180439313161e+00 1.953859943262345311e+01
-7.853761687839631911e+00 2.164363161649038858e+00 1.865475978812088798e+01
-2.400395847639690050e+00 -2.122680257075118426e+00 1.633080274528068188e+01
-8.341755871151974588e+00 1.691552438578027839e+00 1.759805774829328229e+01
-1.643764186037392605e+00 -4.042619635570531500e+00 1.867261453695850904e+01
-7.510289282198431060e+00 2.440953218953061388e+00 1.897951501572194033e+01
-1.569430410981715873e+00 -2.130503579718355134e+00 1.900500877973273006e+01
-6.946683026839371777e+00 -1.981302380190073764e+00 1.823409599922677060e+01
-1.473411135711481190e+00 2.626954676232262642e+00 1.611817273286870389e+01
-6.793052648512140301e+00 -1.995458567968041441e+00 2.059116388416573429e+01
-6.441084314694964341e+00 2.910956274522171761e+00 1.450057095179163369e+01
-6.753401084004572397e+00 2.427518391054547031e+00 1.422356438901846687e+01
-8.481218436555899132e+00 9.335233124635646806e-01 1.653438174118496207e+01
-1.828779931744418441e+00 2.889087917689654006e+00 1.582885063030235173e+01
-6.819052644973497834e+00 4.413813989133983373e-01 2.020374052589241742e+01
-3.289401945374279101e+00 -3.812710163433295385e+00 1.781070719601990859e+01
-8.529160155231412688e+00 7.262717428739789982e-01 1.676625532782010808e+01
-4.661443602900381400e+00 2.888549940623450496e+00 1.228366114878053494e+01
-6.741410684854166391e+00 6.136021148451353824e-01 1.561318592437483588e+01
-7.043438934394649742e+00 2.668210090121956313e+00 1.922833180287468835e+01
-4.747966529765301757e+00 -2.280928059070852498e+00 1.780164198397800490e+01
-2.045712589480240151e+00 7.668325027973046382e-01 1.379194080692646551e+01
-4.161069022226417502e+00 -3.759325738969642394e+00 1.965643568099696736e+01
-1.006110323228245118e+00 -4.189473988983531960e+00 1.778304814963011538e+01
-8.040860241439887091e+00 -2.166080670988622003e+00 1.842193399624308014e+01
-2.929148620753556198e+00 8.726760820102579252e-01 1.364203793716106716e+01
-2.860392365432100625e+00 -1.199824777205735771e+00 1.953568329767505318e+01
-8.500260088431570438e+00 1.333428039526928455e+00 1.656681541766598897e+01
-5.178299835309590371e+00 -3.350683016384567559e+00 2.007450003858664545e+01
-6.848634713022049070e+00 1.704154275998522206e+00 1.406847142714536503e+01
-4.741688337541175358e+00 -1.665984296459080971e+00 1.753371798089618849e+01
-3.055246374146012744e+00 3.068904139750360471e+00 1.886632273341499300e+01
-3.944609202291111671e+00 -3.824028914906238974e-01 1.626249671621652837e+01
-3.166412130668194713e+00 -6.720252498063288282e-01 1.597420682213065035e+01
-2.941239488396822033e+00 -6.010517272419486634e-01 1.561605622160973539e+01
-5.278693265314320371e+00 4.458376471576589672e+00 1.658606110300943115e+01
-5.187056276910873898e+00 -3.965499101671468907e+00 1.970431649276516950e+01
-2.914575885368858366e+00 -8.163517888768883068e-01 1.584050446983708227e+01
-2.839904204637354379e+00 -7.706215559929752157e-01 1.569301334824620042e+01
-8.448250371879311160e+00 1.659695623694313005e+00 1.660256493971874292e+01
-6.367511519301824130e+00 -1.292922168185324461e+00 1.777153866172538343e+01
-1.288715143102937777e+00 1.626286831570092239e+00 1.492990946674408193e+01
-4.475944353034544854e+00 1.925726780396844751e+00 1.253624018196141421e+01
-4.466486896204918899e+00 2.004450784194686808e+00 1.241498111212787947e+01
-7.068955170702536428e+00 -1.063158961341279962e+00 1.725564404017043429e+01
-9.768326072768769297e-01 6.491568735785012700e-01 1.457505735105353395e+01
-7.364292109151771903e+00 -2.816488942215619851e+00 1.902211695083520837e+01
-7.247262450446547710e+00 3.218969670355718016e+00 1.696712691775807613e+01
-7.162112902186392738e+00 -6.533787758310487526e-01 2.046126187364103899e+01
-4.325140254384860938e+00 -3.278789711969703369e+00 1.797488077647050275e+01
-3.989476902279903925e+00 -7.863220586034047610e-01 1.993337152565303327e+01
-3.003122640647836405e+00 3.871585900298084582e+00 1.858202607659921668e+01
-4.014380752134107944e+00 -9.454483315261816845e-01 1.995723617893257185e+01
-5.822558290258484703e+00 3.074056563741854653e+00 1.930482377610836053e+01
-4.188444404528752329e+00 -1.107130388983643909e+00 2.001801205551138807e+01
-7.743839575245099915e+00 -1.752587947592971096e+00 2.025401641267256636e+01
-1.252599399228304655e+00 -3.414182676009641426e+00 1.870977684722963730e+01
-4.939933158268123847e+00 9.338359639412218138e-01 1.456142422301538986e+01
-4.076630168124556697e+00 1.992702543798364534e+00 1.237959898661816638e+01
-2.571343233538311512e+00 -1.340998051837494209e-01 1.925296859539720984e+01
-3.854502317105649389e+00 1.733606999596117859e+00 1.269914779604064492e+01
-8.346406671394113630e+00 -1.721421938138593122e+00 1.810732996809860040e+01
-7.041324075110011904e+00 3.923935818579337820e+00 1.830432494066050353e+01
-2.967134985071240294e+00 -2.921244868842057585e+00 1.728760291942070282e+01
-6.962768387491060640e-01 9.354515647509240583e-01 1.799282187556199730e+01
-6.536982090853821425e+00 2.728186352476807963e-02 1.646486645657646974e+01
-7.595684593449395727e+00 -1.558982262162288857e+00 2.036013407368676909e+01
-7.586593041517846636e+00 -1.172535571653504416e+00 2.033600572739275592e+01
-7.940186424484405592e-01 -2.975923632310916389e+00 1.648896687559106411e+01
-7.707380428195189648e-01 -3.179752579294480519e+00 1.666049222467428947e+01
-5.593510813159354278e+00 2.657588786766004851e+00 1.945732605013313687e+01
-5.182526835042417623e+00 4.648817511115089118e+00 1.700759321463509011e+01
-2.764338906036767352e+00 8.796882794642733039e-01 1.921346884067792260e+01
-7.097456042948440569e+00 -3.103324780623623269e+00 1.915626647825500939e+01
-1.282201551184958266e+00 2.988643572206790111e+00 1.713032579806189304e+01
-2.888307543539391009e+00 2.463278358517469346e+00 1.331245815453982928e+01
-2.369103856230451388e+00 4.274625744522365878e+00 1.816700985868898144e+01
-1.339328906187048585e+00 -4.327035221849747870e+00 1.777893988249988055e+01
-7.721390868320960443e+00 9.043116350004798409e-02 1.609573761143627380e+01
-2.659588114037557904e+00 -3.385574262931697609e-01 1.492324250453751588e+01
-1.058727140594080129e+00 -4.353625477053801873e-02 1.482649808744850972e+01
-8.099064896532262026e+00 -1.081364054657190543e+00 1.712310953805625857e+01
-2.461965179766437473e+00 4.439252987170839937e+00 1.814284118534292745e+01
-8.265940728733191634e+00 -9.090255496358670140e-01 1.719466562686275424e+01
-2.425082420029977648e+00 1.689434874287759403e+00 1.304371314581544183e+01
-7.260421070261648957e+00 1.480484016811258741e+00 1.970040245882887930e+01
-5.297312871237126686e+00 4.082119027170941550e+00 1.558167044003213064e+01
-7.398859658528331273e+00 1.463933662604465891e+00 1.962146354877033261e+01
-8.209269266631764594e+00 -3.572997284906481719e-01 1.933820969404067469e+01
-4.803317663953116323e+00 -9.334019056263449521e-01 2.013909086726849651e+01
-4.509717229723261056e+00 -9.427345912485534107e-01 2.008195927290416805e+01
-7.090912866282927496e+00 1.983613203311052064e+00 1.443553653890581145e+01
-7.217174295485395241e+00 -7.867395476365046658e-01 2.046772605613482554e+01
-7.348026366382641505e+00 -8.659051562958712811e-01 2.044000757909273958e+01
-7.448673174786457629e+00 2.490028358258962626e+00 1.606360564246523026e+01
-5.114453038751950231e+00 2.413793655187568832e-01 1.600806987873043497e+01
-3.532282304086773017e+00 -1.363893725020511649e+00 1.684178878232960486e+01
-6.993247062626018362e+00 -3.011406055052991526e+00 1.902522691784244202e+01
-6.163158976529953037e+00 4.336416070572154169e+00 1.711218425237698071e+01
-7.456304350924338742e+00 3.372883195833197512e+00 1.811025720065740430e+01
-3.868248360829528387e+00 -1.473862229820082970e+00 1.708164030135833045e+01
-3.991673426437452044e+00 -1.308445518460012336e+00 1.704239590489956768e+01
-1.047705633177537843e+00 -4.324639631664758399e-01 1.501245421792877366e+01
-1.760452783421302847e+00 -2.707352839503336384e+00 1.903526355451642971e+01
-4.677144135280412840e+00 2.992194343674125179e+00 1.250922007404775727e+01
-1.856445576402703246e-01 3.789663008986392523e-01 1.611776472779408564e+01
-5.034693342461959098e+00 8.710897541383839648e-01 1.981349252639340719e+01
-5.256160213861534203e+00 2.507684348495996751e+00 1.188552728272958703e+01
-2.625979231892925814e+00 4.266063294635551451e+00 1.701020036975055305e+01
-6.659267143224263386e+00 4.364956610691603345e+00 1.808462640801172583e+01
-1.482875024499564542e+00 -3.950260896130590282e+00 1.863805443621747671e+01
-4.625872057342845345e+00 -3.148099060615874301e+00 1.805109512736607158e+01
-1.248701064698065188e+00 -1.321190664425953676e+00 1.878509793295696895e+01
-1.158571047014159028e+00 -1.485452777476713004e+00 1.875508474780334822e+01
-6.587280609359997818e-01 2.136474994573124953e+00 1.744799866580983050e+01
-4.873778715262242045e+00 3.165334936039565505e+00 1.296103264046123016e+01
-2.357207323372839447e+00 -3.525382333730469497e+00 1.911643711487073105e+01
-2.954218539131909793e-01 -1.446825452338622142e+00 1.724991177440655221e+01
-1.924154277177928307e+00 -4.323159900615606510e+00 1.860576050744356635e+01
-3.177116384278618533e+00 -3.968468997641694251e+00 1.920675527222478607e+01
-5.169844605474795962e+00 -3.555546999318544010e+00 1.998978293153595232e+01
-3.092536853092028082e+00 3.607679943590956562e+00 1.513569346455431130e+01
-6.575239574027779810e+00 -5.638901998599770149e-01 1.712138547459935367e+01
-2.810180740646306408e+00 2.819072651025035015e+00 1.884749819240006374e+01
-2.362885003587846366e+00 1.269079089309009589e+00 1.897516834414775033e+01
-5.196381107690466017e+00 4.670324134282616946e+00 1.868751598044755369e+01
-3.992756988931300377e+00 -2.722377868452566574e+00 1.990699956747542032e+01
-7.270059293614186124e+00 1.230954565136699763e+00 1.488890242557664223e+01
-5.583702194690558507e+00 -5.168108800959656524e-01 1.711296795796679859e+01
-5.704911288330979602e+00 -3.992581440466704823e-01 1.701791410721682851e+01
-8.249803553785998389e+00 -1.967267649949990593e+00 1.950420533593303318e+01
-5.111639296774687757e+00 3.310348659232862367e+00 1.344733383403869809e+01
-5.341423873763543106e+00 4.555103263448608608e+00 1.689178271261147657e+01
-7.735300417454518573e+00 -6.656654562136468112e-01 1.668776463977784275e+01
-4.181165684850067343e+00 -1.405820296549167292e-01 1.610222821125669768e+01
-4.774151962188850185e+00 -3.802224431906792823e+00 1.977974727063056193e+01
-4.223457274890221491e+00 -3.626621403409256983e-01 1.993911298593009818e+01
-4.205108228800612302e+00 3.637429777200901215e-02 1.986130023799604416e+01
-6.606533905875608959e+00 1.343228804101483376e-01 2.027093333674573827e+01
-3.965934211685928190e+00 -3.792566969944300759e+00 1.957577831566389293e+01
-5.668998634204861276e+00 1.702617440689720318e+00 1.331583158638400377e+01
-8.178607644100506224e-01 2.115514516375581966e+00 1.674483689103921691e+01
-5.732706939135515434e+00 1.655372509162889694e+00 1.344310653440636472e+01
-1.977520744371176864e+00 1.681296582068017464e+00 1.871510169076489305e+01
-3.078951563972559757e+00 4.240592168291887454e+00 1.650559428856883315e+01
-2.258630520989238999e+00 -2.197275321910575840e+00 1.622747251195043461e+01
-2.310332335116099145e+00 -2.643109517167637534e+00 1.661101345656541994e+01
-1.784890498376113577e+00 1.905945062764739406e+00 1.854936346415503934e+01
-3.901247793091449978e+00 1.972105429505011109e-01 1.543709034334721864e+01
-4.109271149456080074e+00 1.532717960144652780e-01 1.564788254686357405e+01
-4.687914082054261300e+00 3.363286536413556682e+00 1.351643885425692204e+01
-3.222230046465091036e+00 2.492725929912498639e+00 1.287669253747736420e+01
-2.990119097703841877e+00 7.570982267019271683e-02 1.942528748113312886e+01
-2.761290492944961095e+00 -2.004848300887475787e+00 1.948838830684149670e+01
