-5.416554641646735391e+00 1.463620579229650609e+00 1.936384245740040555e+01
-6.761208578641894285e+00 -3.140289678236810600e-01 1.985906085442499958e+01
-2.173414247857466286e+00 -4.076399333967545502e+00 1.915825256306359492e+01
8.615636220253026778e-01 -2.683485624442746520e+00 1.894732170037558561e+01
-1.388318225687707352e+00 -2.490177475806440555e+00 1.965133848653333715e+01
-1.835513856790694565e+00 1.452219675331848592e+00 1.332859691910788413e+01
-7.078343771070677803e+00 2.606469534614313410e+00 1.715899757926647240e+01
-5.148886743290266743e+00 -2.542356360153797290e+00 2.039722899662178079e+01
-5.210924070862319013e+00 -2.182129090634158608e+00 1.797079591920867969e+01
-3.081596413773393994e+00 4.007549433855073673e+00 1.537468888199878947e+01
-3.016507901301741956e+00 2.276620128171471524e+00 1.874588255142189652e+01
-1.627965674803614871e+00 3.328573552485205589e+00 1.816995994350274302e+01
-2.532928458763184842e+00 -4.042798854663922192e+00 1.935317884597999338e+01
-7.239035090516173554e+00 -2.328288264110683237e+00 1.813448672002993689e+01
-4.145556131262084776e+00 2.021180060342228302e+00 1.282363467138486968e+01
-6.664798103938304408e+00 1.487606814131598121e+00 1.469194910207670901e+01
-1.291872032762648170e-01 -2.202260955509828477e+00 1.550909189709385672e+01
-5.990138950150765140e+00 -3.252589820832647582e+00 1.950734749087153475e+01
-2.588568026827176904e+00 1.709267265248701761e+00 1.893617453626723446e+01
-3.222156038068310302e+00 9.728229721353941484e-01 1.184403828507455714e+01
-4.612018400152267716e+00 4.310922943103300931e+00 1.789295584389570237e+01
-4.470732401951982737e+00 -1.047528494986441627e+00 1.649918582103239473e+01
-7.937251222536190198e+00 6.569464002626814736e-01 1.605258920695441205e+01
-9.939305386735677872e-02 3.024531182958216213e+00 1.640197239329770795e+01
-2.830579892864661939e+00 5.916767765272699098e-01 1.182285261687210820e+01
-5.106657262341701697e-01 -1.484127697686308922e+00 1.482887115698131808e+01
-4.226126431590220278e+00 4.208550746575894230e+00 1.799962655366516984e+01
-4.036284389799215333e+00 -1.794612381465304329e+00 1.729235674862410477e+01
-7.702027785502363777e+00 -1.209870067890653100e+00 1.658551721821524794e+01
-1.977077665397358519e+00 -3.891094798071456751e+00 1.952321336098362892e+01
-1.332360108631639672e+00 -3.599339949256887827e-01 1.352061089315801112e+01
-1.244097109077944685e+00 2.153698616816617672e+00 1.454090802162810903e+01
-6.849454292476161221e+00 -1.407797214960996746e+00 1.570737538835091485e+01
-6.415341397727528872e+00 -2.713489579244674488e+00 1.869203297704906319e+01
-4.544646843521054969e+00 7.645671797539488335e-01 1.126767562954952595e+01
2.934545871658241767e-01 2.433010923860321917e+00 1.637298571862107721e+01
-3.940677448176623798e+00 2.389270264509629982e+00 1.327238290918878860e+01
-5.385722653754207556e+00 -2.354934917919382364e+00 1.817102463042174421e+01
-5.422250577188545861e+00 4.375557813913014904e+00 1.663080687911624622e+01
-6.180931447170100235e+00 -2.314858306151435841e+00 2.036192640034952106e+01
-7.997387513131142711e+00 1.993716359546155448e-01 1.637985866303525384e+01
-1.028593943949767553e+00 4.011553279714840770e+00 1.770028022427324643e+01
-1.711590950774415365e+00 -9.169590179725670698e-01 1.508708794052182967e+01
-4.797126991116875239e+00 1.370047013096558297e+00 1.931608078550100416e+01
-3.905547356199542186e+00 3.613210913733653662e+00 1.494122756920264905e+01
1.035822371737825209e+00 5.608088920313516468e-01 1.785716624290512655e+01
6.497943083682230503e-01 -2.271573043611775589e+00 1.579437148220759823e+01
-4.529898083067439574e-01 2.732859097017609429e+00 1.576114036251255968e+01
-3.960814480779434987e+00 -4.196824449103764287e-01 1.496849918847443561e+01
2.190021573984851089e-01 2.845491152985412775e+00 1.739215682063928980e+01
-4.990029442305352170e+00 1.125015060486357132e+00 1.943433350473487664e+01
-5.077687816195252113e-01 3.515239482295190676e+00 1.775553669322554029e+01
-2.296288062750863723e+00 1.029876446513989574e+00 1.250978881032852641e+01
-6.832528250998715968e+00 -2.077360415070304889e+00 1.751142333858009792e+01
-6.874322894354757629e+00 4.756421965944706010e-01 1.427664952945314170e+01
6.028829387795786587e-01 1.343502036278801937e-01 1.865325465722961340e+01
-6.498688494033136642e+00 -5.542489595962403204e-01 1.455595537131933881e+01
6.986339617576113603e-02 -1.113940127803849434e+00 1.465798404578314873e+01
-3.050351972057489203e+00 5.161064151866480820e+00 1.749839274918248933e+01
-1.220002994540741348e+00 -2.712892024493951393e-01 1.920579683232443458e+01
-6.139259884902905640e+00 -1.907664589241037101e+00 2.037748821490760420e+01
-2.770999405735434795e+00 -1.561337640668620796e-01 1.382131619381715026e+01
-5.559325535916951111e+00 8.964391612740651993e-02 1.987025920503757348e+01
-2.084373547324643638e+00 -8.688038322457665164e-01 1.526239530744819106e+01
-3.700892617966989651e+00 2.472666929350495035e+00 1.333688746053886476e+01
-6.362969828511606529e+00 -2.148492059603303694e+00 2.033332154972103822e+01
3.571637058935785980e-01 -2.928212477134978897e+00 1.615640780913858876e+01
-2.314757159355943283e+00 2.035922050322349075e-01 1.271507398644822118e+01
-4.058630713513178279e+00 4.342067602751232158e+00 1.586165484490457445e+01
-1.421586032402352373e+00 3.178847118494504187e+00 1.820636196164751297e+01
-5.988821987455017481e-01 -3.453713648543081050e+00 1.944492592099227224e+01
1.803830993022901008e-01 -2.926271340358272077e+00 1.616003759080436097e+01
-2.178722713082251183e-01 -1.261835743414646327e+00 1.919728688284516593e+01
-4.774826275842412038e+00 1.148196074923513166e-01 1.297512479644121797e+01
1.361922619611888596e-01 -2.725063106146574654e+00 1.596448413985659087e+01
-2.376701659308174674e-01 2.388099184149802046e+00 1.819396188140468595e+01
1.370188571547208189e+00 1.969047299151958641e-01 1.723664388385139645e+01
-5.809997786877562298e+00 -2.352749333688660904e+00 2.039690668358963777e+01
1.047162781921170849e+00 -2.999938347616297740e+00 1.772539821360375711e+01
-4.169496171429726949e+00 -3.330429407684641241e+00 2.022348780989500838e+01
-1.670959224726147774e+00 -1.310319506182364924e+00 1.584591032230769159e+01
-5.530736851481668381e+00 -4.469002908327079915e-01 1.457854339939170885e+01
-2.912092172435437387e+00 1.297409440064003050e+00 1.228694812489365162e+01
-4.567495349027698381e+00 -2.992788586689950847e+00 1.848372205588797001e+01
3.853436844319355625e-01 -3.493453593750448505e+00 1.712942412956132543e+01
-5.143419588121968644e+00 -9.569682453163741442e-02 1.984690395588745204e+01
-2.668146741846201930e+00 5.007448763243135481e+00 1.755451646260003784e+01
1.028673861957245750e+00 -2.088438065333705573e+00 1.872252161827967498e+01
-6.011828739793155130e+00 -1.409779811537798411e+00 1.634833115407233706e+01
-1.225530497958712273e+00 -1.044073975275126687e+00 1.468516947050582289e+01
-7.053290837774709665e+00 -2.938779731640421833e-01 1.482099327564953839e+01
-5.997936325103203181e+00 4.908383193048415638e-02 1.993656375565040051e+01
-4.283776861063898211e-02 2.175232440319569971e+00 1.818019039117802649e+01
-2.339696338025782918e+00 -3.537100126495078989e+00 1.985320173318381265e+01
-2.867459367098321721e+00 4.994550414598256438e+00 1.758140164081315859e+01
-1.820016516805269546e+00 -1.060289121927781686e+00 1.547426247671856103e+01
-7.791004823344798602e+00 -8.727937278182649194e-01 1.822874727281913820e+01
-3.497551231263516858e+00 3.982910384090102340e+00 1.539673733482846174e+01
-7.747677837662931388e+00 -1.267947303762166689e+00 1.838447431366452278e+01
-5.657504863859541544e+00 -5.687243667276757897e-01 1.474470801243402818e+01
-2.468097641970770528e+00 -1.083795284606401843e+00 1.590913430737545653e+01
-3.422874554408112058e+00 5.003615246982377585e+00 1.757949458288216604e+01
1.086976793822567622e+00 -2.815508513139211466e+00 1.809362523117704669e+01
-2.813200736494734233e-01 2.454464077126275345e+00 1.560856400862770599e+01
-5.617462602743209743e+00 3.672734847439666162e+00 1.806958311405614737e+01
-5.893060144366149000e-01 4.286819741115904137e+00 1.721201270565501673e+01
-4.607806221138558422e-01 4.194039215444468560e+00 1.722151166505529218e+01
-6.311184710582460333e+00 -1.158356990186413027e+00 2.027581778733155815e+01
-9.508734154988103260e-01 2.624091257168842617e+00 1.526365345066100687e+01
-2.521812477469543179e+00 8.804461875974656238e-02 1.304838725223205742e+01
-2.016099371056834677e+00 3.361251643361653940e+00 1.820211925558314547e+01
-6.526844719869614453e-01 2.304055888487480885e+00 1.840456589026927858e+01
-3.076435884958632072e-01 4.024249422284654543e+00 1.721530229241379928e+01
-4.372605747343571103e+00 1.590538374121480691e-01 1.233515439986248552e+01
-5.678221128872792178e+00 -9.281233138960414131e-01 1.596771823899943499e+01
-2.802841469131228114e-01 -2.365103848732289293e+00 1.575370961407660886e+01
1.312051015065953896e+00 -9.860316244572018274e-01 1.736477528410469873e+01
-3.365619200220479446e+00 -1.269518197459648556e+00 1.996443487648022952e+01
-5.457263834874625630e+00 4.727626526569272958e-01 1.249482683514819215e+01
-6.166389000194143044e+00 -9.323355780568127749e-01 2.023073886995905113e+01
-5.010801963120972147e+00 -1.784141424459597003e+00 1.753487410572997263e+01
-3.348916813519022373e+00 -1.900648230249126991e+00 2.010107618254569317e+01
-6.683566884332456048e+00 -3.018485016000402865e+00 1.964714638533315494e+01
-5.735176322841245344e+00 -3.014005036893611766e+00 1.894088400752079693e+01
-7.232304753452417856e+00 2.174258313963723488e+00 1.752844488147392710e+01
-7.090721571522583533e-01 -1.734327584359693253e+00 1.535920673660087843e+01
-5.313221983624156763e+00 3.767798128865951224e-01 1.260978949747660138e+01
-6.077874489177949258e+00 2.064993361580680364e+00 1.450846494345467264e+01
-1.794262068754300721e+00 -3.580049366114787190e+00 1.816381840341711396e+01
1.039556933902348712e+00 -2.237346181270639889e+00 1.711210957002461797e+01
-6.516825923177569813e+00 -7.305748184155902436e-02 1.399275256479725371e+01
-7.533961940425325743e+00 -1.296049021701881410e+00 1.920378646787657217e+01
-4.414709708541299626e+00 3.535362046886484144e+00 1.836922422911547059e+01
-4.738283528273753653e+00 -1.730658588057432334e+00 2.029050283757248607e+01
-5.105625725732707565e-01 3.789831150744332966e+00 1.683540884963212747e+01
-6.255748362954391517e+00 4.013682258740471021e+00 1.697254853800950158e+01
-2.204968662226154841e+00 -2.497642540200867067e+00 1.991992079854000863e+01
-1.908791708446436530e+00 -7.688482523827209203e-01 1.487979866288261022e+01
-2.479310657091676084e+00 -9.381129273123229861e-01 1.567289905513775139e+01
-3.462221732451759681e+00 1.979280130525542747e+00 1.890037962632984758e+01
-6.590976007719229202e+00 3.554013480358756638e+00 1.673951771061184601e+01
-1.986249491959882096e+00 -4.073725235148435431e+00 1.912016026088980780e+01
-9.463521365436455834e-01 -9.186348163929547450e-01 1.421425056381145069e+01
-6.857088795217259225e+00 -1.866138297799781798e+00 1.656915851046267463e+01
-1.661135402590408483e-01 1.996409898916556402e+00 1.523035043210945716e+01
-1.556993977452334699e+00 -2.705539302647371080e+00 1.971778540003331770e+01
-2.899343383292584342e+00 -3.792139051707688058e-01 1.469190659968202439e+01
-5.248799642292461876e+00 3.018395056596882675e+00 1.859677847683659380e+01
-7.331745450550046783e+00 -7.189137697418725992e-01 1.939149889494020229e+01
-4.837571334308409909e+00 -9.913855495780532490e-01 1.651435240682614491e+01
-6.716962924639713783e+00 3.023863970442786986e+00 1.756062778750673559e+01
-1.424391758744754322e+00 -4.010258708750058965e+00 1.896445707579844608e+01
-4.622110903090254297e+00 -8.260565650315068176e-01 1.615575330922925801e+01
-3.435748964527769012e+00 -2.445233909817759788e+00 1.761015898616966879e+01
-2.785181518642541487e+00 -1.120560586678390758e+00 1.984398271259081881e+01
-6.744370702183077881e+00 -1.040660925633107858e-01 1.979095480649307959e+01
-6.919128146858383177e-02 -1.118287238083994328e+00 1.462799193535668607e+01
-1.978990741467337777e+00 -3.683346559518430041e+00 1.968811787739904773e+01
-2.719516507966281527e+00 2.299971149012255411e-01 1.268273424663202675e+01
-6.536456039578265376e+00 -3.028667541197067159e+00 1.933854286949561541e+01
-4.644224472052240316e+00 -1.031390035166161789e+00 1.653282484818408093e+01
-3.011190174942440123e+00 1.746183916336598418e+00 1.265698057226303419e+01
-6.342221892339808598e+00 2.300109579049864461e+00 1.506649125850295334e+01
-7.659537692611900539e+00 -2.080231191705734339e+00 1.857900282157363492e+01
-3.435717397678483831e+00 4.211711765365973470e+00 1.800170691666983558e+01
-1.005142236812664569e+00 3.153698609866277813e+00 1.815495692341937328e+01
-5.607014256949824471e+00 3.556101820145238790e+00 1.815619793585640096e+01
-5.802406794614764607e+00 2.787127433046329705e-01 1.984889400228808043e+01
-8.110905631342230082e-01 -1.110890360227936968e+00 1.930860232981232727e+01
1.215697054657302878e-01 1.477384839526349580e+00 1.492847430032419354e+01
-7.199592013335228913e+00 2.355445743351618493e+00 1.716537603751572405e+01
1.619917120158170798e-01 8.853266728006623509e-01 1.862754352773613320e+01
-6.268054219887362333e-01 3.159158986964458293e+00 1.802455857607104051e+01
1.203925444378772802e-02 2.043572672637827381e+00 1.821318426365892051e+01
-9.374242409059769798e-01 2.996175918196116505e+00 1.565950609914954939e+01
-7.170616631386014461e+00 2.334558727423162061e+00 1.746859539902044034e+01
-3.549943246023937959e+00 5.334848905780723571e-01 1.167581007250541703e+01
-4.466343854963404247e+00 5.027532969094719917e+00 1.743026036624688757e+01
-8.073137921469667466e-01 -1.658780681024418557e+00 1.538859872009211571e+01
-3.877100082816405946e-01 3.807205950118548898e+00 1.749067701214852022e+01
-3.575438923113478662e+00 -2.762540346313523187e+00 1.789393281618204767e+01
-6.645548211530338811e+00 -2.047359649963502726e+00 1.752734444850700513e+01
-1.394297560317814932e+00 -2.274451733310282719e+00 1.963294381425200541e+01
1.330977667439164680e+00 -8.054195150147400728e-01 1.735309356630753896e+01
-2.568226957081418682e+00 2.044712074694180481e-01 1.941469757469458912e+01
-2.826637230164914971e+00 3.761953322995333693e+00 1.814422047484515232e+01
-3.832991501141765678e+00 3.292016231892092470e+00 1.842447718120807210e+01
-2.977405037296330104e+00 3.242627188478258482e+00 1.434219039503055271e+01
-3.967173405716082790e+00 8.283225309306507800e-02 1.960537575690687717e+01
-3.202178369606688779e+00 -1.495730477310070805e+00 1.999807772479625001e+01
-7.713887737312260739e+00 -6.661305606288046022e-01 1.852611018110557595e+01
-4.455360623490637551e+00 4.093509158084116528e+00 1.805483249485356723e+01
-1.333836400161628966e+00 -1.891847888940264566e-01 1.331343587860843414e+01
-2.188991762212092684e+00 -8.701966572192829652e-01 1.961363571190661403e+01
-5.739850320094178393e+00 3.235261782376144257e-01 1.316513919094730412e+01
-2.130233851113907395e+00 -3.490110096244117832e-01 1.388218139423366537e+01
-3.938060745297137899e+00 -3.102408656759236827e-02 1.357246548549752774e+01
-6.946896874980145853e+00 7.135265351018731383e-01 1.924939094850956067e+01
-6.768263557747175696e+00 7.819151107056014904e-01 1.935505775996714917e+01
-4.903663660899944432e+00 2.671169165619235564e+00 1.412636328838472011e+01
-6.324569340369905923e+00 2.711891584756531692e+00 1.549154331134144869e+01
-2.882130001779592998e+00 -5.298895462658439470e-01 1.511619242567103427e+01
9.906930790637393791e-01 -3.203124117141031846e+00 1.749039752638656964e+01
-4.046283488432990794e+00 -9.127850476232604038e-01 1.611141236280321820e+01
-6.611578165427400400e+00 1.110760411640422163e+00 1.927351180464579627e+01
-3.597624876196577670e+00 -3.207695557053777513e+00 1.826171804797824549e+01
-7.303561171513206496e+00 4.305833721925422797e-02 1.917218753174087098e+01
7.730050648572422967e-01 9.010335407546103959e-01 1.546966979360883343e+01
-6.436372421150540646e+00 -1.868051536515791033e+00 1.714885092746868267e+01
7.105931874638270473e-01 -1.717412539334784105e+00 1.557569282163412439e+01
-6.395679494763011341e+00 -1.098948343254996907e+00 2.024605753448536305e+01
-2.087483509338849075e+00 3.677286701855289941e+00 1.545255840157673433e+01
-2.615764769023958713e+00 2.133660964048927688e+00 1.875988161277621558e+01
-6.195716139352542839e+00 -1.752085690930222261e+00 1.716310821379484608e+01
-6.780166110454945105e+00 3.127959530354223361e+00 1.711744273556126572e+01
-7.000998182057531771e+00 -2.774263159568367776e+00 1.907486569375899066e+01
-1.266231616302208263e+00 4.585424558682132279e+00 1.749399428927636890e+01
-7.383824670353855701e+00 -1.718479675785950400e+00 1.657224525164062712e+01
-5.785163887044114439e+00 2.072980249820390419e+00 1.900984476319832694e+01
1.006355276588587255e+00 -1.630718030337054758e+00 1.875308839807931705e+01
-5.562125172375488091e+00 -2.953749368734561287e+00 2.032278732746646810e+01
-3.623356642907880953e+00 3.711501454472284856e+00 1.824787465158390987e+01
-7.760459131846883629e+00 7.402304776338308745e-01 1.726835022703214761e+01
-6.341217759916127683e+00 -7.461678075975415325e-01 2.015896436104228329e+01
-2.425619733256235477e+00 -1.702985747766520896e+00 1.673353960300201848e+01
-3.018218386198441294e+00 4.091590609796631028e+00 1.802053914171236570e+01
-1.492947530593512484e+00 -9.739783287489907071e-01 1.503238646027498859e+01
-4.210797687202877171e+00 5.060976266152007241e+00 1.745904416445228335e+01
-1.498653158167855937e+00 -9.154800899637494105e-01 1.486178535549071356e+01
-6.007293937967348896e+00 1.118683414329961323e+00 1.950824141322457805e+01
-3.795060804756107409e+00 4.322958497583900161e+00 1.795255363316495689e+01
8.495149743290170141e-01 1.653503753402234766e+00 1.734522033092857285e+01
-5.236008294238825300e+00 -1.584487288833607677e+00 1.734861554869457123e+01
-4.723598337124653490e+00 1.954246556896221954e+00 1.306687182322478336e+01
-3.867005239651103654e+00 -3.935370911322544352e-01 1.487855099066984721e+01
-1.143750610791473277e-01 1.490153059881296649e+00 1.475380796357336877e+01
-1.320176806154424343e+00 -9.566683699356821613e-01 1.462602985260184951e+01
1.571406549753081028e-01 2.574545568546633412e+00 1.776005119207669836e+01
-3.677616785225936713e+00 4.505891177893801114e+00 1.607069756389377702e+01
-1.365992618497390731e+00 -3.789261575030997697e+00 1.852462063852808072e+01
-7.012657888666801398e+00 8.922786026652425040e-01 1.906948521987620282e+01
-2.324362838413687626e+00 5.456179044845665960e-02 1.306124890947122097e+01
-7.332925018193205524e+00 -1.496781594002808413e+00 1.957504812574429209e+01
-4.064735986809699497e+00 5.155744954827333970e+00 1.700573087778803583e+01
9.141599068771363301e-01 1.648173607451108635e+00 1.724771075900866535e+01
-7.034861134254077442e+00 5.148719824352538943e-01 1.927325463184472554e+01
-1.986171603925246387e+00 -3.608280922812087788e+00 1.821818355141108370e+01
2.259096446501572542e-01 1.401847073979749725e+00 1.837943958555750967e+01
-5.225575359575079792e-01 -1.496687894689454845e+00 1.930324276528106608e+01
-1.216933566577049763e-01 2.771403894096303056e+00 1.604982464820360732e+01
-7.044114114666132132e+00 -2.333673197634425378e+00 1.810931263057930707e+01
-4.420773741099550236e+00 2.170767089968042907e+00 1.892465606914065646e+01
-4.540991896771370939e+00 -3.541661655849267731e+00 2.003624175341292712e+01
-3.343298171847433609e-02 -1.954294902419447366e+00 1.929480599414494080e+01
-7.530265213192454787e+00 -1.698130386946842707e+00 1.930164714954629446e+01
8.653549562371010140e-02 -8.026798914773041194e-01 1.446074357531458432e+01
-5.572294972063745355e+00 5.915272249475513888e-01 1.242909588621682460e+01
-6.985240813037811414e+00 -2.626716244474713413e+00 1.875377074719669324e+01
-5.600992851365036884e+00 7.556259499913006161e-01 1.244557805963072283e+01
-1.066567642477574296e+00 4.602262807782433462e+00 1.742304150052733647e+01
-3.162028911857651114e-01 3.610078905281773665e+00 1.686733908380858438e+01
-1.643055720647561113e+00 3.853975174465921860e+00 1.792546155616188130e+01
8.511333206473148394e-01 -1.861461535665658973e+00 1.897146316220981888e+01
-7.422230482748231495e+00 3.147771818635576313e-01 1.885497875090945641e+01
-3.765434908618014553e+00 4.156866254998512034e+00 1.563319427599614286e+01
-3.572530636136629578e+00 -3.892605247404364199e+00 1.960865624199434265e+01
-1.908427527618582697e+00 -6.318457175064835507e-01 1.448264526311684008e+01
-2.860901657542014309e+00 -7.440392721071831250e-01 1.549907720149296253e+01
-5.022373449729125028e+00 3.909445734078103030e+00 1.810938227840260240e+01
-6.286525446800235173e+00 -8.931419995433538261e-01 1.495597261650307885e+01
-1.721142513128852913e+00 4.365594746335580645e+00 1.652958226071195824e+01
-3.411623865238934794e+00 4.353559849791141190e+00 1.792153802339923985e+01
-7.700916633932177735e-01 -2.904290156006485546e+00 1.951668456308069111e+01
-7.733070247970564637e+00 5.235765951729478562e-01 1.787312498988861265e+01
-6.531870553427574499e+00 -3.648831666403832275e-01 1.432672788854707946e+01
-5.045943490421892719e+00 -3.130253179255984008e+00 1.882972096153566000e+01
-8.393256746185216999e-01 -1.460953472450315926e+00 1.501212946606863952e+01
-5.370748306614947509e-01 -1.578831717251558908e+00 1.493581491174936460e+01
-3.042951023536268007e+00 4.401178386384724028e+00 1.787473543048576019e+01
-7.227215487819524498e+00 1.033241549067710485e-01 1.491355432739631581e+01
-4.357498133323217893e+00 -3.111563092192856317e+00 2.031735944675476802e+01
-1.593456486399455363e+00 -3.485018554633682264e+00 1.967633956471096113e+01
-7.110970288565137132e+00 -9.567242249707677004e-01 1.534297905060950384e+01
-3.263310623516685105e+00 4.223243011047935092e+00 1.797645531457804324e+01
-2.637664719365588439e+00 -1.242993678706630689e+00 1.620013303931018456e+01
-3.668969960570690692e+00 -8.289808690982267692e-01 1.585029012374824831e+01
-5.101788496406913787e+00 -2.063661259432735262e-01 1.433871737424199821e+01
-3.770792203780338525e+00 -1.320026288320599095e+00 2.002752873962608149e+01
-2.984932883290679850e+00 1.922762193799537833e+00 1.285968402881523431e+01
-1.894037921452777162e+00 -7.018904630604794193e-01 1.467246923850327889e+01
-2.774543003297388122e+00 -4.004145360128089415e+00 1.917324036643863749e+01
-4.543374278099131303e+00 -3.149896368135352454e+00 2.031652861768648322e+01
-5.291228558534019633e-03 3.511987171585404521e-01 1.883148617624258137e+01
-4.077130361553388482e+00 4.818953852720784248e+00 1.762850992302847075e+01
-2.888969610717505354e+00 -8.168178843703772785e-01 1.563118997865202786e+01
-5.899404482400084859e+00 3.229975092244933954e+00 1.571532806075859767e+01
-3.690329114410050848e-01 5.132193507589744019e-01 1.887302409985810314e+01
-5.494523324957388155e+00 3.849445019822904435e+00 1.799429270283124183e+01
-7.505035694592859130e+00 -1.489686309697660471e+00 1.931894763382188174e+01
-5.985529202253212944e+00 2.912571403028819672e-01 1.332110016118618390e+01
-4.467581768846298207e-01 2.963416016580517010e+00 1.802708578534954498e+01
-5.057135339768502824e+00 -1.120351830082811473e+00 1.675591667585377920e+01
-5.101183393421752088e-01 -8.581222946167730292e-01 1.424751786411246357e+01
-4.227488032894325398e-01 2.583459864404545669e+00 1.820457096124976104e+01
3.322146467891709531e-01 -3.606402581462500478e+00 1.904196199752567864e+01
-1.147657332207676628e+00 -1.410591824481798318e+00 1.553221083472351793e+01
-4.803566005519200210e+00 -3.044525734231330105e+00 1.863166355201277113e+01
-6.029426537158437682e-01 2.779598973760132097e+00 1.819698826234683864e+01
-1.974052049493844496e+00 -4.050521670537582608e+00 1.931652648809401640e+01
-5.374001450143847336e+00 1.587479050453623142e+00 1.303300703668297800e+01
-6.422605434821097248e+00 -8.123773802843479164e-01 1.485126124043036455e+01
-5.028984103227384317e+00 4.363195204130874139e+00 1.776775543768134824e+01
-1.351049222847227504e+00 -1.467298655449811084e+00 1.950458342262745859e+01
-2.250448325567456775e-01 2.783152134086305907e+00 1.797701080228415194e+01
-5.274650292479873492e+00 2.463005220011122542e+00 1.413141716743046672e+01
-3.418631849498103836e+00 2.552627772802743777e+00 1.865636591671977484e+01
-7.351544041948351982e+00 1.131277952319256208e+00 1.846090282433468488e+01
-5.327690121751158081e+00 -5.004260649203575717e-01 1.539900757137821685e+01
-1.715383818848617015e+00 -7.499639342985771062e-01 1.463527371995503401e+01
-1.995927261507451256e+00 3.576175947100855623e+00 1.542112201905560553e+01
-2.362692018833201679e+00 -3.684034794867226736e+00 1.977284154377262482e+01
3.464377751120443216e-01 -3.406981898962940569e+00 1.692507434966457325e+01
1.585987219902806056e-01 -3.319795327557534925e+00 1.688339769096975473e+01
2.633269174418916281e-01 -2.023555711834641002e+00 1.927164396924066736e+01
2.084778197001756483e-01 -3.167849364083411778e+00 1.649944190557348733e+01
-3.431918554340257277e+00 1.871946697323475295e+00 1.894440368328492852e+01
-5.993844907804476208e+00 -2.468786087795083795e+00 1.833338115087163445e+01
-6.561289925132349765e+00 1.289714278339509912e-01 1.386426203103066612e+01
1.104854603116239620e+00 7.647943379522355034e-01 1.746654704237266387e+01
-4.008875541071006410e+00 3.151944652158354288e+00 1.849364128693384757e+01
-7.359277679659108173e+00 1.332124715867349485e+00 1.827684367969053980e+01
-4.843301615549592043e+00 -1.116184809548843360e+00 1.671213427153940856e+01
3.440825099469074777e-02 -1.682167288484168965e+00 1.924280495331013796e+01
-6.970836334243597499e+00 -1.338047337968411243e+00 1.997819335830662268e+01
-6.897862224457422364e+00 2.613039665765021002e+00 1.775101199182274669e+01
-3.641354918908596527e+00 -2.861767017797795631e+00 1.799567525733457884e+01
-1.594755875076386387e+00 -3.586400757827707508e+00 1.815730549833913088e+01
-4.761290228633398014e-01 3.832009295443919994e-01 1.344351346374044098e+01
-3.405418108388711396e+00 -3.235641197406410541e+00 1.821743885779803307e+01
-4.049829597760585820e+00 4.366379593364063894e+00 1.791137266296133035e+01
-1.735549072130975645e+00 9.861938474198259641e-01 1.293687261651465192e+01
-7.150131992037177753e+00 -2.616930234232416552e+00 1.965034675449384949e+01
-2.915992625245882319e+00 2.237064030911479207e-01 1.272754100213984074e+01
-4.837946279229893953e+00 -1.984773556376934200e+00 1.770095585520482118e+01
-2.498240655200534288e-01 -3.021119888599244518e+00 1.670533402880843354e+01
9.097511551874748470e-01 -3.214088155188953522e+00 1.862952880823516111e+01
-2.325593393201923043e+00 -1.269728895167696603e-01 1.348772410447102388e+01
-8.180242591311738254e-01 1.765103384196136105e+00 1.863302669196342620e+01
-7.742611972087698469e+00 -1.649846881572583746e+00 1.781854892671372781e+01
-3.252043328388740662e+00 -1.715492568180793542e+00 1.694939196069153198e+01
-2.565853941032303798e+00 5.089952342898640403e-02 1.316008792433092012e+01
5.535553811532498703e-01 3.403700439816046974e-01 1.861300841739789647e+01
-3.445153918944360072e+00 -1.014567335310287532e+00 1.607388390337213124e+01
1.191281993307704123e+00 -1.840534536690182632e+00 1.813171374262441660e+01
-7.548512367804443457e+00 -7.060211229613777562e-01 1.899272173599130653e+01
-3.381503862575888419e+00 7.141416473843478219e-01 1.933715298621543255e+01
4.171164709565735595e-01 1.818547087240247828e+00 1.799200631861615918e+01
-3.734700538734264885e+00 -9.871936346207088597e-03 1.355511032597368271e+01
-5.059613985475746034e+00 -1.418529696505642645e+00 1.714132377675384689e+01
-5.548377201687598514e+00 -3.109844635454201978e+00 2.023009423532598916e+01
9.681224570152084929e-01 1.410247450002328318e+00 1.730834853861433587e+01
-7.796046563421788811e+00 -9.457836186871391160e-01 1.638333955390257657e+01
-1.097913651092346621e+00 2.894264403780966610e+00 1.542749751676696590e+01
-2.770120257386107787e-01 -1.880882849329435169e+00 1.522095402875830317e+01
8.103781130933146448e-01 -1.398186602858094707e+00 1.548503201787025674e+01
-1.716742549229439030e+00 1.585412314652443033e+00 1.356437482879554679e+01
-7.943310317096228701e+00 4.404915750285526288e-01 1.607898762842583906e+01
-4.601520327854770720e+00 -1.143518027190599362e+00 1.669906906343295461e+01
-7.959775232110947840e+00 1.789038507336498385e-01 1.601198699137399117e+01
1.100897093768923529e+00 -1.782519208679149036e+00 1.699733761939111432e+01
-7.059352085688403555e+00 1.771245050048410929e+00 1.833620483338210150e+01
-7.061109746961625966e+00 -1.191772017993891097e+00 1.553289787255382848e+01
-4.501577284192943562e-01 3.623669339355747532e+00 1.764669255440051288e+01
-1.591805499339064456e+00 3.214686934389707762e-01 1.912382913445263810e+01
-5.720464803550665778e+00 -9.210183198965122831e-01 1.576684817705695352e+01
-1.101955827202558247e+00 4.739451737130653264e+00 1.727908912542442366e+01
-4.522186301001451803e+00 -3.123935540350933904e-01 1.461555302612152829e+01
1.348793656985170619e+00 -4.083786946016418895e-01 1.742352498436514097e+01
-1.801322608911284928e-01 -3.431757238161108781e+00 1.934157679994959622e+01
-3.152987123350279308e-01 -3.079220047605150334e+00 1.691981487131537776e+01
-2.090028918451164675e+00 -1.161678542169586548e+00 1.582847406901206355e+01
-5.628060824248389160e+00 2.949835158441841187e+00 1.854265537045348466e+01
-4.844314620308097119e+00 -1.238863979848636276e+00 1.688712169433925325e+01
-9.047615101271917482e-01 1.205706443392192462e+00 1.383836375755481995e+01
-5.552242771367762231e+00 -2.189536240512278908e+00 2.041218721399940605e+01
-1.863066979283942937e+00 3.872800905442196573e+00 1.584248755299824651e+01
-6.124536386173797808e-01 -3.660616999287534590e+00 1.852849746776056250e+01
-2.228795689083379328e-01 -3.546396666696283617e+00 1.837746825697091069e+01
-4.482919374613801855e-01 1.910586898710906034e+00 1.849595924108509237e+01
-2.033571430619287024e-01 -3.599911098789460695e+00 1.852153932994214713e+01
-2.379814759075480346e+00 4.876396160440978900e-01 1.927214215474288395e+01
-7.137288377127529060e+00 1.071560348687298214e+00 1.880680172202045597e+01
-7.300770330604426483e+00 8.813431724524312116e-02 1.503133971725553764e+01
-7.044652419928563170e+00 1.004870919921402317e-01 1.946026062170721715e+01
-4.332342235665235464e+00 -3.084783334163534452e-01 1.454523982761612544e+01
-6.982361142622305117e+00 -1.016192517159725250e-01 1.960718965769316569e+01
-6.122797564814364435e+00 9.627217167146829846e-01 1.345627384144929195e+01
-6.964183925837762246e+00 2.978265742737448152e-01 1.944900923505175072e+01
-4.281807547691254712e+00 -2.434322126211785342e-01 1.432345000158545290e+01
-6.449709329425044047e+00 -1.513963021548550669e+00 1.594126991493290646e+01
-6.669616128708213409e+00 -2.999280698110466936e+00 1.973872370079970651e+01
-3.972444394980128024e+00 -3.343898937798997828e+00 2.020658855809417176e+01
-7.225716745554633391e+00 -1.822353961963487867e+00 1.658832182956640011e+01
-1.759729728402564808e-01 -2.685333507734917191e+00 1.603835776151035830e+01
-4.333670430850823152e+00 -3.889148411730916077e-01 1.487575503043830949e+01
5.593124755287266492e-01 -1.977923562026181026e+00 1.549928487522062071e+01
-1.406156368481684127e-02 1.791643051617036075e+00 1.834890944667515456e+01
-3.560964868744416645e+00 7.225015786769253268e-01 1.142808038012876537e+01
-4.040860214877257661e+00 1.689045128223636505e+00 1.234799016858164222e+01
-2.720895949211253217e+00 -5.664848331303007356e-01 1.510850142105506322e+01
-3.142438655015121540e+00 6.248455725344790324e-01 1.171800499816218277e+01
-4.768042260939400201e+00 2.844538649876253711e-01 1.964723130127030615e+01
-3.530982594648727435e+00 6.087049546406014811e-01 1.156340305313240790e+01
-2.550561303286897896e+00 4.284166731921832394e-01 1.213931698433333750e+01
-2.977234764933959887e+00 6.227182820613019754e-01 1.177477806935805305e+01
-2.532482084050005078e+00 3.107515471814490837e+00 1.448398517364999449e+01
-1.240770001778379372e+00 -2.234646737119184046e+00 1.677437423321559962e+01
-7.118990842304746103e+00 -7.767851487349211048e-01 1.970339447306303171e+01
-2.843836907938330216e-01 3.791128677876271169e+00 1.740527548880264774e+01
-2.741214349412557816e+00 -1.681740965969965584e+00 1.995581232499140967e+01
-4.189342288231117095e+00 -1.679417026356930132e+00 1.724339387987237515e+01
-4.231798603115596968e+00 3.002803458700098460e+00 1.857201342239204322e+01
-4.030694850082765512e+00 -1.592171726890921457e+00 1.709325778724252487e+01
-3.573483100887612451e+00 -3.835658737417740660e+00 1.919361837213225286e+01
-7.335442350060067618e+00 2.049576419136250660e+00 1.694134209489400078e+01
-5.418818937979953176e+00 -3.379039372951827325e+00 1.939540807753543206e+01
-4.205683938938928002e+00 -1.975126573217371506e+00 1.751618697333512031e+01
-1.504799368154171368e+00 -6.546494882823350459e-01 1.406468543587613951e+01
-6.355675834530361001e+00 2.468098507141252895e+00 1.846037773293577899e+01
-3.854957056535465387e+00 5.012369252212116599e+00 1.754016008901773560e+01
-2.740136406524855239e+00 -1.344719143292155028e+00 1.989477723092506878e+01
-3.855728770755137536e+00 -1.851377833430922548e+00 1.727519783698127398e+01
-7.445007268179615778e+00 -6.846708219885033753e-01 1.919416806012345589e+01
-7.290202809916416449e+00 1.785592652127911295e+00 1.794496413456215222e+01
-1.520366152494417200e+00 -4.489099203438993158e-01 1.367065436152644864e+01
1.048831435115712196e+00 -6.122321174822538126e-01 1.844620711193190843e+01
-4.431734497365297010e+00 -2.805016537050710745e+00 1.827099103871222141e+01
-6.712993642257965909e+00 4.829189020266699828e-02 1.974942185505435432e+01
-8.270400519935199313e-01 1.364189488707867604e+00 1.876890211754891524e+01
-2.262492407893193391e+00 3.560199379201282710e+00 1.518488443731030557e+01
-7.099581596144792783e+00 2.421831650913119471e+00 1.755173573825092959e+01
-1.491536770806983991e+00 -3.672030267114452240e-01 1.353727713167443980e+01
-3.923539016686350855e+00 2.986187927385783425e+00 1.409989609269112165e+01
-3.589861437350175599e+00 8.648555894642765418e-01 1.158296831713218111e+01
9.242334819714824456e-02 -1.275551997062620568e+00 1.477918175372760246e+01
-1.855761382663816628e+00 5.062932783305137185e+00 1.735572999990958110e+01
-7.200775289813584834e+00 2.403222380074506503e+00 1.636405285660464060e+01
-5.677176466753571127e+00 1.993378129938380150e-01 1.337418248631324147e+01
1.127529621553831074e+00 -2.418942042775304557e+00 1.814256056978227960e+01
-7.307265576027783816e+00 1.999116614397035141e+00 1.754813025861505693e+01
-2.898771915364689367e+00 -9.515160818244561280e-02 1.371521343563043516e+01
-5.366875339335465789e+00 -2.956154138137747189e+00 2.034482872910536955e+01
3.599489587143911429e-01 -2.596881093910028859e+00 1.587050884915137416e+01
-1.191600084536279969e+00 -3.842880944702251611e+00 1.872955368162153533e+01
4.222512943619785020e-01 2.653341414208495230e+00 1.719019073811344711e+01
-5.462261450911570115e+00 2.465085468650270784e+00 1.433787289012576949e+01
-5.324855467300129597e+00 2.535199130910439358e+00 1.428430722003700382e+01
-5.573078160704990403e+00 -2.503587192084603785e+00 2.039606314877949345e+01
-5.041399823864876062e+00 -1.674157947799433499e+00 1.742502758636873850e+01
-1.290984764976876198e+00 -8.378874829480720265e-01 1.424453184415208895e+01
-3.728443089536425670e-01 -2.495411846962527491e+00 1.941360235106884247e+01
-5.778367066914804617e+00 5.728856022377122326e-01 1.281667118091629831e+01
9.111077105866811632e-01 5.124168333746317305e-01 1.817478692358711712e+01
1.076215942782998924e+00 -1.691702979689854169e+00 1.862835812953533221e+01
-5.787249661652655419e+00 2.162373431619059705e+00 1.895591407261129646e+01
-5.367539625036176432e+00 9.004913790570456822e-02 1.983164230116011240e+01
-5.576559628761312837e+00 -1.208942980076423535e+00 2.026810322603659031e+01
-1.637076465027075933e+00 4.790865573398718880e+00 1.748760188555037232e+01
-6.714221503579262951e+00 3.047618416795121021e+00 1.630908152368443709e+01
5.998262112274297397e-01 -2.043996434433405618e+00 1.917302964496492379e+01
-3.339920759925441907e+00 2.412239014502298051e+00 1.321298500254790653e+01
-6.567698446593595918e+00 7.603954563433468206e-02 1.980887910748466751e+01
-1.521568419669315109e+00 6.902577205455273646e-02 1.292898343808152717e+01
1.214569757787007653e-01 -3.479819976750436972e+00 1.734769182053866743e+01
-5.815246447354073922e+00 1.041199313150046102e+00 1.956583371442701846e+01
9.045518937735923526e-01 -1.123931234493040998e+00 1.560243681516717729e+01
-4.779896364046311241e+00 6.900670744303950555e-01 1.952637170166891067e+01
-5.162793718431175627e+00 4.474021113089077795e-01 1.219512061551467852e+01
-4.455984371636311892e+00 4.343512856774290221e+00 1.788983541263506893e+01
6.190352271634751435e-01 9.592446367986497968e-01 1.830118826099119289e+01
-6.318555966573624616e+00 -3.064793150297794311e-01 1.420243833303718972e+01
-7.326666319040635145e+00 2.039932799432579547e+00 1.714675691631780197e+01
-4.666332136217254067e+00 -1.905416654427554146e-01 1.424211645919296743e+01
-4.552180929447883884e+00 1.737590187205070857e-01 1.237028075214055534e+01
-4.056362220242700545e+00 4.554024837312750762e+00 1.779086720568174584e+01
-3.839156687947090418e+00 3.720024763669017354e+00 1.825914160986213730e+01
1.019833204972422802e+00 -2.632724358993907998e+00 1.734120890197560882e+01
-2.216801689765255379e+00 -1.063421797789484646e+00 1.574017777341814295e+01
-4.012628087791985543e+00 4.224394104672665406e+00 1.800556532281758493e+01
-3.636857098148418732e+00 4.378448116301083992e+00 1.791496002359713557e+01
-1.032066309745459431e+00 -2.376997629091144759e+00 1.679103210634881194e+01
1.504777075105605266e-01 -2.073068439564538679e+00 1.929296863273536289e+01
-7.837691845922474698e+00 -8.466791960780366555e-01 1.779395208484399049e+01
1.358173736593652370e+00 3.361934426188306624e-02 1.744682860213138653e+01
1.077641355997548622e+00 6.592429593574802293e-01 1.627492595257561803e+01
-7.366308598002375696e-01 -3.856254521479294262e-01 1.369997937513960196e+01
-3.279716877925610508e+00 -1.017830113350957078e+00 1.603686690126957259e+01
-7.876073972440194915e+00 2.518853325450804426e-01 1.584991092438553650e+01
-5.096091260374090437e-01 -1.952415380636324249e-01 1.363532276105934571e+01
-1.781561515025946729e+00 -2.511340024758337286e+00 1.978206125245364788e+01
5.459508327728916921e-01 -3.506133312194394946e+00 1.798091105838540571e+01
-2.304953868987685173e+00 6.011053066720898341e-01 1.212266592347819127e+01
-1.757314009914649366e+00 -2.298914072707092693e+00 1.975592669585968153e+01
-1.020188788838962024e+00 4.455107989469543561e+00 1.704588740362914834e+01
-5.939440682598553956e+00 -3.153056229732873916e+00 2.006545765387782509e+01
-3.132495694075217330e+00 1.268896063087604498e+00 1.209483594364114722e+01
-5.547718404188222152e+00 2.762863905962938738e+00 1.483613350053773772e+01
-7.236079800293229169e+00 9.362030169383872558e-02 1.923895308213137056e+01
-7.632706619072966880e+00 -1.471603387013886488e+00 1.898926805597879408e+01
9.309003520212311145e-01 -4.678854731512434029e-01 1.856520454976606160e+01
-1.007739914779647084e+00 -1.291285346999756056e+00 1.938908246173388861e+01
-2.580372730359965061e+00 -2.126918887047414941e+00 1.998409783581064758e+01
-2.174801177264042540e+00 -4.034834620337899302e+00 1.936761129215837585e+01
-7.536440385766562500e+00 1.648647060719691693e+00 1.646829516048840603e+01
-2.482120552969484528e+00 -8.655296061627926196e-01 1.554629348951555912e+01
-3.046188685131016038e-01 2.677274221674703192e+00 1.581373100861194203e+01
-7.687984500722698122e+00 7.501839811357204901e-01 1.785852391776757386e+01
-6.533934387250010190e+00 -2.379381131603973465e+00 1.819619354123722488e+01
5.846186470650145406e-01 9.787056078984558427e-01 1.504203678103013075e+01
-3.277790389867014209e+00 -8.082784619947112059e-01 1.571819843668114558e+01
-5.314453912075828512e+00 2.704493173161059083e+00 1.450522680881558202e+01
3.402728105748919485e-01 -2.055858789427159827e+00 1.544765924692090309e+01
-3.535322563198769252e+00 -6.656048597775887643e-01 1.553616341332427808e+01
-4.810869065699510116e+00 2.945616285188102701e+00 1.865248654032123099e+01
-1.666499591190283569e+00 -1.600355701048529200e+00 1.628237304920649464e+01
-7.488704158979694547e+00 1.650108466299596621e+00 1.694245049467243192e+01
-1.829221870668909400e+00 3.576263015947601431e+00 1.809425625407075344e+01
-4.525019651347664817e-01 3.334488000047047151e+00 1.782235496475056991e+01
-1.594289550195656213e+00 -4.059427144044384761e+00 1.913411023630790808e+01
-2.941278850647345511e+00 -2.640631150297167995e-02 1.352850168418003207e+01
-6.577235729439871115e+00 -2.550153801265108378e+00 1.847550068679861468e+01
-4.668730899656384103e+00 -1.448655434308077306e+00 1.711983640708904275e+01
-2.332846340101963456e+00 2.715804989994452079e+00 1.423673072217956204e+01
1.107339946652779794e+00 -2.155967618455404633e+00 1.734764787935767671e+01
-7.427529743062954104e+00 -1.724552558607304276e+00 1.675075022864643515e+01
-5.251520969853875620e+00 3.993081548780558876e+00 1.798525768801421876e+01
-5.429204201275664055e+00 3.938425811116741393e+00 1.794933128864013483e+01
-3.214066934715592794e+00 1.323206898741301041e+00 1.913108487399953717e+01
-2.017670825761040287e+00 1.923604122706189967e+00 1.872372076203030034e+01
-2.509161484694546917e+00 -4.306242542254259398e-01 1.444021077142030052e+01
-1.650612316276133806e-01 3.164961078427602992e+00 1.647548239227080913e+01
2.086700786961014353e-01 -3.691250455497490535e+00 1.891646543329031616e+01
-4.628572048338960854e-02 -3.222838153225680013e-01 1.397870412628150305e+01
-7.726463554949511980e+00 6.789895213575251054e-01 1.564060076622477524e+01
-3.123846336718796302e+00 -7.915428291113910664e-01 1.980627466064863640e+01
-4.644108991558590915e+00 2.755709343479786355e+00 1.871420964975151335e+01
5.592725039580916935e-01 -1.308855673459155433e+00 1.494686939431491979e+01
-7.569383878792482534e+00 -5.752817761777613281e-01 1.571492025643795287e+01
-2.817497086973637987e+00 2.148854675009430615e+00 1.878181719446489595e+01
-5.450418489651585041e+00 4.802002374811955576e+00 1.718156025874916892e+01
-2.703571205526541288e+00 4.005905373005672843e+00 1.535970261596251518e+01
-4.154385633735975247e+00 -5.557041881917683668e-01 1.984365725520570933e+01
1.279331509409082024e+00 -4.514845274384902130e-01 1.774299366973475500e+01
-3.194853054300420547e-01 -1.458220974632926437e+00 1.482711375594831438e+01
-7.196872951315573808e-01 -2.222340118485166549e+00 1.613845709715311116e+01
-5.679607864691821995e+00 -1.179550846513704787e+00 1.673096527655411947e+01
-9.286944467075186616e-01 -2.135453904011754389e+00 1.948743252636613832e+01
6.159678261425496348e-01 1.508361591717410910e+00 1.583387653505441151e+01
-2.168702076367521325e+00 4.311624475267374912e-01 1.217909697972437399e+01
1.304060353482680679e+00 -8.444905895908214610e-01 1.779296000320954008e+01
-1.957133088022744993e-01 1.375719903284575274e+00 1.860362045296738742e+01
-2.034275334914439903e-01 -3.809974139977707175e+00 1.908413558726719472e+01
-2.580637953144645724e+00 1.348282575548564566e+00 1.259642816980815283e+01
1.340846066819109117e+00 -7.883697014819466276e-01 1.761514242822980592e+01
-6.176207444520043666e+00 4.131825700195648210e+00 1.689993612823384339e+01
-3.975056299100241830e+00 1.565516535531456199e+00 1.217662939888328921e+01
-7.108577380925504841e+00 -1.897530482600417345e+00 1.986740553645081420e+01
-7.743369589010122844e-01 4.058139382411079410e+00 1.682455650400809688e+01
-1.948766209318808063e+00 -2.944676173173215616e+00 1.767200960890889050e+01
7.581486305547183724e-01 5.163465306669958732e-01 1.505777096775136314e+01
-3.803193999595297470e+00 3.130652301446259500e+00 1.847909751324765537e+01
1.332932344839887984e+00 -3.999997945518916076e-01 1.763941921845960437e+01
-2.104719870576193586e+00 -1.875297948900238598e-01 1.349753261757811984e+01
1.132474005509785941e+00 2.582972573782020276e-01 1.623387444283483561e+01
-2.279551474607191874e+00 -1.628057157731299442e+00 1.661168443257893657e+01
-1.240987522953649780e+00 3.719099014515053092e+00 1.617262827560189109e+01
-2.417300710872827274e+00 -1.803624176590567396e+00 1.683209931781254554e+01
-4.279948855176657574e+00 3.438428340361869395e+00 1.476264809977818615e+01
-2.119873749616035252e-01 2.998932718238558337e+00 1.783986784320590502e+01
-7.392065664889647003e+00 -2.619140267685554635e-01 1.528998370680882246e+01
-6.787494174670155367e+00 -2.930422004632089461e+00 1.929793661675838123e+01
-7.494558681695899338e+00 -1.615769059626481541e+00 1.695379717080728810e+01
-5.374926157038228069e+00 -7.308336000322557258e-01 2.009816244583799616e+01
-2.633678302715023456e+00 -1.566865085255153334e+00 1.662849275906175350e+01
-1.622095127180354535e+00 2.969937394788204621e+00 1.829770676668256257e+01
-2.792543332005891443e+00 -1.645986496171764957e+00 1.676368471700564911e+01
-5.620717684703469885e+00 2.712418711106830749e+00 1.868082999992356363e+01
-3.820437654725582721e+00 1.990347321455756990e+00 1.892002022638112280e+01
-1.760409417577955549e-01 -3.822008025903440576e+00 1.897384809214009849e+01
-2.109468263579155067e+00 1.629062735092055902e+00 1.885817789899457253e+01
-1.617556882885709646e+00 1.735765799190340131e+00 1.872474366270036583e+01
-2.979077623464386537e+00 4.120289441929710361e-01 1.216063239337758617e+01
-6.269921843538819317e+00 -1.651766694055583740e+00 1.651646931973025190e+01
-6.439631963042503848e+00 -1.788312597451237496e+00 1.673260924418383055e+01
-7.630366571136564247e+00 -9.408822635779225951e-01 1.601831903940774637e+01
-5.698861309775734796e+00 -1.131717967606728603e+00 1.657996866846155015e+01
-2.075473453841875315e+00 4.231360927429428820e+00 1.606810742602901954e+01
-5.835962220566492498e+00 -1.216060651154022176e+00 1.634215769093227877e+01
-2.208187127674827277e+00 -2.815540447637989274e+00 1.762760494549742774e+01
-5.855219047734281368e+00 -1.416659969897580806e+00 1.692803930893549236e+01
-1.128449307442804583e+00 -8.451155709425506313e-02 1.322280219527963041e+01
-1.863498704439751741e+00 -1.104911032878071353e+00 1.956843018959056835e+01
-4.585270094411326269e+00 2.982437782015716077e-01 1.960976779557391225e+01
-8.847313559631753144e-01 8.093888598856802119e-01 1.346235658839039573e+01
-1.580254696307971107e+00 -4.039666970691988546e+00 1.925573884609275765e+01
-5.090400737049473712e+00 -8.861988185967872855e-01 1.639057929675227498e+01
-1.596775055410505351e+00 -2.514507781543549036e+00 1.972094749038260275e+01
-7.202659585446847812e-01 -1.104117807777953431e+00 1.443215091851760334e+01
1.083447501414206204e+00 -3.926400940430820885e-01 1.829344395501034271e+01
-3.395474698775200029e+00 3.934240444832411754e+00 1.813160239659170614e+01
-4.358407198040243458e+00 -3.643630538171983346e+00 1.920588098360606821e+01
-2.904732905131411247e+00 4.110288843859069452e+00 1.549028972291204909e+01
-1.797008204997717407e+00 9.421153561080491956e-01 1.900346509201392919e+01
-6.256951423960958714e+00 -6.477849797570121027e-01 1.461283867973859785e+01
-2.615455420947474074e+00 5.947188292294901535e-01 1.193036380847735600e+01
-4.207667586637040102e+00 -3.458040259287448848e+00 1.880692591341452768e+01
-5.169730467147155117e+00 -1.748377828069130890e+00 2.035127082500418183e+01
-3.385488321633128628e+00 4.140127332018798789e+00 1.803500551689760201e+01
-5.634818481361276277e+00 -2.072912130925229413e+00 1.790655721926588839e+01
-3.698377897852877183e+00 4.700594242191101557e+00 1.629833293671180527e+01
-6.900209247598570350e+00 -5.009844953388535860e-01 1.478032507632640247e+01
-4.604301674203385986e+00 -7.277929179542677041e-01 1.595610011656750871e+01
-1.533226921618395577e+00 -1.789333558346758446e-01 1.328793818192257348e+01
-3.169265328598067644e+00 -9.042014600157122217e-01 1.984442523604417019e+01
-6.667061378715091635e+00 -1.065117092062357163e+00 1.523083307264935726e+01
-4.833239255611881724e+00 4.748422383919082002e+00 1.752921744354509670e+01
4.119649751428183793e-01 -1.895708910877385245e+00 1.922359558676549440e+01
-5.409578616291836894e+00 3.489398322637837779e+00 1.829031042620482950e+01
