-1.621176706568938419e+00 -2.593118143597925140e+00 2.047128433514371082e+01
-2.097341686879739875e+00 -1.428127196003930344e+00 1.680059802088227983e+01
-5.544369820227020185e+00 9.837720330352851539e-01 1.314755236852584730e+01
-1.562505064514777331e+00 -2.213222163398496090e+00 2.044545176091945748e+01
-7.180852911081930579e+00 -1.334294285729745067e+00 1.922869911310712965e+01
-4.601268977539119120e+00 -2.971818118790320540e+00 1.872862471518323346e+01
-1.764882652887898695e+00 -2.395874457031060167e+00 2.045548648111206447e+01
-8.452607832926059217e+00 -1.037428935103734462e+00 1.657152139992721729e+01
-7.476527978977687283e-01 6.279062774265526947e-01 1.925772535503098126e+01
-2.401591329210411629e+00 -1.756693015431822769e-01 1.405132573195266943e+01
-6.815019114574520032e+00 2.565100686882114900e+00 1.506490460855338753e+01
-3.559664416007104482e+00 -3.795374613719130430e+00 1.977344896869582769e+01
-5.620988120664884846e+00 -3.854542478019925777e+00 1.953424497770399526e+01
-3.990926571265368317e+00 -7.729966811325922338e-01 1.663863578801384691e+01
-4.180090188013107166e+00 -9.501962661770029239e-01 1.702499997243483065e+01
-2.055899952553577492e+00 -1.989542508319767755e+00 1.792360356256519438e+01
-5.651645722731270638e+00 -3.575950386918658186e-01 1.426489810291235827e+01
-3.145138265492500196e+00 1.147790754829104198e+00 1.958186468271088998e+01
-2.974469363378742237e+00 -9.510822029989458581e-01 2.014225741362973210e+01
-2.374806106502449499e+00 4.058964521345177268e+00 1.831538713308558997e+01
-5.549883445775973811e+00 -3.147148148378164922e-01 1.419330991976472589e+01
-6.833901929924363072e-01 -2.033488701000075061e+00 1.954407384697483607e+01
-3.984583396099794061e+00 -2.763236458999472234e+00 1.872234166826490664e+01
-5.811837607791775717e+00 -2.380917525672281987e-01 1.403088049810250126e+01
-6.467670842759377869e+00 4.675085582415935193e+00 1.671556509081265673e+01
-3.872910161302666188e-01 -1.307325209682636213e+00 1.697559555115099172e+01
-3.172019904509031374e+00 4.832984342583049653e+00 1.791547874919941918e+01
-1.574458310752775869e+00 -1.076437732555285409e+00 1.559773398944045297e+01
-2.478601105337432386e+00 3.981223368629368764e+00 1.707460726585373934e+01
-4.970630031181754838e+00 4.308822217945241562e+00 1.802443243120410088e+01
-3.458543541777744146e+00 1.123134292688806823e+00 1.956082382051771518e+01
-8.176976371861222503e+00 7.341892258234602453e-01 1.586289714547244856e+01
-2.988107878642018544e+00 4.848102637863538789e+00 1.786241863141293962e+01
-7.298081904804177844e-01 -1.956645170995607863e+00 1.981192153445477189e+01
-7.278099304743837372e+00 5.064673340883893427e-02 1.876400497726146810e+01
-1.554525743031949458e+00 -2.892102473881618341e+00 1.793122930127449521e+01
-7.162099161441841666e+00 -3.071570183150800215e-01 1.892570472361475353e+01
-6.950867895771978056e+00 6.065016019799979174e-02 1.887904589888820439e+01
-3.306778360071304323e+00 2.784476342893257517e+00 1.902544197552308347e+01
-5.357062321792382953e+00 3.872610438392404042e+00 1.811173902309608863e+01
-9.691528319668323288e-01 -2.468662341379849190e-01 1.545384806700771563e+01
-2.862644903162975485e+00 2.284181346042539196e-01 1.307059515083635048e+01
-2.802725154132780894e+00 -1.712306525559398329e-03 1.343087119026055731e+01
-5.757874121538661960e+00 4.327626862602780844e-01 1.924726586813228479e+01
-4.849980972332144979e+00 -2.319042321515370819e+00 1.827016323892769023e+01
-5.963229692505937152e+00 2.139569442144658495e+00 1.418056756651411732e+01
-1.967468382340108013e+00 -2.817641383082584827e+00 2.047299090670327004e+01
-1.716060602781006583e+00 2.678732957646985380e+00 1.896781272720517464e+01
-6.790263310699045540e+00 1.270554962015275180e+00 1.853340162850700423e+01
-3.565510530006157364e+00 -3.723532052380525759e+00 2.027033881928042192e+01
-6.396366363098237251e+00 -3.532981036076734416e+00 1.856143278603896718e+01
-6.787037130533781770e+00 1.687208912871642541e+00 1.837407384609066341e+01
-7.917371811788892266e+00 1.904140841425734809e+00 1.730359995962619379e+01
-3.979707293239069354e+00 5.063270703232813474e+00 1.774097898515021043e+01
-6.937041286161573339e+00 -3.680055872593644306e+00 1.934103990349350610e+01
-6.521804757414320974e+00 1.750289181837340724e+00 1.438309189013248002e+01
-2.994422447822469024e-01 -2.898464994523193838e-01 1.763993367624632569e+01
-7.565394357122782409e+00 -9.509339455692495946e-01 1.898728258887311782e+01
-1.007305771898604929e+00 -3.549922344652206352e+00 1.891178342301580173e+01
-3.339946687247122625e+00 4.266513823341011147e+00 1.835114632655096401e+01
-3.369218346346380510e+00 4.623173727111252518e+00 1.810362035569172079e+01
-3.544994236439036772e+00 4.881884663937162472e+00 1.790985059198857599e+01
-1.346927222930032642e+00 -2.787166337976802466e-01 1.494674225038670912e+01
-7.764867172022703379e+00 1.673730662933039737e+00 1.771334183318583300e+01
-6.966867708531895076e+00 1.691445412730163911e+00 1.827561713820932354e+01
-4.779362206592240092e+00 -3.957239047588501979e+00 1.996675250163076853e+01
-3.335002224931492787e+00 -1.974158869725694543e-01 1.995818926264213999e+01
-3.597758918622269597e+00 1.416974275706619490e+00 1.269196003901928194e+01
-6.260749378788670327e+00 -1.167714794212211693e+00 1.544689242762335724e+01
-2.843924212635196902e+00 4.791689818644897514e+00 1.788083154149083143e+01
-2.621253872615788350e+00 -3.946423640390799292e-01 1.458783886998564938e+01
-2.997888099927250583e+00 2.336004082972544360e+00 1.450101413368603076e+01
-5.130883064206954725e-01 -3.179758092954859894e+00 1.876016903608978836e+01
-4.562146466245851073e+00 -1.767030633104746395e-01 1.976158824864802810e+01
-6.696288754882581129e-01 7.348962274992558719e-01 1.866401155701493408e+01
-4.551958250665612549e-01 2.148271241883149829e-01 1.815233898090319187e+01
-6.394963414945602942e+00 -3.654437264581709144e-01 1.920901095440548190e+01
-1.972399434993595158e+00 -3.310453025304993080e+00 1.913523559981776501e+01
-5.787995759400277329e+00 -2.113334979671504854e+00 1.779505289954367342e+01
-8.007338572361888396e+00 2.341814255344582651e+00 1.652965528818836205e+01
-8.503055131389704258e+00 -1.098678179401696653e+00 1.667874539120552768e+01
-1.786155178981164715e+00 -3.194652973845788058e+00 1.889476768475585899e+01
-3.385863107791746263e+00 -2.001282870707941974e+00 1.830705457667429314e+01
-1.365728562906861399e+00 -1.689868376287761098e+00 1.618575721215743712e+01
-3.384229732066221796e-01 -5.374919764782406517e-01 1.821590849565624737e+01
-2.449348036129429751e+00 1.593908454526349328e-02 1.365793901997792048e+01
-4.766614942756521422e+00 -4.686335749225420955e-01 1.502248557653483729e+01
-4.746646521476147740e-01 -3.090552232676855304e+00 1.800580987974743508e+01
-1.133934487041203365e+00 -2.631247327887708654e+00 2.021007169224548861e+01
-3.191573385206235791e+00 -8.398435994118484960e-01 1.666598863710338563e+01
-7.573277939006413995e+00 2.538282998105738653e+00 1.573158704058663560e+01
-4.976786529708707718e+00 -5.177127887492277702e-01 1.521861457650041061e+01
-4.545624606389477407e+00 4.587170723160102881e+00 1.630841827491740403e+01
-4.785031056292740281e+00 -4.373556956284911923e-01 1.485818173517605700e+01
-1.947606534532138722e+00 -1.906078933847478396e+00 1.718511624136409566e+01
-2.849749579772132169e+00 3.820327946648536255e+00 1.640689747368491780e+01
-5.125200489532148573e+00 4.574882095564236084e-01 1.274064305342535519e+01
-7.043881210632228829e+00 1.190078216268369626e+00 1.463658048156924352e+01
-4.006419755747993250e+00 -3.742539118206902327e+00 1.936721553569912757e+01
-1.311004672540496241e+00 2.739916090994081621e+00 1.852907549229089668e+01
-6.617934405210954552e+00 -1.946711982038449307e+00 1.947300873035711177e+01
-7.415931092562707327e+00 -1.978420903119346264e+00 1.567718210747269936e+01
-7.305344270002866125e+00 -4.377091396694843262e-01 1.454618067669451520e+01
-3.996623272513323499e+00 1.719929656270310914e-02 1.301395041504687455e+01
-4.043287828236625803e-01 -1.752287588894461567e+00 1.858803114276095059e+01
-3.553044001963203691e-01 -1.741815798301375562e+00 1.818070512900419899e+01
-6.332985867135935143e-01 1.091485052174436116e-01 1.621083464999471246e+01
-2.937387809775664049e+00 3.389119970487567191e+00 1.585982725796864301e+01
-6.642191939350482244e+00 -2.900087205476455043e+00 1.785465270152160500e+01
-1.832618647454120842e+00 -2.299080198502065020e+00 1.736994077137758197e+01
-5.584150937735445908e+00 -9.654301818025656790e-01 1.962547716762021466e+01
-2.395631138091497192e+00 -1.248179033762236934e+00 2.023082637650721338e+01
-8.312557585767537560e+00 1.363497079797381994e+00 1.610942195273750244e+01
-3.798422523227423575e+00 -3.521491513205613710e+00 1.922406596028087122e+01
-5.364533434553359292e+00 -1.500399073604042899e+00 1.741855569982086749e+01
-6.178412360762504996e+00 -3.591039077635883370e+00 1.874458158325646551e+01
-6.801159241631179242e+00 2.969236401478634324e+00 1.531123773177136727e+01
-7.331961501283343452e+00 -1.967256305139217787e+00 1.937675780407861836e+01
-6.254623606237704081e+00 9.998458451982199513e-01 1.380374485088300318e+01
-5.431396509403980666e+00 -6.060490506295350688e-01 1.527730834890183687e+01
-5.183600581923066386e+00 -4.928641944969981425e-01 1.502522744052753367e+01
-4.757589414788355731e-01 -2.703128356247111341e+00 1.755701621102610588e+01
-2.752864959730791039e+00 -3.945908496479110239e-01 2.005400536841848336e+01
-7.195614075746947336e+00 -1.016390077129664338e+00 1.504589710867320562e+01
-3.168989009700681869e+00 2.410156011110488328e-01 1.985600714750387752e+01
-3.007319104290126166e+00 4.619274905311304025e+00 1.720192070739767232e+01
-3.536250287119166558e+00 2.652748613270619504e+00 1.445120740081878452e+01
-4.729829451679975705e+00 -2.251044525892990089e-01 1.974553729382312284e+01
-6.199598840047224613e+00 4.650440718256037442e+00 1.701382653174431070e+01
-7.992157521014461308e-01 -2.755225781999426804e+00 1.960067337120547037e+01
-8.145757865458520541e+00 -1.302351702227760422e+00 1.864080621794100168e+01
-1.410569814779316200e+00 -8.393664255606132496e-01 1.541120427915141633e+01
-5.595183429149946264e+00 4.419706612173568416e+00 1.589778516077743475e+01
-1.403556746879302430e+00 -6.374339808908575655e-01 1.522231454016668195e+01
-4.186853929325330625e+00 4.930552429572552242e+00 1.781472172922922326e+01
-4.654056336380946179e-01 -2.301748426576978535e+00 1.723533424518141643e+01
-8.003593680404110344e+00 -1.921600557405930054e+00 1.882091107331483570e+01
-1.023714907741127611e+00 -1.256851269590392173e+00 1.601205077781993324e+01
-7.937515656685934395e+00 -5.218626639530836719e-01 1.866093225163573877e+01
-8.504750301774267385e+00 -4.779937609477629135e-01 1.665772832259564140e+01
-1.818637166227033086e+00 -2.320243267375267759e+00 1.718322040865939115e+01
-2.721385309377857720e+00 4.349084485075913165e+00 1.820213311109454324e+01
-7.979269526824974701e-01 -2.957278130779267933e+00 1.737933386668039404e+01
-1.350090443377614413e+00 -5.920312534424465589e-01 2.016977488268883789e+01
-5.373818125103665189e+00 -2.109643350332057743e+00 1.800771535467992024e+01
-1.567612507453254977e+00 -6.034559225033822027e-01 2.017555909012455473e+01
-5.348327263847800772e+00 4.053710478444826570e+00 1.801729656209540664e+01
-4.408666149579149263e+00 4.093101697042744180e-01 1.244270058664474377e+01
-2.321783745709282698e+00 4.279338708977149963e+00 1.813009477267276637e+01
-4.190890256178453122e+00 2.839720992813963729e+00 1.424313885724171413e+01
-3.190973204669368180e+00 -1.517578259081461711e+00 1.783645218254375564e+01
-3.291731754388539155e+00 -1.406900887368015107e+00 1.772076147546559710e+01
-2.332863990398667209e+00 3.931737509482154280e+00 1.839399030320997852e+01
-3.020471902694160438e+00 4.792291374672587589e-01 1.268021442530622167e+01
-4.902150415955850993e-01 -4.864816135784757467e-01 1.868697565140385919e+01
-5.956963295685982374e+00 2.368428647391296604e-01 1.921117612726234469e+01
-7.576590613742565594e+00 -2.248026817887736950e+00 1.597459888977713049e+01
-5.582479660890778739e+00 -2.594739972242851245e+00 1.831133246993732300e+01
-5.368523123704922462e+00 4.705960926639505715e+00 1.617088419875443250e+01
-2.363677510664517811e+00 3.890741484534897321e+00 1.711791653828727178e+01
-3.818773902204654291e+00 -1.167012652728942612e+00 1.738144390038767639e+01
-3.593113680421033962e+00 -1.326419123899873487e+00 1.760539012734618680e+01
-4.718347598631865480e+00 4.098275026784428121e+00 1.822821800691507477e+01
-5.190412349098736833e+00 -2.096399686497725678e+00 1.805192644951748449e+01
-2.579963466439171071e+00 -6.277677492017239569e-01 1.544036222446501583e+01
-5.979971176574401248e+00 -5.560740401134003363e-01 1.937993002753943372e+01
-4.797160165395401243e+00 4.855294425830511074e+00 1.771062689037880844e+01
-5.305000445463201153e+00 2.500572969999571793e+00 1.399551657390217585e+01
-1.578506155870559535e+00 -3.121387903941542863e+00 1.856011483412644836e+01
-5.748874312926647079e+00 -5.587180237823761164e-01 1.947894237551354379e+01
-8.575799030664100542e+00 -8.683203414055766789e-01 1.706715363649602679e+01
-3.599754119306901590e+00 -1.728342204176456676e+00 1.801905363807546578e+01
-4.155400876947584088e+00 2.585877906934708648e+00 1.904176944548654760e+01
-6.073249821926389735e-01 -2.376859181038829316e+00 1.918284051902204723e+01
-1.551296659269278067e+00 1.431185481252651215e+00 1.951761297961933295e+01
-7.238927152938435583e+00 2.916903759421697107e+00 1.741384730027552408e+01
-2.552613162620138709e+00 4.117517312970831789e+00 1.713207100913146164e+01
-8.571092622512978210e+00 -1.089227278933208254e+00 1.701698375689732146e+01
-2.153232330382086168e+00 8.106090400878235291e-01 1.971679315124817222e+01
-2.184531316865895079e+00 1.446179592905016076e+00 1.954920193056966227e+01
-1.744379873611243248e+00 2.135016530313359251e+00 1.605916120469094821e+01
-7.395446307704509614e+00 -3.498230946352931081e+00 1.839168879487468544e+01
-4.549707019025177601e+00 5.324378949874388312e+00 1.737399721932238705e+01
-6.227154351626434270e+00 -4.523340806443093554e-03 1.383404101060080293e+01
-7.566296408120805950e+00 -3.456303612412551907e+00 1.837036200919585482e+01
-4.076103189590186915e+00 1.489146305401316539e+00 1.258499604092120805e+01
-8.477174091828349134e+00 -5.672531486102333487e-02 1.660921747182586827e+01
-5.582684760844539795e+00 4.318131260566402951e-01 1.932143923207634728e+01
-5.555218609107099859e+00 -1.755119005383768971e-01 1.388012098945643302e+01
-6.917401955576323314e-01 7.828263868375974210e-01 1.679699975261547351e+01
-2.593242066247540834e+00 -1.381796954859284332e+00 2.023051705112783694e+01
-6.351827397465186209e+00 -9.764192023355726668e-01 1.935179443783288278e+01
-1.107509251350672796e+00 1.522782988223466472e+00 1.662645872914290734e+01
-1.801427109545357341e+00 3.420799393682758982e+00 1.852820129965580165e+01
-9.911236742717195458e-01 -2.868426658796067397e+00 1.719997654506397922e+01
-8.651707549919461782e-01 -4.634188545197794884e-01 1.563324928802800784e+01
-6.002928334869218396e+00 -1.704144380388638691e+00 1.719974867464760493e+01
-2.793014768109925772e+00 -1.152262410990948061e+00 1.724579470041126328e+01
-2.160763046856047254e+00 -2.653418509100471834e+00 1.866223975914187250e+01
-3.747206084489360212e+00 -2.391918772410300154e+00 2.018814901349989199e+01
-2.769251552975227071e+00 -1.053300246038695098e+00 1.703249211640103411e+01
-2.768721965207817881e+00 -2.919573973162074232e+00 1.900594730042417879e+01
-3.580645366546820529e+00 3.655253095131671959e-01 1.255851177780405337e+01
-5.987864502443771997e+00 -3.714445997664619359e-01 1.426517806825862422e+01
-8.011987274135496051e+00 -3.155487509718503336e+00 1.802286318758253358e+01
-7.646337211411513124e+00 3.131656822232403936e+00 1.656032413537771575e+01
-7.906769605680572965e+00 -3.239096040438515622e+00 1.835965820716235797e+01
-1.537903573389986178e+00 2.532101200391260853e+00 1.897248524629209143e+01
-1.564980995053653068e+00 1.219177098761872857e+00 1.960025966175356515e+01
-8.099621094786225939e+00 -3.019641365921878151e+00 1.812202652572294781e+01
-6.672600880894852260e+00 -9.285435631162748393e-01 1.494214208043553427e+01
-8.633134110389922844e-01 -3.157230933903274916e+00 1.967863163195033493e+01
-7.409203775193054398e+00 -3.134945174588219530e+00 1.756526651714530018e+01
-2.828480786889176368e+00 4.232942661430084685e-01 1.285908185004789672e+01
-5.753724378045675936e-01 1.043565589354625178e+00 1.804030975774331225e+01
-8.043621844851369218e+00 -1.871462595876851598e+00 1.620451673844413065e+01
-2.582505901341423993e+00 -1.590279695785822289e+00 1.777568048108389931e+01
-5.588264795941216612e+00 -6.288927944359677946e-01 1.504725704278392229e+01
-8.411179554266583480e+00 6.986206597418291864e-01 1.707825394749263026e+01
-1.587539418723961981e+00 -8.789653743839256350e-01 1.538882099407377879e+01
-6.415266806964519120e+00 -1.677616924934818954e+00 1.603036380380565973e+01
-8.142807061810152902e+00 1.535547738871222423e+00 1.710430059275651260e+01
-2.776275663620993761e+00 -1.363442495566233426e+00 2.021671666339453921e+01
-6.205114424875775470e+00 -3.142522078255414186e+00 1.975097774140340690e+01
-3.987289418473022096e+00 -3.471468653097318224e-01 1.423809899106249688e+01
-1.656904961261411957e+00 2.452081499886346716e+00 1.654359440200636655e+01
-5.617980361886991680e+00 2.541850449476959817e+00 1.860106341739121305e+01
-8.262591349578476851e+00 -2.105128858331219988e+00 1.652047233874757026e+01
-1.837414505707347656e+00 -2.577122320571132441e+00 1.831701429201831743e+01
-4.158240170211708886e+00 -2.821585252395820476e+00 1.871214493254938915e+01
-1.874226744831712033e+00 1.110014420914181787e+00 1.471616435208678908e+01
-6.209726090761732209e+00 -3.365445642952958227e+00 1.978160033477464808e+01
-8.260822577688808011e+00 -2.136427164946039348e+00 1.821524442652312459e+01
-4.204917559628412960e+00 3.697509911506067670e+00 1.536843675558153777e+01
-8.059040155653136139e+00 -2.511281536287484073e+00 1.849221819641264020e+01
-3.150624874770810102e+00 -2.016085562800699282e+00 1.831993152380234235e+01
-7.002514870843711492e+00 -2.123906574564174754e+00 1.947699851922837766e+01
-4.123492213587582889e+00 5.346861566882218142e+00 1.745004082253290179e+01
-6.223933953310882394e+00 4.769028884283898151e+00 1.687259049593362548e+01
-7.029463923712799378e+00 -3.878444187532965604e-01 1.451318265121956941e+01
-4.550295255382061477e+00 5.217067571961695904e+00 1.749126824088224552e+01
-4.825182568031695318e+00 -5.838163034610437396e-01 1.564395536362166794e+01
-6.332497762563392918e+00 4.849785264403591256e+00 1.657069911438103915e+01
-6.356300169583721349e+00 4.708079779573550283e+00 1.680106097130017773e+01
-6.498928113726456068e+00 2.514051513808199800e+00 1.481307962058370364e+01
-6.179588497570961181e+00 4.711470090559298995e+00 1.636506038496724003e+01
-4.041403649828708922e+00 1.687378896177785803e+00 1.282709412190515863e+01
-9.817603681272486504e-01 -3.607155369324160699e+00 1.914111776384227781e+01
-4.167511522594919526e+00 4.211866973725525432e-01 1.966853600444803973e+01
-1.086463224038793918e+00 2.700549577315793925e-01 1.552914841412880165e+01
-7.347250114040435598e+00 3.521412133968410352e+00 1.676667128634774784e+01
-2.774886434327856310e+00 -2.698476794144574864e+00 1.884059660313534224e+01
-5.208541998593025468e+00 -3.374677743923445661e+00 1.888934828713692937e+01
-5.250503228085338092e-01 -9.552342522971002392e-01 1.917665695016054528e+01
-8.584421936182843327e-01 -1.065513275330610243e+00 1.604986047327209420e+01
-4.395941718040077717e+00 -8.688956782408605584e-01 1.683640263893158462e+01
-3.965292432265194122e+00 5.141270862609168546e+00 1.716027275834142429e+01
-3.399328772128991094e+00 -1.702483102930136605e+00 1.802921930668382444e+01
-3.997802664939519524e+00 4.904646961076630785e-02 1.978881416573627305e+01
-8.190468741557015875e+00 -1.869522193261133225e+00 1.638305179975811043e+01
-4.597860237679530115e+00 -2.709417013768911531e+00 1.856714807209591456e+01
-4.177655816030272362e+00 -2.515411990528132691e+00 1.850244642216198443e+01
-2.246375512168684363e+00 1.074491696161217202e-02 1.383942144115324524e+01
-7.534493026413420225e+00 3.329805780139910798e+00 1.656584879054605963e+01
-3.794993075291497320e-01 -1.905704271713915876e+00 1.718676849199463064e+01
-5.156027098688884536e+00 4.042044013886825660e+00 1.810597756037224215e+01
-7.371549002895018354e+00 2.516786051101745247e+00 1.755857001942579743e+01
-7.633502136927456938e-01 -2.196008710837871636e+00 1.976985426976614590e+01
-2.175763664149906518e+00 -6.986452659414854605e-02 1.402302422770139501e+01
-1.593939579389451300e+00 -2.087814605857090555e+00 1.657711747381867795e+01
-6.976199172163374485e+00 -1.113751814044007693e+00 1.513493881344556868e+01
-5.924867839689119897e+00 2.860609798507774304e+00 1.828512551079111503e+01
-4.607698033257346282e+00 -6.779856110167519212e-01 1.626684721449005977e+01
-8.564599686893714647e+00 -4.952681378311655225e-01 1.706392082363604246e+01
-7.124683268972266781e+00 3.484639892765139635e+00 1.711237384011691987e+01
-3.225604148881701105e-01 -1.709609301589321007e-01 1.799402786256572639e+01
-4.001848990445265875e-01 2.519176766339930040e-01 1.803895491474255763e+01
-6.913641036365442361e+00 -2.996248875889981900e+00 1.769613615197386380e+01
-3.638443434159037704e-01 6.851125556911652481e-02 1.805297577261714181e+01
-2.042158498506934095e+00 1.515438243894522419e+00 1.490297053676668426e+01
-4.956551303554070920e+00 4.458163315818913119e+00 1.793216958305908193e+01
-1.987246341666444316e+00 -1.988954710047473373e+00 2.034636305924968624e+01
-4.808495410533089931e+00 -2.035460564238410486e-01 1.384323849866782652e+01
-7.973991748779158506e+00 -2.157180941766594806e+00 1.881227344736214846e+01
-5.381447267568952419e+00 3.725008132689960672e+00 1.515950254698422484e+01
-7.422129084480515004e+00 9.523278259595351347e-01 1.836386780032034594e+01
-7.587175074897277050e+00 8.780062580977020525e-01 1.830627320263369384e+01
-6.617539943023192706e+00 -2.253431478282597933e+00 1.724345909589809267e+01
-1.646427667157786656e+00 -3.009757261061477784e+00 2.046140964351795688e+01
-6.041459167798770125e+00 -2.217897850423049544e-01 1.405585283459449997e+01
-6.194559611387508546e+00 -2.923245134908748488e-01 1.418774203429334690e+01
-6.273349020374530127e+00 3.832216122600662800e+00 1.567000601752740252e+01
-4.956963571301593596e+00 3.094745094385250361e+00 1.861110492685625317e+01
-5.763286093677238320e+00 2.234124633273721017e+00 1.866730594908521468e+01
-5.037871962948180737e+00 -3.624265021619942129e+00 1.908762006571206982e+01
-8.253736681138720499e+00 -2.508146645390163076e+00 1.806351199008654262e+01
-1.211017976053138989e+00 -3.200182297528791686e+00 2.011435246859810277e+01
-1.932374117675465408e+00 3.503224288421050492e+00 1.729993362849690541e+01
-7.566236472678250280e+00 -3.060304463947568276e+00 1.739881541325347669e+01
-7.793820038965174390e+00 -3.163479014719555948e+00 1.772555115445846141e+01
-1.404142042560791115e+00 -1.411223481414140224e+00 2.033900084863260460e+01
-9.763029323426802852e-01 2.250971257385082414e+00 1.804910443540598308e+01
-2.580151290224169003e+00 -3.575350126351321212e+00 1.953387418805312237e+01
-5.796081408025943738e+00 -3.604440622446331677e+00 1.892202531398899268e+01
-7.587753819669781130e+00 -1.224324132776254848e+00 1.543842038947272854e+01
-1.955950366159517229e+00 2.657795868288607366e+00 1.904923041739154499e+01
-2.801838534451961404e+00 -3.572927768548227689e+00 1.954704403597178342e+01
-3.325053415426494130e+00 -5.789293430873283519e-01 2.004017271486374696e+01
-6.792070978569055839e+00 -5.014674459733333700e-01 1.458191838603092449e+01
-5.602562990662851128e+00 -9.979916536256245863e-01 1.641441631918633348e+01
-1.185903078527020371e+00 1.210801567228104947e+00 1.946196714514065818e+01
-7.397014123653826267e+00 -5.098160571388047346e-01 1.890918255826411709e+01
-5.442968019473142682e+00 -4.661304095967809813e-01 1.465736770316615534e+01
-5.822083888757164871e+00 -5.770016986640594814e-01 1.463755883597552909e+01
-6.358211854409412389e-01 1.268440486428329628e+00 1.804315593109017968e+01
-3.387219358083250142e+00 -1.609995432769285362e+00 1.793841563368774317e+01
-1.992728657903834355e+00 -4.587817519026193835e-01 1.481667916253913475e+01
-1.769982783816540506e+00 -7.243172948402890610e-01 1.519468508397190121e+01
-1.629927101559436542e+00 3.151389761759869401e+00 1.861033950772937473e+01
-1.692464441807372655e+00 -2.885861286376190993e+00 1.842789436016318305e+01
-5.442005411304825735e+00 1.166496765230772947e+00 1.918060341059359430e+01
-3.791140474760693824e+00 1.283613269251681066e-01 1.281233103901398707e+01
-2.408173676889378889e+00 -3.064851096525396112e-01 1.437771107436897822e+01
-3.207125833256175618e+00 -1.166165438600049065e+00 1.739451913260770155e+01
-2.980692949770941347e+00 -1.712546561392259026e+00 1.801481783371302825e+01
-3.415940031129304000e+00 -6.738257720841968057e-01 1.618080208614354731e+01
-3.215416579160252475e+00 -1.677372592676114493e+00 1.801041935788012793e+01
-3.171777550788617894e+00 -8.811295779466066236e-02 1.338148504097884128e+01
-6.424821788421669844e+00 -9.307450369187828532e-01 1.495826466822493117e+01
-3.804826372602255091e+00 1.720250475650678679e+00 1.937749364042440092e+01
-4.983324813118710672e+00 -9.847145848800640255e-01 1.984393963026266405e+01
-6.206666757007825552e+00 -7.973307890800513942e-01 1.484244443084919496e+01
-5.218109955476088579e+00 1.980616083129842719e+00 1.350182115254955661e+01
-3.412493654397780407e+00 -1.522055672564238460e+00 1.784106317923507490e+01
-7.376841573504669292e+00 -9.970115006006114999e-01 1.504084212068705639e+01
-4.247968133077814068e-01 4.760643058937290006e-01 1.800321314996086741e+01
-5.594418850475810778e+00 -3.630133819731437006e-01 1.950537198665678673e+01
-1.122865308291414399e+00 2.652838242844810956e+00 1.808608384461854612e+01
-7.830732007421860708e+00 -1.467067253230104784e+00 1.582690935631584850e+01
-8.487394010355863827e+00 -1.540668749433419249e+00 1.777999317335235574e+01
-7.794551153587863546e+00 -7.292855789509121722e-01 1.881992857607076886e+01
-5.007878429125470099e+00 1.441947012045105281e-01 1.304673244154360745e+01
-8.285401743822689014e+00 1.488377517674257300e+00 1.647048168034985238e+01
-3.962468940708339993e+00 2.188904181666901039e+00 1.921378609527660686e+01
-8.517406611939957628e+00 1.565877692452465886e-01 1.709686602879553519e+01
-4.926728492629384171e+00 3.854338398267987298e+00 1.828658515401792428e+01
-5.169771286857738346e+00 3.855637863055729753e+00 1.819973015530006322e+01
-4.019200123884102638e+00 -5.560012446043801626e-01 1.563417812815105989e+01
-6.460374076047994407e+00 -2.048501586450897527e+00 1.722825820009640196e+01
-1.362876431420887435e+00 2.451477495634967863e+00 1.889870712018103305e+01
-4.031109187237658098e+00 6.097385304271585316e-01 1.220637533055809243e+01
-3.834172507930581730e+00 6.041669955957886806e-01 1.224366114502253211e+01
-2.586088443184258789e+00 -1.782682685945510048e+00 1.798231196585678404e+01
-8.308086508262686465e+00 1.322919715017967457e+00 1.670890715344384247e+01
-6.839289582344836305e+00 4.319159304227586205e+00 1.663857914699152118e+01
-2.372354226448393888e+00 3.828522106483493559e+00 1.847570212074900908e+01
-6.923924811456773298e+00 4.097211072264842713e+00 1.677045134398879256e+01
-2.163054476606033560e+00 2.032338363092500266e+00 1.935914943181883885e+01
-7.067717398713783128e-01 -2.794928495900485643e+00 1.943665225077114300e+01
-5.628878641338265432e+00 1.425001667108734216e+00 1.343962079995281655e+01
-6.749371382940862141e+00 4.321030581133289417e+00 1.675673518783168348e+01
-5.735820266721062488e+00 3.867519107292562985e+00 1.790986083435248943e+01
-1.822001937455842935e+00 -2.336340512030401939e+00 1.795813351254209422e+01
-4.985723760730058629e+00 -3.930948749353834426e+00 1.995097584537139923e+01
-6.352636691800926272e+00 -1.988680606398519402e+00 1.951078730175959564e+01
-4.958058985347530090e+00 2.266973274674822569e+00 1.897806603425145866e+01
-1.036007542921640434e+00 2.370461495385116191e+00 1.818340004999092585e+01
-7.685701767533855033e+00 -2.764624871174750975e+00 1.912617061660263218e+01
-3.342920992898200439e+00 3.633621788011800913e+00 1.866960825414554037e+01
-7.153827777680883848e+00 3.938442647662340423e+00 1.656031695053640007e+01
-7.748590505048678523e+00 -1.189105458347540778e-01 1.863453366411605927e+01
-7.353439569756396565e+00 2.668502195286464485e+00 1.747859093185545376e+01
-7.911999470529289091e+00 -2.534442237229643791e+00 1.878866816907840942e+01
-6.199292349122831780e+00 -3.810073418545087964e+00 1.939628152158221397e+01
-2.617239921782318124e+00 4.056693709658018010e-01 1.307045154183466806e+01
-5.360222464613290327e+00 1.812656611807018203e+00 1.900916832504922027e+01
-2.612689924618857962e+00 -9.826360935958760034e-01 1.676856640823642053e+01
-1.599249997815073598e+00 -1.997099289014111267e+00 2.042603879645171716e+01
-7.565395102408941419e+00 -1.408523597954806639e-01 1.872597800108658461e+01
-6.067140088167801260e+00 4.618272832251470561e+00 1.715863910995977548e+01
-6.321604293532046448e+00 4.127390067876289592e+00 1.734823687557436855e+01
-2.786814490620833862e+00 1.776795997972864471e+00 1.406210405340364034e+01
-3.615247580511223191e+00 1.480345253662375127e-01 1.282220188346835599e+01
-2.164002996385998578e+00 6.131415036271947727e-02 1.993020222919452422e+01
-1.935207816700439398e+00 -3.626648998266949198e-01 2.007507596312249731e+01
-6.019697448115957528e+00 -3.332277883230971405e+00 1.859960785613455769e+01
-4.573429919677087341e+00 -3.936490941312236203e-01 1.464147354268677859e+01
-1.747514739301082365e+00 -6.564977601379079486e-02 1.439898479877464510e+01
-4.587094452407959544e+00 -3.561192318895248787e-01 1.443954201851672892e+01
-6.222425948389529005e+00 4.160159781100560394e+00 1.590153263284590324e+01
-8.565979230348492734e+00 -8.981770929738168707e-01 1.743593957855174992e+01
-1.250302362314159588e+00 1.666778668772746386e+00 1.650215116777838986e+01
-3.342119331917913216e-01 4.434472446404138513e-01 1.780589343929846180e+01
-3.132354199794738836e+00 -3.643910614226340439e+00 2.020787073131096534e+01
-5.609916195453490850e+00 -1.885600820703655867e+00 1.767750006727496626e+01
-6.846879324827272129e+00 1.176466230986975781e+00 1.443720538196690839e+01
-5.892982567790435944e+00 -3.377604396511634466e+00 1.868881584565785303e+01
-4.824605231180134624e+00 -3.876289238699019979e-01 1.462648000013223637e+01
-1.609486142312029910e+00 3.058123418897634060e+00 1.734105256198835221e+01
-8.431863806330046174e+00 3.269968686324254969e-01 1.744367415147546652e+01
-3.215801909633414279e+00 3.276956810743051562e+00 1.552325577287734504e+01
-4.600117913591144081e+00 5.423179888274624716e+00 1.706786616583686467e+01
-3.994953197709855353e+00 -3.835339322804698359e-01 1.446915369028353027e+01
-1.001338990621094549e+00 -1.891267200483659039e+00 1.642015762475967122e+01
-3.879346410037531889e-01 2.652948208494361193e-01 1.723427443172457529e+01
-7.172687449834946882e+00 4.535730007824512744e-01 1.865915795289603452e+01
-7.936266785309272764e-01 1.273812203006386090e+00 1.880817708931532550e+01
-2.825570189507425223e+00 -1.393902274436860100e-01 1.368159531457980549e+01
-1.209678028481690593e+00 -1.926598670751638043e+00 1.637376863442382202e+01
-4.910228476759583849e+00 4.406592218823455198e+00 1.587893685724753468e+01
-8.291179568501512165e+00 -2.554583128181736829e+00 1.691412141823631643e+01
-6.743084598862894907e+00 -1.109101036091432180e-01 1.901389362908378544e+01
-3.942645998711237443e+00 6.258628573484326107e-01 1.964294486675616369e+01
-6.426620498087570965e+00 -1.402779966650960497e-01 1.411274883773222300e+01
-1.202299319286843193e+00 1.109271820134328124e+00 1.605375594046493504e+01
-7.588964496428729944e+00 -2.632492376367095765e+00 1.656273664525125255e+01
-1.173580695500798132e+00 -3.011316177224428792e+00 2.013670516792680232e+01
-1.741535925026236331e+00 -1.398465182656377870e+00 2.031389251693016362e+01
-3.354536422726724254e+00 2.858213158429625977e+00 1.899324881177487256e+01
-6.405086418153159045e+00 -2.514128875164785559e-01 1.421689315645449270e+01
-5.890923128031151368e-01 -1.767549918162482081e+00 1.918281819361295604e+01
-1.491145332053172456e+00 3.281003297452138590e+00 1.786598934410991646e+01
-5.184562030033707636e+00 -1.874645536147370617e+00 1.786723801362785125e+01
-4.336638488101126399e+00 3.096595203375250849e-01 1.254785341733841975e+01
-5.757443708391317472e+00 -2.755199833681883703e+00 1.834953418460029084e+01
-4.932484971127279572e+00 3.266642327925349143e+00 1.854266108733246554e+01
-2.387310095800392773e+00 -1.269221927640504233e-02 1.994973098817487411e+01
-8.309779518250284269e+00 -2.475583248605429887e+00 1.794496117167229343e+01
-3.485635503007253444e+00 -1.419343566220350628e+00 1.772383307675949382e+01
-4.357406965834937473e+00 5.440957312221607722e+00 1.719652787512928782e+01
-9.129634002761077838e-01 -2.739236257518276485e+00 1.984809103307883404e+01
-4.501966171389494065e+00 -1.409177459482597872e+00 1.754915899004053514e+01
-2.572071982111502564e+00 2.051399741033725632e-01 1.987889944224680860e+01
-4.111325574505467095e+00 5.439101760682730102e+00 1.732532168142617124e+01
-8.480297083560738969e+00 -1.964366619525726776e+00 1.767881239819297079e+01
-6.339787860236590689e+00 4.299403247908335501e+00 1.720508147912980590e+01
-3.140957914761848713e+00 -2.357729050726259601e+00 1.859877817523048904e+01
-5.596727187713189444e+00 3.442154716122446612e+00 1.819455779233213732e+01
-4.995016859876487025e+00 2.964311479729352161e+00 1.433504961242983811e+01
-5.176159280136236163e+00 5.071372871135658045e+00 1.735587501694680768e+01
-5.753220448118054442e+00 3.300589918551366075e+00 1.817334201216502620e+01
-3.208720195196651304e+00 3.678968888650165692e+00 1.600455139607166544e+01
-8.049642557248418484e+00 1.940606383336230589e+00 1.694993878687737876e+01
-3.572506381240028173e+00 -3.810956673730902633e+00 1.992579559690527802e+01
-5.572349630003264664e+00 1.066125051353260966e+00 1.915509474720614591e+01
-7.672460733718579284e+00 -2.970723716362270839e+00 1.907410329127838011e+01
-1.506354965752438435e+00 -2.603461310045705357e+00 2.045467494906693773e+01
-5.715120874182630928e-01 6.336402033646721943e-01 1.825700230875313324e+01
-6.144132729772042723e+00 4.852907887866516390e+00 1.644443048797899465e+01
-8.556808029857855047e+00 -2.896796780270857186e-01 1.728752740800848287e+01
-3.184125771312003472e+00 -3.833361709439384590e-01 2.001244076413602002e+01
-2.122144916470808607e+00 -1.280862632265837409e+00 1.640290232100983658e+01
-1.795640347612130761e+00 3.644415387149481322e+00 1.771671564105918506e+01
-1.438189861086826671e+00 3.218509802004132947e+00 1.822133070503906183e+01
-8.174578994252867048e+00 1.537072855422902729e+00 1.591044116426284560e+01
-9.657390320695533603e-01 -2.457793513385380546e+00 1.680640625387556142e+01
-6.053520414267453909e+00 -1.013944392031183694e+00 1.540457833181514857e+01
-2.789656777062851756e+00 -3.005073498112956543e+00 2.032553634612294147e+01
-2.489865189801271583e+00 -3.575795147698904719e-01 1.450425881179253551e+01
-4.957074389662175840e+00 -2.952489758626859917e+00 2.014286837200780766e+01
-8.214410795522912423e+00 -3.217722488174711293e-01 1.830966119683305848e+01
-7.369430735703818236e+00 -3.397989513759553049e+00 1.810723226955435550e+01
-5.411970318548002368e+00 -3.759386918584397108e+00 2.001192216505156907e+01
-3.172918310862158364e+00 -1.422978579602566906e+00 1.772766038366340879e+01
-5.348901545878660180e+00 1.944946535554894052e+00 1.357209571233661549e+01
-5.947555213785988837e-01 -2.938282856067920612e+00 1.752559318051438098e+01
-9.288567051856656542e-01 -5.950733697009049639e-01 1.999821242117327458e+01
-7.976142564918617062e+00 -1.133642409729811451e+00 1.881318365410221460e+01
-2.203057704721104404e+00 4.216877087659147705e+00 1.809863722694018762e+01
-4.388504968706754994e+00 -3.967688100645629046e+00 1.995001741744038881e+01
-4.180404163961446429e+00 -3.946476152730067799e+00 1.994224245869953549e+01
-8.348421233793558827e+00 -7.102893222114448069e-01 1.822878654897700201e+01
-1.958456129915073562e+00 2.288592101184274696e-01 1.988956661549291383e+01
-7.211200310767106991e+00 -7.572921050999072978e-01 1.473343187073578875e+01
-3.766533160606063912e+00 8.364012599757995048e-01 1.960752570656723393e+01
-8.028912186889016311e+00 -1.531720386287893643e+00 1.881753228186885352e+01
-2.402960193280494927e+00 2.448135979608054014e-01 1.986662024438625807e+01
-8.012360478966844113e+00 -1.328554502056948472e+00 1.881675680354844715e+01
-6.565506551724627826e+00 2.361985181154415692e+00 1.476523447355020480e+01
-9.598929534194209356e-01 -1.576288374251443525e+00 2.016185059267082025e+01
-1.227183482891501143e+00 -1.222796180365562924e+00 1.584000770130664293e+01
-6.469991424440025840e-01 -6.536596632286107988e-01 1.606717230640186145e+01
-7.001080161008562897e+00 -5.879957082715093764e-01 1.466955309101583893e+01
-5.788515623739687754e+00 2.667522431671715655e+00 1.845369893346351020e+01
-7.524416988702287590e+00 3.108020354182115863e+00 1.692894001924704739e+01
-2.579376731201855399e+00 -2.802633641775694961e+00 2.031568377165561046e+01
-7.163767679859949666e+00 -5.138561813962013725e-01 1.456906534699550448e+01
-4.812554960963216999e+00 2.296413332940264507e+00 1.358349114257460499e+01
-4.933148054143079442e-01 -1.150091497582282907e-01 1.845327720945433825e+01
-3.158811140330956224e+00 -2.127021491673678710e+00 1.841320236142278688e+01
-3.636808374458449844e+00 -2.404933166264419331e+00 2.019388096522282794e+01
-3.961418668142175914e+00 -2.360081330397449939e+00 2.017636647066465017e+01
-2.154814575386517994e+00 -2.345269991638947893e+00 1.836459436046510874e+01
-8.130392353195709632e+00 4.975344688553633432e-01 1.801169571973218453e+01
-7.988435478544822388e+00 1.490305093623744970e+00 1.752272426903628499e+01
-4.167253975748765882e+00 -2.403344856694318743e+00 2.016768100353329984e+01
-6.376024260316398795e+00 -3.347977539200369668e-01 1.430204147131106751e+01
-2.767026464109851869e+00 4.493920447733005474e+00 1.734441427227080013e+01
-3.154505332230831183e+00 -1.804610392082842907e+00 2.020477189220999392e+01
-8.361705043510571755e+00 7.178094605066686063e-01 1.728378268401266027e+01
-2.088649488228964124e+00 -2.245927123075726506e+00 1.822861237992431782e+01
-4.348160171484252601e+00 5.242325075512257015e+00 1.750931083428772794e+01
-8.181700772177751269e-01 -3.499306839289693993e+00 1.881529367389732599e+01
-4.563509558592130588e+00 -1.584297663737702200e+00 2.001853077025431915e+01
-5.740501181107966922e+00 1.821748136238098059e+00 1.884794675898668359e+01
-2.587999643339459865e+00 -1.378614845631938701e+00 1.752860861772638756e+01
-2.694841848252400140e+00 -6.539412285645983536e-01 2.012028995927243002e+01
-4.992407990254931427e+00 2.391372592214677351e+00 1.371799220055590851e+01
-2.407387993165430728e+00 -2.524188383159489124e-01 1.422924302665350993e+01
-3.750605280583667156e+00 -3.384191720921049029e+00 2.031682172368450878e+01
-1.968463470823989203e+00 4.084166576184146691e-01 1.983776341351044081e+01
-3.599835048455285680e+00 -3.235986681383058450e+00 2.030048201039838673e+01
-2.633708515778030890e+00 1.112480732717263443e+00 1.351897982368526030e+01
-8.137999640785274380e+00 -1.140004358576174548e+00 1.864217036641727177e+01
-8.071275951330224574e-01 -3.073705923671127938e+00 1.757538210772559850e+01
-3.740937040017244808e-01 -2.174941135877034526e+00 1.839199857435169250e+01
-1.959958523799076202e+00 1.361828421628296759e+00 1.957510611680111268e+01
-1.861495349675796218e+00 5.574403403099117416e-01 1.424261428184477651e+01
-6.579673172301009565e+00 -1.030481706870490788e+00 1.505307329522841187e+01
-8.305738969951477202e+00 -1.094768576510982139e-01 1.807060424012245292e+01
-8.098641328872968614e+00 1.871532098872181749e+00 1.687547929921168688e+01
-4.782633303229737898e+00 -3.732204701039363304e+00 1.919343961806825760e+01
-3.384058156562292918e+00 -2.755930427646801739e+00 2.022610227911740211e+01
-6.613267823420779123e+00 -1.220623619183400121e+00 1.525963480396403682e+01
-8.570593297909677943e+00 -6.734994159527839530e-01 1.705655818319927519e+01
-7.531554081272686663e-01 -5.690847978624720138e-01 1.984194308082322422e+01
-7.130150631672074191e-01 -1.705749984974192501e-01 1.965453686820978518e+01
-8.256087360275264686e+00 7.821677179840189620e-01 1.754622165089127961e+01
-3.155523465890501811e+00 2.646264264294982294e+00 1.908754215508143304e+01
-1.856107896245819955e+00 -1.834639035133984741e-01 1.443231733358161861e+01
-4.587755688484069339e+00 -8.421565176829820532e-02 1.340403091486705378e+01
-4.506255360983254521e-01 -1.588818596398578809e+00 1.877448576645207723e+01
-2.730643619647614262e+00 2.805614834676738667e+00 1.903087370398687383e+01
-3.809024595630072785e-01 -2.568959429601479272e+00 1.853685455478118271e+01
-4.934627943066388411e+00 1.397122728547643300e+00 1.929421794388413858e+01
-4.765033369118770956e+00 3.850040577831800537e+00 1.834048881815501986e+01
-1.538510124135930246e+00 2.001104848452146534e+00 1.926487537577200371e+01
-6.156039208386893336e+00 -1.159164533651684703e+00 1.942455956986206544e+01
-7.206610399100709330e+00 -2.352150734328758652e+00 1.948628310153959475e+01
-5.574612210569863002e+00 2.161116697757725191e+00 1.391135244918217140e+01
-6.386062151858570957e+00 1.360554174751610557e+00 1.408279841168767277e+01
-3.717942026576110504e+00 -2.149485697048066246e+00 2.017873624400756327e+01
-3.963254109136004288e+00 -1.980748568332363568e+00 2.013588624270551364e+01
-7.724795776192881824e+00 2.066510002416257485e+00 1.749809123224548202e+01
-3.972726797137760002e+00 -1.802809869471921900e+00 2.011290676578898129e+01
-3.579580116221215746e+00 2.240891501505982930e+00 1.383870269749404613e+01
-5.832186447366047410e+00 -6.615361041526918173e-02 1.933676446630471801e+01
-4.965757830419168073e+00 1.239877238862000519e+00 1.933167171278152452e+01
-7.768602588739574877e+00 -9.271843533687689209e-01 1.889129761684694486e+01
-4.932851575417654288e+00 -3.938017042028393977e+00 1.977134468926434252e+01
-2.816387236647484471e+00 2.695332618464391761e+00 1.514431325085267233e+01
-5.246810115749853232e+00 8.290622818013663187e-01 1.935154732934582356e+01
-2.757727703708523936e+00 3.295253622468685695e+00 1.881177891828816584e+01
-8.366880697358535457e+00 -1.306485240131727732e+00 1.819581994097686461e+01
-2.791088820346065535e+00 -1.430333354612627561e+00 1.765893022672537072e+01
-3.095663183531667695e+00 2.941256742525314216e+00 1.896538912091138585e+01
-4.965335167705672070e+00 8.383113318904586997e-01 1.944520653394705434e+01
-5.284316867050411481e-01 -3.210488833700065214e+00 1.812442267313063482e+01
-6.983758529966504369e+00 -3.696216831823043059e+00 1.916961254947852566e+01
-3.224396152518619107e+00 2.223865352676065998e-01 1.287629785114932091e+01
-8.066795894155424307e+00 -2.996934159619189408e+00 1.750638090424245163e+01
-3.593609832421372108e+00 -6.259206855797089242e-01 1.601568057171521176e+01
-2.662215453219696659e+00 -2.056517273271392554e+00 1.827241738782965186e+01
-3.369883375978414364e+00 -6.080557286256237370e-01 1.582521899557098877e+01
-6.917799402018829369e-01 8.667704070812258799e-01 1.866511268805001222e+01
-6.790119793784961111e+00 -3.730550228114058786e+00 1.914446998918922915e+01
-4.421142832905498921e+00 3.857393263709622655e+00 1.542300235998714797e+01
-5.613531019763522423e+00 -9.281057964330041710e-01 1.622536546874915686e+01
-1.210222244037845840e+00 9.805234599879083524e-01 1.957789239864328934e+01
-6.589631937049884591e+00 -3.762247065156163917e+00 1.936434848334268466e+01
-1.181591207018334533e+00 -3.105238923865328626e+00 1.776432234483046457e+01
-6.538764830805568806e+00 4.707769105145132471e+00 1.654611558756020528e+01
-7.846343931513811043e+00 2.150438063151197010e+00 1.585856839006816088e+01
-5.801999067480563710e+00 -1.381730053152495641e-01 1.385978040498800468e+01
-3.941966121018576352e+00 -3.647169719388197340e+00 1.927244074162696919e+01
-3.579893193678675978e+00 -1.608225037745073305e+00 1.790517784969365422e+01
-3.376229041474429593e+00 -2.094737239549682162e+00 1.838344370797274863e+01
-1.118867490453835600e+00 -1.383098427673667974e+00 2.025005171347497068e+01
-1.805821867562020566e+00 -5.294272828131059150e-01 1.494021158465192300e+01
-5.821901828871760998e+00 -1.821487406104834061e+00 1.747018900272383846e+01
-3.406358199502760864e-01 -1.746252653406893396e+00 1.755328572509760576e+01
-6.733499648821427819e+00 3.064651783968938226e+00 1.769793456132993370e+01
-3.582729567184712582e+00 -2.139533448039510510e+00 1.838036762313678807e+01
-6.970624203844165478e+00 1.095530937696219898e+00 1.851353031707153818e+01
-3.583120590296956731e+00 -1.951262909969800674e+00 1.822435238936156665e+01
-7.407248282511135429e+00 2.120343221892002639e+00 1.777092633604247496e+01
-6.409565607448657332e+00 1.009822763132986578e+00 1.879791671819944909e+01
-3.370787642797066219e+00 2.016066744137953393e+00 1.931890975433066515e+01
-6.977090001930404739e+00 -2.243599755461193279e+00 1.950560526817701756e+01
-4.572508211690557545e+00 2.634232005833306189e+00 1.893516451440191517e+01
-1.734472045873705959e+00 -2.234070453241755683e+00 1.684153424614347117e+01
-2.192213405273606419e+00 -2.729509974646037729e-01 1.439402814971246514e+01
-6.856245525725244150e+00 -3.095765463970039821e+00 1.783275608607518237e+01
-3.560876372942248125e+00 5.041974767510311040e+00 1.776915406612911497e+01
-6.491453728722369476e+00 -1.768410613251644836e+00 1.596937262002432689e+01
-6.186837996323844457e+00 -2.153580716863430666e+00 1.956936710030083404e+01
-3.741843987436238361e+00 2.121690179911231433e-02 1.984099025787569914e+01
-8.567053254817810881e+00 -1.698405926844013702e+00 1.722282124477171905e+01
-1.983276291575249761e+00 3.079549301978920184e+00 1.673180279440201090e+01
-8.564285877300289229e+00 -1.635497521399088550e+00 1.704497839783415358e+01
-5.811146859363946149e+00 -3.825288627768278271e+00 1.937144884067456374e+01
-1.327569062533682009e+00 3.043104687513496831e+00 1.788472284553836644e+01
-3.066447509172276487e+00 1.510842409728412772e+00 1.335611927408499255e+01
-1.088014568077854127e+00 -1.748834471277337599e+00 2.026463980553462463e+01
-3.889212990684695059e-01 -1.349739383572379214e+00 1.852136150076729493e+01
-9.438780896313080371e-01 -1.397881762703666597e+00 2.014147695653214143e+01
-4.772457765846628064e+00 -3.112623664614281083e+00 1.878785132847582773e+01
-3.140833305429397093e+00 -2.581830421270801867e+00 1.876795303748670207e+01
-2.599719325067994635e+00 1.860705065749976850e+00 1.941647925460220492e+01
-2.430728290077508902e+00 1.524220105972046158e+00 1.430218038500073519e+01
-3.576277917693209130e+00 -2.490335725530006261e+00 1.864610549639581549e+01
-3.537111644981283387e+00 -2.342949866965643668e+00 1.854609053464006863e+01
-7.801399245024120077e+00 1.674110713518606186e-01 1.531791200401208286e+01
-1.585315123394152259e+00 -3.627571378939487889e+00 1.929148591354265463e+01
-6.185108420643483207e+00 -3.646566083702134531e+00 1.882333586651256851e+01
-6.374380391976974813e+00 -1.659853011571974069e+00 1.622410039692709560e+01
-5.628720189143596730e-01 -1.053069245666811149e-01 1.622546706772952874e+01
-6.211856734605923691e+00 -6.448836295612129232e-01 1.463432230567461900e+01
-5.771022976798609427e+00 5.179064172076389028e+00 1.681151812765197562e+01
-6.536421970793634628e+00 -3.709543250886179866e+00 1.954117867382146656e+01
-5.172439007314159731e+00 -9.738310948018211732e-01 1.679352035779781360e+01
-8.128475271624235887e+00 -2.886037074252008061e+00 1.814921581303231690e+01
-1.802390746194309168e+00 -2.330242638555173329e+00 1.775860633794593824e+01
-5.550439938222796243e+00 5.265780570661759086e+00 1.678882416982832737e+01
-6.539746871987946797e+00 -2.119705224508712682e+00 1.719700803401471134e+01
-3.186614228374153868e+00 -9.647169777091152421e-03 1.321962742364037169e+01
