-3.331565182212909093e+00 -3.835236333598552871e+00 2.207941836707840366e+01
-5.544018449117382730e+00 -1.228093045376707604e+00 2.187602097219719610e+01
-8.633068025052107686e+00 -2.206025898475819425e+00 2.042700216989645412e+01
-6.502348618291597049e+00 -4.031729569820034165e+00 2.104516662524519433e+01
-7.789257865497277500e+00 -9.805726270047453452e-01 1.767197436745766481e+01
-8.699607391587571570e+00 -1.137433603553982042e+00 1.932106899004450185e+01
-2.136978999239720345e+00 3.011965891199277934e+00 1.881600840581793932e+01
-4.691143315154115534e+00 -4.083363838115844580e+00 2.188197151722921063e+01
-1.941226702894544465e+00 -3.240678929402768471e+00 2.205248790862908947e+01
-7.306560788042689936e+00 -1.775579943770119407e+00 1.784868120290669680e+01
-1.325504013326360475e+00 -2.496163430471349809e+00 1.937855806484544985e+01
-8.230596082755409881e+00 1.236501475379028214e+00 1.952427859178867919e+01
-7.093000109992919633e+00 -1.903693872472720372e+00 1.807087408620392210e+01
-4.196051255838435523e+00 -2.663456982359808656e+00 1.984792802050334615e+01
-7.421569977642726856e-01 -2.245053609321856047e+00 2.192067906816953382e+01
-7.551793274568769476e+00 -3.132643164936997904e-01 1.710579433389720094e+01
-9.338736882112010917e-01 2.394915844471654065e+00 1.982419811756133043e+01
-5.496500914811086602e+00 -3.891010666637454651e+00 2.078601618914825622e+01
-7.166274657443771012e+00 -1.473869804669442729e+00 1.753948542746772432e+01
-5.295228850632334172e+00 -3.244611184919621305e+00 2.212590409421559912e+01
-1.524675187626557626e+00 -3.892422664565121426e+00 2.167584648704453798e+01
-2.473153813228290421e+00 2.322207837893964122e+00 1.676399278251516733e+01
-1.247918491075052261e+00 2.670293065215004535e+00 1.982057407179513575e+01
-7.096557897487003608e+00 -1.569677134691201292e+00 1.767030848022950806e+01
-1.133533730320074540e+00 -3.903645106241133700e+00 2.120630212006513204e+01
-3.341979718771735275e+00 -3.273877060074789735e+00 2.019529915299384726e+01
-7.789534851051246989e+00 -1.692989760131480281e-01 2.101623701875161032e+01
-1.929982284515644908e+00 -3.950305378258077038e+00 2.167039357125750598e+01
-8.474055065645815787e+00 -3.353701780696470292e-01 1.854309456234751963e+01
-4.124300334391693745e+00 1.072669192435855123e+00 1.452389921518737737e+01
-4.920844310901610008e+00 1.217460415488418324e+00 2.119711672354080179e+01
-5.480256618785622535e+00 3.988732073845942860e+00 1.799963039171878165e+01
-1.912283164559490434e+00 3.182884093653972180e+00 2.035732502290546364e+01
-8.341672697253759594e+00 -2.594890007754730110e+00 2.090020907369655845e+01
-4.863921855609992129e+00 1.537105541192853586e+00 2.110004202050300393e+01
-4.994459967221566821e+00 1.593315705406177507e-01 1.601979891476842255e+01
-3.694533617164216910e+00 -1.468463249087658795e+00 1.899005295263474835e+01
-2.481730512423682811e+00 -3.377698243677843770e+00 2.033857901804667989e+01
-7.520030943178924510e+00 2.040880411042333531e+00 1.999824405926668192e+01
-5.114221976273411130e+00 1.583156743875118622e+00 2.104457839988283752e+01
-8.300001332803891074e+00 2.166259879491910789e-01 2.012258014519724014e+01
-3.920648355926150241e+00 -2.553757734639134913e-01 2.172042558918542454e+01
-1.347800222309523122e+00 -1.142173604894591410e+00 1.810746221120216148e+01
-6.410472038497388780e+00 4.427197507522596887e+00 1.906834036223504114e+01
-5.543771498253661889e+00 -2.492079097511047669e-02 2.154412612832854279e+01
-3.109168702600742851e+00 -1.814804218087960663e+00 1.924311860895785742e+01
-1.003089857111362448e+00 1.666918711020847432e+00 2.086796555816536625e+01
-6.146393488136535410e+00 2.145442843324271376e+00 1.611322037684267627e+01
-2.518468242408111735e-01 -2.010346094459675825e+00 2.006694974642503126e+01
-1.277237121454669833e+00 2.430761368983874460e-01 1.670817413842034682e+01
-5.868753163139939666e+00 3.577306245303363497e+00 1.995094982804098294e+01
-5.852702198087657015e-01 -3.263751196744440364e+00 2.161807359651603377e+01
-4.784635754518838935e-01 1.434110627491491208e+00 1.913936626534628260e+01
-2.256857351597861827e-01 4.857588001410429596e-02 1.894410900035135370e+01
-4.702737209680148966e-01 -1.371414673543917662e+00 2.179296042432276437e+01
-8.168511656922227360e+00 -2.329778035423069493e+00 2.112694410316086646e+01
-7.660674761103873465e+00 -1.732018812500944804e+00 1.792624310894016304e+01
-3.694099654386912679e+00 3.474083065860245956e+00 1.760802034690999562e+01
-1.135013215548582144e+00 1.799243288215799375e+00 2.082528280666059572e+01
-5.344780969217246103e+00 1.468526547217462674e+00 2.103865937547315923e+01
-2.102991388062529055e+00 3.253536421574432236e+00 1.939526875610745549e+01
-4.686538506066694865e+00 6.463911679587189818e-01 1.514806643038080836e+01
-8.075623434751785013e+00 -3.384975909402335059e+00 2.101258704262352950e+01
-2.683789591693252152e+00 -7.612651898084472624e-01 2.180952257857254040e+01
-6.215438426667304839e+00 -3.498011983707901340e+00 2.035336755068276204e+01
-5.126725863049854670e-01 1.793380102482279081e+00 2.058133405711711816e+01
-5.656149219663177519e+00 2.164859013900448659e+00 2.071165308060253096e+01
-2.517252603646012998e-01 -7.812313881556531836e-01 1.893363347612770298e+01
-8.148503754400969967e+00 -3.401826336210541424e+00 2.088257633062981000e+01
-2.164014109662831586e+00 -2.234706574103253907e+00 1.944206260644558171e+01
-8.275504533486810033e+00 -3.175850267873958632e+00 2.082833261032865124e+01
-2.122327521629034486e+00 -2.565210655320749655e+00 1.970032894752456087e+01
-4.728976074151611364e+00 -4.148352406364202771e+00 2.144947905903524088e+01
-9.141994584304762306e-01 -3.790332565366351769e+00 2.166075944127150166e+01
-3.931492682882766765e+00 -5.870996191679267451e-01 2.180608567435584888e+01
-2.213412364968021240e-01 4.544803568185074721e-02 2.064009997713016986e+01
-3.116510137762633192e+00 2.678094820570774637e+00 1.658399396194412390e+01
-5.497134400013649724e+00 -1.605096885320500100e+00 2.195925913263511120e+01
-6.512610755517470373e+00 -3.345069800224995116e-02 1.601397169966351441e+01
-8.121692550795751586e+00 -3.147714756668381408e+00 2.007564576968389503e+01
-9.377269120938176439e-01 1.280032798787428483e+00 1.796279842677094507e+01
-2.919727097880552513e+00 -2.714202340060172802e-01 1.738262028074571930e+01
-8.107609628283912073e+00 -2.986379116743701712e+00 1.988054531367210842e+01
-7.307935233319623691e+00 3.785275656302262259e+00 1.866267430452232645e+01
-2.942611035003058539e+00 -1.985967588352325119e+00 1.935672860780555027e+01
-4.326868920734417756e+00 -3.987694733492586519e+00 2.201094930271924710e+01
-8.153550548153422284e+00 6.762337666416001758e-01 1.771868996067942703e+01
-5.319729147165096705e+00 -1.529062747770383035e-01 1.652515088362149243e+01
-7.953627048486968221e+00 1.842673711675272052e+00 1.958939532197705091e+01
-5.521636022902630003e+00 -1.444975102684336876e-01 1.633784504988991415e+01
-6.899701164404869580e+00 2.267670165991217068e+00 1.679376492949129585e+01
-1.059278576731668586e+00 1.398737408111818237e+00 2.102479685898529027e+01
-3.532210995961154065e+00 3.215458441077465590e+00 1.724211818243390582e+01
-5.303338287516469407e+00 3.240969976511324901e+00 1.683029039146758521e+01
-1.137077813295950701e+00 1.589031424898402989e+00 2.093700531219395344e+01
-1.138576458301501004e+00 2.221757549774493246e+00 1.918901696625889741e+01
-4.108340815101458432e+00 -3.268562854238361126e+00 2.218014959667010544e+01
-2.551938927642947164e+00 1.308401725568210328e+00 1.478851408318515581e+01
-4.502453716448594712e+00 -3.076578500870832400e+00 2.218348217143193324e+01
-3.098582351546858238e+00 2.860564803956821667e+00 2.068901352454741982e+01
-3.126506301228014983e+00 9.649758506556012083e-01 2.136066627126285766e+01
-4.537891798554529288e+00 3.489535018371105135e+00 2.027469712531481605e+01
-5.143170765550349799e+00 -3.972122447824700142e+00 2.084606943655042954e+01
-5.325600527808479256e+00 -3.630269653389617712e+00 2.206975254171766920e+01
-3.474520971435210992e+00 2.036260429142950024e+00 2.100718458610934647e+01
-6.678537805204848965e+00 3.635752895083084635e+00 1.956084799641747196e+01
-3.148869612834146903e+00 -2.652043657486212513e+00 1.980442230991680219e+01
-5.340619567526074363e+00 -3.941278486297085326e+00 2.082935685083184296e+01
-2.326938860273606746e+00 -3.832684931603624001e+00 2.090028367179633761e+01
-5.925549123141700569e+00 -3.005616095284021849e+00 2.204355979976906355e+01
-2.100882903629551990e+00 4.184550863245744545e-01 1.617708535266059044e+01
-8.308699656785703880e+00 -1.689393528474833484e-01 2.034055664205139635e+01
-5.487245658070413867e+00 2.011837262346420463e+00 2.080598222010590348e+01
-8.574302848126038157e+00 -1.308597611296445917e-01 1.914082937848393584e+01
-1.244122576879114872e+00 9.348515749905271788e-01 1.690017281822713358e+01
-5.509477528744462838e+00 2.424520858028236692e+00 2.063278466756797513e+01
-4.732082080423128723e+00 3.937530517360919857e-01 2.150462099701976371e+01
-9.501858872890929231e-01 -8.589996486632264783e-02 1.719692761213001120e+01
-9.486605195589734585e-01 4.743462750712245657e-01 1.697682124187817720e+01
-1.709695120576401273e+00 3.365558592491732504e-01 1.654681440477526877e+01
-8.147172056269790019e+00 4.886040334962220982e-02 1.787760903585029837e+01
-3.096245216074135165e+00 -1.400202403576346288e+00 1.889968340659868318e+01
-3.143503974092543896e+00 -4.025701659788959219e+00 2.145048287583336588e+01
-3.927774071629824837e-01 -1.526117044708008130e+00 1.879884370379474490e+01
-2.684551883751267631e+00 3.109470794009165484e+00 1.796108940354698547e+01
-5.348553325767619882e+00 -1.125453637849000099e+00 1.853394587048393305e+01
-2.285770130580413451e+00 -3.693479144778553103e-01 1.733274947786866704e+01
-5.139781468147992527e+00 4.296605220664761582e+00 1.841271096757944292e+01
-5.038651418583252051e-01 -1.534393700476364142e+00 1.869888097683296735e+01
-2.692256146007618423e+00 -3.662687993377641060e+00 2.061719574297561053e+01
-3.928173514242529141e+00 -2.022623954391775225e+00 1.942784731482312566e+01
-6.114323476659856205e+00 3.654869441451715328e+00 1.981054295578670121e+01
-8.221313647941070002e+00 1.585175010376115079e+00 1.903228619674688815e+01
-3.537713094467187513e+00 -3.914081482180788552e+00 2.093282303763513852e+01
-1.270751953350923502e+00 4.598625279345796568e-01 2.143103641066777953e+01
-1.673954203856590439e+00 1.428492980180858574e+00 2.116826390423526760e+01
-3.940344092005519272e+00 3.811028209801423650e+00 2.015793007876723664e+01
-6.438355383185978553e-01 2.059392441331064028e+00 1.973410504164291979e+01
-3.940437141757143547e+00 2.400366714060218065e+00 2.084320843742147389e+01
-1.159482208957202776e+00 -3.922032318698225328e+00 2.131492893522434429e+01
-2.865931708334634287e+00 8.150675835292785498e-01 2.140179876880005594e+01
-6.213597950330410846e+00 7.400816008256512479e-02 2.139047386384959282e+01
-3.478208660497859039e+00 3.834015569105467147e+00 2.017189822500011331e+01
-3.514468669850179250e+00 -3.167129229331555607e+00 2.011492430156138767e+01
-8.051939431371028633e+00 1.432546310244220855e+00 1.973856842857939853e+01
-8.255749938445720915e+00 -2.592291084855573136e+00 2.101568768184235836e+01
-2.207047238356414365e+00 5.146184546634147150e-01 2.146675041535627315e+01
-8.307488511221091443e+00 -2.007285798092702134e+00 2.093112095034263120e+01
-3.334810539478191949e+00 2.829107353201291364e+00 1.664123387532463738e+01
-2.933270538520305060e+00 1.111396344970924766e+00 1.474058491579823738e+01
-2.675362761175627213e+00 -8.818616224789573854e-01 1.819655770564233421e+01
-3.077813987225674008e+00 2.966740693191097789e-01 1.653538237177377823e+01
-3.332177081834581500e+00 -3.558376036454888425e+00 2.045480626448678407e+01
-2.789016261754716286e+00 3.964446647931970880e+00 1.960813502140497633e+01
-6.453638451792998332e+00 1.507716916013757125e+00 1.580349027576267673e+01
-4.584882487668539564e-01 -2.245955829113178037e+00 2.172501689405090985e+01
-1.524301067577411795e+00 -2.027440364590487487e+00 2.197431667838666414e+01
-6.321152936813807521e+00 2.104929602890703577e-01 2.132430441787223430e+01
-5.303690362684204018e+00 -2.998672851450061128e+00 2.212385011568269988e+01
-4.932833513720031426e+00 -3.424249921892235982e+00 2.215608461571604693e+01
-3.295344848890833678e+00 -1.822368463056447396e+00 1.925391218531636639e+01
-6.587836467562800280e+00 3.170286180742055038e+00 1.753305573108569604e+01
-3.922601313023808878e+00 -1.826536257789453721e+00 2.204995165844248106e+01
-7.337373810491234494e+00 -2.796398037597866981e+00 1.963531112021923519e+01
-6.514132268972276485e+00 4.072598453261173090e-01 2.121717534214364775e+01
-7.957493940841525948e+00 1.273151800035384196e-01 1.752396970707794566e+01
-6.327646902704999299e+00 -4.316825219744139241e-01 2.153050292657594156e+01
-4.331279959435324400e+00 -1.995455133387880053e+00 2.208309210144749812e+01
-1.329090078870826863e+00 1.838645304436388184e+00 1.818428320276320420e+01
-2.924842210584261082e+00 1.997006653489060479e+00 2.103938375365626001e+01
-7.984902390633741298e+00 2.266014984282622269e+00 1.796186925938078360e+01
-5.504682866965181276e+00 4.320551761681057812e+00 1.855590983815910278e+01
-8.485777698343275333e+00 2.230471240278646128e-01 1.931800404093387158e+01
-3.707716648697837236e+00 4.456786054396164154e+00 1.982352522589391697e+01
-1.945212645306903854e+00 -1.645906532959142687e+00 2.193730002384793920e+01
-2.027676781277852669e+00 -1.941237130788606269e+00 2.198846918955933205e+01
-3.868175490835057406e-01 1.601617812399148466e+00 2.050891710461831963e+01
-3.442604407059484672e-01 1.201846219847424901e+00 2.059263944518753675e+01
-3.893551451494172699e-01 1.357863664391672387e+00 1.938729454709682187e+01
-7.828858131023640254e+00 2.837833897130435545e+00 1.876510251209855795e+01
-7.521502922360086885e+00 3.259400396873649353e+00 1.903674873360604636e+01
-7.112430792699898419e+00 -1.096225485272547928e+00 1.714155852236071098e+01
-8.339720613679125094e+00 -2.762851862465721897e+00 2.088178488415444178e+01
-7.528590989193779670e+00 3.079915215002285045e+00 1.920901232494481548e+01
-1.097110325352850690e+00 -1.187323317747353835e-01 1.712889801831033054e+01
-6.361085357863146328e+00 -1.902457194777674054e+00 1.894159017740940953e+01
-3.269113998679593625e+00 -3.866652912653367746e-01 1.769560572988454794e+01
-1.321380376309058580e+00 4.769321217619992836e-02 1.690949254572291949e+01
-1.761509333463004978e+00 -1.020318078967701325e+00 1.803803228953967874e+01
-2.142522664000728660e+00 -1.838980879541084690e+00 2.197980238335796344e+01
-1.123428770557885148e+00 5.608856894366474194e-02 1.695125867798717678e+01
-4.595449078956647671e-01 1.616055570066505354e+00 2.061539281696332182e+01
-4.708165798368169064e+00 1.934413641501822045e+00 1.474556670278677473e+01
-2.079471923199710304e+00 -6.306162064507145337e-02 1.700284852549363279e+01
-2.441424166285262043e+00 3.684932204867521932e+00 1.972748519099439335e+01
-7.881486212321346940e-01 -3.205274053976186810e+00 2.181000178526686994e+01
-6.121360316525485068e+00 3.250773227733791071e+00 2.006365276701592393e+01
-5.297815236948220097e-01 6.051440356074876403e-01 2.117508358915658562e+01
-6.996451815784946682e+00 -2.171082573708917884e+00 2.178011956587990738e+01
-7.363012807949445016e-01 -8.174252917908174654e-01 2.176035425300698734e+01
-6.310385208872642870e+00 4.071445453897501565e+00 1.945186221190352427e+01
-5.528011881699923080e+00 -2.575748353319832429e+00 2.207364864532073057e+01
-4.916404725082968774e+00 1.283799259795963821e-01 1.614139857960226720e+01
-1.124736477690268188e+00 -8.285038473852381902e-01 2.177109934061407159e+01
-4.333935966457363342e+00 -4.085489356943503125e+00 2.185527977035706471e+01
-7.863745735273615090e+00 -2.789285975557812769e+00 2.139662752271922130e+01
-7.196025928018076057e-01 -6.246574118583237967e-01 2.171010458720993341e+01
-1.991254039950550947e+00 1.618968131064312921e+00 1.640598200250175864e+01
-6.518947321561268105e+00 -5.147692864244536315e-01 1.654103826610714378e+01
-7.330806414159481754e+00 2.720441347234999530e+00 1.754805890352854902e+01
-8.600758442877971532e+00 -1.595437155543005581e+00 1.904543743740109107e+01
-2.168236550524780260e+00 -3.944704620638716630e+00 2.126426615912444618e+01
-3.574805090722428802e-01 -2.635584478643480555e+00 2.051702034706045197e+01
-6.917421724568578512e+00 2.415133598610700094e+00 2.023658025294889740e+01
-4.342676201431827643e+00 -8.190410149452875821e-01 2.186966707806710275e+01
-5.631803109823176889e+00 1.484005878628295250e+00 1.502855827168535541e+01
-7.668813365240034763e-01 -3.006470089087188047e+00 2.183655229227867522e+01
-2.120291364620622065e+00 -3.867292711135549954e+00 2.190670987231430900e+01
-1.519375317477350107e+00 2.190201622786489999e+00 2.073809963846093751e+01
-1.735728170603601406e+00 2.242392611148236625e+00 2.078795596345356955e+01
-6.779542382661991162e+00 -1.887246649877472482e+00 1.834022838350323781e+01
-1.744452979574686147e+00 -2.990519645944865523e+00 2.204191661737547037e+01
-7.198504258063282535e+00 -2.727251649158173308e+00 2.177865960908619059e+01
-8.979414317391870570e-01 1.838130827425247027e+00 1.893790993260216737e+01
-2.309853028297640165e+00 -2.430259304769238682e+00 1.962777205395922664e+01
-1.717991345598649744e+00 -4.156426180096143286e-01 2.167120291359338324e+01
-7.751322335148480569e+00 -3.566581825722874299e+00 2.044901747497213762e+01
-4.233393307805302541e+00 -4.141510293756616168e-01 1.784742997919450147e+01
-5.015570062898585313e+00 1.008179558116999441e+00 1.445214861122419592e+01
-5.124396887473541717e+00 -3.163929529271367613e+00 2.016253606773581453e+01
-3.134809837600522453e+00 -1.019354559931799353e-01 2.165707535510863124e+01
-8.541497584698092282e+00 5.546275322460475499e-02 1.910960125582911218e+01
-2.275474969669709413e+00 -1.040578420178373431e+00 2.184534385914073340e+01
-8.673468602276523498e+00 -9.439703416643100420e-01 1.910471413568853905e+01
-7.548201308875392535e+00 -1.884158987058374146e-01 2.114794168946245634e+01
-5.525630517776008332e+00 -2.022308685677926654e+00 2.201927164318230723e+01
-8.689140731813376206e+00 -9.467152052183890332e-01 1.933811472013389476e+01
-5.123946685212365182e+00 9.569270746461379096e-01 1.453565830214611054e+01
-6.718043102632105246e+00 -2.622592246204015876e+00 2.189563628904021186e+01
-8.356137018784016490e+00 -2.376572911853862102e+00 2.089023954928519800e+01
-5.752131602560776713e+00 4.705311588311962279e-01 1.528963551963504841e+01
-3.641926806928336813e+00 -8.501541674325411302e-01 1.837855014622237348e+01
-8.163130172551824160e+00 -1.979984293807744322e+00 2.110392831792139390e+01
-8.443875301706849967e+00 -3.013534892001731524e+00 2.062229410218729697e+01
-6.728641955757472815e+00 -4.067870626807833290e+00 2.145785050897861623e+01
-6.825722354154120985e+00 6.373803187652369306e-01 1.582968188198535131e+01
-5.283926260399900876e+00 -1.192342775370597519e+00 1.864494091642287543e+01
-6.556136674151387567e+00 2.785712287706705592e-02 2.134004214018078471e+01
-5.522932925498973411e+00 2.846165746291501542e+00 2.043984493367777588e+01
-8.287940255050198601e+00 -9.901807675884354287e-01 2.071849115360770810e+01
-7.706898596385300948e+00 2.013288641026002024e-01 2.090139664898987348e+01
-6.730019904850692569e+00 -3.822835583762066669e+00 2.170362980032569311e+01
-6.128594378637438389e+00 -4.072821917550400350e+00 2.165045714067520777e+01
-2.214802421928598331e-01 5.609854360410963803e-02 1.911863907366976179e+01
-1.772433193003918328e+00 -1.569743763080819310e+00 1.866690017193858608e+01
-6.554763074914381704e+00 -3.951442909259377689e+00 2.165298963378898378e+01
-7.559987816932300930e+00 -1.982423993110515426e+00 1.810823279866975355e+01
-2.939123265722548783e+00 -6.613025543905349801e-01 1.800057974179281928e+01
-1.743534978195940610e+00 -2.329819709623480506e+00 1.935566858035477367e+01
-8.249378529892965162e+00 -3.158503967751235653e+00 2.013055746005834834e+01
-2.212434460453259200e-01 -1.273624765934666225e+00 1.995502356302586833e+01
-3.131958354761593455e+00 3.072027119759773495e+00 2.058404163562524758e+01
-7.576476945462620627e+00 -3.607591254126989444e-01 2.119441763416293867e+01
-2.493033553465683339e-01 -1.382886666168142042e+00 1.931813724727627601e+01
-1.916703327049319672e+00 -2.563915612368128816e+00 1.963801509780206800e+01
-3.515883647471155449e+00 2.426461816003500971e+00 2.085586712228074902e+01
-1.957851045336059581e+00 1.468633603581526614e+00 1.622513586893998649e+01
-2.337442914354975976e+00 4.683444940320030114e-01 1.593871715876295525e+01
-7.533684045994320400e+00 -3.792697569702953242e+00 2.066657062517823107e+01
-4.126235159756306281e+00 -3.934845436898553483e+00 2.086660259811376505e+01
-7.170458688127011371e+00 1.090410611924765849e+00 1.630973267581640584e+01
-4.725726154836673132e+00 -3.610327514246967073e+00 2.042715826909887511e+01
-2.330171833267582926e+00 -1.749508005664079380e-01 1.711853795064619277e+01
-2.110879635988698766e+00 -2.370172287300910341e+00 1.953986003218381029e+01
-2.898957524232037564e+00 2.785263057085048732e+00 2.072020264750764795e+01
-3.878590950823609163e+00 4.478687319666484257e+00 1.941211620907843383e+01
-4.549331683280783523e+00 3.257254548939017003e-01 1.593435914159002920e+01
-4.706293645526391067e+00 -3.426369826600815127e+00 2.029639664477072358e+01
-8.698592366409949150e+00 -1.543366605737260588e+00 1.950181652959570755e+01
-4.332074870778304110e+00 1.606230791241608502e-01 1.651973856232122273e+01
-1.707456838631758567e+00 -2.540807468531856461e+00 1.952640560888234944e+01
-3.376866542449916242e+00 3.551375056262182195e+00 2.031620627185292705e+01
-3.326438073435260989e+00 4.356032551044052958e+00 1.979982031887840321e+01
-5.577676882838877859e+00 1.368593364129584433e+00 1.489042024413058840e+01
-8.576545050485393062e+00 -3.525464501783978633e-01 1.951435258959026697e+01
-3.556515558482137518e+00 3.961145494955493174e+00 1.865705203714714600e+01
-7.361538505290565748e-01 -3.826200907145617780e+00 2.149415062968562040e+01
-3.265065070190548369e+00 2.760325767005287645e+00 1.657865632957900459e+01
-1.041402437665080338e+00 5.208806415428677283e-01 1.689296308226421672e+01
-4.666681628640463764e+00 4.369760954661860097e+00 1.978336760250110871e+01
-9.062883110017285748e-01 -2.857783543403657145e+00 1.978852418574803806e+01
-2.497632259561638257e+00 -9.010353759725494571e-01 1.815063848358948917e+01
-1.712656252469293650e+00 -2.112330889023036118e+00 1.914620706510346793e+01
-2.499823935459819069e+00 -7.401891385778505139e-01 1.792634665991327836e+01
-7.720706565436132429e+00 -2.355170620078263166e+00 1.865373838875044754e+01
-5.509805124419260736e+00 -3.810878464793714393e+00 2.199379179039216581e+01
-7.878303818848589657e+00 -2.280764235452614752e+00 1.854627320647736610e+01
-4.084379974451252338e+00 9.740320106872533135e-01 1.474536549628982129e+01
-4.317396541358024642e+00 4.648584040708757747e+00 1.944860121501453420e+01
-2.498606299999452052e+00 3.456561922623702543e+00 1.899279130829621920e+01
-4.581764865019003707e+00 -3.243494968255878241e+00 2.018678074847121451e+01
-2.421316540993280753e-01 2.260450941136662451e-01 2.076730920147354453e+01
-8.056283346908497123e+00 -1.311961384450323731e+00 1.814089949183181716e+01
-8.039344807569296592e+00 5.190756496301436318e-01 1.756641320131171113e+01
-3.659254725474567316e+00 4.285114393839228875e+00 1.918904407529511502e+01
-3.907450669538831800e+00 2.208256877623295811e+00 2.092196659174678075e+01
-7.710306075231192047e+00 -2.875045031410762508e+00 1.972460961933421686e+01
-4.888449511972676298e+00 4.596444129782983445e+00 1.960374367385650629e+01
-5.503888158132316910e+00 2.311729415581295299e+00 1.577679818304483916e+01
-1.716806272595888805e+00 -3.454270752654613919e+00 2.040473668015385300e+01
-6.106952037057480354e+00 6.164245957850222890e-01 2.122510264901477228e+01
-2.309004888746405193e+00 -5.101867973861062833e-01 1.752253275219072037e+01
-3.107516400593786976e+00 5.340926593186317017e-01 1.577432927048206324e+01
-2.092684216450619861e+00 -2.013297082593681342e+00 1.923471619177270497e+01
-7.691497422352684410e-01 1.600826255741400139e+00 1.878830702593409541e+01
-3.707080730889671383e+00 1.518343264033363393e+00 1.401379845106996669e+01
-2.349971929825050765e+00 3.569915925343805085e+00 1.964164885867239718e+01
-4.498753102444609020e+00 4.630599706870230037e+00 1.964712148496744248e+01
-3.920181164273790042e+00 4.438835579958971600e+00 1.983186201808614868e+01
-5.943115743851411281e+00 -3.688621893930292384e+00 2.195501175596518806e+01
-7.308182813678063106e+00 -1.682718447655476179e+00 1.773488591326375996e+01
-8.426579178459325803e+00 3.954882862152694356e-01 1.953672889664498769e+01
-3.290367445367005317e+00 -1.951787757517569499e+00 1.934973699443858663e+01
-4.141053731840623975e+00 -3.712798294647667419e+00 2.054020788996643887e+01
-4.880747223821570557e+00 4.444241435903180104e+00 1.970321229397509910e+01
-8.412881385405038159e+00 -1.725979326210671072e+00 1.870439707171731669e+01
-7.651006976735120091e+00 2.202724412257369035e+00 1.973496106395061389e+01
-7.290288534963862865e+00 -2.572979368059328475e+00 1.928528781535234060e+01
-2.935957879781780466e+00 -4.029838832821173611e+00 2.165379193100590527e+01
-8.031016858459468111e+00 1.497476661296413436e+00 1.759297426516946672e+01
-7.351506736990963020e+00 -3.722075933302205986e+00 2.055757118271014150e+01
-6.736168354605609032e+00 -1.810589966918415339e+00 2.177101957133366028e+01
-2.308887595035255202e+00 2.658894622873633207e+00 1.777080319855063095e+01
-4.058324717399441339e-01 -1.442146279621224547e+00 2.169190677922637889e+01
-5.908179916902994933e+00 4.602785350912727225e+00 1.920351167928510705e+01
-7.371902176327299827e+00 -3.664386053240408003e+00 2.155857479038313329e+01
-6.740614033736965105e+00 2.736014351857959603e+00 1.712779841386572599e+01
-2.108359285777419601e+00 -2.125165546541173622e+00 1.933649746376561041e+01
-8.412590511429645090e+00 -7.828107158193843285e-01 2.041166306695452448e+01
-2.140464018009376801e+00 1.309030083509068909e+00 1.554372383984342321e+01
-6.208618903104399678e+00 1.824532916141019090e+00 1.583555217317285724e+01
-2.931244541201188714e+00 -1.826892199423836072e+00 2.202082488837213248e+01
-5.728392055618763301e+00 -1.098718493964167542e-01 1.614043417278369219e+01
-5.392354039294351420e-01 -2.377261369886692677e+00 1.930223164285452242e+01
-2.161956323469895747e-01 -9.934351893798211153e-01 1.992566961382247825e+01
-6.728219644612334349e+00 -3.224738407815539443e+00 2.189515135166006843e+01
-3.533484814496942850e+00 7.932008453095917844e-02 1.692614497457815048e+01
-3.518475694754086724e+00 -3.583377733281380983e+00 2.046383710634061259e+01
-3.708964477312216346e+00 8.838747304924002290e-02 1.690952735254002448e+01
-3.087548113379532833e+00 7.648971377123980897e-01 1.534603773707129193e+01
-5.195317211315784611e+00 3.004312349919584513e+00 1.643574051326789487e+01
-3.511696233098151598e+00 -8.698082496084645898e-01 1.838814915976749376e+01
-7.227477755077227783e+00 2.233072443749136049e+00 1.705895523049627371e+01
-4.925674513197740190e+00 -1.345307366508758928e+00 1.890499006259494763e+01
-2.502220519300680124e+00 8.520732196258984370e-01 1.530683916164251457e+01
-5.116631758782504313e+00 2.615328534157822293e+00 2.061805162063863861e+01
-3.500957213882297747e+00 3.277954988721693663e+00 2.046188685707979005e+01
-5.938308682556110440e+00 -3.402710321419888384e+00 2.030758199269001807e+01
-7.358814680531147623e+00 3.274613772194000294e+00 1.925271107128847348e+01
-4.344294715899663650e+00 -2.371811518964057064e-01 2.172478113993452098e+01
-6.617660369669846609e-01 4.849575003432539111e-01 1.753897195758601413e+01
-1.336828307536354510e+00 -3.786094249804744738e+00 2.086140430833884096e+01
-7.763837515220963326e+00 -3.672245878504187822e+00 2.058749963615230172e+01
-1.926043933154856891e+00 1.514451363165322029e+00 1.637139693803955254e+01
-1.950577354528163276e+00 3.153359800930976009e-01 1.657150574132408849e+01
-1.322196871854534939e+00 -3.340135443948560212e+00 2.027246832177979741e+01
-3.917420638020144619e+00 1.003598925381527618e+00 2.134218475338924037e+01
-8.300583189082027857e+00 1.279922914679907375e+00 1.876320321321287565e+01
-2.702521122643630758e+00 -1.618977345135350188e+00 2.198305729921138862e+01
-5.078954895206866382e+00 4.747106664044474122e+00 1.929465630983617785e+01
-5.185167052494316087e-01 -1.325117029465464391e+00 1.855345164577389028e+01
-1.561621168316828401e+00 -3.925900203649759224e+00 2.126789155091218930e+01
-8.703675823369863451e+00 -1.362221000284213446e+00 1.949966728887562795e+01
-8.238857040076588589e+00 -1.158781996602749942e+00 1.831325180029502064e+01
-2.867764118233888659e+00 3.163958827828988518e+00 2.052430665461319848e+01
-6.967169376820546489e+00 -4.081425670846550169e+00 2.132325610103001168e+01
-3.786133425912829864e-01 7.468628152346065696e-02 1.803641850403857205e+01
-4.966843888667996865e+00 -4.143561763286759181e+00 2.124650413470486399e+01
-4.704069166711621897e+00 3.208276212875966316e+00 1.681056911846320645e+01
-8.693188833630447476e+00 -1.146997927502445336e+00 1.951470612379788605e+01
-5.871899386022819023e+00 1.882711482320305052e+00 1.560611752609780467e+01
-7.698132417385267878e+00 -3.744823845938908491e+00 2.067373818436191613e+01
-1.987181670702739211e+00 2.912333199576353504e+00 2.051671427158157712e+01
-8.849320066033142806e-01 -3.653502486681354799e+00 2.174696224822272228e+01
-3.149203814420834524e-01 -3.200100676182890957e+00 2.065410773466027194e+01
-2.920953574089827587e+00 -2.836162531549506483e+00 2.209264452181184879e+01
-7.198957220466450924e-01 -1.627696531964653470e+00 2.189285764367271270e+01
-2.403680664853204085e+00 3.759229560528574599e+00 2.013271430822338459e+01
-5.523652338879432300e+00 -4.183645839907637054e+00 2.147008753903974565e+01
-8.338776340177561863e+00 -3.051132648302411710e+00 2.006715318574216411e+01
-2.701464656916815255e+00 -2.645203676529572778e+00 1.981588734445895028e+01
-6.328948851054820857e+00 -5.890470510855548847e-01 1.666649836536552698e+01
-7.136099431360069190e+00 -2.968508937590771946e-01 1.653749954371043884e+01
-2.769996754811601569e+00 -2.269264109642579741e-01 1.726499034953049261e+01
-4.913365811136385375e+00 -1.693965213347894405e-01 1.692118550214431849e+01
-8.105813713622744388e+00 -3.496345356972425100e-01 2.077511970578800771e+01
-3.484114006951216869e+00 2.951960567975182581e+00 1.677318238254106575e+01
-7.355237198971958712e+00 -1.689639996935545785e-01 2.120746914166077346e+01
-4.712020769347462945e+00 -1.126137002441640333e-01 1.695132740312917718e+01
-1.304486083624382786e+00 3.345905078251769638e-01 2.147061646256001666e+01
-3.645110331726663655e-01 -2.538353888305602712e+00 1.969081582317433998e+01
-7.542946351410638961e+00 -1.203619481422963045e+00 2.144184368807432151e+01
-5.367423877088622675e+00 -1.729791622543428442e+00 1.915305119464233030e+01
-8.463065026104116484e+00 -7.317344668545577857e-01 1.854783780986759467e+01
-4.909520792929046529e+00 1.487642940721258356e+00 1.439796122908329323e+01
-8.592541643987237521e+00 -1.766812689547322623e+00 1.907886270392966566e+01
-1.928411370127355084e+00 -1.019535261243960544e+00 1.808598552889203148e+01
-7.508989758312432095e+00 -9.023022604556820703e-01 1.731463090123582305e+01
-5.095323729329357398e+00 -5.546802696246625475e-01 1.774028155330758949e+01
-7.103498115282675052e+00 -1.761288829765706776e+00 1.788747661805594191e+01
-5.011120108387148164e-01 2.613819581865258201e-01 1.776603352392343993e+01
-3.313356570017607527e+00 -3.867975797704504615e+00 2.086993334341708106e+01
-1.491873071484926649e+00 -6.056717541486810186e-01 2.171618789208076805e+01
-4.936455823899797757e+00 5.845359374755377813e-01 1.515363723411609698e+01
-9.339810588755509402e-01 1.774571305985610081e+00 2.080793168933369230e+01
-5.947425585722592167e+00 -3.968350902836062399e+00 2.102650959343445436e+01
-3.291283522633987602e+00 3.917779562338789656e+00 1.878328215735049866e+01
-3.929985270901880767e+00 -1.551262171528893230e+00 1.906668121911313563e+01
-7.301915053112486120e+00 3.650039162061956777e+00 1.898255539079124077e+01
-4.309669539904293245e+00 1.555637350168516786e+00 1.412127435218445015e+01
-7.073798248589459270e+00 -9.564161782225996666e-02 1.633332322792004732e+01
-4.507255784775717089e+00 4.035181586284110722e+00 1.998416082134139060e+01
-1.930933139311986180e+00 3.378015452847169975e+00 2.018914443210321963e+01
-2.243375100801973776e+00 3.103489985155396536e+00 2.047163430542808271e+01
-5.968970921092489945e+00 1.393199628454383721e+00 1.526816624056597504e+01
-3.750319600252636665e+00 1.110927831236466212e-03 1.708426256174041669e+01
-1.699129605378890684e+00 -3.899428194877211595e+00 2.172455840588981602e+01
-6.328119470362292276e+00 2.531921232172219538e-01 1.569231933490713260e+01
-8.076995435958579606e+00 -1.382259285198489174e+00 2.111691608760088457e+01
-4.089354291503934036e+00 -1.376520437069089220e-01 1.734428126644834833e+01
-2.126411085897413233e+00 -1.764584486263479080e-02 2.158883475596037727e+01
-8.050643540319807556e+00 -1.009295827478946528e+00 2.105574109730847709e+01
-1.509580621194260619e+00 -2.679088623431339133e+00 1.958519916451430731e+01
-1.731860853042958448e+00 -3.371469801834530600e+00 2.031743031209145300e+01
-2.927770596055628838e-01 -1.755984386946151110e-01 1.851830015205122493e+01
-1.322917368593283571e+00 -2.975788686524009297e+00 1.988123523713289842e+01
-4.554404703082685302e+00 -8.239471290406973347e-01 2.187336763944738749e+01
-5.486996874484209918e+00 -2.661518974371426260e-01 2.163793320763379313e+01
-3.313683494182859679e+00 1.568442264848024514e+00 2.117464626488835933e+01
-7.059187256382806197e+00 1.649591481497386658e-01 1.616785939402014094e+01
-8.462826436051338774e+00 -1.815104582895336605e-01 1.993745670614159593e+01
-5.416071462599457043e+00 2.123874068969414663e-01 1.568766350502082219e+01
-8.178313629163673326e+00 -1.196363136430175889e+00 2.094627599142057761e+01
-5.099271700661574869e+00 -1.187441817941135902e+00 1.869551359004098856e+01
-1.747628280695609826e+00 2.979558069261387221e+00 2.040306653446610596e+01
-5.130364540525708783e+00 -2.988721077884065824e+00 2.006771897380070868e+01
-1.483704417018164801e+00 2.706288719838019663e+00 2.046302536547561601e+01
-5.913398973940755532e+00 4.804497443202573881e-01 1.532503661039775267e+01
-3.457874824536667502e-01 -1.403360571329802742e+00 2.152983548113807899e+01
-6.387688253639149494e+00 -3.226344675853579425e+00 2.195963713494511893e+01
-6.927731323714686695e+00 -4.015622192027122672e+00 2.146119346780563575e+01
-8.306891615242813387e+00 1.077900504340597365e+00 1.829775811201184865e+01
-5.704680458314057567e+00 -2.814552663275167177e+00 2.206499417573602528e+01
-2.542571109022070175e+00 3.599825973516228572e+00 1.923144167587451392e+01
-5.136444473029311730e+00 -3.713202540280354569e+00 2.054037669488941731e+01
-5.750245732509322139e+00 -3.019391129250400763e+00 2.206688076868690018e+01
-2.554509269217532186e+00 -3.231088875458349108e+00 2.021688149402692147e+01
-5.294986424148869553e+00 1.313333195369362771e-01 1.590143987600718134e+01
-1.537353367074237642e+00 2.598690248992583829e+00 2.053900119389211198e+01
-5.128266598686403555e+00 -3.821701555204228828e+00 2.205098093324141217e+01
-1.639797125911075959e+00 2.474370859979156290e+00 1.875226562658931329e+01
-5.762865325047775045e+00 -4.323350595198037771e-01 1.680823093229405174e+01
-6.745776596411698023e+00 1.508926465992048271e+00 1.610311029307788289e+01
-1.120889386391651366e+00 -3.790692506097742775e+00 2.087118146954780684e+01
-2.543293590227557743e+00 -3.923397107765356662e+00 2.110061299358051201e+01
-1.341023008211753131e+00 -3.872829193246700274e+00 2.106842421832928380e+01
-4.906366638127439117e+00 -1.593175529402122592e+00 1.912853741230254911e+01
-8.281345271471383995e+00 -3.336538184615307934e+00 2.064535892008746032e+01
-1.713425994428338761e+00 -2.420808120775945316e+00 1.942312736572500143e+01
-7.147173490556127717e+00 3.677994243560560594e+00 1.836749667180599488e+01
-2.471824406996296020e+00 6.746841039067795753e-01 1.558346494455380338e+01
-6.940287984827430812e+00 -3.382126837845008005e+00 2.020991209793099586e+01
-7.151269722512414440e+00 -2.429639438356904879e+00 1.907823706605706349e+01
-2.957715886724092691e+00 -3.337058412153390830e+00 2.027178352377659110e+01
-5.332995941332577594e+00 -3.392673908848177433e+00 2.030599049330287897e+01
-6.764325672775391318e+00 -3.421817916198749199e+00 2.024616394068719671e+01
-3.319197107651944645e+00 2.060932376544216016e+00 1.515074829404139223e+01
-6.908300803968698389e+00 -3.518520360308012851e+00 2.033150126090183107e+01
-8.671327523444951169e+00 -9.524542272539383569e-01 1.951943445203186656e+01
-4.313923458829751922e+00 -3.814260438304462042e+00 2.210782502715441922e+01
-7.105884773259306897e+00 -1.779057294406553691e+00 2.168452415394003907e+01
-6.768034506926405847e+00 -3.402266542996253751e+00 2.185653688558522134e+01
-6.514174974333272417e+00 -3.404100803471133307e+00 2.191118080388945089e+01
-4.092033597582777738e+00 4.203444489716170906e+00 1.994962249550106748e+01
-7.130488052733345405e+00 3.629515390567498390e+00 1.920565514659917028e+01
-3.920776011933146510e+00 -3.921630717729691629e+00 2.087683420105717857e+01
-4.311777635391725205e+00 3.208108083074081129e+00 2.045097771269970366e+01
-8.185703263304180410e+00 1.724236910127525668e+00 1.900917806899987283e+01
-6.926754985018146904e+00 3.935720594525051741e+00 1.856405463053272342e+01
-7.500826045146260945e+00 -1.762057321542915833e+00 2.156218061601973801e+01
-5.338864919168391232e+00 -2.009072575569236907e+00 2.204595011876262589e+01
-7.464933847449480631e+00 -3.920326821991921284e-01 2.124463662079099180e+01
-2.306958527721246544e+00 1.463090022750728469e-01 1.678300274703297390e+01
-9.164663243514397095e-01 -3.552320771263917099e+00 2.050848206923475203e+01
-3.494607770137888814e+00 2.734058702097779681e-01 1.653037720498805641e+01
-5.331770979063676030e+00 -2.225357274123791029e+00 2.207024665108183115e+01
-2.896219311508011707e+00 3.632391172116425704e+00 2.026518016822394941e+01
-6.934071390385708078e+00 1.790151497843437411e-01 2.119797683183281123e+01
-5.734241430479088741e+00 4.146661379612593734e+00 1.834068105877190646e+01
-5.515192077268187276e+00 2.217165854153486659e+00 2.071726090094141171e+01
-7.614362722716673249e-01 5.090665776329778014e-02 1.733705478442370662e+01
-6.540410844288940595e+00 -6.708994689365195274e-01 1.673856229269119922e+01
-4.329631144074835625e+00 -3.509149423788747169e-01 1.771819346715508203e+01
-7.829260033994731138e+00 2.846372028758189732e+00 1.834047378759101576e+01
-2.964856321728427169e+00 2.616686189298309539e+00 1.664427226421985750e+01
-4.321963921189306390e+00 -3.949248844012364312e+00 2.085769629139385017e+01
-6.940770957248958872e+00 1.394688316601721212e+00 2.070596618804697897e+01
-6.726568432246567752e+00 -3.960999963319589146e+00 2.159468721576776318e+01
-2.531510762058701403e+00 2.439798390542131212e+00 2.086477890238742816e+01
-3.907589998547551513e+00 -3.815505164341781441e+00 2.070736185202323298e+01
-3.128826213556715086e+00 -3.269129917154730003e-01 1.755700067666585085e+01
-5.188063146490978106e+00 -6.959856293062298693e-01 1.797035221024616902e+01
-4.905663409201080682e+00 4.817194028866451094e-01 1.537771150893657079e+01
-2.080295677156468237e+00 1.345183986696492529e+00 1.574069029309440282e+01
-8.096533603340500207e+00 1.466616303191347725e+00 1.776278684508879024e+01
-1.309268072393410698e+00 2.134455488217121832e+00 2.069215805975832723e+01
-1.286663035009852019e+00 1.748575079987995995e+00 2.089000665374828003e+01
-6.097761409773648111e+00 3.804833656230857120e+00 1.803893209214341198e+01
-2.117168875094047831e+00 7.994304106841736424e-01 2.139429770066946901e+01
-3.726390970758123533e+00 -1.210441686519179161e+00 2.194240499759274599e+01
-7.619830388355502748e+00 -2.810965415422672642e+00 2.156766579684857277e+01
-6.238284595885517980e+00 1.267481966475811017e+00 1.544975575272011525e+01
-3.144459077550923465e-01 2.442223738150189616e-01 1.832807688058398554e+01
-1.129691987542444487e+00 -3.874162262384475586e+00 2.108339251128773384e+01
-7.959701758409496009e+00 -3.508841391877086657e-01 2.094796583700142634e+01
-4.318736220099794743e+00 1.726556017108581420e-01 2.160131828737203108e+01
-3.525385533253387660e+00 -5.177811001994602202e-01 1.794179567018124288e+01
-6.120082000430158153e+00 1.230476055309465799e+00 2.099260302972578529e+01
-5.032785749756780724e-01 -1.810966612933622599e+00 1.887206885053251426e+01
-3.502219916258620724e+00 2.988804869658630459e+00 2.061531848068570127e+01
-7.070341627997159817e-01 1.386335160701381852e+00 2.093821562944422965e+01
-7.097904601368739685e-01 1.614376933175577733e+00 2.082630525519724785e+01
-3.146407899064828761e+00 -1.574203767150561095e+00 2.199143198657517928e+01
-2.879916741608502306e+00 -2.387480881096798235e+00 1.964233751889558022e+01
-5.677898626352284595e-01 -1.977565727837313769e+00 1.894972390501040138e+01
-3.109103974995623076e+00 -1.970071577977323241e+00 1.935619266068479760e+01
-7.213340053064546398e-01 -1.963652407879330930e+00 1.889611830037230078e+01
-7.527740054327023422e+00 7.959445519524915857e-01 2.072167626000202034e+01
-4.753800349868733122e+00 -1.981883049569341249e-01 2.170391866089303790e+01
-6.458379322554653745e-01 2.309075107767003310e+00 2.012834796573079643e+01
-4.732509979594802019e+00 -4.180917962814729716e-01 2.177159651508338101e+01
-1.526287391537209714e+00 -2.586771778059341109e+00 2.202206295243647816e+01
-2.553801969534019722e+00 -1.242318829600043806e+00 2.191208191856519250e+01
-4.945820824131843985e+00 -4.128726866699325093e+00 2.178948193934980537e+01
-9.235323416890406367e-01 -2.413753398240866321e+00 1.930408773011336621e+01
-3.997010444038038846e-01 -1.647930592882164369e+00 2.170595173873549300e+01
-2.940246790697606638e+00 -1.615051320316633898e+00 1.906508541324734551e+01
-7.136840569861662154e+00 3.091317719391967422e+00 1.963910971311942433e+01
-7.319349170028502272e+00 -2.194040583356017482e+00 2.169613963902288134e+01
-4.921884243508112711e+00 -3.966597458189435432e+00 2.201415656737731297e+01
-6.910995732128487390e+00 3.041052100926344703e-01 1.593056289031297013e+01
-7.838950775898743117e+00 -1.925955983169587160e+00 1.815765952573858044e+01
-6.290578393475554364e+00 2.844433306026536989e+00 1.701061622145367380e+01
-8.918461013699632289e-01 1.404489193863842633e+00 2.099079881642007450e+01
-7.608804035220522621e+00 -2.969200564675530174e+00 2.156745542788828374e+01
-6.055212279750578297e+00 1.971830877669197069e+00 2.070255060194818242e+01
-5.511729498642816694e+00 1.770681017277973446e+00 2.089639932387564158e+01
-6.315885582905865547e+00 6.893873715246445766e-01 1.530675356771764228e+01
-4.131620866847997675e+00 -1.614452350895935417e+00 2.202225154172434429e+01
-6.924270962346836811e-01 -1.620925160479643967e+00 1.862150432453505999e+01
-5.909673103491867252e+00 1.788718434553745684e+00 2.080810055737731545e+01
-2.903134628779733717e+00 3.044914051313693193e+00 1.759795062174325153e+01
-2.119466931073747951e+00 -2.423035314531670092e+00 2.203422662224488704e+01
-9.210502130309474733e-01 1.547641384325681102e+00 2.091795071336866840e+01
-5.127174201492441519e+00 -3.369398354711294008e+00 2.028304118756591379e+01
-2.661385020217588160e+00 1.770417938055115048e+00 1.535452872949156244e+01
-8.608148646098232604e+00 -3.273336747528506896e-01 1.890809777697339200e+01
-6.733584198441999291e+00 -3.516216279055913496e+00 2.033389748906169814e+01
-4.032943616060366554e-01 -3.181443703621098518e+00 2.143312626875957250e+01
-3.708018493283619321e+00 -5.252413503228728353e-02 1.718250064272920241e+01
-8.592694582957948413e+00 -1.691328147529941872e-01 1.889462161063383405e+01
-8.441278511598797607e+00 4.509472212546996039e-01 1.931986095663094716e+01
-4.518688415092511512e+00 4.686083538626910183e+00 1.942649821626557838e+01
-1.896865747210878306e+00 1.089287632019964036e+00 1.577069074998306064e+01
-1.888838840355520299e+00 2.347256633894198308e-01 1.669212214155422203e+01
-6.921978526805912857e+00 8.071647753510929890e-01 2.095498234702134965e+01
-8.460009209047386847e+00 5.130649700984200035e-01 1.874180629532370546e+01
-2.507596747459752251e+00 2.909532262960853322e-01 1.658722093730353464e+01
-8.049246684395779283e+00 -3.757266894723306772e-01 2.085926729511574962e+01
-3.512254437762798442e+00 5.906438735723164024e-01 2.147508144017060516e+01
-8.167419247272089677e+00 8.645993935892515303e-01 1.774231331509795240e+01
-2.141598791760874476e-01 -3.713431636305116745e-01 1.913749867874288668e+01
-1.507325145658408694e+00 -1.529280906399269391e+00 1.851696043799315561e+01
-1.896305136249376133e+00 -1.392841783469060069e+00 1.853155996061453692e+01
-3.694451078310477588e+00 1.966160531217358010e+00 1.478212972488239529e+01
-8.629832788823060596e+00 -1.731024530191494826e+00 1.917655907113087466e+01
-5.526926331125464387e+00 9.017163249689298388e-01 1.471036094147432038e+01
-2.182009786940813933e-01 -6.629295057150962345e-01 1.926106815956277529e+01
-7.296296298618250020e-01 6.896233032509376804e-01 1.753249024464382444e+01
-5.086623639929217511e+00 1.399576445188496887e+00 2.111097863246118322e+01
-4.171896583889325605e+00 -4.133408935219403668e-01 1.784870447937567661e+01
-8.053646155931760475e+00 1.073065036045756759e+00 1.754221710531189160e+01
-5.530719967982121510e+00 -1.158136702039858079e+00 1.850400478719667063e+01
-7.677871931749070455e+00 3.043055884052557669e+00 1.898523855406571670e+01
-7.757010258193464125e+00 -5.695117632792644491e-01 2.117006855160553869e+01
-6.323408816898390405e+00 3.812700204958154870e-01 2.126604322078868137e+01
-5.496341229632219161e+00 -1.003792295949959001e+00 1.831050508702602997e+01
-6.325080584832905473e+00 -3.610236698119179799e+00 2.189828211774499778e+01
-3.968643380739144355e+00 -4.412351449998297426e-04 1.706748999047535165e+01
-5.304134324649396603e+00 -9.582595124170517620e-01 1.832625317385516439e+01
-5.096380818510843902e+00 -1.009726576867825631e+00 1.847587030254712914e+01
-7.956481530262815127e+00 -3.397734538541024474e+00 2.031070133417682655e+01
-6.315189011852995193e+00 2.976628598357188960e+00 2.016580948982619503e+01
-1.046623462309819175e+00 1.500290346234772976e+00 1.811420630877832139e+01
-2.537984510972921104e+00 3.796303786518512524e+00 2.016785882544854758e+01
-1.741826262432780492e+00 -1.637713669052314636e+00 2.192240111197032348e+01
-1.319787356849525528e+00 -2.635977909147882325e+00 1.951990589972256629e+01
-7.503553386546510939e-01 1.955968695763850462e+00 1.941337698825895330e+01
-6.904013559512168108e+00 -3.966129305946720418e+00 2.083616658793204834e+01
-3.588676174538058539e-01 -6.286548257821150676e-01 2.152245169066586783e+01
-2.095097880414434899e-01 1.575800229516839679e-01 2.051157486266278340e+01
-6.109689830841499081e+00 -3.163574866442965927e+00 2.011283899289897192e+01
-6.500743570457640175e+00 -4.112004118794715168e+00 2.127293323728909513e+01
-2.899080218228819117e+00 3.271247018143904839e+00 1.801350515459513701e+01
-5.147852718907963698e+00 1.982371108695792472e+00 1.510852850533785130e+01
-4.930654542369196314e+00 1.768346039353811516e+00 1.471663030698825025e+01
-6.285984958724151639e+00 -4.106358430795735259e+00 2.134814386609614445e+01
-7.648859107502659072e+00 1.386545495550082219e+00 2.029551472031351267e+01
-1.485990664116154880e+00 1.298168481547573361e+00 1.695288094677470525e+01
-2.292097766591381536e+00 7.251158808311111148e-01 1.554302068986040553e+01
-4.325818496726712148e+00 1.733741713084301139e+00 2.108204162070465770e+01
-5.111265906498240419e+00 2.945313558522855590e+00 1.635360278021948943e+01
-6.896665141150939426e+00 -2.954718989608803970e+00 1.983593919676081896e+01
-2.910699802683628601e+00 3.979097467095909391e+00 2.002096982166033712e+01
-5.734601452698872670e+00 3.439454459128936659e+00 2.007118803465429835e+01
-7.318189887312946063e+00 2.621252768353093732e+00 1.980920121014958113e+01
-6.225027572138903231e+00 3.133795925468702226e+00 2.010196066340829191e+01
