-3.064319045314577661e+00 2.920400649300182172e-01 1.210330719623445717e+01
-4.428114997643222139e+00 1.912487908408238013e+00 1.872407391242585462e+01
-3.291864560312596222e+00 2.998443347766752254e+00 1.493987748115961622e+01
-7.117207210339692836e+00 -2.918373804875662003e+00 2.004043869682401535e+01
-9.799545052701894576e-01 -3.083862000791132818e+00 1.760929365335691088e+01
-2.636230137216175162e+00 1.912622034706069840e+00 1.387340377183689455e+01
-2.869713120203061685e+00 -4.112221741052026758e+00 1.858067287547614299e+01
-8.881529460399640641e+00 1.143801849275704496e+00 1.684872588029366725e+01
-1.097349163413058992e+00 -2.909889098833237764e+00 1.774945566034926614e+01
-5.823133412621619875e+00 3.345556784419531748e+00 1.852605717401120344e+01
-3.618416376724884920e+00 -3.515541459267543356e+00 1.900401113141380094e+01
-1.452623871335262162e+00 -3.696421112939169973e+00 1.793176476317311696e+01
-1.335401042484401612e+00 2.273414973639959480e-01 1.371271585135608362e+01
-4.887024640111724771e+00 -4.290332505754117953e+00 1.785903199981475709e+01
-1.127875145331908469e+00 -3.247907121670727815e+00 1.772713475052458065e+01
-8.900488389564595870e-01 1.218057952897354523e+00 1.510430694597429024e+01
-7.628481799161675347e+00 1.275631421683913969e+00 1.955012657039694446e+01
-4.812846840391624692e-01 -8.744612914577731821e-01 1.613267936612166054e+01
-5.862983667015433831e+00 6.718412526636585724e-01 1.964348808901133836e+01
-6.291651702880324493e+00 -2.301717868397556099e+00 2.010308171131034172e+01
-5.289928356541761190e+00 6.330359519202474750e-02 1.953852014759761246e+01
-4.034110191365163800e+00 9.042361392946606236e-01 1.880760014740565467e+01
-6.114776288066196663e+00 4.355765452034083829e+00 1.672689318394426650e+01
-8.657920779884836548e+00 5.581592534408634787e-01 1.913185954942655442e+01
-8.818383845030918877e+00 9.810830388656154311e-01 1.770435587755080675e+01
-6.999138486141893267e+00 1.660945754136081032e+00 1.951567848437509056e+01
-5.376017716007932101e+00 2.898601223916613900e+00 1.873956419216787950e+01
-4.558152267833891713e+00 4.548721683949423777e+00 1.761155479954538450e+01
-3.865655139580307598e+00 1.618559912060955064e+00 1.295384443317331247e+01
-8.596424767082883278e+00 7.050378347086339037e-01 1.908529765914950005e+01
-5.722445350002696607e+00 7.097325529446409931e-01 1.276580286436556477e+01
-7.007435301115277682e+00 -1.228098463928664730e+00 1.749806399402875101e+01
-7.086213695048226846e-01 -2.689318365302963532e+00 1.725017997761891664e+01
-7.607669178537020294e+00 2.653761228040354414e+00 1.597345584531356266e+01
-2.256642975105669802e+00 -2.315569199157429203e+00 1.835433392449156642e+01
-3.026977044467407119e+00 -4.428231045683192590e+00 1.653673769520707637e+01
-7.050364837875094715e+00 3.706060085146826388e+00 1.670995243264242802e+01
-2.495012594650267257e+00 -3.009845046149499215e+00 1.422940624042652402e+01
-3.135195786572194443e+00 -4.259389682463002202e+00 1.659317360124184759e+01
-1.420126780235335673e+00 -4.616427417418512036e+00 1.634579778765960256e+01
-7.601743452671994028e+00 -1.781333883143224162e+00 1.815565152154085027e+01
-5.340574568003980005e+00 4.809580234587982339e+00 1.712733330967362733e+01
-5.164355670921652930e+00 3.178012247422319803e+00 1.856949748974740899e+01
-3.651104663414791673e+00 1.351226166624146741e+00 1.263905515223826015e+01
-7.994856075303660159e-01 -3.216714686503409748e+00 1.644093069403247753e+01
-4.628224973336820369e+00 -1.818197140220456864e+00 1.634573540113558110e+01
-5.652550829600089699e+00 2.779223235814602067e+00 1.475040377566979188e+01
-8.579925286611747026e+00 -1.515954277078363388e+00 1.990619043383005859e+01
-1.007877404336224414e+00 1.206469484352392652e-01 1.753442187216492343e+01
-7.084035600050517800e-01 -7.869901077770653508e-01 1.409317344872524913e+01
-7.054362214664271491e-01 -2.662434331682270283e+00 1.639331234081606326e+01
-8.845412095437737321e+00 1.208893055166265329e+00 1.670016162638522061e+01
-4.625562125388730905e+00 -1.616486637713212327e+00 1.616687101415832117e+01
-4.881892750427793359e+00 2.154305197298300278e+00 1.379473972395210879e+01
-1.059448053536941048e+00 -3.403648682252173874e-01 1.367763090819447669e+01
-6.634845215735194479e+00 -2.454113705265480672e+00 1.807001558763397853e+01
-2.489729099784850685e+00 -7.606378070512517242e-01 1.295168974311497223e+01
-8.869273170506328796e+00 9.863313191319670326e-01 1.735070954736187687e+01
-1.835714492791677088e+00 1.717856829473605185e+00 1.765184707488456795e+01
-3.807539500999916449e+00 -4.104125047419586281e+00 1.898275440653666735e+01
-7.575471091366067888e+00 2.793382119165159772e+00 1.782500424374802250e+01
-5.855711028250094596e-01 -6.530745312409695913e-01 1.732194732968966733e+01
-3.768097266528664058e+00 2.566053872659916468e+00 1.828418691431646792e+01
-3.725668093682842574e+00 4.241759348634342786e+00 1.631931593409652592e+01
-6.387535559691850828e+00 -2.979292623158932951e+00 1.812251351022677071e+01
-8.339285648159570741e+00 3.986476703980045277e-01 1.961011560772006490e+01
-7.048155127901699402e+00 -3.235729888037169655e+00 1.908936270031106019e+01
-7.394328131405946358e+00 2.989110661299519744e+00 1.782262585920241449e+01
-2.041475277213641526e+00 -4.802013156156736073e+00 1.692135893876176667e+01
-6.707762627023255320e+00 -3.524102772062380318e+00 1.923387216864432148e+01
-5.931084110138485244e+00 -3.951741036256349204e+00 1.927368815473068864e+01
-6.828867171954289716e+00 2.107205554065300745e+00 1.925479382451535670e+01
-6.831365351919531648e+00 1.901476307328260562e+00 1.939641349515959590e+01
-2.426089708572258363e+00 4.254210924465482435e+00 1.698027255480204545e+01
-2.245322913963552658e+00 -4.914193789143868507e+00 1.731303884085894751e+01
-5.303935184664866576e+00 -4.993096672308938722e-01 1.540096057388158002e+01
-3.067059620508230555e+00 -4.228490583608543574e+00 1.647766462792767683e+01
-8.856617916734457197e+00 -4.256883801680272916e-01 1.688648160705111323e+01
-3.942923886186586735e-01 2.987485136025743171e-01 1.673291754855173608e+01
-2.609574373170675976e+00 1.106327337082420037e+00 1.813865258210187292e+01
-8.684280616215005466e-01 -3.341612181296290007e+00 1.585853502946048721e+01
-1.143331273468218390e+00 -2.569265088871339309e+00 1.461688374668171164e+01
-8.511986812809411163e-01 -2.753953639754317173e+00 1.522368157988936233e+01
-5.820647494431310243e+00 4.024285797860454927e+00 1.797847374631102824e+01
-4.838918287994505185e+00 2.329350058879237295e+00 1.878766920594648226e+01
-1.197858722144846899e+00 -2.987933939942396755e+00 1.479883303916900061e+01
-1.316377401638423539e+00 -3.661868871876237552e+00 1.510872237467137680e+01
-1.223570793431976833e+00 -3.335910571607120456e+00 1.501937237880829557e+01
-4.884764126359373293e+00 2.604153272432052635e+00 1.433607260834515174e+01
-8.090215212038447845e+00 -6.091955419036478719e-02 2.000386950374423023e+01
-6.636156470658804984e+00 4.060077420969965267e+00 1.705249840676402684e+01
-2.038853097029416972e+00 -1.708401756961735796e+00 1.822483775822745500e+01
-6.335091600190016159e+00 2.902925847104349533e+00 1.518454436788850259e+01
-5.637001148795026673e-01 -2.048167206716018929e-01 1.471661833514414397e+01
-7.603964560959298957e+00 -3.016305472008449229e+00 1.977934930823205306e+01
-1.142521164544364476e+00 -9.606983725247614236e-01 1.371116951236747283e+01
-6.076999260035886863e+00 -3.862379961041400911e+00 1.885532617966557112e+01
-8.443238453509447350e-01 -2.870466932244570391e+00 1.540239457962218594e+01
-8.401030767101890007e+00 -2.396351093365240548e+00 1.949336421529953967e+01
-2.653566951547473796e+00 4.373377516836562257e-02 1.239646606275247009e+01
-3.820028052525679563e+00 -4.796614874946858897e+00 1.772101396546040419e+01
-1.290121539233287651e+00 -9.474631807524073190e-01 1.360095288453536355e+01
-3.992330413247822563e+00 2.704636888477976342e+00 1.833827398671929743e+01
-7.240467724518635073e+00 1.513586437014285968e+00 1.956089550587097037e+01
-6.858361133268857657e+00 1.507230404436094018e+00 1.960336359363053660e+01
-2.633482427394264747e+00 1.735967696129850468e+00 1.364020891373178657e+01
-4.394815196498447207e+00 3.312898234792807983e+00 1.830509467253367362e+01
-3.940386702500953575e+00 -1.118143969744038735e+00 1.483105993572124603e+01
-4.048654672094785134e+00 -4.655752004522275556e+00 1.766504189056534457e+01
-4.082470646780610224e+00 -4.727439662829974409e+00 1.785674286800758281e+01
-5.158587197651853806e+00 4.657489918180729660e+00 1.687622326369059422e+01
-3.432108648407549367e+00 -4.793366208891357338e+00 1.732936565928050854e+01
-7.137625784380283278e+00 1.666750969103465430e+00 1.478102125088178909e+01
-5.010506111034327859e+00 -4.371899745724393327e+00 1.812959001683353577e+01
-4.271831826330051207e+00 -4.089545305761710381e+00 1.912928416372826135e+01
-6.645682284432803399e+00 2.822359145107325440e-01 1.996907701817974967e+01
-7.456463281140643495e+00 1.233271003724551784e+00 1.484553139377608844e+01
-4.357136885496084577e-01 3.523873263015012136e-01 1.694883718413067086e+01
-7.618313842548871229e+00 -9.862961021302932840e-01 1.732836031121951592e+01
-5.286227586112025811e+00 5.096842925596865026e-01 1.281551481419785077e+01
-7.392790968131644824e+00 -8.311511033618590449e-01 1.729507192075308453e+01
-5.039007482101670377e+00 -2.790412627638710896e-01 1.422324474443303544e+01
-6.462507131149271444e+00 -2.653758690636199180e+00 1.803741377868125895e+01
-5.975259848285302766e+00 -2.133900285054301627e+00 2.001684693749357180e+01
-7.442506880356526189e+00 -7.407232966995667134e-01 1.714927470757125505e+01
-2.571272912754480888e+00 1.773704223509981803e+00 1.373706354295883969e+01
-7.606081255963674792e-01 7.860083586491023455e-01 1.495889799974465362e+01
-3.663883052943036844e+00 -4.107089965720075675e+00 1.893366155183882071e+01
-3.591030209296455666e+00 3.114584179795506280e+00 1.809774357698814740e+01
-7.933048461440393773e+00 1.642670580098646083e+00 1.538198318447281210e+01
-6.481396408660746733e-01 -1.201219624940653707e+00 1.446609212985461923e+01
-2.338229623613560904e+00 -4.652474053272113608e+00 1.825323288406827871e+01
-6.336428562778035456e+00 2.836897250695045170e+00 1.877674963128153607e+01
-4.938229669040901548e+00 -1.200384672256157526e+00 1.597160368393963736e+01
-2.203895430349044560e+00 1.514163179196455600e+00 1.369208004641994236e+01
-4.632426042893671436e+00 -2.270351897065037594e+00 1.668286274447533302e+01
-7.950411776465524660e+00 1.127136997584509692e-01 2.000004349630704681e+01
-4.906546293285289018e+00 -5.687707214734938344e-01 1.479245463407363204e+01
-3.810878318592020086e+00 -1.431954114815742418e+00 1.516061263413974913e+01
-4.661573536220601888e+00 3.170895221531913610e-01 1.921592859486561977e+01
-1.801253953470565161e+00 2.722428527395330811e+00 1.732571464434505160e+01
-4.218917259263210262e+00 1.681197939116502171e+00 1.868448788048065623e+01
-6.507983489017110657e+00 4.173240999121279882e-01 1.516356959495410095e+01
-5.176736497160913331e+00 -4.395350904678333448e-01 1.497556291213717472e+01
-6.049914519895988718e+00 -2.856543833937168486e+00 1.783022196613357480e+01
-7.007340129268563977e+00 2.347839680032587584e+00 1.899046508828602597e+01
-8.022209459080205107e+00 -1.709183483483689425e+00 1.825019377234206885e+01
-6.849818006668996873e+00 1.101186424448687529e+00 1.977557764268967233e+01
-5.107657878172098265e-01 1.560513147388300936e+00 1.597958668732779230e+01
-9.383155912490228623e-01 -5.393648451850506786e-01 1.370677875165230475e+01
-5.100592047611108626e+00 -2.717771259673289030e+00 1.969992264218763367e+01
-4.939862134189827003e+00 -2.704011691519988769e+00 1.964189788182443053e+01
-2.864615913512693623e+00 -4.482200513763780592e+00 1.629455853079321415e+01
-4.444926762584703539e+00 -1.638385264821635712e+00 1.607615419510852561e+01
-7.810284087674836950e-01 -3.048086374402914078e+00 1.600317070925781238e+01
-3.103254105600356194e+00 -4.856863102403311316e+00 1.844780386578338849e+01
-1.181586391244744849e+00 -4.263105093660806588e+00 1.677231969155230118e+01
-5.970116498927371396e+00 -1.965246208552593910e+00 2.001832137507189557e+01
-3.887412733047422186e+00 -4.661821770167233758e+00 1.867862645518881592e+01
-1.471993377238783207e+00 -4.552891302996621370e+00 1.600118900898857177e+01
-9.177726253148676960e+00 -6.766069081967138743e-01 1.885345470407719759e+01
-3.224799821872425643e+00 -2.582733812855009692e+00 1.556037506087962541e+01
-7.094346168090358340e+00 -3.257407577549944477e+00 1.981292807343702478e+01
-4.481159613036223455e+00 -1.127284495888663196e+00 1.545433951621560098e+01
-5.791405368916369145e-01 -1.205619859213325595e+00 1.507966571285218649e+01
-6.487645291782488499e+00 -3.305469231273460373e+00 1.984196332033937793e+01
-7.574452147364953980e+00 2.604355045337081176e+00 1.817819928466297696e+01
-2.905977495040513947e+00 -4.733890569714254148e+00 1.683936324262535678e+01
-5.654625455115002808e+00 -1.273166044202683089e+00 1.688028224021701007e+01
-6.104720567045521129e+00 2.984316210105895539e+00 1.513213455868034529e+01
-1.526947526894408380e+00 3.903730926443097632e-02 1.333450145536576414e+01
-1.736572090501469656e+00 -2.359517047858179506e+00 1.401144964094160272e+01
-2.839569085029442164e+00 -2.826240956439749041e+00 1.435744508129735308e+01
-7.452537299011619432e+00 -2.036544982016720962e+00 1.830375890738994471e+01
-2.629556512390453626e+00 -4.847886197284275944e+00 1.708607530740865244e+01
-5.316626496810632929e+00 -8.232196184412388096e-02 1.419646228631311047e+01
-2.566667398749386653e+00 3.582889795665936683e-01 1.237293514790028226e+01
-5.329890308195721627e-01 -1.033087498080911937e+00 1.548453349009055913e+01
-7.257528628319023234e+00 -1.788969772829096527e+00 1.804697948219270032e+01
-3.214961945373035590e+00 2.508541428533864082e+00 1.808508560986622982e+01
-5.628441960728794768e+00 -4.235933511419720521e-01 1.597915097940142104e+01
-6.494097050519735959e-01 -9.924877030052163818e-01 1.427901442718773595e+01
-1.463922323981933893e+00 -5.312599127711115088e-01 1.321180831466471162e+01
-5.996666247846031972e+00 3.678516443519401324e+00 1.823953988952844085e+01
-6.310641909906347102e-01 -1.814027304215163783e+00 1.546100812912379396e+01
-7.488746140736755486e+00 3.172070538048258559e+00 1.652515069269557202e+01
-3.588767590606578572e+00 2.757704413312731972e+00 1.817662607526451168e+01
-2.472251437948318475e+00 1.686040187280426705e+00 1.369656560574474824e+01
-6.120499352829538164e-01 9.057288598300409221e-01 1.712027739211591992e+01
-2.733285055878647896e+00 -1.332658632549279965e+00 1.338419648865160738e+01
-7.044002114191205699e+00 1.505617695367948983e+00 1.959029434639485956e+01
-3.111752136651483536e+00 1.167518997606138864e+00 1.836968576580757073e+01
-1.840338638876663158e+00 1.412045074110872545e-01 1.791890467673482235e+01
-6.858857838548022556e+00 5.032191365053020338e-01 1.996186593771446027e+01
-7.377947540336931453e+00 2.505877512163050103e+00 1.860703019845576378e+01
-5.760854967808719529e+00 4.602049189779539695e+00 1.732225364988436311e+01
-8.912356665728648153e+00 5.958923807904049630e-01 1.652440817841211285e+01
-3.138970673147098100e+00 3.966869528215366092e+00 1.619152589237634388e+01
-3.696858487038674035e+00 3.082171218462632201e+00 1.486767341359371741e+01
-9.825962594279897822e-01 -3.650326929866470227e+00 1.598004746570734014e+01
-7.858597922678669523e-01 -8.959619611589166865e-01 1.753383922412794149e+01
-8.827022795898123775e+00 6.361129804345547756e-01 1.634628124426118845e+01
-1.219471775786282297e+00 -2.692701952556090017e+00 1.786462186676020636e+01
-2.961170551375982285e+00 4.567723796636634859e+00 1.715603030990208211e+01
-1.738736254257073899e+00 -3.154448524377928109e+00 1.437940393324614163e+01
-3.906957964534579553e+00 -5.611209035751983931e-01 1.361381212432189969e+01
-8.448966388476133460e+00 1.655959857313379358e+00 1.784155411337057373e+01
-3.748112594595607305e+00 -3.869856083175120975e+00 1.902119405327206536e+01
-4.862387956420280766e+00 1.384957250335402845e+00 1.279934428956057602e+01
-1.811105290354854347e+00 -4.599639253875353440e+00 1.614633770689026093e+01
-5.083788774411793554e+00 -3.715913282049573940e+00 1.950096614872365919e+01
-5.174453108276109603e+00 4.210817900722412688e+00 1.792185661307105349e+01
-3.429909390793347335e+00 1.901236244661749231e+00 1.831447729375194555e+01
-4.905520425808591156e+00 9.784926210050363116e-01 1.217649745997106336e+01
-5.374055030757294737e+00 3.934192421175830123e+00 1.814671144881225118e+01
-4.254873310012627030e+00 1.488523439703569595e+00 1.286565783885081871e+01
-3.776698397396146767e+00 -2.027634922165354237e+00 1.580199023212511733e+01
-5.669335891709555320e+00 -2.470776191328399651e+00 1.746835793217704591e+01
-3.889775552984417573e+00 2.930845103252310846e+00 1.462404123852622817e+01
-4.989564973858660046e+00 4.150164310636949239e+00 1.795743599310332073e+01
-5.526657532793234573e+00 3.082778369090413140e-01 1.336223726999779515e+01
-2.017783837735881658e+00 3.710676049060860904e-01 1.299027959693708212e+01
-3.979738879025850551e+00 -4.964589798576682922e-01 1.905399112612227341e+01
-3.375322919157569768e+00 -3.002267066300970733e+00 1.617126714172475133e+01
-3.320889074241693439e+00 -1.109105096642199584e+00 1.381955465735613231e+01
-6.025154674530114107e+00 -3.025215394901905164e+00 1.787329638582339086e+01
-3.249995197364401900e+00 -3.094744083139597812e+00 1.606502575189726301e+01
-2.134958160418989781e+00 -3.497541385579240991e+00 1.827699397098686163e+01
-3.475568406166974711e+00 -8.816865648006332323e-01 1.364294848756066969e+01
-3.256730065341864933e+00 -4.837092218035095925e+00 1.730284973455793462e+01
-6.338965457912157930e-01 -9.056460180642386670e-02 1.730408981067953889e+01
-7.380352829193724595e+00 1.435262218523487787e+00 1.955958288947939749e+01
-8.692957430988095258e-01 -3.359844033717983347e+00 1.601665905244709265e+01
-6.394554901943405589e-01 1.461760682456527460e+00 1.568382869780347377e+01
-4.622230635848670666e+00 2.290918548679147460e+00 1.870463132818941787e+01
-8.291403604562763263e+00 -2.998101314006005880e-01 1.614954355350765880e+01
-3.807595976730692833e+00 2.713711324133594616e+00 1.826623913094377016e+01
-4.757904363561038963e+00 3.538995185737078497e+00 1.830219258966725349e+01
-4.332985870129695272e+00 -9.713514930276361259e-01 1.497242800168416821e+01
-7.170206572433105663e+00 -2.616179779094010449e+00 2.016328290963422987e+01
-5.043956135178292222e+00 -3.968675019046406405e+00 1.935440785291659083e+01
-7.096014435962491262e+00 -1.704191080110925682e+00 2.033570976883075687e+01
-4.119340485390533324e+00 -9.985121047985552334e-01 1.479970323816916178e+01
-2.859275264685837481e+00 -3.840157363505726451e+00 1.532047497977542250e+01
-6.278529959865433163e+00 4.344660520674117898e-01 1.477148510212007082e+01
-7.845820848695880478e+00 8.684439619863609794e-01 1.968044369517744130e+01
-6.351285818048781451e+00 4.354327462324260600e-01 1.496485676180550328e+01
-3.125254492482518298e+00 -1.546243975107321589e+00 1.415782384986518494e+01
-2.077309296587020349e+00 -1.599262252518010907e+00 1.353577557614430660e+01
-3.699202479887472528e+00 -1.308591142405937102e-01 1.279768490705475514e+01
-7.386141365662334479e+00 -1.598145080547361152e+00 1.793643336042753944e+01
-9.221854949300478665e-01 -7.483616420419012538e-01 1.370944300025034224e+01
-7.115120706727310562e+00 3.586090824801513310e+00 1.702955624357060671e+01
-2.838918418364966723e+00 2.805205702843027171e-01 1.219222883127780577e+01
-1.155410898352799531e+00 -3.748448899461975348e+00 1.764681639472086161e+01
-2.987001050282621861e+00 4.295586544962490372e+00 1.668121900171016492e+01
-8.329204845680155955e+00 2.669390575616707451e-01 1.576939063761123450e+01
-1.120194566220094945e+00 -1.545437335150363412e+00 1.407596320408663004e+01
-1.550819415272567614e+00 3.097470474199029988e-01 1.775691301374105890e+01
-7.892044930508364864e+00 -9.220148854130189031e-01 2.026475672070106171e+01
-8.765577536094045996e+00 1.021162610828439732e+00 1.636145931947876520e+01
-6.842168229757193743e+00 -1.596044173647433340e+00 1.773363650400786540e+01
-5.976661900237569824e-01 -2.059161355585231057e+00 1.706514378957205125e+01
-4.404596216240776130e+00 -1.022598631605189823e+00 1.516155554091566771e+01
-9.001326818963676146e+00 -8.064045671673051308e-01 1.766654393501098852e+01
-2.649164517845948641e+00 -1.088026781276078880e+00 1.847404969336287550e+01
-3.885235788019479664e+00 6.913674143590775589e-01 1.879876861401694654e+01
-6.458582470593624336e+00 -1.839344901572490976e+00 1.767307388603368068e+01
-4.318401264836215780e+00 -4.315758960641594477e+00 1.742432767580149644e+01
-3.700928240773340150e+00 -1.529482666066078078e+00 1.516390065108201313e+01
-2.665484640014250672e+00 -6.900450444064468725e-01 1.289292771880099409e+01
-5.473220171734319628e+00 -2.832264990806706351e+00 1.743384253037286058e+01
-5.786848925934354071e+00 -5.596364204595052350e-01 1.638937457992042468e+01
-7.178007636543346059e+00 3.130104222536964631e-01 1.535972965048054917e+01
-2.684914942443612507e+00 -2.769292319865298557e-01 1.838984469637786034e+01
-5.614043873201654655e+00 -2.837515614403431030e+00 1.752398097083056783e+01
-6.104372459659238359e+00 -3.671948632826143477e+00 1.843387744974675613e+01
-6.893905012598970927e+00 -1.908569982780148111e+00 2.028616485433029837e+01
-5.906350443193667310e+00 -3.883420219547948360e+00 1.845907949888745847e+01
-7.316400605411061520e+00 -2.249044509417880977e-01 1.606254935460074407e+01
-2.629448722387737636e+00 -4.143662575915278978e-01 1.271616482569530504e+01
-8.078219391820349315e-01 -2.201842199478419193e+00 1.485111286105130901e+01
-6.770872879444204351e+00 -2.299910223072768822e+00 2.020874079823472513e+01
-6.931171372770097427e+00 -3.357022257979441093e+00 1.916969371800182742e+01
-6.228274407334677409e-01 2.093824037712693986e+00 1.669632618076138542e+01
-4.148327351105804084e+00 3.338603415240305239e+00 1.821777712429859619e+01
-1.807960710412003458e+00 3.283537723852372747e-01 1.320088321760200145e+01
-9.917403948220753218e-01 2.310027057639021386e+00 1.696876140256535237e+01
-7.009811852862484649e+00 -1.731384671980432111e-01 1.632434469499815677e+01
-1.306203298188965745e+00 -2.777992154362861843e+00 1.454782680414056628e+01
-1.919269323180735398e+00 3.523729751542046262e+00 1.640505122644140457e+01
-1.159019085295543317e+00 2.142157059134523145e+00 1.715966823776357231e+01
-8.066218416833578431e+00 -1.709185579808463418e+00 2.020134535083301230e+01
-1.127673347857114372e+00 1.430925874277990006e+00 1.494675770050335117e+01
-7.062739625690253931e+00 1.121737949921162159e+00 1.976911542820897338e+01
-3.573004209633838801e-01 5.326720834525540127e-01 1.635881492284818606e+01
-8.089353648444170375e+00 -1.516418356837573755e+00 2.021277208453004093e+01
-4.319912016679062994e+00 4.449347497661218509e-01 1.226282321306834788e+01
-5.473209560587056544e+00 9.222355606121475091e-01 1.260414140262783533e+01
-8.200355103201847129e+00 -9.778385494531537381e-01 1.726184314918777218e+01
-6.925677075035755692e+00 2.441028595652620314e+00 1.521826168404221491e+01
-1.635766182279050351e+00 -4.786624640056817093e+00 1.693824155966607137e+01
-3.457844443267947376e+00 -3.051129620210454085e+00 1.630147110263887456e+01
-5.079467143319437383e+00 -4.271573434300923289e+00 1.908895284173799567e+01
-7.886476251896781697e+00 1.388178410213793734e+00 1.524250196903744481e+01
-1.586588539303095402e+00 -4.488401809522827079e+00 1.577113315532855964e+01
-7.153564980366116544e+00 2.869443172631938932e+00 1.579701536718124188e+01
-4.813804117817596762e+00 -1.221428547780885498e+00 1.588251848021664969e+01
-6.315861617776536541e+00 2.087508440406810273e+00 1.440019168094837809e+01
-4.523772099097535637e+00 -3.130531465273425962e+00 1.946076619379892847e+01
-2.474394574285745829e+00 3.099169283228500049e-01 1.819759651749083318e+01
-4.101164457081324599e+00 4.902661566213481592e+00 1.733548325530074052e+01
-4.530155082565421765e+00 4.856190452266519131e+00 1.740059588175428829e+01
-2.573088592438701472e+00 3.946783507104265620e+00 1.648768173586431729e+01
-5.347982357257709651e+00 4.652316697239819554e+00 1.690310256452375270e+01
-4.730110099601223084e+00 4.919893854401811595e+00 1.714636325172093123e+01
-8.503749516394844221e+00 -1.874210096457892050e+00 1.987122420557919966e+01
-4.471391105562878998e+00 -1.074120388922237046e+00 1.933665564332317999e+01
-8.653219195931725949e+00 -1.698059443674339475e+00 1.980863185887977451e+01
-4.407021439840472787e+00 -4.160450787480863610e+00 1.734802267763334882e+01
-8.717899198575764785e+00 1.408307066630676063e+00 1.652664259883698250e+01
-8.644928471052651275e+00 -2.050633670894900007e+00 1.964105653061537637e+01
-4.085029035173593392e+00 4.341531192343134338e-01 1.217272169967277406e+01
-8.777927819341407201e+00 9.836147227678889715e-01 1.790177054059408945e+01
-9.026304535403095741e+00 -1.201916828762412237e+00 1.848386500608705418e+01
-3.825926652609059175e+00 -3.222824006190946555e+00 1.670950466397659184e+01
-2.874652171850784033e+00 -4.055617839448155237e+00 1.569164010015038357e+01
-4.259076936280769665e+00 -3.025661652967657766e-01 1.914840430302811214e+01
-1.748874916562451975e+00 1.010530985975053975e+00 1.378010428936046949e+01
-3.540264258976380418e+00 4.821720370840369974e+00 1.717225545642238060e+01
-9.037404985284503312e+00 -1.056916572177216240e+00 1.822741299989472807e+01
-8.356931805262505009e+00 8.642697625501530867e-01 1.926189071444333578e+01
-6.717910407116579385e+00 2.647871983576226551e+00 1.524166835711652723e+01
-8.874531333569098734e+00 -4.650278261778673095e-01 1.950121640353568253e+01
-3.909660307245701460e-01 3.706902515030298106e-01 1.572533728740262049e+01
-4.800645037582984997e+00 2.956184262534945706e+00 1.856381184880265423e+01
-9.018413068492915130e+00 -4.729200732880187719e-01 1.926427372270370242e+01
-2.615170034922654096e+00 4.325479392154892189e+00 1.711535854407710744e+01
-2.429387769742626269e+00 -6.467533222736293608e-01 1.831491235313115951e+01
-2.735517549645297919e+00 4.343995205797508419e+00 1.715728999994412263e+01
-5.480799812870101206e+00 1.883167283119466573e+00 1.363771772907442070e+01
-1.333009710376293677e+00 -3.518345274198961814e-01 1.333154670428184474e+01
-2.317378757327036798e+00 -1.907291358894753097e+00 1.365932401086105230e+01
-5.624075051538656389e+00 2.282006583325595361e+00 1.907805122327102865e+01
-1.623339168413003186e+00 9.426470182273447018e-02 1.325783621850341021e+01
-4.634724567886918223e+00 4.974543993208618842e-01 1.916415132323318105e+01
-5.619780076208556352e+00 4.736503961675015972e-01 1.960341039088311632e+01
-5.188666585219467109e+00 3.468763015693074880e+00 1.843233944559288418e+01
-9.157347004919069722e-01 -1.592928452513937332e+00 1.425772233779595766e+01
-3.299686728972458294e+00 2.888361143481428694e+00 1.803222010913835405e+01
-7.953472792981927775e+00 -5.748677414570537714e-01 1.632956444788610284e+01
-2.763774625059355117e+00 -1.786297447560886820e+00 1.378318805607607445e+01
-3.087366082947223589e+00 1.060310143721575393e+00 1.254347802619337315e+01
-9.851388174216522131e-01 -3.049457620286157855e+00 1.519342139250512602e+01
-5.135127781164276151e+00 -3.976586537620359074e-01 1.478335534770454629e+01
-3.171578703392669230e+00 3.114433906472942493e+00 1.790368430787139786e+01
-7.786111532093344501e+00 -7.391140566579522675e-01 1.668088701679052477e+01
-8.160270305874014696e+00 2.098071252065486281e+00 1.595063161309922961e+01
-5.753480563988258467e+00 -3.208604892270131570e-01 1.598911495519697823e+01
-5.916502604455360359e-01 2.328381348001803630e+00 1.641020728059708134e+01
-9.323546067388066572e-01 -3.414060783360245654e+00 1.578310079010072897e+01
-6.240869265179495251e+00 1.474062403591336112e+00 1.954367186495245434e+01
-8.508624480799042544e+00 -2.281884851966319516e+00 1.945412921742263634e+01
-6.145859190227604962e-01 2.014489007885039984e-01 1.475297055736292506e+01
-4.730679932937662535e+00 4.326190810128685449e+00 1.638441421962836486e+01
-6.968103418641719671e+00 3.793389806667970543e+00 1.666393398201259757e+01
-3.640611647544594653e+00 4.286718924049605306e+00 1.751159166505130926e+01
-7.022571076011371538e+00 -1.433165134579014399e+00 1.769052132673268929e+01
-7.581889935990530738e+00 2.061496564785096020e+00 1.894660256790529829e+01
-6.803971151547515639e+00 2.560928724161971815e+00 1.887549418802936785e+01
-6.749827754287354153e+00 3.998980193882446965e+00 1.688192980564955903e+01
-4.112568441083828574e+00 3.649418720781976155e+00 1.551263549229645733e+01
-2.127439481645759134e+00 2.964193003796139259e+00 1.741078202769947225e+01
-5.889776288226892476e+00 6.859418848871755570e-01 1.300324434069879587e+01
-3.278521002345070379e+00 -3.624637432772652157e-01 1.280983686648203346e+01
-7.291407780549350015e+00 -5.360423625981975970e-01 2.025836830665456390e+01
-7.035551201547370681e+00 3.686494052861741366e+00 1.690865455589196031e+01
-3.296429395951447905e+00 -5.354771478628913561e-01 1.299375055866921613e+01
-3.377170997682910514e+00 -7.658688499032281216e-01 1.333317992944384756e+01
-3.841557137039636416e+00 -8.834025904138088636e-01 1.903787199015711096e+01
-4.257317416054927861e+00 -2.307146160764821374e+00 1.934225262587472471e+01
-7.712384088453084097e+00 -7.456292237126461719e-01 2.027803351781094321e+01
-3.507484198397160746e+00 -4.963947843482435118e+00 1.789124792475981351e+01
-1.042824594269893490e+00 -1.631276528869853637e+00 1.418779108172634906e+01
-7.477454216956942012e+00 -7.173293555580758651e-01 2.029280406914140755e+01
-8.551963599566743568e+00 1.534789395545468116e+00 1.775125673702615714e+01
-2.782293213404089194e+00 -3.180474156623485982e+00 1.860526811529070912e+01
-3.530638915733950611e+00 -5.649076246373014865e-01 1.321774211759008821e+01
-3.871454548528365791e+00 -4.561514732661467342e+00 1.876692155338012569e+01
-7.539960363926502929e+00 1.672714875236928966e+00 1.514647024944564535e+01
-7.697507210203164085e+00 -5.185618331301308226e-01 2.024140782985488229e+01
-3.855376305666544212e+00 -4.664521758387177641e+00 1.748662621430578312e+01
-8.934621697263064988e+00 8.005315315192980119e-01 1.674367836024891076e+01
-8.967624281398290265e+00 6.183300383173662151e-01 1.691173869151895914e+01
-6.359797166573534888e+00 2.018585786940914062e-01 1.556483866757475099e+01
-6.331489162822381722e+00 3.707498681029458565e-01 1.516121818322731585e+01
-6.165037795094563400e+00 2.061800274454945736e-01 1.536841287814101875e+01
-4.476401019917872759e+00 -4.695160255968741092e-01 1.404797274221080627e+01
-6.520923429133008042e+00 3.122790910638199580e-01 1.545012426783083370e+01
-3.639449047894117939e+00 -2.827470056854887837e+00 1.631721430470816969e+01
-4.738540186845625612e+00 4.577562283865316495e+00 1.761158465744006563e+01
-6.672457101374754451e+00 -2.842969192936795064e+00 1.826299455589810705e+01
-6.386897234916395938e+00 -1.054146932990293273e+00 1.711958169530626961e+01
-4.375786234071126213e-01 -4.450817239382721668e-01 1.631767494971572674e+01
-8.187329885327777390e+00 1.961546322953597432e+00 1.797364089998891856e+01
-5.284549382320100186e+00 1.304544241966771878e+00 1.282632843733046357e+01
-2.597898670095788010e+00 1.487512018637640487e+00 1.806199025898114385e+01
-1.227806009002480048e+00 -1.306073034007066314e+00 1.783164422083767064e+01
-9.912602609682581445e-01 -1.309570117767749231e+00 1.771122792598564288e+01
-3.507956891844269620e+00 -3.903387676210782420e+00 1.890886538751002277e+01
-4.160993218433597818e+00 -3.045914475654442621e-01 1.910560796891634183e+01
-6.358279632547839455e+00 -3.570883600924537493e+00 1.869844590317350352e+01
-8.592020491251815884e+00 1.136014532488339501e+00 1.834351655789800262e+01
-2.610272308846117717e+00 1.315641830205069862e+00 1.810109673072775038e+01
-8.671224197128882594e+00 1.204633171138304037e+00 1.793369175365087997e+01
-1.752462984878695007e+00 4.739188836081923428e-01 1.336251178523599847e+01
-8.824118912540175330e+00 7.682172225512587938e-01 1.813608785528748868e+01
-6.815501800332067539e+00 -1.277218036823520642e+00 1.745048320999900326e+01
-6.933935193294352928e+00 4.154879134230480831e-01 1.515493838674343507e+01
-8.009456424609691538e+00 1.740953240246067013e+00 1.878889618060214062e+01
-8.241115038963208406e+00 1.125562122189396774e+00 1.915584703743258288e+01
-5.455279939242037912e+00 -3.071907903389576866e+00 1.748066793225617843e+01
-7.977115857703531709e+00 1.339177320927573911e+00 1.926977357258909862e+01
-6.569008447548592144e+00 -1.229666251909966146e+00 1.729336215907468599e+01
-7.382431724652650296e+00 3.224445075160089047e+00 1.642153081217121624e+01
-3.249448579393096725e+00 -2.880513703925033919e+00 1.588096887848653083e+01
-4.418378463468807915e+00 7.958158716656682508e-01 1.181569841125205400e+01
-8.242657870813655308e+00 7.103589102660150534e-01 1.948927737162566487e+01
-8.639087430493795239e+00 -1.815554687689735713e+00 1.888034582491414071e+01
-6.653838656069588353e+00 4.146833180282968989e+00 1.673988261193672500e+01
-8.838258181424411219e+00 1.211727290413934677e+00 1.713051132290919654e+01
-4.969641192488124304e+00 -7.835357195861779589e-01 1.538578735608549763e+01
-6.798881587201144328e+00 -2.570523808487303330e-01 1.652850499311642452e+01
-5.171725508697997853e+00 4.097185023514791080e-01 1.291467751606645109e+01
-5.139512219667926374e+00 -3.320473244729552076e-01 1.953504838904786212e+01
-6.875687021900803053e+00 -1.322720052632615051e+00 2.028516407038165781e+01
-4.624017877232775575e+00 -9.639595167282821730e-02 1.927439254269247115e+01
-5.040091140690245552e+00 -4.062912956052503688e+00 1.768288875063373311e+01
-8.898084975435520683e-01 3.209684560500948303e-01 1.744314427483550034e+01
-5.953108900976578965e+00 -1.938432597283195613e-01 1.596647124166912235e+01
-3.565957627599864566e+00 3.041532480286284201e-01 1.873742132599486965e+01
-7.228207863216560725e+00 3.487642550797321217e+00 1.690390438375329651e+01
-3.779756144031447107e+00 -8.235592654575903948e-01 1.401720236264061370e+01
-5.369769944484028557e+00 2.381523102242504297e+00 1.895982360553977841e+01
-4.906788433860080900e-01 -1.038626156117466337e+00 1.687917116561837716e+01
-4.257789058867528453e+00 -4.720200568119826912e+00 1.806113011193791706e+01
-6.691745183011781783e+00 1.459279312261732464e+00 1.420364496172991764e+01
-6.566004551678473078e+00 3.526144282955251619e+00 1.806472649185510093e+01
-4.059188040842827583e+00 -4.661259332766209407e-01 1.361027348738783971e+01
-1.143388149821766175e+00 -1.399639262282227625e-01 1.370535838267744211e+01
-3.646409803074320166e+00 -6.574966904937642465e-01 1.347962351487143806e+01
-8.415622752568449272e+00 -1.479228647842695921e+00 1.825199019208568885e+01
-1.181707821286662297e+00 -2.347025492732568885e+00 1.444741566450130321e+01
-1.514866083492380167e+00 -9.397907448495045335e-01 1.345775787141095847e+01
-2.056615852163379277e+00 -5.940845358934422338e-01 1.296262940555639531e+01
-4.023784836242074725e+00 3.859420700226453782e+00 1.790050524864345149e+01
-6.605286332043919018e+00 -8.644451311774579150e-01 1.705847060913564306e+01
-1.122646399841157772e+00 -2.204801873083137576e+00 1.443120065661122808e+01
-8.933130169100039097e+00 6.328716484647290974e-01 1.770840409304122787e+01
-5.368290062692133269e+00 -4.353815446279407197e+00 1.857558600848439667e+01
-2.113656573079892631e+00 -2.158957947449648529e+00 1.378954539245546940e+01
-7.008892829599475682e+00 1.746845627210687368e+00 1.946915564965761902e+01
-3.907759224050659341e+00 1.973373642700591457e+00 1.339087156665150147e+01
-6.828248698699341368e+00 1.652386643987626469e+00 1.953289373360781056e+01
-7.144053401166432060e+00 1.628541852582982896e+00 1.952716139313526966e+01
-3.593937169878608451e+00 3.661742259346458805e+00 1.786471120436539550e+01
-8.937458710564101239e-01 -2.395968261488687467e+00 1.480951551765175722e+01
-5.210146728142552419e+00 9.937866898200168331e-01 1.189106625220405178e+01
-1.876713921932509077e+00 -4.298399543065348105e+00 1.808696064229015477e+01
-6.095899093317552975e+00 -1.723485832508644178e+00 1.742244988679307127e+01
-7.966065531872829730e+00 1.054558794508372976e+00 1.949105029819775226e+01
-4.541220076127401306e+00 -2.611772629196453366e+00 1.682798267983389096e+01
-2.320807167913086833e+00 9.590012348162266220e-02 1.252769003931878800e+01
-3.633087321334751429e+00 -3.627638973461528860e+00 1.675557559134074026e+01
-6.642546495581917121e+00 2.795423664153629861e+00 1.872239353176501098e+01
-6.657090502556389566e+00 1.937501463714367711e+00 1.938781548508136510e+01
-1.582821518861929899e+00 2.913759420936450351e+00 1.588010903459659673e+01
-1.507207715671557313e+00 -1.530222022362187850e+00 1.797204075352753350e+01
-1.920529266058140117e+00 1.223597058150651007e+00 1.373275416299616936e+01
-4.543255304177981735e+00 4.918635711948150302e+00 1.713182362127632885e+01
-6.096549854398666923e+00 1.108617532257672567e+00 1.336432725415492584e+01
-8.304592246130797495e-01 1.107926490588703627e+00 1.726750595073447769e+01
-8.923937803098720423e+00 -5.143595284386860422e-01 1.709420958485359066e+01
-5.049476710380695010e+00 -4.477334506893904553e+00 1.843306342937375675e+01
-4.855574996650351416e+00 -4.442609745704690916e+00 1.810017218550137486e+01
-9.914395400366529110e-01 -1.083969761928718079e+00 1.769071369491851797e+01
-6.449019672221710131e+00 3.363624022174898531e+00 1.573013403088166129e+01
-5.454281035180159165e+00 -4.257470973218390853e+00 1.847195512211164115e+01
-8.840260985899632828e+00 1.005895000511864756e+00 1.753598831328229934e+01
-6.540229641645271208e+00 2.292540972399026433e+00 1.477490528894523791e+01
-4.085761142116609790e+00 -4.516170548012431674e+00 1.747262029493707658e+01
-1.619449600032603076e+00 -4.719745205194238125e+00 1.657715781659891618e+01
-4.978607218592733474e+00 5.282255292993366380e-01 1.931380527412242643e+01
-4.625685903231405049e+00 -2.012614310320353983e+00 1.649583409326842443e+01
-5.476440812523394541e+00 8.045300937188737400e-01 1.243343782909255779e+01
-6.258400040729823033e+00 3.834659058166705048e+00 1.795137076903271023e+01
-7.038321074422009715e+00 1.365999175900552753e+00 1.965900156226927820e+01
-6.173498853587231494e+00 -1.986994179070582955e+00 1.759574292687301167e+01
-3.643209911482074403e+00 -4.918506878732721965e+00 1.786085170326964899e+01
-9.110448508575331061e+00 -1.692782155206653816e-01 1.731309019437489738e+01
-1.626084428561421991e+00 -2.706989811181772954e+00 1.806919521438789999e+01
-9.161594121542560032e+00 -2.025183125231531933e-01 1.766710302901420349e+01
-8.839053457956076443e+00 -8.429598772859314693e-01 1.746837688899060126e+01
-4.557428665630825826e+00 3.746045959962882588e+00 1.813367414122113175e+01
-7.626142104481398398e+00 2.135548085217774616e+00 1.881593741922847940e+01
-7.060179122739175916e+00 -1.542547102292571637e+00 2.032967357624325544e+01
-7.206097623491714010e+00 2.748244540255397439e+00 1.845551352112338250e+01
-4.464632168239289989e+00 5.262109220422664935e-01 1.222247060928907203e+01
-2.984989949635191930e+00 2.182370382560084643e+00 1.400950397014591076e+01
-6.900292482709845743e+00 -1.695047640874688621e+00 2.030215662943252752e+01
-4.012959221305808732e+00 -1.438304060064948153e+00 1.538536065839111799e+01
-9.622120997633469841e-01 1.714050043503013043e+00 1.719003847658760620e+01
-8.503732334077767518e+00 1.734173880399822343e+00 1.751370006424955150e+01
-4.221831963318257053e+00 2.997308873861282974e-01 1.902526282622411813e+01
-6.196154998650391654e+00 -3.802970442218493563e+00 1.909897591490090107e+01
-3.943762403270046235e+00 -7.154457017790041284e-01 1.401226491140451813e+01
-3.174921072365362473e+00 -3.623866863990301557e+00 1.633517766647831237e+01
-7.746889467712805732e+00 2.769347153491658053e-01 1.557081880133006635e+01
-9.153415109868070942e+00 -7.159863835477500715e-02 1.805604075887699977e+01
-2.880639845567043889e+00 -1.088907212279375925e+00 1.325793527166424113e+01
-7.761676612233542549e+00 -2.186616575499405357e+00 1.855711920275642157e+01
-4.095068149134466040e+00 -5.398949205390251027e-01 1.381066554490223197e+01
-5.928971090799506349e+00 4.070306203219424823e+00 1.788483985208427285e+01
-7.609978973485259424e+00 -2.810283295320373131e+00 2.000489510036983276e+01
-6.469341542739893036e+00 4.336125639279317379e-01 1.988818264885881248e+01
-5.362750707905268754e+00 1.915699315788421009e+00 1.913010611075221945e+01
-4.192100124414031015e+00 -2.224420975330108519e+00 1.637279212889069058e+01
-5.682954865845221804e+00 5.340387932520033187e-01 1.298495172721739621e+01
-4.936638521370385391e+00 -2.890495995250211170e+00 1.963889848383184855e+01
-4.230607462735219926e+00 -4.718699392920902569e-01 1.382066868022151240e+01
-8.763744205698156264e+00 2.576815873985463523e-01 1.923297800376773026e+01
-3.179099812279011505e+00 -2.176587720612279675e+00 1.497086569307127846e+01
-4.747078428949109696e-01 -8.720317175417482414e-01 1.649139898436424190e+01
-1.191843428715709363e+00 1.350630701140756340e+00 1.741779348816831785e+01
-8.282102445824556014e+00 2.135127666948665404e+00 1.623557309021348871e+01
-4.643663649527118409e+00 -2.917058435686405993e+00 1.952269398397003286e+01
-4.035994300168842308e+00 -4.269580292405113831e+00 1.722407101667851848e+01
-4.895364126539328176e+00 2.700226399323500726e+00 1.445396768302644475e+01
-3.016419998754720222e+00 1.342568962967495061e+00 1.828982830287293737e+01
-8.593049152758069908e+00 -1.577673307562414307e+00 1.852762693593517085e+01
-1.183202844273876675e+00 2.862688079823772380e+00 1.625301180885224639e+01
-2.790732414483995782e+00 1.360395274554635936e+00 1.817880035348545320e+01
-5.965379016599510198e-01 -1.858770404496697948e+00 1.626313334213068273e+01
-3.029238062166953682e+00 1.668044798322471101e+00 1.821844903738388766e+01
-6.824563718776576415e+00 1.765630164448795947e+00 1.947168783961214089e+01
-7.225685255274611585e+00 1.714068849039049880e+00 1.943840049898376421e+01
-6.015421250774036110e+00 3.794203011721223096e+00 1.812656579756612629e+01
-1.217554226321808875e+00 -5.353633361473801866e-01 1.341285781019798051e+01
-2.308119896596126264e+00 3.042993199264263815e+00 1.552454710305037722e+01
-4.247002395630024019e+00 8.785132578663534808e-02 1.907695454051269124e+01
-6.701323434480306318e+00 -1.324518259190176739e+00 2.024543920093354998e+01
-2.825364785825934533e+00 -3.639582302380314882e+00 1.494805692842001932e+01
-4.933367753731322303e+00 4.376852204282378977e+00 1.778128627593441635e+01
-2.442050018168520076e+00 2.293358360447601996e+00 1.449679463005354663e+01
-8.902796881112060134e+00 8.159329849868732776e-01 1.656224301677253052e+01
-5.162789431443685295e+00 4.297100652904821239e+00 1.784940389187833532e+01
-1.417583548387590486e+00 -4.295526507187170218e+00 1.777211110711475683e+01
-6.131550218956923537e+00 -3.412852971476642239e+00 1.977249540795522265e+01
-5.502438492702328432e+00 -3.495813042110975211e+00 1.966308031508595278e+01
-5.310515891983012438e+00 -3.332321832295281339e-01 1.498761784339022185e+01
-8.310064695388888367e+00 -3.197423846488919863e-01 1.996403849230356187e+01
-2.631306046126747678e+00 -7.999126343234802539e-02 1.249615684896424384e+01
-6.981315543607195195e+00 1.120661120078842110e+00 1.430622361568493162e+01
-7.317561766941092394e+00 -3.100905495589553862e+00 1.921436462779697862e+01
-5.440557408072082879e+00 8.807599261826675185e-01 1.221104828813423993e+01
-8.042201723380028255e+00 -1.299438984445972389e+00 1.782749467071153404e+01
-2.612135722182904018e+00 -1.651873361315316924e+00 1.849829159132366740e+01
-3.623844996681869546e+00 -2.620699497528555355e+00 1.613676971066617583e+01
-7.268097627704448449e+00 9.049612675960749808e-01 1.984643971177380806e+01
-6.815999905792529567e+00 -8.162124529846903620e-01 1.713142465266355075e+01
-8.915273810750424133e+00 5.659713764191885987e-01 1.811500159845200741e+01
-8.204268720602119203e+00 1.738170377091918350e+00 1.835622755881268731e+01
-7.967254455146114189e+00 2.062351076513444070e+00 1.573592581719451644e+01
-1.404630492033507760e+00 -1.290064180410539940e+00 1.790624453639516744e+01
-5.256515117342268617e+00 2.013393187258789574e+00 1.372822617829377023e+01
-3.807501217959728734e+00 1.301035426914351589e+00 1.862139020359585473e+01
-3.701295264584810063e+00 -3.282079173767050995e-02 1.268123227503378914e+01
-1.374616108547558113e+00 -4.031312452887737763e+00 1.533671612382796567e+01
-5.630133849675413416e+00 1.690899966540130972e+00 1.929563001432693525e+01
-1.964323046837748610e+00 -2.312660389647688941e+00 1.388820992887415784e+01
-8.650380615368508330e+00 1.436631339702340471e+00 1.760353572954946699e+01
-3.124969853520546348e+00 3.333724592089419847e+00 1.779140855562686241e+01
-8.120181549615864469e+00 6.424287955625552771e-01 1.552707542786076189e+01
-2.581778374101205475e+00 9.353747781106374060e-01 1.815268099647697042e+01
-6.829630537088601017e+00 -2.239322012426933739e+00 1.810021994428631942e+01
-2.858930635796172126e+00 -4.999586686895563403e+00 1.772307282513685678e+01
-9.128520145940068886e+00 -8.946681910689605055e-03 1.773562876147356704e+01
-2.993008497323547790e+00 -4.980656063651812460e+00 1.767724763450280179e+01
-7.685880750847055687e+00 -2.084141844604662008e+00 1.843935153756175183e+01
-2.176412302483711425e+00 -4.331041820176940504e+00 1.822782767046897945e+01
-2.675246046344791129e+00 -4.289840896133122250e+00 1.566294463319526287e+01
-3.042978860868581936e+00 -2.407070697958904937e+00 1.447796019108649190e+01
-4.781373253766707521e+00 -4.394192201560403355e+00 1.896079747193709508e+01
-3.047762843082929773e+00 -3.594856137642752802e+00 1.596064979193309696e+01
-2.166178584217235414e+00 2.529476945618001515e+00 1.497203783445969449e+01
-6.796457965031338588e+00 3.116190302796882694e+00 1.575633145316779249e+01
-2.482824513429448654e+00 4.200902638687929347e+00 1.709288290208864325e+01
-8.895461220981289330e+00 3.750821007381377470e-01 1.873897952422354862e+01
-7.735756841539999762e+00 -8.859518391233235368e-01 1.705386811835586869e+01
-2.763549875830043856e+00 -3.992201911514535961e+00 1.533956241481999783e+01
-1.260288529691294235e+00 -3.493913470165924462e+00 1.781425277187847556e+01
-2.290342378326984285e+00 3.467829198523871170e+00 1.610575727155455539e+01
-6.481085108633996228e+00 3.249548253564890299e+00 1.563856186953559657e+01
-6.124907839751021932e+00 4.292742186021056838e+00 1.744811334683140203e+01
-6.723778717275211925e+00 3.420572505316845202e+00 1.600587063506704411e+01
-7.434209626991338915e+00 -2.390796018810951384e+00 1.853634744439461812e+01
-7.836279712569578670e+00 -2.244436248471645357e+00 1.865546604190286573e+01
-5.469249467261892761e+00 -4.308920433441636888e+00 1.888588407972666161e+01
-6.078435968134775713e+00 1.881047098161115372e+00 1.401148206595314250e+01
-7.417841676187268085e+00 -2.638054477757161731e+00 1.870579771063123431e+01
-5.471809026970536394e+00 -2.243666666025402101e+00 1.725886764146497754e+01
-8.456326322518702199e+00 -1.525748427471149027e+00 1.999983043000858984e+01
-1.761034210723413374e+00 2.516763809551986419e+00 1.523949754142770630e+01
-1.662946611464936275e+00 -4.112284094306391857e+00 1.800376651630948643e+01
-2.935311218533513067e+00 1.548650134212323115e+00 1.820351841268279358e+01
-4.512566871077611452e+00 3.542401182829429729e+00 1.538482841433163983e+01
-2.881321762253185703e+00 -4.274859056410157621e+00 1.604411387819085988e+01
-1.305219465957361713e+00 -4.439809564333660141e+00 1.747838305501093359e+01
-4.315246799402927991e+00 -6.082664946165745601e-01 1.420157482113961933e+01
-2.056769218485223760e+00 -4.993417411551831719e+00 1.755000268906914940e+01
-8.529125093033133709e+00 -1.684262592231911881e+00 1.991389335790060144e+01
-5.845920059111361589e+00 -2.663963988378594383e+00 1.763271618180200662e+01
-5.095370320481744209e+00 -3.307488283886853342e+00 1.963920356308311810e+01
-1.706639548131410056e+00 -1.367743390810811865e+00 1.359375276422487744e+01
-2.572483200248199875e+00 -4.748559272599064407e+00 1.676561411001978641e+01
-1.885026607969186863e+00 -1.341766848376560795e+00 1.348819790315080880e+01
-1.394718055640776111e+00 -8.279854332980235432e-02 1.340486663820950852e+01
