-4.915981877756582463e+00 -3.122293412257131084e+00 1.886961893578842719e+01
-3.444941936194031662e+00 -3.292088876527021313e+00 2.052904003274530353e+01
-6.708207408582943287e+00 -2.105333410370507696e+00 1.680272515579950365e+01
-3.826701015932528982e+00 -3.290349129446872301e+00 2.055302138287356328e+01
-3.285861449494031361e-01 -8.747050795949786739e-01 1.979137963057117489e+01
-4.067444328713306412e+00 -3.293641215065011618e+00 2.056152474372001038e+01
-2.120165458358735933e+00 -3.112548119928534529e+00 2.036776939189044455e+01
-7.636314564177810738e+00 2.600938294091351466e+00 1.533194263605482277e+01
-3.087000832430730313e+00 -3.003448750433260539e+00 1.851431045710085854e+01
-3.275412054261046535e+00 -3.001951504325844677e+00 1.853829813671016424e+01
-5.656480229807900884e+00 -2.304808874428012189e+00 2.050077092117404121e+01
-6.485068821971410102e+00 -2.822742991657249956e+00 1.855526464743618575e+01
-3.479692230539547015e+00 -2.165598077233589214e-01 1.222394643451698570e+01
-7.598383793735679959e+00 -3.893549202326175851e-01 1.508781683656551920e+01
-3.287116427072400260e+00 -3.220818651357165940e+00 1.871368919973779654e+01
-7.371055744069659355e+00 1.761599947858850213e+00 1.438916194827602268e+01
-3.771940282724647098e+00 -3.205760109734022034e+00 1.877343485704682635e+01
-1.229359214462368399e+00 -9.269222872665652813e-02 1.354858285595569711e+01
-3.881454823092166606e+00 -8.830965622896553846e-01 2.010956143561901754e+01
-1.054850779868253818e+00 1.973539674954901901e+00 1.539200295131003671e+01
-2.705273489983665236e+00 -2.574374894656792812e+00 1.818052002030401937e+01
-8.240615587305828882e+00 5.483077649081709026e-01 1.782797337787576808e+01
-3.698447355908677459e+00 -3.062605974855301394e+00 1.865390678980243777e+01
-2.918267616345274984e+00 -1.565363951721287394e+00 1.737442273697490336e+01
-5.482741336311876879e+00 -3.026256784739276728e+00 1.881441302940100613e+01
4.281958889238606236e-01 -2.099699053825665018e+00 1.935025592285479590e+01
-5.322014584751078914e+00 1.067195265385010972e+00 1.218231517832484556e+01
-4.550120243604298231e+00 -3.047631391025467096e+00 1.877867913522107202e+01
-5.101657632932292685e+00 -5.909083298173257309e-02 1.198534142913669953e+01
-4.762733662556104974e+00 4.763768637250496596e+00 1.710532767506083118e+01
-3.846271449232257833e+00 -3.083738771842254867e+00 2.055715348718777236e+01
-6.860125990632163218e-01 -9.585933695641457586e-02 1.414667046315387822e+01
-3.902647949277266548e+00 9.914834026213759088e-01 1.926686613051108665e+01
-7.593747730769699444e+00 2.536860460133083528e+00 1.674058041183393541e+01
-3.419258916085815336e+00 -3.074280160332383272e+00 2.052817215485680080e+01
-1.722657378796959682e+00 -2.707331908561342981e+00 1.818486191296522847e+01
-7.350461182975754681e+00 2.534580653560540853e+00 1.772410437459796029e+01
-6.299757129260784794e+00 1.348579131054527647e+00 1.917203875243563616e+01
-1.658861197059443571e+00 -2.919083770446107451e+00 2.026908028258671024e+01
-1.347956116929687198e+00 -2.718053859393828375e+00 1.802577610256276230e+01
-3.298334992112864406e+00 -1.484352476843478374e+00 2.024745515897657455e+01
-1.275463396992958298e+00 -3.576319608020051555e-01 1.981844071821829445e+01
-8.188567184550668898e+00 -1.695341470921069016e+00 1.786393622007996740e+01
-1.936384787594533474e+00 6.103321732710424996e-01 1.299425399874736442e+01
-1.346856366588513598e+00 -2.879027785296964126e+00 1.818485265133435647e+01
-2.185450587181697379e+00 -1.818233301077984976e+00 1.751797806097640731e+01
-2.477408976430674592e+00 -1.871656360589584400e+00 2.023198415178650933e+01
-2.239082212145106610e+00 -1.917252856331620459e+00 2.021387809352202325e+01
-9.126342492926169392e-01 -2.789579609864729193e+00 1.759921567821086441e+01
-3.259428475085743848e-01 9.058658415613622950e-01 1.503181341493042922e+01
-1.047294257610350332e+00 2.378064520895959433e+00 1.581612775816297400e+01
4.333748137056443461e-01 1.375492224202747638e+00 1.792186171156491170e+01
-2.645722803537562395e-01 2.346519077333427461e+00 1.678499981022051557e+01
1.891636445200974848e-01 3.880337566530037696e-01 1.527693521491912421e+01
-7.437658586044397779e-01 -2.756925864044389218e+00 1.725894606457771729e+01
-2.117839892904099131e+00 -2.991063037743367570e+00 1.844054728025218637e+01
-7.672400437539989015e-01 -2.680370564069437744e+00 1.701621240950280978e+01
-4.538215503322466482e+00 -3.765787707590884992e+00 1.961192212594970030e+01
-1.473940269025356464e+00 -2.755248979063547932e+00 1.814564299435505390e+01
-6.344893183747423393e+00 3.369404980373599479e+00 1.788758423352462401e+01
-3.379252977836725957e+00 3.722978355486877611e+00 1.798871292632821550e+01
2.974864922418667401e-01 -2.585163555118971335e+00 1.761371605142006658e+01
-1.219858969928780512e+00 -2.460111658009550784e+00 2.014961004410164591e+01
-2.568748383864926321e+00 -3.990810922881858347e-01 1.308070357511642001e+01
-1.119332867237619045e-01 -3.018876646733751112e+00 1.761186168643139283e+01
-6.065473185877198858e+00 -3.372714831945932357e+00 1.928006790101984436e+01
-5.118468184850149427e+00 3.475556300298343171e+00 1.803795267699203819e+01
-6.556006852045671351e+00 2.942976077241309607e+00 1.815273422135934922e+01
-4.309539582960345783e+00 -2.783744729845665233e+00 1.856726683830236979e+01
-7.204487713681887229e+00 8.438975137041433427e-01 1.388385555962419105e+01
-5.894594704808504559e+00 -3.317176098673193074e+00 1.913517298304842384e+01
-6.892880270981972757e+00 -8.371443686815915886e-01 1.477111781583480266e+01
-6.154832354029108332e-01 1.041935755065599656e+00 1.488913786055091393e+01
-1.253830728349308199e+00 -3.698527937609300320e+00 1.980927062543920769e+01
-6.079194426875808688e+00 -3.217002135883394676e+00 1.904912324589695416e+01
-2.100564691910540294e+00 -1.909628298709886263e+00 1.759158934287057363e+01
-7.160117500679819003e-01 -5.247950363249432870e-01 1.447964707984563049e+01
-6.046106480795540250e+00 2.647320954974591967e+00 1.427351777701420943e+01
-2.393505083672780032e+00 -4.100915089520267287e-01 1.329554072476172522e+01
-5.826959809291516024e+00 2.028964702919797247e+00 1.349762906264053797e+01
-8.027533821612049536e+00 -1.888039116876225165e+00 1.905997157650711316e+01
-1.640850309350798897e+00 -3.753091360533886700e+00 1.983649645581694543e+01
-3.441189331857980704e+00 -2.084858462072363139e+00 2.037683116489952440e+01
-5.392852046621140261e+00 5.007545743842461761e+00 1.677600138275392183e+01
-9.186560583920533318e-01 2.789146923176804016e+00 1.831185677422940117e+01
-5.346589957875513832e+00 3.809575933213709131e+00 1.777673340902458321e+01
-2.913558265988153817e+00 4.370840606166012110e-01 1.177786014270208526e+01
-4.067344824387632229e+00 -3.768268562863140936e+00 1.961790202749803669e+01
-1.292374690666932224e+00 -3.733273807395262711e+00 1.941172771092306348e+01
-2.879237446543851053e+00 1.639170285529011117e+00 1.323340800988215804e+01
-6.655173631954701463e+00 -1.702375841927332045e+00 2.033952887388407405e+01
-3.477558728894154072e+00 -3.820026809215289365e+00 1.970898292077425040e+01
-7.674534257857125397e+00 2.275096045162945391e+00 1.625568123395642672e+01
-5.591231692982727708e+00 1.693385608733473324e+00 1.896976357129291202e+01
-5.233669678004883252e+00 -3.114799393030965646e+00 2.057083923597980757e+01
-6.041629019125810629e+00 1.848632400948930998e+00 1.348201980702497949e+01
-3.470446409390528952e+00 -3.740249265405684476e+00 1.949636151483668201e+01
-3.884481105789272526e+00 -3.805706578707605203e+00 1.971695260673807937e+01
-6.129937266204942503e+00 1.359575968554148862e+00 1.916722352606171498e+01
-3.628689547580145280e+00 3.822581658021144246e+00 1.505901708821354745e+01
-1.100836645561104610e-01 -3.113611827511058916e+00 1.799197284856413503e+01
-4.626070536407304701e+00 -3.826174223975200572e+00 2.008982761874154832e+01
-2.885124576723856915e+00 -3.744294560071100619e+00 1.941426659840461255e+01
-6.874541748743435932e+00 1.309765300325973270e+00 1.913531635973012257e+01
4.276041945684490031e-01 6.031920436357376403e-01 1.648673363426057037e+01
-4.965743629998367936e+00 4.303734190720508224e+00 1.743602273616292209e+01
-6.639233978964170779e-01 -3.529492702938898940e+00 1.884446042494888829e+01
-7.734010317498466236e+00 3.337983426261941777e-01 1.912878708676061379e+01
-8.709442217951697263e-01 -3.620976578857866279e+00 1.903149648972123842e+01
-7.337213569193709262e+00 -1.724543890679522073e+00 2.008073425791392808e+01
-7.096415006538055792e+00 1.301476274982433345e+00 1.382534995932174482e+01
-2.085883749134736842e+00 -3.714010325432801185e+00 1.925448654829652995e+01
-1.730478683145079577e+00 -3.717224474220690578e+00 1.923356248461933049e+01
-5.037409560029445288e+00 -1.315256921760755260e+00 2.025361149372405478e+01
1.985410682269826976e-01 -2.796371199249275019e+00 1.743837069832885689e+01
-8.277956191382278561e+00 1.228436137332509365e-02 1.670656133320528980e+01
-5.359694958141146159e+00 3.922820541903182967e+00 1.768304632835421941e+01
-3.253189286077909692e+00 -3.822537525226942012e+00 1.967027027930688732e+01
-4.524317149805530569e+00 5.737885735946244292e-01 1.948902893842127426e+01
-6.743569037636049757e+00 -2.812540731405368977e+00 1.856990198039826012e+01
-2.662109643495675027e+00 -3.851758033462389985e+00 1.985229550946605670e+01
-2.964291985425803411e+00 4.571307898568277572e+00 1.745554536936240098e+01
-1.883443841242590011e+00 -3.787572093801087281e+00 1.960633820953454531e+01
-8.316556625255769220e+00 -4.713511830001901326e-01 1.786825625057249667e+01
-8.060657334306341681e+00 -2.011172292557957597e+00 1.740375888347911015e+01
-1.217662736820440461e+00 -7.468141870665001569e-01 1.431627630651638228e+01
-7.219993155575803456e+00 3.212907421215154269e+00 1.699153062036630146e+01
-7.894409773019059884e+00 -1.656603759332708536e+00 1.647235653714743719e+01
-7.383132291839920924e+00 -2.042168933393184727e+00 1.624199829061379674e+01
-4.327709825949195732e+00 -5.188164677510058720e-01 1.599444662813417395e+01
-7.580402625857246335e+00 -1.969974958125326525e+00 1.626249334420443304e+01
-4.899809175880548651e+00 -2.557317738596437628e+00 1.846223706471907278e+01
-7.404263763923317754e+00 -1.868178310166459521e+00 1.600305812490986668e+01
-7.229467389445481729e+00 -2.331716749460440052e+00 2.017163209765319110e+01
-2.272095621972352930e+00 3.546742008099581955e+00 1.588626673604556672e+01
-6.596712710265506985e+00 -1.992069255753167178e+00 1.656094683562269765e+01
-7.975544424354687578e+00 -2.237623146118576933e+00 1.800858468709452254e+01
-4.422909781140145213e+00 2.574644880424068472e-01 1.128933989595811838e+01
-4.857425906422971451e+00 -2.092721997670130119e+00 2.043402313766988598e+01
-6.912290362882652417e+00 3.809755927942942932e+00 1.671873753409898100e+01
-8.047499462524484670e+00 -2.090417949822704902e+00 1.823910891366987741e+01
4.815547034258409465e-01 -2.088300979898325971e-01 1.627469062413389977e+01
-9.546460396644764757e-01 3.392134946571129017e+00 1.794650647923325337e+01
-7.912273045734675492e+00 -2.293803208186250053e+00 1.903477755602719768e+01
-1.312744697762716850e+00 4.026968105402113807e+00 1.740366750716080091e+01
-2.095605409832039356e+00 -1.020495571381042632e+00 1.999998774778320509e+01
-7.963195515680919101e+00 -2.253831375689743233e+00 1.864112581407243496e+01
-1.637878303046287343e+00 3.454616358486855443e+00 1.809330736646869653e+01
-4.291555837111431515e+00 1.533022052175949668e+00 1.898919322779148544e+01
-1.917352161300641455e+00 -4.623729229367772309e-01 1.985125287897415447e+01
-5.250864409676777811e+00 -2.926353423838593315e+00 2.057336997152137670e+01
-6.055249873797947657e+00 -2.301870650311585553e+00 2.050007407527597891e+01
-7.683147257639838301e+00 -2.500251882378865975e+00 1.939871419897314908e+01
-7.522850284961460687e+00 1.712891899773456850e-02 1.476016538344781637e+01
-5.152386181034506407e+00 3.588473302496049122e+00 1.795820595060564884e+01
3.647382260403089216e-01 -2.268655732406532621e+00 1.745907109102627075e+01
-7.835313089940722620e+00 -2.105066640483925333e+00 1.943194076485062638e+01
-5.655827390798313203e+00 -2.175470538023219991e+00 2.047880486717408743e+01
-4.184975031436133364e+00 2.986171796029598369e+00 1.832997952262885732e+01
-5.194853024941298969e+00 -8.316905692668883354e-01 1.660490570189810100e+01
-1.282898984268598941e+00 -1.681083986471265890e+00 2.008843486751797158e+01
-7.223093208830505541e-01 3.363642413915543528e-01 1.945774268494762183e+01
-7.561599954326494455e+00 -2.515425965954491527e+00 1.964041783417646414e+01
-7.182762150081206443e+00 -1.904358924251630558e+00 1.599253369136544833e+01
-1.453208661203034602e+00 -1.870113912467805894e+00 1.662067807660016072e+01
-1.408626234509022357e+00 -1.812875265210839082e+00 1.606022535568505916e+01
-2.090412956958152879e+00 -6.698379403159371304e-01 1.991872756775082465e+01
-1.223916746103303810e+00 -1.601312969277654652e+00 1.544164858294481846e+01
-6.063994374175566193e+00 -2.928352391267493360e+00 2.054805448654791533e+01
-2.061634546613805297e-01 -1.561694549207190752e+00 1.566862575509990663e+01
5.068050178368503911e-01 -2.628376463500597948e-01 1.769989651459675528e+01
-5.537293951319231411e+00 -2.117213075490574248e+00 1.811086110800779281e+01
3.577324418384743021e-01 -1.728010030764389748e+00 1.652204959912048921e+01
-7.503886514286776332e+00 2.681109948259610576e+00 1.526710788888105341e+01
-5.285888219100266738e+00 1.905168417162435013e+00 1.884389396246264070e+01
3.142045143483148673e-01 -1.847050518678112319e+00 1.646107966590773586e+01
-8.335627348159334815e+00 1.346137155716398415e-01 1.710089930330339669e+01
2.980241846731030986e-01 -1.562137964184042271e+00 1.622481071188967761e+01
-8.416572613631939648e-01 3.506226847020023296e+00 1.770872651375770701e+01
-4.400904538149836398e+00 -4.516457040324652894e-01 1.561381073061777514e+01
-7.786984947830751125e+00 -2.320377256010573763e+00 1.743463171350994045e+01
-4.048997751224240993e+00 -2.705593781504215922e+00 2.051590671447329228e+01
3.675421117622682532e-01 -1.773725636611793499e+00 1.665950797067336353e+01
-6.048218510268206671e+00 -1.729505809471515665e+00 2.039977848325360199e+01
-6.967660761696603089e+00 -1.878920188197026775e+00 1.592703980232458250e+01
-1.162131941267341428e-02 1.408410505979295513e+00 1.590411111382220000e+01
4.527203693757237968e-01 -1.053562844949875066e+00 1.883145818602749344e+01
-6.728143700017664486e+00 1.229217931759562177e+00 1.921952621460879485e+01
-4.573880714962349492e-01 -2.227709079376802404e+00 1.996856817991408306e+01
-5.468543760064486392e+00 -2.330540976076726611e+00 2.050063301343701383e+01
-5.203904960350413944e+00 5.191887288803835432e+00 1.650944115925337385e+01
-6.283060149582945231e-01 -1.878492943509265878e+00 1.998394816262734608e+01
-3.953357179905077068e-01 2.913360113245119898e+00 1.795233872638218386e+01
-4.842241018857857071e+00 3.411397583883470475e+00 1.429745874755951363e+01
-5.844733050866276258e+00 -2.086219659038832219e+00 2.046784788662222709e+01
-6.483123556675865373e+00 -1.897545299517460204e+00 1.664432978415866060e+01
-5.048583123479332357e+00 1.818986801350862104e+00 1.271546453542503841e+01
-5.089731748183353943e+00 -2.100320371772991468e+00 1.811141185993951908e+01
-6.428831749892154335e+00 -2.134049524171242052e+00 1.772145607949968493e+01
-7.296336722053430535e+00 4.839778953246541282e-01 1.943469713129196563e+01
-3.704292285220995407e+00 -1.093668944929478831e-01 1.193765374799651013e+01
-6.359487634450292859e+00 -2.017412217695625287e+00 1.762110211055945186e+01
-3.393822521727003494e+00 4.049557507627810971e+00 1.543642132677304701e+01
-7.247544825204064622e+00 -2.110401911755842352e+00 2.016462228135528179e+01
-7.977829394217396342e+00 -7.919862782532101075e-01 1.628018790280735217e+01
-4.095833439293484979e+00 3.126398976560721188e+00 1.826680801503905016e+01
-3.513608630355604667e+00 -2.377958146532279660e+00 1.813638267213915967e+01
-6.375309955966821818e+00 -1.837442554241973891e+00 1.721122595055559756e+01
-7.622214172249636377e+00 -1.867053854783915723e+00 1.620552134999414662e+01
-4.327411686969268700e+00 1.206092493547789246e+00 1.207585010634870670e+01
-6.880019882066587655e+00 -1.706375068489550006e+00 1.572952247415503635e+01
-7.662913157294415356e+00 1.193444150981650909e+00 1.469091516998385671e+01
-3.327827846103436293e+00 -1.846145980885187665e+00 1.768459528533918856e+01
-2.739549048039610302e+00 -2.001787629759077536e+00 1.774568583908842712e+01
-5.573105463849783447e+00 4.129549679470397194e+00 1.747136375765551364e+01
-3.474379254413155760e-01 -2.141093824373239585e+00 1.600507728798569573e+01
-4.018174329652376642e+00 4.085653243772170207e+00 1.518338721821834625e+01
-1.077904820244435236e+00 -2.084879908915632907e+00 2.009972452135959387e+01
-2.688426969962727786e-01 -2.079784805505423328e+00 1.991048771592285149e+01
-1.907607272804554777e+00 3.970609185808699149e+00 1.782216277540095817e+01
-2.866956513406192730e+00 9.038752459301459263e-02 1.170986100863558832e+01
-5.915191229969117614e+00 7.069337865847429292e-01 1.950040647912060976e+01
-3.242283092967115365e+00 2.264649773237828345e+00 1.360081551479737172e+01
-1.680962970487012598e+00 -2.055510737457723280e+00 2.019527131239329876e+01
-1.871120293207424901e+00 6.739216490096091583e-01 1.313525886188156377e+01
-1.555238192119852147e+00 2.741899925738971344e+00 1.844670863641480807e+01
-6.511637133678695122e+00 1.277813480967242343e+00 1.920919927419106088e+01
3.838356942216077927e-01 -1.860648874751521076e+00 1.944087672873245864e+01
-3.089700164603129018e+00 1.244406842846683681e+00 1.260995244414197103e+01
-8.849966296564327761e-01 3.188486223716482382e+00 1.803673699966521227e+01
3.509299513188134378e-01 -2.047134250178789472e+00 1.948403553681076872e+01
-4.473618062384241867e+00 1.527012161680957325e+00 1.899216097008635629e+01
-7.542611136119589332e+00 -2.205743633434363193e+00 1.663911619655853613e+01
4.390115736453750195e-01 -2.381633104376377208e+00 1.916740785438863881e+01
-1.629639373793086321e+00 3.332803813079099342e+00 1.622596142836846766e+01
-2.317658401513277511e+00 -1.582875425042322703e+00 1.730755922307859507e+01
-8.266650305253463671e+00 7.442731853511381779e-01 1.683482951741371991e+01
-6.149981441066527665e+00 -2.466151666067775583e+00 1.826766141232171137e+01
-3.937190902042274843e+00 -1.829744769353400580e+00 1.776594223634753789e+01
-7.794455728492019730e+00 -1.636874649805512894e+00 1.624188224496155541e+01
-1.803074700887838722e+00 -9.770702163335307500e-01 1.491011998977895914e+01
-5.516847056237539348e+00 -1.793218453594247475e+00 1.781544715793382849e+01
-8.108723299369565041e+00 -1.921371605621173151e+00 1.824934863603072088e+01
-5.033153053195540849e+00 4.839488468998084159e+00 1.587600493858760942e+01
-1.042589855295037227e+00 1.433373538703940797e+00 1.901428989191576946e+01
-6.419511113953237924e+00 -1.756063511153541201e+00 1.641798193141712758e+01
-2.573757203478012734e+00 4.928862241456188009e+00 1.720547184910095595e+01
-6.548006471042507215e+00 -1.827200882309338192e+00 1.618842176896484730e+01
-1.222263604868844666e+00 3.360450908055905295e+00 1.663642704547612894e+01
-6.687246235235660308e+00 -2.111000596635282722e+00 1.701897582442370904e+01
-7.410013912086592214e+00 2.368488843133867316e+00 1.779420754235857416e+01
-3.352782689585464215e+00 4.632084444348770758e-01 1.142114841557076588e+01
-7.054619180564660752e+00 -2.118223768425252285e+00 2.027595947935024512e+01
-6.416930811833751136e+00 -1.790034481703311586e+00 1.660437923276636596e+01
-5.104712371394494852e+00 -1.786896132680292792e+00 1.783338122148215987e+01
-5.900744810138697005e+00 -2.062953615066431379e+00 1.800244708514760461e+01
-6.804343505849779206e+00 -1.591054484210281839e+00 1.561850001878859118e+01
-7.627473712769136327e+00 -1.634349763733522032e+00 1.598313315535942181e+01
-6.986181674176547673e+00 -3.202818206031846415e+00 1.961772413910528812e+01
-3.787214214108908461e+00 -6.794603380815011917e-01 1.618111507222877421e+01
-2.259590331743766001e-02 -1.922450099344700236e+00 1.605941286336730300e+01
-3.722423799372708508e+00 3.119322763105542240e+00 1.828128127235534706e+01
4.372708940341503148e-01 2.975273394267601013e-02 1.550207387024078187e+01
-6.206519881765892865e-02 -2.478345377827741114e+00 1.983194239821444071e+01
-1.309479090396643564e+00 2.623115241037939777e-02 1.333862884684636541e+01
-2.723688520141281266e+00 4.957265638136307828e+00 1.719117730409089617e+01
-2.341682372486132646e+00 4.084893297546826396e+00 1.636856719886256073e+01
-6.949419226748454470e-02 -2.287434823407060502e+00 1.982767717744166092e+01
-5.398432077704651277e+00 3.195673355294850637e+00 1.434552327519983450e+01
-5.196543755448415070e+00 4.343826834257323632e+00 1.537445418960493626e+01
-1.109167784838260840e+00 3.639074169064169695e+00 1.786224960812951323e+01
-4.245171039206802277e+00 -2.340026558120418265e-01 1.226870017379039624e+01
-7.085391032830308689e+00 -9.232047575726889388e-01 2.006582375038012955e+01
4.203673489304475819e-01 -1.057719658273384766e+00 1.899185293731802560e+01
3.007650234637710973e-01 -2.461071485214004539e+00 1.952145858901758046e+01
-1.410756268526491386e+00 -2.070133733184639890e+00 1.722629977291309089e+01
-7.330538877634300121e+00 -2.188976126641242193e+00 1.645785019433728635e+01
-7.508092928732503779e+00 1.729600922833981924e+00 1.833687888396764620e+01
-6.555113744144266619e+00 2.367009046333655498e+00 1.436492141946505896e+01
-4.355460191645320833e+00 4.363036386273236644e+00 1.747566633646063039e+01
-7.167052618962848953e+00 -2.093980985544668272e+00 1.622723651062522876e+01
-4.276686718039451662e+00 -5.605342480994811305e-02 1.179576438410662220e+01
-6.940062837762765113e+00 -2.165215973474890809e+00 1.641355768734207388e+01
-6.846884172229187326e-01 1.396711085536339381e+00 1.898720047490637697e+01
-6.751240178473780773e+00 -2.201046420806100912e+00 1.738605524550750303e+01
-6.290212906230919998e+00 -2.287292300856544003e+00 1.802957714256659827e+01
-6.286125592381971217e+00 5.051143530514750069e-01 1.961245264839388724e+01
-7.225564903856815491e+00 9.096804429315552554e-01 1.923178402283049238e+01
-7.109390765184647520e+00 9.249057084541423279e-01 1.928567897215625848e+01
-7.916308025362937428e+00 -2.175195364990191838e+00 1.727636446443851881e+01
-7.818367528525206112e+00 -2.438476719970229301e+00 1.915233211023462090e+01
-5.252326345682523101e-02 -3.353958665508711690e+00 1.902793009119752199e+01
-1.918783468270909509e+00 4.413481685116953379e+00 1.700380851683337724e+01
-4.329549663729217457e+00 -1.599546490687680400e+00 1.760930510999517296e+01
-3.946386725186174615e+00 -2.287496866143530205e+00 1.814392805568714451e+01
-7.722785885478891998e+00 -5.354389664490932788e-01 1.951776493842799098e+01
-1.152896540127702263e+00 3.618802790077992881e+00 1.696888295970932958e+01
-3.166194110232000369e+00 -2.169333200783436055e+00 1.792808789626261401e+01
-5.337101662317298434e+00 3.107389385440852969e+00 1.826028986860305636e+01
-6.718724952828488028e+00 -2.085916940693637756e+00 1.657212597217010241e+01
-3.396071440337612435e-01 1.616493814148473707e+00 1.877814454097407193e+01
-5.861214523613972105e+00 -2.720131829221727138e+00 2.055469240973476630e+01
-7.742896205035897594e+00 2.187703932935959106e+00 1.651948797711544970e+01
-7.973949186487910623e+00 -2.245810723304121126e+00 1.820509378003304946e+01
-5.571617658836544251e+00 -1.157798798101489890e+00 1.703566180829654186e+01
4.936527544932041156e-01 5.879301856064924614e-01 1.787168852748360237e+01
-3.629664780859676032e+00 -2.519568773640675996e+00 2.046535559843704632e+01
-8.150594762690001716e+00 -1.314120714444792615e+00 1.887085050092084160e+01
-1.516815898957086794e+00 -2.229788309130624757e+00 1.765873243507155976e+01
-6.044957573421923414e+00 6.511219630392635072e-01 1.247156859183503386e+01
1.744498609948151868e-01 -2.461786472792469649e+00 1.963245527420659542e+01
-4.770121579448549087e-01 5.293972293238417837e-02 1.430834628207077586e+01
-7.865542699478098587e-01 -3.561236741991868016e+00 1.888775017567062164e+01
-1.658357146664052761e+00 -2.259669880466297798e+00 2.022384889224754900e+01
-2.770298459281633208e-01 -2.417239926216034007e+00 1.993178372224481976e+01
-4.279855274335478299e+00 1.493066564401597240e-01 1.140358667658643199e+01
-2.968876345329048316e+00 2.329247145998969426e+00 1.391326205738597466e+01
-7.158989152437470693e+00 3.139133747946325936e+00 1.728986273742816948e+01
1.763388978417763653e-01 -1.995068931800120904e+00 1.629162753877944780e+01
-1.446904179425975379e+00 -1.639899844801565809e+00 1.582648970909054853e+01
-3.059393102998085312e-01 1.296768045037632044e-01 1.947207852488132218e+01
-3.788659973952000382e+00 5.204170770613057329e+00 1.650352022726973544e+01
-8.159193510020807949e+00 -1.541561708121562013e+00 1.865664652119920319e+01
-6.456732357382037435e+00 -1.778684321950536884e-01 1.378074860731349460e+01
-1.007436707210182414e+00 -1.187226346667364929e+00 1.487098445461992569e+01
-7.000656071734326247e+00 -1.313739654220829056e+00 1.531072516314609189e+01
-6.131023831500574950e-01 -1.196335833845802998e+00 1.507938965744937221e+01
3.779590177533298512e-02 1.381165866237159312e+00 1.864902655044275193e+01
-4.600262402329015288e+00 -4.529315727973008965e-01 1.540107302842701742e+01
-7.658392923856595758e+00 4.309941212690053258e-01 1.488701278805431016e+01
-1.005814264525288992e+00 3.340751445213115289e+00 1.683735146315249764e+01
-7.863453740761018551e+00 2.206059319415273556e+00 1.537538910467364772e+01
-3.520032432744693907e+00 -2.197617640321670951e+00 1.800048019489249995e+01
-8.322791350207187078e-01 -1.112586236825540364e+00 1.486423815724729636e+01
-6.428160013295498132e+00 -8.494357559857155238e-01 1.476821763663937404e+01
-1.677926401734508577e+00 -1.352670428870065722e+00 1.604391860366696321e+01
-1.522489813339384490e+00 -1.569361770971709813e+00 1.593000837836825312e+01
-1.542615088867932416e+00 -1.593538562714982731e+00 1.608865017869144154e+01
-7.431508181691034665e+00 -1.652845904861974802e+00 1.576530641088309537e+01
-3.276564286258893954e+00 -3.795226692372235533e-01 1.274178463505687020e+01
-5.925271971033254204e+00 -1.618938429156852044e-02 1.294977386246376838e+01
-1.622108094120728428e+00 -1.350158187505447582e+00 1.568798753101193100e+01
3.256796033331291751e-01 1.121185941364842842e+00 1.635560937493333356e+01
-2.864577849465651305e+00 -6.742145374653245593e-01 1.998237262705241690e+01
-1.629836791101947568e+00 -1.390435093118237431e+00 1.587060362545814129e+01
-1.535891699445253611e+00 -1.385753207774906626e+00 1.550715338923042808e+01
-6.377054424616995121e+00 -1.186957478405180400e+00 1.540953752712504965e+01
-7.586696147391881695e+00 1.610685959990219684e+00 1.832864605056577645e+01
2.679351151316170521e-01 -1.352947347499064978e+00 1.605384297287730888e+01
3.256146457050570486e-01 -2.867421407028305946e+00 1.898920588646893393e+01
-1.861831961141274139e+00 2.010058654779104614e+00 1.460457216306553718e+01
-5.249996227831898565e+00 4.178307894380682841e-01 1.168893382876775533e+01
2.819018720570041214e-01 -1.188921368939601209e+00 1.602947742136167975e+01
-7.207373974725946653e+00 -1.940442688722537223e+00 2.018270815835361631e+01
-2.935903360978869614e+00 5.060636938410975283e+00 1.680930217319212616e+01
-4.431635259665842042e-01 -1.328793947705715572e+00 1.530873946611417935e+01
-1.416673486868595289e+00 -9.263334469199013821e-01 1.450197590725200669e+01
-3.075594851223270587e-01 -1.248299773015636882e+00 1.538125965248090310e+01
-8.125599043552215406e+00 1.112696109808719802e+00 1.752662640192896859e+01
-3.170417012285506431e+00 1.008722955033587665e+00 1.226565940512659481e+01
-7.945540360963871507e+00 7.200855508494490298e-01 1.849839247106306672e+01
-6.599355429183010102e+00 -3.269131809874095573e+00 2.030067503917256388e+01
-4.076555422621007452e+00 -5.661903476951547776e-02 1.181015247544404545e+01
-3.539604776126326069e-02 -9.586194192158985494e-01 1.550321958648381937e+01
-4.661933780546702266e+00 -1.513236724666087829e+00 2.029351703074196323e+01
-3.861852223655216854e+00 -1.698967633584228754e+00 2.031938629372492144e+01
-4.802388679113418490e+00 -4.115157880713102290e-01 1.321405770472137320e+01
-1.934329072318427434e+00 2.969963673202509202e+00 1.836568615500604906e+01
-9.697549682388179049e-02 -1.539059136453693855e+00 1.576100685315589445e+01
-1.029542553484546819e+00 2.958681480686635723e+00 1.642439228071792812e+01
-6.801723768601153353e+00 -1.234801200905370822e+00 1.522006838156548625e+01
-6.080411881606448077e+00 -1.070321616232152051e+00 1.597109993373031855e+01
-6.777504901413145433e+00 -1.428379726518915760e+00 1.544324820341592996e+01
-1.833304100315179763e+00 -8.987428623677371498e-01 1.469479117678026014e+01
-1.535504567046257041e+00 -2.966295998169028447e+00 1.833292057501110506e+01
-6.564441108265612002e+00 -1.456602566588773850e+00 1.560053992657489985e+01
-8.166836273870067942e+00 1.141040944183042694e+00 1.652684331394683781e+01
-6.160090829279461389e+00 -1.415439363648952620e+00 1.682506496912835203e+01
-3.510281375916897595e+00 2.086036543041953184e+00 1.874048559803354763e+01
-6.995536295861942477e+00 -1.571422846357009240e+00 1.558754990214672276e+01
-4.061462784211688160e+00 -6.767830645208781082e-01 2.004768071653785100e+01
-7.788103722443608490e+00 1.742016574255627281e+00 1.772972644972159273e+01
-3.829907986487722571e+00 3.488741247483439611e+00 1.460749076474878549e+01
-5.156226798014648338e+00 3.131769142043908438e+00 1.824731948651514202e+01
-2.039707711109072896e+00 -3.985615407731529780e-01 1.351826467660392339e+01
-6.293790341136221045e+00 -1.593034108796153703e+00 1.663628780425983322e+01
-5.213638699886882222e+00 -5.090779409555492574e-01 1.439582919143669315e+01
-5.713836291154605007e+00 -1.630531319894989783e+00 1.760207643465483685e+01
-5.685829151734854037e+00 2.680410881322650596e+00 1.404144264908617501e+01
-5.831064632231651501e+00 2.629011320672414165e+00 1.409748414277682471e+01
-1.699760048822527070e+00 1.935341864080768914e+00 1.882389315552502396e+01
-7.367184508549408761e+00 -2.757244260507718980e+00 1.980297084587880008e+01
-5.361378213001843918e+00 -1.408958416238530686e+00 1.741086593002331639e+01
-6.764361478934455718e+00 1.545694701046238073e+00 1.375667316564760156e+01
-2.467552832086601811e+00 1.298329378255883793e+00 1.908557380575497930e+01
-1.858709440064036489e+00 -2.497692986836046902e+00 2.027198124095801646e+01
-5.144983620443072780e+00 -1.575143115759568113e+00 1.762035827746587202e+01
-5.900064740087801241e+00 3.302379264908432255e+00 1.481789717639036397e+01
-2.729070734719698965e+00 2.115490317498966100e+00 1.874604305526403536e+01
-7.499617924699998994e+00 -1.389933060208692783e+00 1.567557034091533907e+01
-4.442789874561635877e+00 2.887144993774331425e+00 1.380161167548114420e+01
-6.168699992955618328e+00 -1.599111177910328863e+00 1.721657097131123138e+01
-1.450949671641216465e+00 -3.567627578373078645e+00 1.889883773424484659e+01
-9.323773733896432159e-01 3.605141399147955727e+00 1.754881743363632651e+01
-6.382296065611143376e+00 -1.423837053402575048e+00 1.580080783422898705e+01
2.249236085712688071e-01 6.239907847806953622e-01 1.551981374364453714e+01
-7.118810338895144696e+00 -2.593104174763025682e+00 1.821361018688999778e+01
-2.108298875080552470e+00 -1.461471843694036377e+00 1.709211507895141224e+01
2.114886647918275964e-01 2.924226007701079544e-01 1.524154769952222566e+01
-6.302171026520204222e+00 2.329997995845398684e+00 1.865540187925173043e+01
-8.342341474480104324e+00 -2.174746314313668882e-01 1.729848383824350933e+01
-3.618157358504839216e+00 4.659745227422920522e+00 1.734882131654243054e+01
-2.018096115981931504e+00 -1.271325348510552011e+00 1.672050979339096344e+01
-7.956493685707973995e+00 1.725724937730633179e+00 1.634680948066635509e+01
-4.793544290697616006e+00 4.407995837741819578e+00 1.737897828820083035e+01
-8.315673333866392625e+00 -4.097474544809517338e-01 1.705398861993174009e+01
1.352035848678528884e-01 -1.846413624409767751e+00 1.965967617165773262e+01
-4.039893038631012345e+00 4.571540983572892181e+00 1.570071134352889075e+01
1.269198854011939215e-01 -1.469720585613454755e+00 1.963380758755709010e+01
-1.068246914291894667e+00 -1.293576943404931789e+00 1.999681456469366125e+01
-1.227005784665347710e+00 -1.502976049935397018e+00 2.005181825447925448e+01
4.555463690754020245e-01 4.041950902500337506e-01 1.667607486724182664e+01
3.756097356282160904e-01 -1.371694020283682702e+00 1.642911390292416840e+01
-1.058879908253037350e+00 -1.672672698800992119e+00 2.005280777479151411e+01
-2.344533153977323980e-02 -1.494044945388779688e-01 1.504598813603794483e+01
-8.874954158242029933e-01 -2.501963936398476473e+00 2.008141956632666947e+01
-1.137428436115032859e+00 -8.419210624413784316e-01 1.445824051692585144e+01
-3.206997986282846380e+00 -5.801691985030672516e-01 1.536648204017535235e+01
-2.311740204634033624e+00 -6.524543360007866166e-01 1.423327923959505270e+01
-2.865531915937430951e-01 -1.461118767245122907e+00 1.986428592713710728e+01
-6.416473157535403260e+00 -6.238163890616550411e-01 1.440728941300630694e+01
-7.857106414824177598e-02 1.016772222489848332e+00 1.893988891890490933e+01
-5.027174006038457321e-01 -1.655063566799228170e+00 1.993816885607673228e+01
-6.039927215305864294e+00 3.433016120623259226e+00 1.794673703242118634e+01
-5.248661696488619910e+00 -8.088750911520628528e-02 1.218077048452358824e+01
-2.271340846962460525e+00 4.892850679641261635e+00 1.716891114737680724e+01
-6.534272544320160137e+00 2.727006015701725072e+00 1.832237724710638460e+01
-7.525193747363069008e+00 1.909609461312467005e+00 1.463464018432528846e+01
-6.326848306454481374e+00 -1.463862842256334895e+00 1.600413156259927305e+01
-7.496309433901901187e+00 1.989208053088648565e-01 1.463383532096993278e+01
-6.423002825338128829e+00 -1.600085272847144413e+00 1.600674092155177064e+01
-2.979774377384056372e+00 -6.592531271161015116e-01 1.591387780374656913e+01
-7.595696138514679063e+00 -2.237239850025904531e+00 1.979092428850324481e+01
4.093711994031214996e-01 -1.820871717684782620e+00 1.742979263908594234e+01
-9.394043026948677433e-01 1.322336284826577613e+00 1.484264607633759070e+01
-7.796005036032616076e+00 -1.703028334325523030e+00 1.963064278647032168e+01
3.254573030941207978e-01 -1.478594856999722706e+00 1.943917793494702906e+01
-2.707260788852587474e+00 -6.619852669192971550e-01 1.996784110535606160e+01
-7.620549152362798395e+00 2.401202165748749895e+00 1.512512395359548023e+01
4.409620144466301905e-01 -2.035224486023218926e+00 1.904845201191253423e+01
-1.641606761754799582e+00 -3.056524685904975058e+00 2.027405673739437830e+01
4.202129071137459260e-01 -1.729182783558975256e+00 1.919915133618383507e+01
-7.541552277211534872e+00 1.207747264986492652e+00 1.432767511379879366e+01
4.181747457466535867e-01 -4.818832388040428238e-01 1.904162742478733961e+01
-3.708056792472103069e+00 -1.444378528717414678e+00 1.735664708152483016e+01
-3.183277802324151473e+00 -1.557500281544802911e+00 1.739927246473018485e+01
-3.096420628292068766e+00 -1.362904484192233978e+00 1.717475933204874750e+01
-2.677405823381047156e+00 2.585008296486810853e+00 1.445561728932188217e+01
-3.786194836213859105e+00 4.053592284922002520e+00 1.523996402599734878e+01
-6.935394899165973071e-01 -2.518156047942036402e+00 2.004069039029868193e+01
-8.249056491697226434e+00 -1.253452556877570068e+00 1.805472401616946243e+01
-5.406453485437847206e+00 2.781284246640130853e+00 1.393564593658471651e+01
-2.313806180867823414e+00 -1.427261794478361878e+00 1.712538436554349985e+01
-3.280614969354867405e+00 -1.753525588856106598e-01 1.211013827102334162e+01
-7.705328475352434481e+00 1.420188425664266063e+00 1.472248384274938715e+01
-2.523862799731458217e+00 -1.483951598359720014e+00 1.723971359707958939e+01
-6.887604595399059448e+00 4.412910004393333363e-01 1.347110783714563453e+01
-4.385993436118593714e+00 4.731154405009016628e+00 1.576338525342035624e+01
-3.729396045761324885e+00 -2.191818704393292960e-01 1.986387956336729488e+01
-5.861231839867432569e+00 2.210757912785111579e+00 1.370379259840384734e+01
-2.276589556727213193e+00 -1.683017128116620409e+00 2.016968757568264081e+01
-4.078675150027608609e+00 8.399052767640353689e-01 1.164993956986212353e+01
-5.093542943112183252e+00 1.078692636837217167e+00 1.203449912783613129e+01
-2.138110685517555787e+00 -1.609959983612856194e+00 1.729010514196921022e+01
-6.760214145132929175e+00 9.803420158512137217e-01 1.936210840385153986e+01
-1.669676456740476489e+00 -1.466412614741056109e+00 2.007329041522401880e+01
-4.534134539099452077e+00 3.984227157457797208e+00 1.773614393448183435e+01
-8.316339594086612053e+00 1.549425818969873969e-01 1.775009339002237496e+01
-7.648183476751952981e+00 2.418462090432421885e+00 1.673676613369579158e+01
-6.650769307892236526e+00 -1.879529916512582055e+00 2.036982949953866395e+01
-3.520053113741567596e+00 1.059824534951772979e+00 1.201805330304486930e+01
3.946678507833624172e-01 -8.615157852636410318e-01 1.910081161592059473e+01
-6.266688707109457468e+00 -3.089052374389669176e+00 2.049621099551970715e+01
-6.797028551631500548e+00 -1.770019830643549064e+00 2.032380210905239792e+01
-2.741608423429981567e+00 2.309277029422775573e+00 1.866426050577366524e+01
-6.844320818309535426e+00 -2.121162910994781381e+00 2.035404238334418991e+01
-4.774372729833991968e+00 4.966822478940481567e+00 1.695326530101996454e+01
-7.610813503222740195e+00 2.383458387980448734e+00 1.609673592867087777e+01
-7.532817865274202163e+00 -2.496152789279253881e+00 1.798664387881995097e+01
-6.715233201484624104e+00 2.320040828360153906e+00 1.443462444965190983e+01
-7.461199330517660044e+00 -1.943631110946440366e+00 1.999232833827994327e+01
-4.204138510753205438e+00 -4.897308491280223941e-01 1.500666222268408134e+01
-4.884428080893114199e+00 1.650227080814150149e+00 1.247848615970081809e+01
-7.863843488469404619e+00 9.319397294969082868e-01 1.847226774027287988e+01
-7.220895780416356047e+00 -1.703949001561919863e+00 2.015615311355536576e+01
-5.427725523203723590e-01 7.084910441371563561e-01 1.462267900288008704e+01
-7.454621177145508426e+00 -1.729075208710809664e+00 1.999578458986193752e+01
-1.248200140962009375e+00 -2.345755410200681901e+00 1.718783342890704446e+01
4.107468272811709564e-01 2.089298108169418688e-01 1.586067212111145253e+01
-5.705899126101760643e+00 -2.679189348680382388e+00 1.853434127053541047e+01
-7.054732099234183096e+00 -1.913983623666436928e+00 2.025701484020077103e+01
-8.199202264550917718e+00 -1.675394813494712309e+00 1.768039325868715039e+01
-6.998153145228314997e+00 1.796698704487361686e+00 1.415145260002772076e+01
-2.979374030058584921e+00 3.795718740692907378e+00 1.796310321896274687e+01
-4.090134439826144330e+00 -3.298616157651737879e+00 1.890621901017143713e+01
-3.472870627930861875e+00 -3.634180748215372958e+00 1.928025805798842285e+01
-7.316596717091547575e+00 -2.777315161482356132e+00 1.873227906069594795e+01
-8.245764327657033377e+00 -1.473702247724891334e+00 1.762433439209292274e+01
-6.263619515339241772e+00 -1.945107145447233066e+00 2.043258617573392755e+01
-8.221355503218751082e+00 -1.536195061699740627e+00 1.789142478799472613e+01
-4.200800005106001933e+00 5.160537554503291879e+00 1.634178439720366427e+01
-8.100762298263058270e+00 -1.833626042663061506e+00 1.863596431472151593e+01
-6.065398008996304213e+00 2.452817867413985553e-01 1.260850887706508772e+01
-7.853220959658683498e+00 -1.889049249217708226e+00 1.949247835077852287e+01
-3.561565559788615776e+00 -6.753646327511566572e-01 1.609966068118572835e+01
-8.014349018444006489e+00 -1.727693981085086428e+00 1.920194288076167410e+01
-8.202887502032632838e+00 -1.474640442671079077e+00 1.828343801393598156e+01
-3.240758854366029507e+00 -1.689936575786198825e+00 2.028266955512461678e+01
-2.405691445847971899e+00 1.314649111638902079e+00 1.330421293740362287e+01
-2.560921305887757349e+00 4.549631261325363774e+00 1.746688997615103389e+01
-5.152009632199543443e-01 1.307976704173800409e+00 1.899421233345585236e+01
8.542425516239338101e-02 -1.264399680893671274e+00 1.578918425747399468e+01
-3.167113115631372100e+00 4.342256489055213109e+00 1.760928170266026527e+01
-6.332731104430587621e+00 -1.600294241583778643e+00 1.637497138752538106e+01
-6.380533734310592564e+00 -1.607976303034041710e+00 1.616026574778089397e+01
-5.075374615112631105e+00 -3.531838411962707203e-01 1.295957186968962915e+01
-4.328550295116856184e+00 1.239324225777150623e+00 1.913687840840971077e+01
-5.911424623232210962e+00 -1.664753033208966393e+00 1.756492546365351259e+01
4.625214905830574708e-01 -1.046003631696850622e+00 1.866633582266718960e+01
-5.673536454230342585e+00 2.482386932733388729e+00 1.383439642189853558e+01
-4.760475941774345188e+00 -1.560735196857918394e+00 1.760940758399491912e+01
-3.617654613456499302e+00 -1.526967666435743443e+00 2.027648285481719981e+01
-5.818260960006575999e+00 -7.304865770289690197e-01 1.521437187441408767e+01
-5.509788298491669067e+00 2.582200304514488565e+00 1.853824625885909327e+01
-5.718680582435279547e+00 2.553357697012566874e+00 1.855709025580890525e+01
-1.277702909819631971e+00 -2.121577488778629395e+00 1.628964913820350446e+01
-6.020174355990320691e+00 8.006621272165632686e-01 1.253204219448558021e+01
-5.420711926937050507e+00 -5.848717355037984511e-01 1.525179053567842047e+01
-1.104782139960813536e+00 1.554372167903887991e+00 1.896536242490726565e+01
-1.464042890996966939e+00 -2.710886616564746276e+00 2.021515479526694392e+01
-7.866503181562670477e+00 1.597060989382921958e+00 1.527394130730828792e+01
-1.672880014895244072e+00 -2.694068348549720326e+00 2.025788968391005440e+01
-8.031394403298579121e+00 1.563705577590656315e+00 1.653235946748911900e+01
-2.716314415784357283e+00 -2.810722350356482657e+00 1.834738181840434024e+01
-1.183879820720740828e+00 -2.480160726989161901e+00 1.741159408422167232e+01
-1.518628359939027117e+00 -2.421158583984627910e+00 1.785638244094552007e+01
-3.438749875475687112e+00 -2.725736617557191988e+00 2.048643162635734782e+01
-2.860404978173985757e+00 -2.734718953345081527e+00 2.042723618364477645e+01
-3.696290708073882936e+00 8.249102527105021121e-01 1.166945650852547445e+01
-6.228922851074619516e+00 -7.524905332888569554e-01 1.462801547017451398e+01
3.602756904296260387e-01 -2.324042705808178955e+00 1.703347191757120171e+01
-7.338385844556464477e+00 1.732237185989039974e+00 1.854980260359321775e+01
2.991028710456128392e-01 -2.430643619531194233e+00 1.702324538141337129e+01
-2.222106822727996978e+00 -1.813907986296988684e+00 2.019029248070448190e+01
-2.866333850116406179e+00 -2.350013027817070554e-01 1.981225133758830381e+01
-4.950674313692633888e+00 3.486279943881149368e+00 1.804089556226385227e+01
-2.125030467306556758e+00 -2.449652858254883991e+00 1.804855871830455172e+01
-5.211770578678633470e+00 3.555119389627197979e+00 1.457087034019514604e+01
-2.273921843056126768e+00 -1.495945039115248676e+00 2.012922850681934861e+01
-4.577385757746549544e+00 2.905479615811897620e+00 1.379209315435185701e+01
-7.298215504488878125e+00 -2.649014206637883451e+00 1.838364877441767575e+01
-6.687452493655973385e+00 -3.135762251712793436e+00 1.917461682443000726e+01
-1.594503932499535814e+00 2.444234783472004402e+00 1.534918344837018722e+01
-5.705838100775947552e+00 -6.580463091486916660e-01 1.499501046293923068e+01
-4.400407730323014910e+00 -4.851139306385417460e-01 1.590545311415368346e+01
-7.499490022420696178e+00 -2.612629262642360395e+00 1.837968454418339448e+01
-2.673997270700357198e+00 -3.468299835881310411e+00 2.040107429274837969e+01
-4.506229483713664052e+00 -2.898340855894150803e+00 1.867186499283031154e+01
-1.058683610140285225e+00 -2.682102070262152971e+00 2.012681800613370697e+01
-7.569514393799105179e+00 9.951449871256465851e-01 1.447786835691929141e+01
2.270812910984162381e-01 -2.579855332124462386e+00 1.702631870292506377e+01
3.371998021088329356e-01 -2.406150534563439525e+00 1.720438631414553399e+01
-4.492635995634321588e+00 -1.891321386021182605e+00 2.037830236796633088e+01
-4.165193259573671369e+00 -5.353045554035327225e-01 1.596000950468301127e+01
1.596419545573438681e-01 -2.713837840348319652e+00 1.962895129464653721e+01
-1.854499297246596567e+00 -2.688922663862572282e+00 2.029018832394346461e+01
-2.025606372353991880e+00 -2.654461939441961960e+00 2.031402448428482543e+01
-2.759986517699110742e+00 3.094656806771069579e+00 1.494206366546778142e+01
-7.415677153598728921e+00 -2.810155349481712417e+00 1.959815881041148700e+01
-6.304455040729354920e+00 -2.649724205765997542e+00 1.838464083295044205e+01
-6.507532248528644203e+00 -2.596264756455460176e+00 1.826786835586095847e+01
-5.903193470542518639e+00 1.677947901286414023e+00 1.320896233564845446e+01
-5.472037846373554615e+00 -2.770759262614611806e+00 1.862232899928869401e+01
-5.503593491821295203e+00 -2.479442686260350470e+00 1.840290937773765378e+01
4.552279811543193944e-01 -8.554805540162151445e-01 1.883837059147579751e+01
-5.865961823571574030e+00 -3.287894735020040482e-01 1.996100875981393941e+01
-3.645260909831956830e+00 -2.906579782159832703e+00 2.052572685810314468e+01
-6.240786917835118075e+00 -1.915500460941626792e-01 1.364905820094005051e+01
-2.669800465312845095e+00 -1.455420991274755549e+00 2.017285980857228722e+01
-5.909974466053888875e+00 -2.727314113945090490e+00 1.854209986822214162e+01
-3.716003443856523258e+00 4.274971590823030687e-01 1.118675182817834113e+01
-6.124789429735448820e+00 -2.748370092807741916e+00 1.852257346249620795e+01
-6.640982797796965542e+00 -2.709658520426125428e+00 2.045122920907456532e+01
-5.779141531572310697e+00 -1.721499853068368946e+00 1.769164890421852121e+01
-7.186058004899531504e-02 7.844456528697785203e-01 1.519132310238172678e+01
-4.082867613909792581e+00 2.618500894645080734e+00 1.849789329901843260e+01
-5.804496518494461910e+00 -7.464485108123275481e-01 1.539377286172179637e+01
-7.928276777791422703e+00 -5.153516574992391686e-01 1.926001988344684790e+01
-5.841692518111765153e+00 -2.905631918169882866e+00 2.056265959672935040e+01
-2.722257037268768443e+00 4.586845545018001791e-01 1.948439878569132944e+01
-1.288879418718828496e-01 -2.427802367132854577e+00 1.639267056173096293e+01
-1.907954946397217633e+00 3.369567842241953937e+00 1.816545405773878130e+01
-3.338593664082988965e+00 -1.045708553024714549e+00 1.678062712544987889e+01
-7.251574901918310445e+00 -1.327427720969947433e+00 2.008440042826603289e+01
-3.232789042651088574e-01 -2.354176707474223473e+00 1.624363012323090416e+01
-7.918231258978142506e+00 1.775258489047022215e+00 1.538912335914474383e+01
-1.929710173791435168e-01 -2.319238160924108172e+00 1.623508094398973256e+01
-6.114259532547993814e+00 -3.593441814185894145e+00 1.994605962887252915e+01
-5.584996518556062384e-01 2.928248368050996309e+00 1.809243504265427660e+01
-7.606906194408662447e-01 -2.333835317254549402e+00 1.623219915986996043e+01
-6.515160107403271894e+00 -3.161080978317492463e+00 1.912800856557457863e+01
-3.166797076615742501e+00 4.229248774834148072e+00 1.582505374732892633e+01
-6.577991289346220682e+00 3.366838647535790319e+00 1.775584619454455648e+01
-7.200296603425339725e+00 2.748260983845330241e+00 1.772340693814716772e+01
-2.577735734231795250e-01 -2.520057271878247462e+00 1.648889838931204466e+01
-6.662865994346342191e+00 -1.525446623080013886e+00 2.030679521891775963e+01
2.565765063067493301e-03 -2.371664299678460708e+00 1.641719984753519057e+01
-7.520511504420680282e+00 -2.686777095719390829e+00 1.861451888132775778e+01
-4.610731610552126769e-01 -8.645110020500998971e-01 1.982185941317181843e+01
-7.306473826729714460e+00 -2.594881244081755245e+00 1.825203892549967932e+01
-1.973795498598648113e+00 -1.129172779553683892e+00 1.629475506772172011e+01
-8.359046837922678996e-02 -2.686969462878305848e+00 1.984194293438324408e+01
-1.747172529360748516e+00 -2.433087496434041874e+00 1.798150984398033714e+01
-8.086109677219132763e+00 -8.848466806640227222e-01 1.908150124805857573e+01
-4.033734175546730860e+00 -2.235223957705571307e-01 1.987222303367890319e+01
-5.081171418163229703e+00 -2.914151885878180526e+00 2.057115813192471521e+01
