-2.690733385257474186e+00 -4.381858289488070213e+00 1.757755125710530564e+01
-3.779301110759688775e+00 3.263153807553319519e-01 1.238778137375980748e+01
-3.778064102050821660e+00 4.601746703632431101e-01 1.217010762297398685e+01
-2.992659632541685433e+00 -2.214963071698669295e-01 1.353101235000495706e+01
-4.465433347478195536e+00 -4.631573802240817272e+00 1.825791621822278188e+01
-5.572865568384244739e+00 -1.066945862321230454e+00 1.543368226630553153e+01
-5.812165916771069085e+00 -1.042165745215604566e+00 1.528674647329572167e+01
-6.572126164377089630e+00 2.984674151788765939e-02 1.323692754562405582e+01
-7.214892051437541198e+00 -1.146861629685738126e+00 1.430436646781581089e+01
-3.362384430699898008e+00 9.264514601998344867e-01 1.860124090280521614e+01
-3.550150318993602561e+00 1.093093526219641731e+00 1.860477991991362501e+01
-8.011669280426083617e+00 3.264426751752033673e-02 1.473625766542962623e+01
-6.471860780668134083e+00 -4.305426637716087690e+00 1.761829666234557124e+01
-7.780248301993210269e+00 1.250287768938729727e+00 1.556072418960146564e+01
-6.444963215119462241e+00 -4.205379041774999216e+00 1.748176193270758461e+01
-5.862021317704033230e+00 7.502675440470861767e-01 1.268203907196773628e+01
-5.426254399450394672e+00 -2.200055504762353120e+00 1.641312310762857862e+01
-7.352123018082660444e+00 -1.874633826997228692e+00 1.859595541148363651e+01
-2.442432331158847170e+00 2.793503773656298872e+00 1.611886984846521642e+01
-7.201397530444813455e+00 -1.654097034268124489e+00 1.861412656383142661e+01
-4.824378190948365841e+00 -2.938061629286523591e-01 1.878324843700960400e+01
-3.170035344047769765e+00 1.285599751284292935e+00 1.852317578743912208e+01
-1.606420669403361146e+00 -2.035843934741628392e+00 1.597111740809190650e+01
-5.771463329721451263e-01 -1.369310722705137928e-01 1.841362535552350010e+01
-8.693513427167267604e-01 -3.786134537502697128e+00 1.845997633610289768e+01
-2.743961721235042450e+00 2.922747233236921982e+00 1.621010272900867477e+01
-8.608872903311187486e+00 -1.353595913189646005e+00 1.630987020926811937e+01
-5.693382390040834018e+00 1.766026528701677645e+00 1.385242523486096644e+01
-8.530731385348779838e+00 -5.681496693315449820e-01 1.710845680241647671e+01
-4.672645952107648881e+00 -4.662901967811996506e+00 1.804788355151238477e+01
-7.886998007237544517e-01 1.755173495200595957e-01 1.392523661348460706e+01
-6.546913100283782150e+00 -1.004109545270902792e+00 1.451048545885230823e+01
-8.350237389860484249e-01 -5.874609610939653948e-01 1.418510036759938231e+01
-8.568242207065281946e+00 -1.955973760667267136e+00 1.671326302785500673e+01
-6.016837206709596764e+00 1.891830728795437899e+00 1.432365766031032450e+01
-1.680876617675628903e+00 -3.106394756712270944e+00 1.669251411723396927e+01
-3.132210407866129032e+00 1.688164027595111083e+00 1.312025979005215959e+01
-6.635600417513387583e+00 -1.074415107989025397e+00 1.453405571998194290e+01
-2.736671718978719969e+00 1.302093463030999376e-01 1.290652968946060497e+01
-3.059445081511459108e+00 -3.240761876501365268e+00 1.689078522060052023e+01
-4.346049735121915170e-01 -1.829115007470543119e+00 1.515708839558986654e+01
-4.910843524236543800e+00 3.888029008533090636e+00 1.764819328278721144e+01
-1.013775254885872057e+00 1.820004352762782496e+00 1.621727275027073034e+01
-7.862855111675726150e-01 -1.118049762309775375e+00 1.464399448205981713e+01
-3.743804231451600906e+00 3.717071360762066234e+00 1.804636687625595215e+01
-9.863884344081652600e-01 1.863462092894785371e+00 1.811238917981330587e+01
-4.905154894492826045e+00 -4.647263031497717911e+00 1.801027363861873454e+01
-2.094876606504249228e+00 1.642631522523471777e+00 1.430662323092474963e+01
-8.499337464106131446e-01 -2.772327913212108808e+00 1.863863647626013886e+01
-6.698528637497342952e-01 -2.416547592774675124e+00 1.555883432885811857e+01
-8.516380226850618129e+00 -1.788906628518478037e+00 1.587356542210874011e+01
-4.038831006804603163e+00 -2.076878347431081018e+00 1.884159968543099950e+01
-6.970949646394412724e+00 2.198424094049050925e+00 1.800910540120182901e+01
-1.496428619352440315e+00 -4.444134873492776805e+00 1.804926742689760033e+01
-6.650742223339309867e+00 3.302012141881992768e+00 1.773308627697711870e+01
-8.520860370685017671e+00 2.508136252712284131e-01 1.651119480807417261e+01
-5.794731624911412027e+00 2.325982748567295699e-03 1.310506281283460339e+01
-6.906843793617702509e+00 1.392360645737265035e+00 1.461510171814635584e+01
-6.805769664272488306e+00 2.776718306939847558e+00 1.788014475208660770e+01
-5.726749230398906931e+00 2.946921097768709696e+00 1.822766657910393917e+01
-5.619679921750684315e+00 -1.479209449085150840e+00 1.875195647026743728e+01
-5.520030568297305429e+00 3.756969357495627104e+00 1.741888099788335609e+01
-1.576162818340087313e+00 -1.170319545241246040e+00 1.497381557030077204e+01
-2.085906148096292601e+00 -4.093045573743481214e+00 1.849557332851481561e+01
-7.783030427462768408e+00 -3.019332769737384847e+00 1.822027060061079595e+01
-7.280134766470071739e+00 2.944359205566134285e+00 1.722253738489501984e+01
-3.124209194184630167e+00 1.686562938705971515e+00 1.846172138004769891e+01
3.230928614727537895e-01 -1.552364658860547308e+00 1.615227575293157969e+01
-7.878128786783517690e+00 -3.037580371178991268e+00 1.807632987331533769e+01
-1.877494543495164869e+00 -4.460492562379378079e+00 1.820138556506208971e+01
-8.590763445997353642e+00 -5.509474630818527174e-01 1.651106598323393371e+01
-6.805455354049666283e+00 -1.162575887191377610e+00 1.449800279527836722e+01
-5.389071282182581690e+00 -2.403142900536358595e-01 1.351394160694361801e+01
-4.217946693223568744e+00 -1.496539735951202488e+00 1.603294485091961263e+01
-8.163662525946154602e+00 2.413801974246974624e-01 1.515296175367611653e+01
-2.610572485004657217e+00 -1.089676643410277368e+00 1.549588251816182094e+01
-2.397735970942628025e+00 -1.204215939554602155e+00 1.554036399400402502e+01
-5.319742561013816484e+00 3.751193042885383022e+00 1.803056720853873429e+01
-2.928210344038119306e+00 1.875510026548781184e+00 1.371851499966693666e+01
-8.034118879547783365e+00 -3.215186417854930756e+00 1.625932566018139624e+01
-1.356791019095737072e+00 1.376539295594398027e+00 1.496855660571857527e+01
2.986841944056605191e-01 -1.089227772639759506e-01 1.716463425532177212e+01
-7.824185464901703746e+00 -3.007817463096296606e+00 1.590479893984443294e+01
-4.519487506962357237e+00 1.591684752292820360e+00 1.259396653516888165e+01
-1.612782756553881924e+00 7.583834371589844858e-01 1.357868351567343979e+01
2.974523593664809562e-01 4.828532763119913751e-02 1.694001529888608104e+01
-4.270550088887792306e-02 -2.481504229147855956e+00 1.569182849328530693e+01
-3.334200152517182048e+00 2.949136870099482444e+00 1.601790586811620187e+01
-1.698348400338903552e+00 2.004264689861119386e+00 1.556428364357984151e+01
-5.325175687213937081e+00 1.986468874188488609e+00 1.379511675417903405e+01
-5.812824819396533726e+00 -1.369128687577187975e+00 1.569067997797523617e+01
-6.875816515275419150e-01 -3.730901107357278867e+00 1.840619124567825082e+01
-2.072373312690388047e+00 -4.343065837745320401e+00 1.838069668121222122e+01
6.975746925155362765e-02 -2.746277752269217221e+00 1.763585037352377327e+01
-2.432291114000168175e+00 -2.839719870333298424e+00 1.671306679179087240e+01
-2.257325428246954591e+00 -3.097401212990491537e+00 1.680881498426359144e+01
-2.016264313276955100e+00 -1.903065385603327275e+00 1.604311811232381757e+01
-2.950126261943709416e+00 -3.203228095064554193e-01 1.862438539074813093e+01
-5.079736964683410072e+00 -4.100973580389135620e+00 1.858145862186205477e+01
-7.582012339008515234e+00 1.613857993346706543e+00 1.778920902358584755e+01
-7.852783327493320975e+00 -4.002567150192151701e-02 1.815231509737059667e+01
-2.575213920844784621e+00 1.673709447476032786e+00 1.839250847180506554e+01
-3.147943015697095337e+00 2.998637040763431294e+00 1.619237054566868750e+01
-7.599115114102812818e+00 -1.179501977594112072e-02 1.831601710115451453e+01
-4.864093711073599557e+00 -2.088301847785733578e+00 1.640263857549645365e+01
-2.761169805538502553e-01 -3.789344394276982220e-01 1.439142081944647344e+01
-1.304769215511728309e+00 -2.388237248553679137e+00 1.601140509363012399e+01
-6.030537388997545101e+00 -1.507239941716795428e+00 1.574024307876026540e+01
-7.598012298542893284e+00 -3.408684809276235850e+00 1.822532545602133780e+01
-8.580916666141487070e+00 -7.678090594741580066e-01 1.611721013960721649e+01
-7.991674897594257310e+00 1.627870768099553445e+00 1.716752228682841519e+01
-8.475211513333103852e+00 -1.194906781044699162e+00 1.732049893089921255e+01
-7.049555260914841526e+00 7.167477343581083460e-01 1.405637705196486564e+01
-8.515774257813838233e+00 2.288294903883208997e-01 1.634302138946540595e+01
-3.470173060764929041e+00 -1.730412719451051018e+00 1.879676153444462727e+01
-1.967598817244196940e+00 1.419023815186010840e+00 1.839734367920596014e+01
2.234245183336969753e-01 -1.723817997753364917e-01 1.752715035777650598e+01
-3.434903932907946711e+00 -1.764403979681679335e-01 1.333268270852507698e+01
-1.464824595984002276e+00 -4.386969735466857756e+00 1.825363220952632304e+01
-4.230013991376702087e+00 -7.102573152336528750e-01 1.504512098652781305e+01
-6.701654493451355776e+00 2.293344775292585624e-01 1.319215857144985193e+01
-2.812793268502678856e+00 -1.651113407138996791e+00 1.607992665723804748e+01
-9.080727727990018927e-01 -2.349142576484271494e+00 1.560039632429637635e+01
-4.216472485793532066e+00 -1.282418296520866807e+00 1.584913417978153660e+01
-5.598998813478852199e+00 -4.752435974929527518e-01 1.872031078200954113e+01
-7.383043832187289546e+00 -6.735620623477617253e-02 1.361420473896185257e+01
-7.570490778177211944e+00 2.464161230782562662e+00 1.671207976271719531e+01
3.086144487129869884e-01 -1.337284645251745896e-01 1.695127578699031545e+01
-8.703693104536172065e-01 -4.290434634258307511e+00 1.768109394051846550e+01
-8.475808540926831114e+00 -1.015426772222370655e+00 1.732879070188830184e+01
-3.879139542818133002e-02 -1.085409792792351169e+00 1.493312373871224708e+01
-8.534197516342985068e+00 2.322902687682218414e-02 1.673963912861096759e+01
-5.095388215758198669e+00 2.283571576998539854e+00 1.847499773903499687e+01
-3.489354419857563450e+00 -4.484746532001073760e+00 1.763990172319888217e+01
-8.512100376446227301e+00 2.735826092559731637e-02 1.688637896482860157e+01
-5.941834050381672228e+00 3.828502578914164012e+00 1.758525176530652345e+01
-2.924351659553128702e+00 2.819409665145286681e+00 1.591492298899616031e+01
-6.996435530660293445e+00 6.701194413644149250e-01 1.394299976903394622e+01
-2.164398592883616690e+00 -7.236983700866419511e-01 1.463830960369993051e+01
-5.939272909426411395e+00 2.711180152026145596e+00 1.824855900427138522e+01
-1.985713168013742536e+00 -8.250123589189836126e-01 1.470366598481118814e+01
-7.368431910361192827e+00 2.403702118772849783e+00 1.763556839003278753e+01
-1.598202266432684482e+00 -8.338773655771346549e-01 1.453774567644816784e+01
-5.212688337770404523e+00 -6.433883675324645335e-01 1.878380955527267560e+01
-8.321584834291595456e+00 -3.014046208445640307e+00 1.668284707327727290e+01
-1.271687453151371106e+00 -1.931219670211283379e+00 1.563736895948841976e+01
-6.342047241329010099e+00 3.623932208237658159e+00 1.741364933786616831e+01
-5.603731812218599728e+00 -4.005223995304781071e-02 1.869076847875659553e+01
2.233052297232824279e-01 -2.741707194964445815e+00 1.685856600990364029e+01
-8.427630852584588439e+00 -1.010793123389349901e+00 1.747836918769306891e+01
-4.381126830013492679e+00 -2.082886529192254255e+00 1.884911799710861402e+01
-7.338821074739467321e+00 1.615566548901976152e+00 1.539110993465508415e+01
-8.415549969605308434e+00 -1.202077085114341859e+00 1.751040414339453832e+01
-7.894615924116492600e+00 -3.272788148536898145e+00 1.791675329446236731e+01
-8.580953425389605371e+00 -3.877812473301459617e-01 1.631614206872420425e+01
-4.959400107584695405e+00 1.694515966967868437e+00 1.856291093463561737e+01
-8.593306605592587744e+00 -5.851493744261435648e-01 1.633463465062098408e+01
-7.215566823285803899e+00 -1.249539346937911688e+00 1.858486152895788734e+01
-6.390186242463296473e+00 -3.887044487447515184e-01 1.368631230891941897e+01
-6.547117582330108654e+00 4.354532011693833526e-01 1.320407261359118678e+01
-3.746169628371109894e+00 2.537135737553536163e+00 1.498329480951855430e+01
-6.234863310498758082e+00 -2.013112329614293206e+00 1.608183223937578532e+01
-8.555248004920947835e+00 -1.337771802376070407e-01 1.628703638273594123e+01
-3.344458632719751634e+00 3.090746923504163135e+00 1.821942191192932370e+01
-4.738848577600911938e+00 9.990888926979114570e-01 1.196826033293346825e+01
2.008944990121418472e-01 6.323608032847338745e-01 1.737873386654457875e+01
-7.619552902881546963e+00 -2.341097254716109355e-01 1.835066600604626785e+01
-2.501889094617948395e-01 -3.136621684852872516e+00 1.625569333861384536e+01
1.600455081115680356e-01 4.563650757332500252e-01 1.755770748921492697e+01
-4.390218454199450449e+00 -6.540211623427412135e-01 1.489821974092564716e+01
-4.002465123071197617e+00 -6.656355762756557271e-01 1.491323059789700523e+01
-8.405551783014788558e-01 -3.134375283137811774e+00 1.860220475339324508e+01
-6.230979301932435099e+00 -1.650738240688934599e+00 1.869277561766669749e+01
-4.146561976621013557e+00 2.334013749546693717e+00 1.443634426815705041e+01
-6.977899319201907424e+00 2.264017266191605593e+00 1.576430403281757009e+01
-2.991136713680285109e+00 9.837290213551294071e-01 1.194220064120592184e+01
-5.322867283728534460e+00 3.322596134048293681e+00 1.817912842104225746e+01
-6.730349947611160566e-01 2.491121609569406092e-01 1.419044210954152163e+01
-4.199262884742108959e+00 -7.453487598907474476e-01 1.512614728301903710e+01
-5.441135947090490532e+00 -4.150171226918392797e+00 1.731891642787520880e+01
-3.436487629204874938e+00 3.018062826797860976e-01 1.865882089475542926e+01
-5.096180082336268846e+00 -4.377781074184476040e+00 1.749489095681229145e+01
-8.166053454512944398e+00 -1.868603186984822973e+00 1.513343786688987080e+01
-5.130384079896018079e+00 1.213826638470922870e+00 1.260064260194752706e+01
-1.264862248368838760e+00 -3.327645034628742948e+00 1.663079071467929282e+01
-7.626996890326904754e+00 -2.004125681626835132e+00 1.852215258809344789e+01
-8.030799193405158576e+00 -1.933111100006868810e+00 1.506582264984106700e+01
-7.035904096519190354e+00 -1.423394590381939384e+00 1.861642618487852019e+01
-6.593265681761182329e+00 -5.081986218538686595e-02 1.855606340564207812e+01
-1.384800009995318382e+00 5.706169338622923970e-01 1.846012176828675422e+01
-7.879072653788894876e+00 -3.635205101705439645e+00 1.685663409439099780e+01
-2.903302206540932406e+00 -2.805761639089613624e+00 1.673059433196301171e+01
-4.228188984091527658e+00 -4.529252659205825537e+00 1.760000504289940437e+01
-6.317634671803642021e+00 1.139958774960141419e+00 1.847978553902544974e+01
-7.077044016579739250e+00 1.238042987110104520e-01 1.347322493552063349e+01
-2.536688028568372832e+00 2.492089477738734793e+00 1.826307062467548548e+01
-5.413957313148249462e+00 -1.489721412272338785e+00 1.877828625971925902e+01
-3.342441938966676407e+00 9.056106248342038478e-01 1.157333563044831948e+01
-3.584072965971953906e+00 3.141458334447432277e-01 1.240579162129076707e+01
-4.287904048462667372e-01 4.586147606913449915e-01 1.482769891028867448e+01
-6.045446415679378571e-01 -9.625339961099464992e-01 1.851952828891129599e+01
-2.513578481597954495e-01 -6.642018262575008491e-02 1.439209517862225596e+01
-1.822872308030895283e+00 6.674378517767340369e-02 1.853379171396825598e+01
4.704686554502141016e-02 -3.471811470907407049e+00 1.719145943408253174e+01
-2.168560791826654732e+00 1.953661730110480388e+00 1.477435402753454241e+01
-8.331824096480019648e+00 -9.454313567055789846e-01 1.539844004567306257e+01
-5.399673278384972797e+00 -1.050271822909138564e+00 1.546777358050382389e+01
-3.235628785351549741e-01 -3.890123873951135902e+00 1.714533443299096405e+01
-6.532343273216520974e-01 -1.957061784217094313e+00 1.861499315960689671e+01
-4.547928186601904343e+00 1.718572558393536287e+00 1.856138017994453548e+01
-8.284789206363594172e-01 -1.891966390944125553e+00 1.524392190894733545e+01
-1.261014858471199762e+00 -4.080975336048469515e+00 1.728755764863485922e+01
-3.849102293132320440e+00 -1.909448175633896572e+00 1.883819878554707827e+01
-7.160022238483291446e+00 1.628402304242823284e+00 1.518480889548035861e+01
-6.353089744413114026e+00 2.555128875395363153e+00 1.817130234703772373e+01
-5.298842344600085852e+00 -4.537910518622154221e+00 1.830192831334843362e+01
-5.235629298804710174e+00 1.520741640755825852e+00 1.310005940742963304e+01
-6.368105813553513350e+00 2.855244303549722140e+00 1.807333865616639912e+01
-7.975040804584630827e+00 -2.746893757996669461e+00 1.806772139023215829e+01
-2.372959528432768028e+00 9.855839642513360976e-01 1.276016570464309297e+01
-6.170806665931947599e+00 3.576950659128270704e-01 1.858369686192054360e+01
-6.686094005664672935e+00 -4.364493901242024521e+00 1.805027739039685031e+01
-6.999828497197919219e+00 -9.354848062454363955e-01 1.413874091518275833e+01
-3.845183157489040049e+00 -2.054279200052151921e+00 1.636244513202312589e+01
-3.630330048711218893e+00 -1.538260170092289325e+00 1.881984322454215430e+01
-2.587762023088864716e+00 1.585773007471511509e-01 1.292377015864483525e+01
-2.979914343108441166e+00 2.674631355380942543e-01 1.259182280842883728e+01
-7.508290847000215429e+00 1.608519099671040564e+00 1.559696040506143788e+01
-4.248440930375151581e+00 -2.128418650724573702e+00 1.640938547741884435e+01
-3.694918091807795513e+00 -1.301407494018941513e+00 1.881972323003162728e+01
-3.615378637693996033e+00 -7.753871260923107522e-01 1.514063398280636363e+01
1.015040900022295967e-01 -3.128329083271845779e+00 1.646207898002260350e+01
-6.442037712228231072e+00 -4.375500722043179636e+00 1.818228575352594589e+01
-7.027356572022173786e+00 -1.422721570694623683e+00 1.462883756506599298e+01
-7.226709053994228249e+00 -1.346826737185789380e+00 1.447637814291121572e+01
-7.451754275488737811e+00 5.098288000653476981e-01 1.431410385329640178e+01
-8.232464370351536331e+00 1.010318446255858316e+00 1.716009759943673885e+01
-6.699563148002250834e+00 -3.813358757842729929e+00 1.842870689317150834e+01
-3.825057429140881204e+00 -1.664357519239917149e+00 1.613884545103315560e+01
-7.735616951165030564e+00 2.001523156676015436e+00 1.737772067756957739e+01
-6.132521397276691211e+00 3.259829061784039972e+00 1.667161774454408629e+01
-3.623964096305929417e+00 8.982839222650925715e-01 1.156156493172058930e+01
-5.014527132464123405e+00 1.711110226626595399e+00 1.314468687636319544e+01
-2.603949530808360890e+00 -1.222013910233196582e-01 1.857020501241653676e+01
-7.833573576677170802e-01 -1.024799557510699621e+00 1.456833051104367627e+01
-5.761683182760826583e+00 1.361923201048490739e+00 1.854205227417533308e+01
-6.266453809814480636e-01 -1.243878806074723897e+00 1.474738685487403700e+01
-7.446073612673193232e+00 -3.626328137426160669e+00 1.682144731939185789e+01
-1.028818625869904579e+00 -1.236450831276471263e+00 1.478548890632233537e+01
-7.801940457203946799e+00 -2.294832637374579765e+00 1.515473546017760498e+01
-7.009427540125932943e+00 1.373618468275739968e+00 1.825089040783063865e+01
-6.823837808010520867e+00 -4.203596718341668925e+00 1.817434981201741095e+01
-4.407767406570056501e+00 -2.690117446984467420e-01 1.877614523095236621e+01
-7.964751171790092066e+00 -2.348486903275962545e-01 1.809431332015152805e+01
-1.834872065611858449e+00 -2.319278943755330058e+00 1.867579803840360597e+01
-2.824580053653642953e+00 -2.422839222867715581e+00 1.655402388362510635e+01
-7.923364077913919168e+00 -6.303749146200420261e-01 1.822727949393880209e+01
-7.607679862217131550e+00 -7.165734987933702893e-01 1.413844959154825176e+01
-7.961016244955337662e+00 -1.004003657467964938e+00 1.824509070032743097e+01
-1.868483596238970090e+00 -2.124558717460883983e+00 1.867974052762200188e+01
-8.471377472867708036e+00 -5.763409329508952794e-01 1.732792528260850418e+01
-4.753184899690478638e+00 2.937807746425601163e+00 1.580158053328906220e+01
-1.655617148310151165e-01 -2.863017764778966190e-01 1.451559152261512509e+01
7.042915161990520589e-02 -2.655658224995196548e-01 1.490863988694790976e+01
-6.774118351250305814e+00 1.786367049987048095e+00 1.823572723740144852e+01
-4.547142515647429661e+00 2.422055246690735686e+00 1.458539582469609286e+01
-4.986133361476764669e+00 -7.042979196863412561e-01 1.881042048696379965e+01
-3.050539407935621838e+00 -3.922182560639236204e+00 1.857811822384434919e+01
-2.786496439043225415e+00 -8.315256478327757994e-02 1.329088841626255402e+01
-7.771889830775134733e+00 3.754510463373031404e-01 1.809481455823695484e+01
-2.476068909118269712e+00 1.293855454338920019e+00 1.309405977394808929e+01
-2.429548392376293275e+00 9.427688305573568295e-01 1.261938055414634619e+01
-8.072586682901238930e+00 7.767204320373843895e-01 1.761678986946460412e+01
-6.130865648901504095e+00 3.805075367754724880e+00 1.761717136915679305e+01
-6.275220168692881906e+00 -3.801177776322372637e+00 1.709154098448669146e+01
-3.823627678054574375e+00 -3.291125232370898157e+00 1.687068074569789644e+01
-1.877829662343875050e+00 -4.331089199210513385e+00 1.761504950719238138e+01
-5.061986226701942648e+00 -1.729539045194579128e+00 1.618311511071393483e+01
-3.609971886017742548e+00 -3.100837379835908791e+00 1.682103681124765870e+01
-3.851265909671626630e+00 -3.051229336326668928e+00 1.679571828551907942e+01
-5.447048459976002732e-01 7.667829261091383408e-01 1.513478949670260931e+01
-7.838460732549195065e+00 -2.037513284428055516e-01 1.820556235944228973e+01
1.257031984984452455e-01 3.638404022636737012e-01 1.767283059050394911e+01
-2.449727063334348198e+00 -3.299937424600832614e+00 1.864124356101099522e+01
-8.117028572998428615e+00 -7.505832076521828933e-01 1.480736958132929004e+01
-6.489297624316831659e+00 3.109872074429047561e+00 1.791247098136616955e+01
-7.184408447797430597e+00 -1.065717381372276729e-01 1.356979446472323048e+01
-5.193954266180882406e+00 1.120217472178076434e+00 1.862670059038251935e+01
-3.605507146575213540e+00 -5.246027325108194583e-01 1.439545467780975230e+01
-4.780429749116330562e+00 8.826309237545356678e-01 1.866754406482574069e+01
-7.321042327769647251e+00 -1.462319303991128194e+00 1.455432222423051769e+01
-8.054194796168598458e+00 -3.591535410597818778e+00 1.706374633593888035e+01
-1.383888361813764512e+00 2.255131875965743937e+00 1.815201170061748570e+01
-2.123595234723526737e+00 3.293511364734572400e+00 1.797927177924744768e+01
-7.443824061377298129e+00 1.226295043314545308e-01 1.386463924795246072e+01
-5.636462934512462830e+00 -2.096453859671078668e+00 1.875239051719512418e+01
-1.819658623572754763e+00 3.201746643224439914e+00 1.796264695801822597e+01
-7.722354435354742641e+00 5.768182383860634421e-03 1.401574583488703496e+01
-2.238330158644547652e+00 -2.506765272918744181e+00 1.650718275259300327e+01
-2.349791344730009612e+00 1.220554373667666503e+00 1.315388556874897574e+01
-4.976715176759638481e-02 -2.952874503283408281e+00 1.787127419596871647e+01
-2.631789127460458566e+00 -2.562677582462316916e+00 1.660885483938566409e+01
-8.043392802204420988e-01 2.231404717403297600e+00 1.724578068535270603e+01
-2.417562756827667414e+00 -2.497909163458885029e+00 1.654141213963195156e+01
-6.887823684676432023e+00 -2.120006840938359005e+00 1.535602985535236797e+01
-4.028802012765568819e+00 -1.635764802144356267e+00 1.612626045653070861e+01
-1.478331928137601281e+00 -4.383850989781257645e+00 1.780926576483463464e+01
-2.979104346701116235e+00 -4.528909280204223564e-01 1.417184704833097442e+01
3.305444411532191262e-01 -1.358789527700490662e+00 1.692870117861716750e+01
-8.370411319198755251e+00 6.667078622104085639e-01 1.594079996963936452e+01
-6.246557395723062456e+00 2.919216470541777575e+00 1.589300110734352955e+01
-8.420005880320470482e+00 6.750920339242175716e-01 1.611971514639886749e+01
-8.318374845489380220e+00 6.242590383990318514e-01 1.576002931071840152e+01
-4.383531145585595645e+00 1.055253945434219798e+00 1.175825618592396182e+01
-1.262995946317369000e+00 -4.338281473796380183e+00 1.827415863950356822e+01
-2.013669679333200069e+00 -1.746439708986831985e+00 1.868471515671070193e+01
-3.894276560504181361e+00 -4.099284129359752171e+00 1.856396592896861364e+01
-1.017848090284472651e+00 -1.760795064091732698e+00 1.863867177587913204e+01
-2.431498524927332650e+00 3.203617053629352895e-01 1.272828096827047517e+01
-7.259305459090837687e+00 2.922294469124956606e+00 1.705740538790014682e+01
-1.363647401636696621e+00 1.416290578970095915e+00 1.833428663282931126e+01
-5.575450388903567145e+00 9.694809747546281331e-01 1.265022377487946414e+01
-1.359865306467992196e+00 1.649764314404500887e+00 1.828637177698776384e+01
-7.322921681914293046e+00 9.560568528434233437e-01 1.464509816334215486e+01
-8.293897044783829386e+00 1.135666823732500053e+00 1.668081406274074396e+01
-1.555970704691192363e+00 1.466397270292825628e+00 1.835501252481584089e+01
-1.199774234129165507e+00 1.442661327059415299e+00 1.829222108417192061e+01
-2.198361510049162693e-01 -4.863901141730780919e-01 1.450845460474108251e+01
-4.626392045404466025e+00 -8.856493211230804796e-01 1.884251821398721916e+01
-1.914316238802886705e+00 1.621948879382277831e+00 1.455044862739295297e+01
-6.544622995872554583e+00 1.842224699552265754e+00 1.477956622579309709e+01
-6.238531004397053437e+00 -2.221270919069795013e+00 1.623017731891243898e+01
-2.837520191263756875e+00 -3.527004769907895909e+00 1.699764433933067664e+01
-4.409484337968973655e+00 -8.534444903621932754e-01 1.883809491292193172e+01
-1.784251465180262120e+00 2.504821211892284794e+00 1.637295449313187135e+01
-2.703288216402288668e+00 -4.432219751584427492e+00 1.768407932848977282e+01
-3.670948668381717184e+00 -4.475649044789642872e+00 1.839247877873888370e+01
-5.046486113457676836e+00 -7.244299606168923544e-01 1.496995886621864003e+01
-2.455011038851470762e+00 -4.516794741441759520e+00 1.806654123583709293e+01
-3.685835719592998050e-01 -3.760236553517825708e+00 1.809439051467912662e+01
-6.267463074367150000e+00 1.975783274112566712e+00 1.467477879249974393e+01
2.961114332812005978e-01 -2.343426257517601918e+00 1.687374991821953785e+01
-8.602656812597547997e+00 -9.702664653539322392e-01 1.652964834598562760e+01
-8.208896517691556483e+00 3.960871911650016841e-01 1.757555132911144113e+01
-1.406284080497242295e+00 2.997012561625767013e+00 1.785376800738491454e+01
-7.831508967209022565e+00 1.685507285870947225e+00 1.613537409896670738e+01
-4.747147341683421118e+00 3.771543064062523598e+00 1.810450036232784043e+01
-1.766084480700800707e+00 3.204601930448587765e+00 1.784711626098951598e+01
-1.149381301712470105e+00 -3.061104240523656594e-01 1.387196303634116390e+01
-3.178702979172436827e+00 1.446790001248975610e+00 1.257302357892498890e+01
-6.817894628606871343e+00 -2.875923452852549023e-01 1.358379249294721802e+01
-8.035054324458339892e+00 -9.145433771657068833e-01 1.469782336235515885e+01
-5.910529275857900888e-01 -3.015006489525567712e+00 1.854293641926670233e+01
-4.414821858918648312e-01 -3.587688219886718155e+00 1.826490286665236340e+01
-2.218210052958415446e+00 -4.415224411729886889e+00 1.832958950858130720e+01
-9.228671660456804204e-01 -3.423378357948593909e+00 1.655103797614212624e+01
-2.233473965861844324e+00 -2.739587517118445614e+00 1.866909938881770614e+01
-1.995262229355657890e+00 -8.322106921213651143e-02 1.352758698544970173e+01
-3.006063090456625009e+00 -1.371403960837603853e-01 1.333341310370581567e+01
-6.944980648323837435e+00 2.007619061560574458e+00 1.539853746010297897e+01
-4.545805905757061005e-01 -2.791782402471834512e+00 1.850537897155558653e+01
-4.424001234994995313e-01 -2.565921393297534880e+00 1.853533927467618270e+01
-3.591507840226441317e+00 -1.097485590961349455e+00 1.879110006106949271e+01
-6.045680635799234537e+00 -2.682972879392142018e-01 1.356124125608364750e+01
-6.056993883534603995e+00 -1.854790411717584409e+00 1.871185965378028015e+01
-5.945408545026353409e+00 3.264094845585725935e+00 1.661848798241593528e+01
-1.346545445040450817e+00 6.651707910386415179e-01 1.844486356834134710e+01
-3.408650139363105236e+00 -9.011056693576725563e-01 1.874582761305327239e+01
3.055812713158462812e-01 -1.321844574889302404e+00 1.569298777926066180e+01
-4.185431859492291906e+00 -6.745815967241693967e-01 1.880839434657006137e+01
3.334619496653526971e-01 -1.544496021929875784e+00 1.634454771564564624e+01
-4.424757776777910045e+00 -1.080130804323632843e+00 1.885578257442655570e+01
-7.841910191108989459e+00 -2.511348096571931254e+00 1.532824330577688698e+01
-8.130364865231676674e+00 -2.480278751061940401e+00 1.793027201478267330e+01
-9.993460928383199882e-01 -1.118563957495595229e+00 1.467187452755908339e+01
-4.621748137013661939e+00 -1.704771386872021122e+00 1.885608581811494133e+01
-5.607920123081552966e+00 -1.291238637621201502e+00 1.568756921721990949e+01
-5.186497799853544421e+00 9.551230971856786711e-01 1.228540729084865291e+01
-2.429603913247549984e-01 8.272475037180332391e-02 1.456052296018648917e+01
-5.992928411001401834e+00 -4.839573319541071172e-01 1.866453818480490412e+01
-1.615480975593518220e+00 -1.014336423475847848e+00 1.478018015593980294e+01
-4.148093090027491492e+00 1.587156407105889677e+00 1.254382390238758660e+01
-4.206078163346712806e+00 -3.232198301665302420e+00 1.685298244212638963e+01
-1.831691558767621686e+00 -1.858499657047049780e+00 1.592319732082508210e+01
1.033166359368054010e-02 -1.767622195079991965e+00 1.811048992888649423e+01
-8.106048711369538751e+00 1.038797720536694946e+00 1.582278873708101941e+01
-1.604836233706797843e-01 -1.150344105913744031e+00 1.484205054008727842e+01
-2.857490069091095375e-02 8.263773720306623050e-01 1.771332765678597099e+01
-1.404520038693385375e+00 -3.966897190925521011e-02 1.355381859788056431e+01
-4.940274043512052238e+00 3.029485297034585578e+00 1.599662354702443423e+01
-7.190374972494237404e+00 2.615864925910842964e-01 1.373319566356533272e+01
-5.604205483984184610e+00 5.179871639842313913e-01 1.233146260630145008e+01
-1.197702131730991493e+00 -5.608734227432994324e-01 1.855017920631373585e+01
-5.945338918012406104e+00 3.338043935925161243e+00 1.679540557607707996e+01
-4.489694050734502007e+00 -4.292100557408886630e+00 1.852020660235733374e+01
-8.396481861297353078e+00 6.001765511893838445e-01 1.693258138898917053e+01
-1.820215552770615641e+00 9.571867338122562741e-01 1.354694990956551237e+01
-4.212343770254613595e+00 -1.814886547345472945e+00 1.624350704231261489e+01
-6.003932980820860799e+00 -1.129515041020614508e-01 1.864066081402498298e+01
-5.680005054418821864e+00 -4.225400244084024592e+00 1.847937293992422525e+01
-2.234531913906827594e+00 -9.357086996773070764e-01 1.507036281242361042e+01
-8.182615497158195694e+00 -2.404041366257110734e+00 1.786224787402757386e+01
-4.578845812978533658e+00 1.068283787837683019e-01 1.279889350886143973e+01
-1.105606085814281325e+00 1.470257439164968094e+00 1.825811731745827160e+01
-4.221923270455818944e+00 -1.569661446700872931e-01 1.333832948414639219e+01
-4.310947170428871544e+00 -2.579326258011910289e-01 1.363463304804637488e+01
3.277264276130568144e-01 -3.941855032300227157e-01 1.670167624999191958e+01
-2.381690228904933537e+00 1.890479750878992338e+00 1.835332978175561180e+01
-6.638457410267983860e+00 -2.054683751555300919e+00 1.866950682140013384e+01
-2.142811459958653852e+00 2.087482053268284954e+00 1.830249948890233469e+01
-8.313213843167169159e+00 2.005972374135252534e-01 1.747609469891652623e+01
-3.646864710511054319e+00 -2.129017233548256005e+00 1.640345826611903846e+01
-6.804465290047382986e+00 -1.831223952287807322e+00 1.865591931703057327e+01
-1.879920681931181115e+00 -4.326279376444094993e+00 1.838308346542654448e+01
-8.263705503767059923e+00 -3.474407648558901496e-01 1.515315943354159600e+01
-6.427452448346761216e+00 -4.700842251167626773e-01 1.378091971803501536e+01
-2.962454654670608090e+00 2.099301737435902648e+00 1.837757902504384333e+01
-6.027656454006393716e+00 2.318856809826705945e+00 1.488943183078725951e+01
1.997867659322909994e-01 -7.553609662001660174e-01 1.771470448444569001e+01
-2.470186273346199890e+00 -4.490742316930848688e+00 1.823545939440524677e+01
-2.923079586254500484e+00 3.502063560430885847e+00 1.803280596409035041e+01
-7.254261486319881769e+00 -2.528832237075404610e+00 1.550921040769612347e+01
-7.029819176434748407e+00 -1.859083718631668436e+00 1.863908615526558066e+01
-4.266127430665159537e+00 -3.499302480970129636e+00 1.870661002591944566e+01
-5.601217134676125475e+00 -6.162730333751677975e-02 1.318229749619661817e+01
-1.452028733850189601e+00 -1.497485429828134151e+00 1.532738576461807156e+01
-8.198832422402603015e+00 8.273937057992566402e-01 1.736453036213247003e+01
-3.806958088344101210e-01 -5.713862636549247309e-01 1.839108652566820723e+01
-7.673187758396633917e+00 -1.798697323777503243e+00 1.850709493376790249e+01
-2.220471604761555806e+00 -8.733857143202450324e-01 1.494701613400631857e+01
-6.016331724951331950e+00 -1.456712183120596027e+00 1.870518531804997053e+01
-2.541996993350570833e+00 2.571592041052058519e+00 1.559964855373222292e+01
-5.232230845577197087e+00 -1.628332126636349741e+00 1.608834831505306795e+01
-5.236550168477007716e+00 -1.991554180760877646e+00 1.632438002170421498e+01
-5.414620680578958734e+00 -1.431640034865699462e+00 1.588655256983297193e+01
-2.600047645705448884e-01 -2.190083000887919518e+00 1.843609740058017366e+01
-5.629913784808357136e+00 -1.153847957477055708e+00 1.552216667505460634e+01
-8.428375100374946527e+00 4.116428584973532701e-01 1.697379150424694672e+01
-2.067730155857204544e+00 -4.344031368322728071e+00 1.761309272740720644e+01
-3.808161227415964412e+00 8.168081545292804613e-03 1.296376728089104802e+01
-3.394745217783586622e+00 -2.957814867597410302e+00 1.677699491046897151e+01
-4.443309509127447932e+00 -2.494243410870776501e+00 1.882358506753377014e+01
-8.158915343248047236e+00 -1.865652902680707381e+00 1.803046945084716413e+01
-4.210511861877730411e+00 -2.234507695773459091e+00 1.645800776637263851e+01
-4.468585126975622046e+00 -2.270173143119297965e+00 1.648350087999772029e+01
-3.786258018795968461e+00 7.010015166579404156e-01 1.181818620874039993e+01
-3.958500277312159810e+00 8.869331536270687044e-01 1.164013785513434129e+01
-4.537644882939696700e+00 3.350296215853787896e+00 1.821452047699212073e+01
-2.393971764578676442e+00 6.429685267785362202e-02 1.854695192889325028e+01
-8.341906655535300530e+00 8.067131479008569084e-01 1.695378238006031069e+01
-4.959533999478855648e+00 3.136344429600681050e+00 1.621429478507857169e+01
-5.433161575331248550e+00 -2.053965369829631182e+00 1.877319570220180367e+01
2.829668405666218023e-01 -2.537383559381575004e+00 1.669576178480738093e+01
-2.772599448351043439e+00 1.872877738526620650e+00 1.838816195612231041e+01
-7.358223726958875943e+00 1.027196634051427804e+00 1.476842077217688853e+01
-7.462187029350650036e+00 -3.016577352739215456e+00 1.846362169837674116e+01
-6.410944802216527627e+00 3.635480548429301351e+00 1.771309742678086963e+01
-6.981261629571145377e+00 -1.293284983604037652e+00 1.861192637824508722e+01
-5.664619109159543697e+00 -1.667285962681315237e+00 1.601206806982943931e+01
-5.311137673400025072e+00 2.981662133652470903e+00 1.828795471748118473e+01
-8.280057707980426063e-01 -1.338356535504589218e+00 1.482864725735549882e+01
-4.516128779738157739e-01 8.369469967125827692e-01 1.538563367883526212e+01
-2.073286959768589455e+00 -2.733801147491973449e+00 1.866594405863838091e+01
-7.472333579384279112e+00 -2.458539447539236367e+00 1.854704495576455514e+01
-1.590572656142797303e+00 -1.808637976906513511e+00 1.576506474398156854e+01
-3.385849373591361733e+00 1.250661291183960522e+00 1.215432189352007697e+01
2.650496101103481661e-01 -1.607002239133885180e+00 1.580508239545235227e+01
-7.641823994840369672e+00 -3.620067258375053054e+00 1.804437358751437870e+01
-6.617393173965582243e+00 -1.808373157856913327e+00 1.548935840110208062e+01
-6.593770096878749598e+00 -8.825390925969288647e-01 1.861752223006888585e+01
-3.906110400063583121e+00 3.939579169146056881e+00 1.796997715778932303e+01
-4.254307867282393296e+00 -3.054545761202211551e+00 1.679808703753977994e+01
-7.826064258391322248e+00 1.024201096268187783e+00 1.779671134349825934e+01
-6.168824387487327421e+00 6.675411549690121182e-01 1.295298866849175567e+01
-2.393144599287664320e+00 -4.038993458768089795e-01 1.413886515414014866e+01
-3.715880333140014535e+00 3.300362747109963912e+00 1.662627563501993677e+01
-6.875452591497706045e+00 -3.398439046606380298e+00 1.668377484988410231e+01
-1.479752492345347115e+00 -4.080222640737447115e+00 1.727818244141388959e+01
-2.254754302935629617e+00 -3.694720944846677124e+00 1.706440196700181389e+01
-6.820290107033059712e+00 -1.753512008192208871e+00 1.509703522653176577e+01
-1.406664383095792115e+00 3.817343067707265059e-01 1.334777211647667627e+01
-6.822819897163019398e+00 -1.965505487076790292e+00 1.528744918561287136e+01
-7.969539021999261230e+00 -2.121625904676989194e+00 1.513369005702256231e+01
-2.465109091458952850e+00 -4.086465210800248826e+00 1.850666060602652863e+01
-2.038914637199784607e+00 -1.924394952811228965e+00 1.868576543311139204e+01
-3.821943658480203787e+00 -1.907191337254458219e+00 1.628301628917201072e+01
-8.069230865294791499e+00 -2.440702100318554724e+00 1.539439352045096854e+01
-2.799103850575413333e+00 -5.352242680960156429e-03 1.312745787848642465e+01
2.889525451733435668e-01 -1.937410263548622336e+00 1.607999496418754148e+01
-4.909325690084321181e+00 3.647847924730882596e+00 1.812731255926841811e+01
-2.575254914430324948e+00 -5.317546140338333394e-02 1.331412255528204724e+01
-3.632589328142585394e+00 -2.869255805047787877e+00 1.673128523545242530e+01
-3.378550024560770026e+00 3.623041249363248562e-01 1.234609156824358678e+01
-7.200164143757825208e+00 3.003807510872133157e+00 1.741894521055991873e+01
-6.520556919599567181e+00 2.502544435598287098e+00 1.812574244172371607e+01
-4.717384678165820411e+00 2.703572646509224242e+00 1.526598435529454889e+01
-3.091218119774318263e-01 -3.164279894279599770e+00 1.825785868611873042e+01
-3.382556016930319487e+00 -1.211206037580183192e+00 1.574833870574754968e+01
-6.404898218206014349e+00 -2.327113707539523457e-01 1.859427367877163562e+01
-8.323959066660755468e+00 -1.391284543171001697e+00 1.538131478149241360e+01
-8.356243285622749539e+00 -2.890178903836912561e+00 1.645866293427980764e+01
-3.610477516894075478e+00 -1.411668544793377666e+00 1.594090966398708531e+01
-6.441126146637903283e-01 -3.544553931038124439e+00 1.844038503790213213e+01
-6.762391964245744180e-01 -3.346447521695988581e+00 1.850868964291984753e+01
-2.941661181161475680e-01 -8.473987807526249805e-01 1.457975653564134433e+01
-1.656989493338397512e+00 -4.313205826104790752e+00 1.836905729620516325e+01
-6.249413152212982325e+00 -1.580466147678720734e+00 1.570563516008581928e+01
-5.733758746008667195e+00 6.249639736730809858e-01 1.241474377581711508e+01
-2.745244554737674703e-01 -2.946348806982316049e+00 1.828266929489836201e+01
-8.579655314353793472e+00 -3.548862151767493978e-01 1.652688366447639368e+01
-4.639705202507973247e-01 -3.167552395227740014e+00 1.842618175736757991e+01
-3.146262626320817990e+00 -5.655378388786608257e-02 1.311619207519465391e+01
-4.308925942933622411e-01 -2.937830998740206034e+00 1.845791615012701925e+01
-8.607816981756071240e-01 -3.581649421115296494e+00 1.851609957878586954e+01
-4.288825733510910787e+00 -4.580760045127829194e+00 1.772169756191748036e+01
-5.876113017435375063e+00 1.666262099521041318e+00 1.848277173124208872e+01
-5.760517852858147769e+00 1.698782288170220145e+00 1.849575167497019379e+01
-2.202100764107590258e+00 2.843504440950313406e+00 1.643497819323372511e+01
-3.233149350775369690e+00 -1.505574768714284861e+00 1.876158689267339952e+01
-7.972246167589500665e+00 1.207001772239323589e+00 1.579572662309209363e+01
-6.676379941153354203e+00 -3.470867090154209578e+00 1.852729178101347429e+01
-4.813537027643260302e+00 -8.396089995206169609e-01 1.529661043392266606e+01
-3.182839452185641793e+00 -1.601637351416697608e-01 1.333048848841832523e+01
-8.212832484520202314e+00 1.402509389073563373e+00 1.657116169160715202e+01
-1.272724806261795738e-01 -5.444542957852062104e-01 1.820092841955710128e+01
-2.439198350677029836e-01 -6.713793711737638947e-01 1.454794414680869608e+01
3.011179909042639435e-01 1.389506213789444278e-01 1.678201847865135932e+01
-1.418583634908257007e-01 -6.967561235207191395e-01 1.466994560162086714e+01
-5.441172998111738490e-01 1.129587394611253348e+00 1.574403376544844946e+01
-4.059672264502026451e+00 -1.303714619042280809e+00 1.586398662595769338e+01
-5.793913524788139036e+00 -1.457157562630154946e+00 1.872911239900928138e+01
-7.985890727173587500e+00 -1.680304766187960208e+00 1.496445956316709669e+01
-6.539324393257341050e+00 6.452873870954649593e-01 1.337305666095716816e+01
-3.207022909905975272e+00 -1.233222666410101753e-01 1.864881113971302540e+01
-3.519030445415007868e+00 3.761596271573557804e+00 1.760325934864041386e+01
-2.758400196367474244e+00 -5.328347584097442580e-01 1.861878240070869595e+01
-5.226061357422381093e+00 6.682433381591608157e-01 1.208003493347140278e+01
-6.038364058487095676e+00 -2.790054450379785500e+00 1.663260143324198737e+01
-7.640435556002505457e+00 2.819028452539153462e-01 1.428658794791310527e+01
-8.287475738942237768e+00 1.023178357415580830e+00 1.693866424458178699e+01
-6.042502336217872028e+00 -2.630049126746063060e+00 1.654461195526734940e+01
-4.151704502365651805e+00 2.569035323219372113e+00 1.500205271715473287e+01
-6.629723377826072905e+00 -2.594434222309817795e+00 1.628584693508064873e+01
-7.898183243197725023e-01 -1.816783353185446703e+00 1.517140381283008566e+01
-1.983627681223929073e+00 2.530997810625024158e-02 1.335898338979456668e+01
-4.832973311969285035e+00 -9.762743548674270855e-01 1.549844141093899452e+01
2.497010585094463497e-01 2.826968557549245920e-01 1.633286332157229737e+01
-5.000578669482491634e+00 -8.695785291785410598e-01 1.530789133026268445e+01
4.126521860108911532e-02 -7.489490047912226167e-01 1.491567164387633682e+01
-5.189940365654283738e+00 -1.038489067900269180e+00 1.551604734081977455e+01
-1.864095329988443961e+00 -3.320124050104406699e+00 1.685128691971053883e+01
-7.718402677134457157e+00 1.383827339754970520e+00 1.562704861291959446e+01
-1.997511449695343000e+00 -1.344295656324999977e-01 1.855759335047770264e+01
2.512668828807846921e-01 4.613012095482249553e-01 1.715933416307977666e+01
-8.247726907096119220e+00 1.237489195945617126e+00 1.677449225468028970e+01
-6.622280462822488722e+00 -1.478987002377346371e+00 1.865588585750090544e+01
-5.000204223817263482e+00 1.922064337165259040e+00 1.853243488799911631e+01
-3.650692580927803021e+00 -2.291102297526518505e+00 1.880307932753087385e+01
-7.104658349420629460e-01 1.373998230078912197e+00 1.591366065524314877e+01
-3.998317378703569069e+00 -3.425344532050884183e+00 1.690091404844628897e+01
-7.316935061216464753e+00 2.572868341523812497e+00 1.759973835431164702e+01
-3.746630539661579995e+00 2.451679299255100197e+00 1.478101698238864969e+01
-5.074656363889907595e+00 -2.208195433163044452e+00 1.645830359765076878e+01
-7.505520239811365180e+00 -3.104994651960226282e+00 1.614540127838440497e+01
-5.718368476915249410e+00 2.177225455944264532e+00 1.441316124472485427e+01
-7.876221175543190789e+00 1.930927878828715638e+00 1.713423182739800410e+01
-2.628177743417915213e+00 2.623587211856308610e-01 1.273081724506126733e+01
-5.027530469497046184e+00 -1.851807131199582290e+00 1.626644857930604360e+01
-2.987154091730694905e-01 -3.592174054485259393e+00 1.806880000668224540e+01
-2.632785041641092505e+00 -2.830017006971153215e+00 1.672881778766100069e+01
-1.722066385292022161e+00 2.560607867101487134e+00 1.655939934859168261e+01
-4.123304583782563704e+00 3.954323761723109509e+00 1.797865969364109873e+01
-5.403555194480255786e+00 -4.171354346894034393e+00 1.853528662660552584e+01
-3.738666413654795129e+00 3.920838648075806621e+00 1.795606217542120930e+01
-2.865653124467713031e+00 -2.907772383385313297e+00 1.677255615608376615e+01
-5.667774856737849198e+00 -4.265728996604572387e+00 1.746025324746940299e+01
-1.406991637737247114e-01 8.865559081437858202e-01 1.595532456582198222e+01
-8.251703714972979498e+00 -3.182015392923148056e+00 1.704939429259748351e+01
-3.430535468061012505e+00 -2.417999340928382868e+00 1.654401103918046090e+01
-7.211649355376501980e+00 -1.776423559500438731e+00 1.483262081864364035e+01
-7.198751369296606306e+00 1.959750348511128060e+00 1.795789213418220243e+01
-4.709894058003942785e-01 -3.806411380819788803e+00 1.699433171467413217e+01
-4.925745362555923101e+00 3.347620162283191814e+00 1.661402411587454253e+01
-2.413202597811828998e+00 -1.834222021980194128e+00 1.612406085711302239e+01
-3.980100047357645998e+00 -1.300116053835036034e+00 1.884554861666040892e+01
-6.042205420607024813e+00 -2.432656597322367276e+00 1.870782523732476221e+01
-8.049294175157214681e+00 -7.231873045246659526e-01 1.465668774496458582e+01
-6.605991876641177818e+00 1.366682820984567837e+00 1.838083283822015801e+01
-3.485972464618863675e+00 -4.551896382194239088e+00 1.782652010038301427e+01
-6.445278547151554349e+00 -1.555402285737952806e+00 1.549655890228432042e+01
-3.879690345984285749e+00 -4.531722809042270761e+00 1.766686402797061106e+01
-6.940228514107937841e-01 -2.931933473569134918e+00 1.859657067826827870e+01
-6.549225322694376406e-01 -3.187053794279365082e+00 1.853747244250256898e+01
-7.949942478949208358e+00 -9.436130039101606748e-01 1.453709635265039424e+01
-4.272911279209422375e+00 2.300778463847489075e+00 1.432658385459395589e+01
-4.507319259451894045e-01 -2.116466910668086232e+00 1.533785548051601921e+01
-2.631243122243547283e+00 8.534510082963213673e-01 1.224319907731396739e+01
-7.724941654588393103e-01 -5.566022066907345689e-01 1.850683652609025387e+01
-1.284628902598176969e+00 -2.521023963402737600e+00 1.607550555345685694e+01
-8.154831800358056881e+00 -2.157701268053182186e+00 1.799689072874941331e+01
-3.149958461451194403e+00 1.886945197637464045e+00 1.843343578040402519e+01
-5.740117183536334267e+00 3.129155553438667248e+00 1.621203212034635754e+01
-4.782190057466920940e+00 3.869350536601704471e-01 1.232549536921488453e+01
-8.472399391284906045e+00 -5.565921944438168012e-01 1.570656653642836886e+01
-8.531920165202382833e+00 -7.464097878965217925e-01 1.592639741248774499e+01
2.135091176664629109e-01 4.882910714003426689e-01 1.634426474697323783e+01
-4.606423560282881802e+00 -6.704855868609101988e-01 1.492876459808407930e+01
-6.996344076840849802e+00 -1.925676204000838609e+00 1.508930049926818384e+01
-5.483439221115173901e+00 -4.266616273337435317e+00 1.848194732918496186e+01
-1.853397712213960880e+00 -3.714082787950001574e+00 1.704012061003126632e+01
-8.178272309690932662e-01 -1.677842063704219289e+00 1.508339120408841438e+01
-1.373999533921464344e+00 1.922701816459922997e-01 1.338194998505078814e+01
-5.968386845495206039e+00 1.373469721761936935e+00 1.850774002940598706e+01
-1.145808143782622412e+00 2.629839523419350122e+00 1.794621942462823938e+01
-2.495428365978288321e-01 8.092167836330526054e-01 1.563852707072542358e+01
-8.977389409779650276e-01 2.496307600673799421e+00 1.781599047495849675e+01
-7.084500024895468151e+00 -3.415019299290493748e+00 1.665094441403180525e+01
-3.336469595530827448e+00 3.511037393224105685e+00 1.807630630032569030e+01
-6.998410270143507361e+00 -5.044299736722712701e-01 1.377996651431033825e+01
-2.335606011406674565e+00 3.477252118087539756e+00 1.794833715579306244e+01
-8.411669058662532450e+00 2.385716510311595706e-01 1.716219990242864668e+01
-1.624819786346347605e+00 -5.681406486662170519e-01 1.418509015648473337e+01
-7.019574258726433591e+00 -7.201004046460043329e-01 1.394760328949340078e+01
-1.973245946742611334e+00 1.909374158914706410e+00 1.499216932998117358e+01
-1.750223527662564837e+00 1.939692317995097337e+00 1.537485302670541643e+01
-7.810006104859541942e+00 2.020587807094307742e+00 1.720576523531179447e+01
