-5.191648698297764319e+00 -3.186383854787205205e+00 1.521314875276554801e+01
-3.588378721493834966e+00 9.501621716458225064e-02 1.250272396026065991e+01
-4.655926173103020815e+00 1.061914031934348968e+00 1.163611114293463800e+01
-7.750683266325340881e+00 -1.628765371108225279e+00 1.497200906682597576e+01
-4.202195720540976787e+00 -8.916149040778673651e-01 1.415270096217601292e+01
-2.406019801390130386e+00 -2.112163677216001290e+00 1.736193912342339019e+01
-7.745162880752727297e+00 -1.049406708476448458e+00 1.501811916880640752e+01
-2.831893312146897657e+00 -3.788891717496274847e+00 1.531840910961640390e+01
-3.383006409500144862e+00 -1.771957739752667127e+00 1.459899512966391200e+01
-4.053762135114303611e+00 1.292140738084957663e+00 1.127020688270256343e+01
-2.030360209778564684e+00 9.530054087060391144e-02 1.738372143719040963e+01
-7.798183684246289715e+00 -2.047139165283391460e+00 1.579839512686301362e+01
-7.749195510918997165e+00 -2.456984651758513216e+00 1.536394653802573629e+01
-4.201046904937911108e+00 1.899525295519288948e+00 1.223228086038080420e+01
-6.385599709752494135e+00 -5.253907696990561815e-02 1.304468920192577031e+01
-3.918786060851339847e+00 3.646300827741237427e+00 1.658276823342575312e+01
-6.816153509614773398e+00 -2.355345942697570472e+00 1.438717358808426638e+01
-2.847559906905818838e+00 1.476595933136176875e+00 1.742124274808830364e+01
-4.802112973994334233e+00 -1.923224454554105733e+00 1.771977522722396259e+01
-7.759653044032356561e+00 -1.237912658617569717e+00 1.504381877700242143e+01
-7.782889146316521511e+00 -2.248572586543648555e+00 1.536459824369330818e+01
-6.199841164074009647e+00 -3.040410275346476343e+00 1.516587309844981490e+01
-2.769294844570382885e+00 -2.581313384918264120e+00 1.472456699697651317e+01
-2.838314340062038088e-01 3.572486111055480085e-01 1.598444800465338744e+01
-4.800417204489284551e+00 -2.957526994608294379e-01 1.349807243090638309e+01
-2.051714584773132621e+00 2.287047761730719220e+00 1.727533954560865226e+01
-5.401034466290290048e+00 -3.026277320609928712e+00 1.521259299091713046e+01
-6.390259656780718167e+00 -3.566855863117646686e-01 1.323607787851175743e+01
-3.828938456958499881e+00 -7.895680145181789289e-01 1.380624220872071106e+01
-1.461725677471779949e+00 1.032533557533874546e+00 1.440447840201832719e+01
-5.990098778392637158e+00 -4.023262551483380633e+00 1.552937439324615099e+01
-7.391201575707879279e+00 -9.433961651772269086e-01 1.683445623032510952e+01
-4.240587944012957244e+00 6.596406393921312450e-01 1.755584995895176803e+01
-3.800415872277518314e+00 2.358138095289482816e+00 1.325484207854026408e+01
-7.612333559160846974e+00 -2.822451816020754123e+00 1.531623198564270183e+01
-5.335351473698914937e+00 -1.436826539542468417e+00 1.453882425073898332e+01
-7.793414522109752163e+00 -1.616749890522726885e+00 1.523283157228163276e+01
-3.838507094369149719e+00 2.056053308638583488e+00 1.249706319464921478e+01
-6.624565886606202270e+00 2.553824353265325087e+00 1.543489815652245056e+01
-2.340519971125584853e+00 1.771618738882360988e+00 1.395906731205054996e+01
-4.592439437590298823e+00 9.410064491778953322e-01 1.176253208099204528e+01
-3.413404753956497562e+00 5.534260453079158371e-01 1.190616269634674040e+01
-7.193350154351010772e+00 -2.771033883254038432e+00 1.477982656996223909e+01
-4.417880512473672638e+00 -4.894040149923417626e-02 1.312218856185188542e+01
-2.201898551542548765e-01 1.811409812389574714e-01 1.614000765490555978e+01
-1.392004913028980440e+00 -1.931590064641875770e+00 1.398811911588427392e+01
-6.428803579879294183e+00 2.719046068074487899e+00 1.622331836711705222e+01
-6.238733783998640092e+00 -3.323831143102778274e+00 1.764481143166434407e+01
-7.240444274599550312e+00 -2.854811456211458598e+00 1.488490066630996012e+01
-2.659348029462562213e+00 2.320717025929592392e+00 1.733562081477855799e+01
-7.462197073345279819e+00 -3.479328445787956525e+00 1.592180108288751939e+01
-3.086012690176098250e+00 3.426649014778252234e+00 1.706540843082724024e+01
-7.416785057954144555e+00 -1.968446801406137592e+00 1.436598058164609171e+01
-3.434322127946575431e+00 -1.193369039320295588e+00 1.420937068335715736e+01
-6.815095694214246436e+00 -2.151000029502786681e+00 1.421243942630073320e+01
-5.422593287425840458e+00 1.265971823127017393e+00 1.745101332679819706e+01
-8.913920492296207865e-01 -1.127909200088671460e+00 1.700649836448346974e+01
-6.437621402592386133e+00 -1.977878701465201061e+00 1.774561008871210532e+01
-7.256658380349864323e+00 9.265172559510232997e-01 1.553988601047898044e+01
-6.364625497406644072e+00 1.783419168593511683e+00 1.402879736543673772e+01
-7.758208808177581517e+00 -1.051179161383544391e+00 1.562640613527812405e+01
-6.792947984885525869e+00 -1.902684778086625617e+00 1.405486016628240975e+01
-1.993610471512742288e+00 -3.185806124512727600e+00 1.479062940470613086e+01
-6.788911710472908645e+00 -2.269128005842292684e+00 1.431323238592909775e+01
-1.455618138896977776e+00 -1.083417839014533257e+00 1.725879368578834772e+01
-6.222473352426318272e+00 -4.232359515220465163e+00 1.571446527282054006e+01
-5.014424596118014499e+00 -9.675322911644124169e-01 1.421835064133530580e+01
-6.581806942489293988e+00 -4.272992944323886100e+00 1.588937495392836752e+01
-3.836335872279940329e+00 4.849254753966069087e-01 1.752971329730571881e+01
-4.433965792219066948e+00 -4.801749555807371395e-01 1.376160032796619959e+01
-6.552228141707529652e+00 1.557280422958758459e+00 1.399122528067353954e+01
-6.606446466022258157e+00 -9.296441296942419275e-01 1.360649248444447323e+01
-1.523099950123656177e+00 -2.094644935661127416e+00 1.412150218789828671e+01
-4.562723516893234965e+00 -1.772495042808242438e+00 1.480810512863043726e+01
-6.879171510847687188e+00 -1.261375659918966496e+00 1.752376554521868002e+01
-2.430098731816099367e+00 -3.279558427703924917e+00 1.719288661534370277e+01
-6.993039736428553255e+00 8.281969855606161612e-01 1.647460271198792725e+01
-6.708615023488920803e-01 2.602508767750645324e-01 1.474004901935069256e+01
-2.256670568946362199e+00 -4.262634322246554142e+00 1.686241495214720487e+01
-5.290588385770771396e+00 3.292899416076032981e+00 1.571774755540458557e+01
-3.462040390718617022e+00 3.473953326250125873e+00 1.721750164585107257e+01
-4.813457379233914146e+00 -1.770975904285031710e+00 1.479380050948770986e+01
-1.199410402166185996e+00 -2.309169237841958378e+00 1.714910566190387442e+01
-6.560811915221693269e+00 -4.725097521583433990e-01 1.332814956849030352e+01
-7.203629702114069389e+00 -2.956665934535210649e+00 1.498405538628055922e+01
-6.381918121283075784e+00 -4.399203273859968455e+00 1.590204311973695894e+01
-5.237392443928993835e+00 2.497957234225594014e-01 1.760573181315547941e+01
-6.372841812726456112e+00 -2.689638541013614770e+00 1.487777986236655181e+01
-7.782581175800145523e+00 -1.249971370343955890e+00 1.523873754822501780e+01
-2.421383534841066165e+00 -4.436571355860218446e+00 1.673517533701830473e+01
-3.741879857638045204e-01 -6.474638911123292706e-02 1.661728195514174899e+01
-2.870589155189436248e+00 2.949989001704216296e+00 1.585613154713917083e+01
-7.733606162065492562e+00 -1.595866945760993749e+00 1.487697464517913204e+01
-6.640578613977436540e+00 -1.341826910816282581e+00 1.380692773297906228e+01
-3.220982823473253376e+00 -3.876737707313950398e+00 1.712820338018126165e+01
-2.243623909575889752e-01 -3.013118945441997543e+00 1.598951527547315976e+01
-6.010019580443660914e+00 -1.564304720728841858e+00 1.424600511648468171e+01
-1.607339885735769025e+00 -2.942805811732780441e+00 1.462451769008239921e+01
-5.799865388548067990e+00 9.276367134892562483e-01 1.236772889578011814e+01
-8.531838842328370864e-01 -1.880984493173720740e+00 1.699603168158019884e+01
-2.400757732844304382e+00 -1.094032959156956419e-01 1.273592063727284085e+01
-7.793586030952827315e+00 -1.402568967163321245e+00 1.526985756841913400e+01
-2.651081528719181790e+00 -1.285847202367269793e+00 1.741392152504484159e+01
-1.437168651158435395e+00 8.980393851346903933e-01 1.724226667360728271e+01
-3.626121509098952256e+00 -1.489364697306008178e+00 1.449637261351663398e+01
-6.026837438005261838e+00 -2.391373346656390009e+00 1.483538418179247742e+01
-5.026192764871304952e+00 -1.287028049578813338e+00 1.449502604946984974e+01
-5.660798315643821077e+00 7.261649720427464372e-01 1.229358194460240838e+01
-5.829975074574226035e+00 -3.861033641287513252e+00 1.542829007047351553e+01
-1.222697675532355310e+00 -4.448401930354192735e-01 1.296969797558482185e+01
-1.065350905925189995e+00 -9.013383299563628714e-01 1.711186782983356380e+01
-3.605771963720184825e+00 1.881292598824157336e+00 1.206551442005298469e+01
-2.413894469458562675e+00 -3.158267463774968031e-01 1.309847488163182305e+01
-7.806516776872755692e+00 -1.486555949349130490e+00 1.539559313121566220e+01
-7.720839551387386201e+00 -9.322708511769615125e-01 1.494824692269638433e+01
-5.191165303209325010e+00 -3.338980709627727972e+00 1.755186066098136877e+01
-6.547533490150618363e+00 -2.175220006360910396e+00 1.432158096983342688e+01
-4.981436123560832208e+00 3.241546720411092153e+00 1.561345516118656462e+01
-2.031353811597763404e+00 -5.284906075636326417e-01 1.326796015259167660e+01
-5.254703791411026614e+00 8.456417837046612540e-01 1.753120218845514700e+01
-5.598297092989239943e+00 -4.859043944751268107e+00 1.646303009725465927e+01
-7.275608991551416160e+00 -1.540301114403261451e+00 1.726910795007487565e+01
-7.738316484079884816e+00 -2.666630019938381224e+00 1.594337508509509860e+01
-5.243268938119570066e+00 3.230383507573088231e+00 1.558896624016673371e+01
-3.601659617293064830e+00 -3.796984206732922029e+00 1.538052801939575431e+01
-5.394402560904723032e+00 -4.841652189270009288e+00 1.644786104883194611e+01
-5.391190403162799072e+00 7.908628068248837462e-01 1.214142325750162854e+01
-5.389248660156971127e+00 -4.795915531027874046e+00 1.675060796726960888e+01
-7.405875773426171094e+00 7.936390715903691717e-01 1.454508934177832913e+01
-5.981502365890076334e+00 1.262334132168914547e+00 1.727569049245126109e+01
-3.647344712557513358e+00 -2.864273603282212921e+00 1.748800226944911174e+01
-2.164753291698410020e+00 -1.301804216202348430e+00 1.387889850440169681e+01
-7.735034435494768879e+00 -1.048842824826631492e+00 1.481418821891281823e+01
-2.348397399379862804e+00 -1.019501367088088362e+00 1.375287009717785480e+01
-6.206454487941343245e+00 -4.636535192121049143e+00 1.606125401912157713e+01
-5.809166100626244500e+00 7.411028716274086214e-01 1.743322549091845985e+01
-8.194497526232448203e-01 -3.042463048933651937e+00 1.695498387636842352e+01
-7.583741951729671804e+00 -8.548636123871167225e-01 1.628670855023919017e+01
-5.808692597102028898e+00 -4.455220222639840522e+00 1.717268679380130436e+01
-6.265312324666358457e+00 -3.153707256586276042e+00 1.522138191020906106e+01
-4.378602598397432821e+00 -2.788979027105282782e+00 1.504941377415619996e+01
-4.805734244093702756e+00 -3.803859314443565065e+00 1.535559232817510633e+01
-6.468907488551178808e-01 -1.520242126107255842e+00 1.393026956647410941e+01
-7.534129377582442499e-01 1.160536234853230819e-01 1.431859609651574061e+01
-4.318690060256122898e-01 -5.180810224651513085e-01 1.413118458915290176e+01
-2.831335812122675932e+00 -2.314505653636256710e+00 1.466314710620036266e+01
-7.739853785719263080e+00 -8.725689975368609019e-01 1.523558684846855016e+01
-1.182000536071716290e+00 1.078122696222329369e+00 1.513693787772173494e+01
-6.403562760972083545e+00 -3.250254595092094245e+00 1.526680787043543575e+01
-3.200855027949677023e+00 -1.340989284587992270e+00 1.428187621508795502e+01
-2.387535478075169859e+00 -3.907937800193119759e+00 1.700732860818713732e+01
-4.981336011161999089e+00 1.355812210447272959e+00 1.174853614265052215e+01
-6.448118746065855333e+00 -3.145502654321721714e+00 1.520067776242112245e+01
-5.256375244508092237e+00 3.500970512449887995e+00 1.609767347655071745e+01
-3.835510784356144676e+00 3.454541297125646171e+00 1.721140749089082789e+01
-4.831056845206823880e+00 1.845775483346674184e+00 1.744926390432226526e+01
-6.615363527721873638e+00 -3.257200493050243395e+00 1.527106668265511757e+01
-7.108253778161170544e+00 8.655479956543887798e-02 1.672581766037470885e+01
-6.582469609097653773e+00 -3.068124866675142837e+00 1.513050852134830393e+01
-3.852472412252101464e+00 -1.858944383563382097e+00 1.473405986418791969e+01
-5.009912568847608938e+00 6.430090639604276737e-01 1.220238270141159376e+01
-5.979672157560940171e+00 -2.003155513487023587e+00 1.460218391754475675e+01
-1.230970363313200089e+00 -4.450653684642204233e+00 1.667638431304196445e+01
-6.850554131383248091e+00 -1.348183762909575423e+00 1.755192625978665433e+01
-6.635499255630883830e+00 -4.153974686216145074e+00 1.734071014540813138e+01
-6.071812077753033776e+00 2.765206735284688189e-01 1.744373275398113776e+01
-6.633065902259716928e+00 -2.569343811235676789e+00 1.773223253353906159e+01
-7.622728909514608908e+00 -1.300729181768286891e+00 1.643981302233027009e+01
-4.421841259322265572e-01 -2.546655187834877765e+00 1.461673748803914918e+01
-6.653111807541664646e+00 -2.955987222158053651e+00 1.502065160062146276e+01
-3.433017451215555127e+00 2.715475200044418447e+00 1.426003015428918985e+01
-6.415479606311368599e+00 -3.131570610979637515e+00 1.768559344338470396e+01
-1.050515560720153951e+00 -2.880853315144639715e-01 1.314880648994819268e+01
-1.001371913023718641e+00 1.563139636590481496e+00 1.685262339225805306e+01
-4.662665632103658808e+00 3.970090614555386033e+00 1.690131760575064845e+01
-6.514579811959549716e+00 1.899260877170059203e+00 1.436965504404342653e+01
-5.611481273208297260e+00 -4.047381383715536352e+00 1.548680612492596254e+01
-4.609282720546703516e+00 -3.889207529779181716e+00 1.543948743833066573e+01
-4.566512281552923547e+00 -2.809160856071482026e+00 1.507567441987073664e+01
-2.585369338589331267e+00 -2.933342403268158538e+00 1.728888130426056335e+01
-7.807037971164425549e+00 -2.070896115451386077e+00 1.562290969963235909e+01
-3.246082429127713720e+00 3.210897787652374102e+00 1.586355129920343643e+01
-4.401627186410260073e+00 -1.636983852792932792e+00 1.475204047369444282e+01
-8.292615067818570607e-01 4.686690095374309029e-01 1.476497362878343722e+01
-3.780008164117839797e+00 9.407914991269932248e-01 1.151252748334959364e+01
-2.044519860338095407e-01 -1.197598798557317101e+00 1.586764166274425492e+01
-2.352897174470814701e+00 -2.159898006727066999e+00 1.441650294707109481e+01
-5.007852655082406734e+00 -1.686831736729704212e-01 1.325757179867649427e+01
-3.980951736179154654e+00 -4.662217529027885554e+00 1.679976675059909041e+01
-3.229610776492672475e+00 2.829555736771066865e+00 1.486288375294613928e+01
-5.613856440760006450e+00 5.031036282466206933e-01 1.245924597445981874e+01
-7.785212111343962960e+00 -2.279192271222865163e+00 1.578817562215689918e+01
-5.810561856340695108e+00 -4.499298325174993174e+00 1.581296919325548345e+01
-3.825255288418795807e+00 3.693642604410705133e-01 1.220596524204887601e+01
-4.607557570993471074e+00 -3.719836309322950729e+00 1.738433782755495827e+01
-7.694741859318908972e+00 -8.170140221575177275e-01 1.485477429787961512e+01
-7.408260891651163860e+00 -2.909563716627523000e+00 1.729295729906628765e+01
-2.072147589532241874e+00 2.492192967321123831e+00 1.725129377380635276e+01
-6.928581447609551525e+00 1.373848284861767022e+00 1.622516298385103539e+01
-5.617537062293897598e+00 3.267811432323357135e+00 1.576034540385816030e+01
-1.422834728408703286e+00 1.073350862622516555e+00 1.457835293830850532e+01
-6.212155454518217823e+00 -3.681488378753894342e+00 1.543898488351371867e+01
-1.568303253144429643e+00 -7.938033743744188353e-02 1.271152183754075793e+01
-1.105204528420357990e+00 5.950884975232403340e-01 1.438226442496869595e+01
-7.660433211604647852e+00 -1.004500350729965019e+00 1.464952335174147890e+01
-6.638722281796330948e-01 -5.843865373530371388e-02 1.676855556505276468e+01
-6.814769105508386993e+00 1.168369383522959160e+00 1.657477216546610777e+01
-4.618316958714672182e+00 -2.588668675742932912e+00 1.504322214811503500e+01
-4.219225971286096666e+00 -1.715466172326217453e+00 1.766893657607321444e+01
-4.403271720938173872e-01 -2.104757315011240859e+00 1.675826592288013472e+01
-7.662250226128686670e+00 -1.198056339285892946e+00 1.461382878394996254e+01
-3.006481349857192953e+00 -3.687098188704446944e+00 1.716717789841575836e+01
-2.939049820661249424e+00 2.556390727327731760e+00 1.471577312875677279e+01
-6.242949274458354125e+00 -2.150109148124177416e+00 1.777416409112303342e+01
-2.687736532652713173e+00 3.057461030046678463e+00 1.721239774110112108e+01
-4.008945959702204576e+00 2.590038314642138406e+00 1.388358137455671226e+01
-7.484121050888550286e+00 2.153836036801184961e-01 1.446917216276722229e+01
-5.562261587499969018e+00 1.683428032543722863e-01 1.275852469207784878e+01
-2.778269703283146042e-01 -8.858191090018803227e-01 1.409206126751231380e+01
-4.262507667951807910e+00 3.435239036521315903e+00 1.602985960394008913e+01
-6.059154375049494057e+00 -2.549009007680788641e-01 1.315844292370539392e+01
-6.876742634363849582e+00 1.267714059806564597e+00 1.414466134186086066e+01
-4.564389737777625022e+00 -1.628063066312598117e+00 1.475247024014296215e+01
-7.766281093631883792e-01 -4.385918819328585627e+00 1.633642456835601564e+01
-4.507038191739908828e-01 -3.041041058810252107e+00 1.671644656898774173e+01
-6.195391421844391289e+00 -3.448172187998421179e-01 1.322390274012174416e+01
-2.042566610791803683e+00 6.823153733559093048e-01 1.738666718677898615e+01
-4.389648379731797334e+00 -2.534955439845608449e+00 1.765020558022581554e+01
-5.635618483089445796e+00 -3.746240823093090366e+00 1.748957562629305329e+01
-7.762089092975467786e+00 -1.672134493713118175e+00 1.602252654936371101e+01
-6.380626000843565571e+00 -4.710574610954534891e-01 1.331042314028895390e+01
-6.801144897290896552e+00 -2.938612929685695541e+00 1.766049554284339251e+01
-4.806280220584178586e+00 -2.177997824941113159e+00 1.494900413030755715e+01
-6.642057946586292339e+00 -4.780316346867171440e+00 1.665570246833342338e+01
-6.419142545299449054e+00 -9.464143600429730796e-01 1.362222684691150221e+01
-6.875482784718551343e+00 8.946114859555764909e-01 1.372544287330710233e+01
-1.583266157746324510e+00 -3.891439531089435189e+00 1.546198156437507265e+01
-4.800964709178675349e+00 -4.850246389800466851e+00 1.647080624191625731e+01
-2.785158370768130887e+00 -2.138475587735915728e-01 1.291320830083329696e+01
-7.277536463677842349e+00 7.440549130052745985e-01 1.572394634933328916e+01
-2.035641164921325519e+00 -4.335455394479033941e+00 1.602539770347028991e+01
-3.823614280483864203e+00 -1.933717217729047810e+00 1.761231923186889503e+01
-6.796897358317174342e-01 -3.827474678207087866e+00 1.670310627146114513e+01
-7.437848270055175348e+00 -1.372713375767044885e+00 1.436746500437648422e+01
-6.619802774853845051e+00 -2.167719952101237357e+00 1.427189163925846316e+01
-1.443092260420473449e+00 -7.744661345026919719e-01 1.320303832129258126e+01
-6.185538657782646332e+00 5.337732012492271139e-01 1.258050660332992265e+01
-1.866053120312624714e+00 3.208396929794004038e-01 1.236064660640633406e+01
-6.812815438101445409e+00 -2.870347137796501524e+00 1.490786110993632718e+01
-6.438166995697870654e+00 -7.596533838469925470e-01 1.759368424375036710e+01
-1.385135717395951982e+00 -4.381275965616103218e-01 1.294024973969105474e+01
-2.115250374078252005e+00 -1.951025239026516811e+00 1.734293781072453555e+01
-3.079894742522337747e+00 2.299652728079388364e+00 1.736192109224437274e+01
-6.963304745954403963e+00 -4.089278019177777779e+00 1.725142159126991714e+01
-6.610206361329307612e+00 -1.990340005497831299e+00 1.415496871972877102e+01
-2.270930193719201462e+00 2.597867948993457965e+00 1.605568244225934649e+01
-6.564117153903269219e+00 -2.425017364373147633e+00 1.455787406810233620e+01
-3.205696043259407713e+00 -2.792289457803013519e+00 1.490091933951777747e+01
-6.455854949368526441e+00 -1.458238728871525502e+00 1.390572017651064840e+01
-4.982477897405563461e+00 -1.567451144904971283e+00 1.467863929638886589e+01
-4.249776261552257850e+00 -1.616723624671085213e+00 1.473116478588651290e+01
-5.507533308109419323e+00 -1.182383906440336085e+00 1.774465494737288651e+01
-4.033091825311712952e+00 -3.765748348258485034e+00 1.728939113389112947e+01
-4.413208568188438541e+00 -3.388938665517373661e+00 1.516678864566372198e+01
-4.978516734128580090e+00 -3.598150619188551502e+00 1.525191153983838888e+01
-3.272217206067006057e+00 2.238384884956952092e+00 1.324049958189483789e+01
-7.493891166430571182e+00 -5.138817946329832242e-01 1.628145015500724213e+01
-6.407872809983933493e+00 -1.188698416969782290e+00 1.377425746858497746e+01
-4.818968224566800296e-01 -1.186958292251423797e-01 1.667042743473834321e+01
-5.174383456440201812e+00 -3.589107641523787251e+00 1.526696852035671981e+01
-7.646570464710379378e-01 -3.693284924032526728e+00 1.681655276696459822e+01
-4.024048595632667258e+00 -1.023469705354333459e-01 1.291481619951994730e+01
-1.771343297769909508e+00 -1.898836236235866615e+00 1.408824090474610813e+01
-6.435583248544599400e+00 -1.339260822919438043e+00 1.384795009852221881e+01
-1.851280462353438183e-01 -9.428325404778026275e-01 1.448923458275839948e+01
-5.169671575278236286e-01 -4.120355923925361097e+00 1.634914269597776126e+01
-7.732090750567055970e+00 -2.636037169038345951e+00 1.633617607418489825e+01
-5.255805034070521131e+00 -9.203370987094103839e-01 1.411139180221777423e+01
-2.825354022937553999e+00 -2.528815560228974135e+00 1.737831356076822686e+01
-6.401848396508809991e+00 -2.164606353593033994e+00 1.440188580624866432e+01
-4.760789098305098221e+00 -8.581904549369092638e-01 1.416020052000536822e+01
-6.214195037869357563e+00 -1.378373990289481377e+00 1.397474887325796544e+01
-7.185638249089103091e+00 -9.765173105061504266e-01 1.405478929430435642e+01
-2.622301567370816766e+00 -4.655813591813082186e-01 1.330081425613984436e+01
-6.609079590261995207e+00 -2.314435900622646258e+00 1.442314369961570719e+01
-4.234082815089220908e+00 -3.142589148596493409e+00 1.752208050933633388e+01
-2.908384623931171475e+00 2.379728725047336457e+00 1.431670565508541415e+01
-3.035750081801259270e+00 -1.135613229531594159e+00 1.746136478883132526e+01
-2.048691273266221469e+00 4.722906466968224137e-01 1.739038614827915552e+01
-5.788804558191367633e+00 -1.813121877491650658e+00 1.461141062461641127e+01
-3.409071119679986328e+00 3.418636978329339104e+00 1.629606332607546904e+01
-6.408695009350833693e+00 -1.951796411814747945e+00 1.423079157125353333e+01
-5.788492237820377362e+00 -4.747114797375074247e+00 1.691309329941135076e+01
-6.214574184123294209e+00 -1.988444481583567125e+00 1.439235473721313952e+01
-5.444280784182996769e+00 7.710901477564269246e-02 1.285509191188128852e+01
-6.087531181963145022e-01 -4.235569193714031400e+00 1.613405797187468949e+01
-5.827029232203999598e+00 -3.232403564155665432e+00 1.526973803198003310e+01
-5.200401025053555060e+00 -4.269275283497724338e+00 1.564280889126196428e+01
-3.100237809238604925e+00 2.753583814477689184e+00 1.491587195925022513e+01
-6.921488093676291697e+00 -4.616320581190216821e+00 1.665020136136870832e+01
-2.826681643082320949e+00 -3.226545137767138360e+00 1.726683137478187291e+01
-6.796289696637569655e+00 -1.052039875429331417e-01 1.327414494240354514e+01
-1.485169686181929238e+00 8.615185217775007676e-01 1.399705638908062610e+01
-5.422386186514160933e+00 2.441185656258627601e-01 1.267566949500537987e+01
-3.424048187670340138e+00 -2.189325052497468782e+00 1.477089723233447671e+01
-7.651938685911408911e+00 -3.061995415082265470e+00 1.593480398462183700e+01
-1.337619836701788634e+00 1.517952533261732517e+00 1.713807416374429238e+01
-6.026471982326274457e+00 -4.491657986443884809e+00 1.585288731514222604e+01
-7.615911891429522740e+00 -3.263035881411639139e+00 1.614806092575492613e+01
-4.431732324348505614e+00 2.000092471926005810e+00 1.257758006196508660e+01
-2.046066210077744696e+00 3.707489718033077919e-01 1.219830383380574546e+01
-6.211784771750805234e+00 -1.142022345136302297e+00 1.382426198935878858e+01
-4.104662406073336989e+00 3.886561513645813370e+00 1.705144989849353721e+01
-1.800256831712900851e-01 -7.944504532587610690e-01 1.570040395585373005e+01
-1.257621655250088732e+00 3.031794900106428159e-01 1.719299304266110795e+01
-3.165624210836645691e+00 -3.410956315610843337e+00 1.507298320977991324e+01
-5.020437799171927118e+00 1.083046881663393579e+00 1.753460886047780320e+01
-6.401350757475206876e+00 -2.568864346156023881e+00 1.477509414268256904e+01
-3.443984783133252847e+00 2.475483649237557149e+00 1.363287617486852099e+01
-1.037986036133879741e+00 9.433953220702362419e-01 1.698171802890967541e+01
-6.206971067934010655e+00 -9.393313020960787352e-01 1.368357861995728086e+01
-5.447404612119825629e+00 -7.865762981275097321e-01 1.390356226206103685e+01
-6.917026666701407756e+00 9.139415412767539770e-01 1.655641038165562406e+01
-5.020989001133894902e+00 -4.789779863792142045e+00 1.673632438031593495e+01
-4.221632102386042362e+00 -1.899086823109734645e+00 1.766936161165310892e+01
-2.172804103678616539e+00 -4.072113412625129492e+00 1.567795238561863869e+01
-3.415876222120683092e+00 9.114958890423321414e-01 1.149503998984403808e+01
-6.522505217944366551e-01 1.396001758361526124e-01 1.674349932393909768e+01
-7.719931349722153335e+00 -2.767750480942681168e+00 1.640366955041974251e+01
-2.186234122114648404e+00 -3.164150304217503873e+00 1.479928620763873681e+01
-7.683293705214763847e+00 -6.227284135093114070e-01 1.503020407539410996e+01
-3.672793782044998512e+00 1.067969778699266126e+00 1.749707878987862131e+01
-2.775213524234636076e+00 -3.369971981003983874e+00 1.498659528808806840e+01
-6.006468855192658829e+00 -4.869148687518051410e+00 1.644709305433953261e+01
-6.194982554005082243e+00 -3.242756716731959976e+00 1.526921553474149817e+01
-3.856988935818448816e+00 2.098644237918077859e+00 1.260909450479612559e+01
-7.433034262911039747e+00 -2.891669598761590354e+00 1.508499799200662039e+01
-3.373188103419290318e+00 -2.775946612493835008e+00 1.492663714729973634e+01
-7.794796077813384905e+00 -2.228866445106034710e+00 1.554159872637283968e+01
-7.464529365834131625e+00 3.818373754638140771e-01 1.508193038885072212e+01
-6.965344954073932726e+00 1.909536665313145587e+00 1.539477444575375387e+01
-4.111697585925321974e+00 4.516525185570751111e-01 1.219368751972422160e+01
-7.801162546238725071e+00 -2.036411130417845605e+00 1.541212003742777625e+01
-1.632158053077139126e+00 -4.966927166082262812e-01 1.305033284772027002e+01
-1.227280725139405115e+00 -3.886689438093590798e+00 1.692590213276238131e+01
-3.241309509797889454e+00 -2.102870910962495898e+00 1.749026810790378050e+01
-2.445213938853386448e+00 2.249007554607327375e-01 1.221536116810361250e+01
-6.802907860851477473e+00 -2.954949542550827868e+00 1.499463974959348178e+01
-4.407682230864637063e+00 -1.135402666304852870e+00 1.443470028028388441e+01
-1.062465643119054226e+00 -4.416618436345401300e+00 1.662735137670962615e+01
-7.361866505461055255e+00 7.905696204565350049e-01 1.492316580021189765e+01
-1.168392526322397762e+00 -1.255199224227396826e+00 1.716353950881612178e+01
-4.404222523466655659e+00 -3.039110315205306168e-01 1.349885956483240790e+01
-4.457595413608098411e+00 -3.803294013564663678e-01 1.363507802819349735e+01
-3.407704875092763430e+00 3.514496450096629143e-01 1.213980761180442869e+01
-6.213935313607805710e+00 1.438898106389426834e+00 1.339949458125546045e+01
-1.790189427268514155e+00 -4.381412040686946341e+00 1.607655785828193729e+01
-4.885398667134612793e-01 -2.298316899465896235e+00 1.445890874183918129e+01
-4.607056666354180763e+00 -2.519125317433700828e-01 1.347114584641133206e+01
-6.803220382172500358e+00 -3.272150546900188139e+00 1.529023172395011443e+01
-2.066345065106090839e+00 2.061195337644539549e+00 1.730348025795212408e+01
-3.398828405302640299e+00 -6.267379715673135898e-01 1.352547996520188178e+01
-4.583407607681452944e+00 -4.605520664970532141e-01 1.375789851200721614e+01
-1.801627183915615271e+00 -4.103698468734660487e+00 1.571286633292215384e+01
-4.615989456884280528e+00 -5.673441664306273502e-01 1.388196420747681259e+01
-2.532198492588497718e-01 -1.844970599133820777e+00 1.611999921068545660e+01
-4.415886902879049281e+00 -5.883517381610343655e-01 1.388749733309872880e+01
-6.021299697506168336e+00 -4.673016172360760834e+00 1.606395742097470247e+01
-3.653695868627823362e+00 3.003662858273982383e+00 1.487010168508475516e+01
-7.617226255569709892e+00 -3.054658043491359720e+00 1.572011256600928419e+01
-6.001103316869698112e+00 -4.778361098718887590e+00 1.690373674331078035e+01
-4.615441635921746055e+00 -7.683937886171143816e-01 1.409701895936341032e+01
-2.410174930647241975e+00 5.784554292930129682e-01 1.189277675025133618e+01
-2.959239875970933298e+00 1.645087366018382014e+00 1.234408466729631471e+01
-2.505902309053791854e-01 -3.588356203971817315e+00 1.558974412233248330e+01
-1.054226461309478502e+00 -5.139069403243101686e-02 1.708091722123551648e+01
-6.040050957725567216e+00 -4.582666438369919604e+00 1.711184060490663938e+01
-4.203489394422218695e+00 -2.810382212161375293e+00 1.503166074315990386e+01
-5.047693306600184115e+00 -3.002561009339533182e+00 1.516822852339254979e+01
-1.485932013293264076e+00 1.919238161471511939e+00 1.717505136161116752e+01
-1.231434420039924538e+00 -1.522140048010180102e+00 1.718171539675048365e+01
-1.761003972667332329e+00 1.518934744286097649e+00 1.472573415898145299e+01
-2.816694676806768438e+00 1.790472925360757639e+00 1.299382379359990125e+01
-4.768913327622203546e+00 3.279802628312667445e-01 1.256830980338975223e+01
-4.840539765293467411e+00 1.571593406941033555e+00 1.197832986568464264e+01
-3.257143215796753921e+00 3.095994473807244241e+00 1.726388947516610983e+01
-3.810162352610704239e+00 -1.145811769868722463e+00 1.426043985653193857e+01
-7.701265664281030432e+00 -1.462512658762558981e+00 1.622536494652699446e+01
-2.424134337890573754e+00 6.518849439628784381e-01 1.184141128020922196e+01
-2.250582973067846826e+00 5.885822058948226854e-01 1.199122227762413928e+01
-5.283626885006638574e+00 -4.571210371912981074e+00 1.594709205313345990e+01
-6.764566476556258756e+00 3.011519221555020165e-01 1.314718220300076723e+01
-5.612003522330546446e+00 -2.546268475743629356e+00 1.504866306406037069e+01
-2.564003811174855318e+00 1.430100435509739643e-01 1.232667256026903857e+01
-6.439393789306062210e+00 -2.926155105662565425e+00 1.771906825450724199e+01
-3.832906090745447081e+00 2.563805157086671560e+00 1.377849167291580557e+01
-6.973584807031863342e+00 -4.225003886595168900e+00 1.608929884258846954e+01
-1.261499077661814683e+00 -2.856085375288891282e+00 1.712840521378596037e+01
-5.173444104586725878e+00 -2.533241070669312034e+00 1.506875644164044559e+01
-2.422988639684012568e+00 9.707713665064898745e-03 1.252301963498645421e+01
-2.427825751100304519e+00 2.141592229866986941e+00 1.733640300266937828e+01
-4.091432627392111998e-01 1.612804618214000174e-01 1.662283814414407601e+01
-4.797028210230621426e+00 -3.380283670368344762e+00 1.517641585999638210e+01
-2.592083691348946672e+00 -3.957023760640916432e+00 1.552632026295085410e+01
-4.982464749321828812e+00 -3.397350771194905139e+00 1.520045099973055613e+01
-4.870740481447782599e+00 -3.533954487967587710e+00 1.521886673682652003e+01
-2.407231086024601563e+00 -4.706098535777550329e-01 1.329634936514524668e+01
-2.147613087297469414e-01 -2.413774379181291008e-01 1.633359850880490427e+01
-5.604000517077567523e+00 -4.511372281355660263e+00 1.583870511734561859e+01
-1.585405376194197302e+00 -4.237433845928832099e+00 1.683769167394926569e+01
-5.200567496929025424e+00 -3.805723885119772110e+00 1.534347476021579837e+01
-7.555113745789558521e+00 -3.412492751211740671e+00 1.614367806967610619e+01
-7.023783873776682007e+00 -4.500522930826751811e+00 1.666120607359686545e+01
-3.003715253962159437e+00 6.313443906279059270e-01 1.177806138787072143e+01
-5.610953030440323452e+00 3.019096020927007906e+00 1.699262222704705749e+01
-6.382666293869699636e+00 -4.849590571376627857e+00 1.665503446164048285e+01
-5.602337460687533799e+00 -2.170450556382329310e+00 1.488393426398661035e+01
-4.297197116687982543e+00 2.772853286130669836e+00 1.735909419562288036e+01
-6.406043642381208159e+00 -4.198139260180352217e+00 1.575630017923891302e+01
-8.836010884486578121e-01 5.740341134697408698e-01 1.483972844251366041e+01
-1.091729647191566510e+00 1.152101254104275885e+00 1.547101613405266818e+01
-6.842591630722284712e+00 -4.491653472387288737e+00 1.628835923955155351e+01
-6.635155227618945162e+00 -4.768959662682256351e+00 1.684987872020566613e+01
-7.479789855895928596e+00 -3.348863843512081662e+00 1.710800125794983728e+01
-3.854293240452334679e+00 1.638615219028170644e+00 1.157224344311521236e+01
-6.806299576558507702e+00 -4.688915764543475362e+00 1.666741539785170545e+01
-2.194447239098487934e+00 -2.322822417949728102e+00 1.443443085713146701e+01
-3.432325992560040784e-01 -1.630335095129521017e+00 1.646661348032662886e+01
-5.969344965206966336e+00 -1.451228264979542715e+00 1.419383458129337328e+01
-5.384160741388222426e+00 -4.669583999877334968e+00 1.607658349739163839e+01
-8.300143987352130992e-01 -2.585976957829771439e-01 1.691464097906798258e+01
-7.693724884334898206e+00 -6.072562605447053841e-01 1.524562269193666708e+01
-6.653464704586335543e+00 -5.535714955933759285e-01 1.744289507535899020e+01
-5.952868149143842880e-01 -4.049179822226935066e+00 1.652644859587948645e+01
-1.599883153475904374e+00 -2.944588269977276851e-01 1.286409281190532994e+01
-2.627648335302319449e+00 -3.900148236797009726e+00 1.544788752898108442e+01
-1.925926501299419780e+00 1.767802639440393397e+00 1.487383090062985502e+01
-5.443146118409745604e+00 -2.125475207115572029e+00 1.775631965935794199e+01
-4.133211006334235882e-01 5.929337663103151357e-01 1.656611796593363550e+01
-6.999164654262595597e+00 -2.663905883125754048e+00 1.466174118535937509e+01
-6.430782274800677101e+00 -4.775015488117859697e+00 1.640088121773477781e+01
-5.610844807167665316e+00 -2.623552108327659171e-02 1.296429323291288682e+01
-6.228946263068182887e+00 -3.548955790440546654e+00 1.539500346993052915e+01
-6.595628039892599936e+00 1.039578392077007418e+00 1.690526664629128106e+01
-8.759456881915000936e-01 -1.926207465184060497e-01 1.361538529651605955e+01
-2.040051053651526392e+00 -3.363302317316474443e+00 1.713375448178540239e+01
-6.195714496919513259e+00 -4.847224710438640116e+00 1.643827856594857906e+01
-5.794371024719901619e+00 -4.583706647302705051e+00 1.591341608335132207e+01
-3.886524900745739863e+00 -1.049421481081364904e+00 1.417151937366910630e+01
-6.072542594318075082e+00 2.485794966753002821e+00 1.685223345548967444e+01
-4.199467050186689754e+00 -1.753698569715102629e+00 1.477098521589606150e+01
-7.494914914401541672e+00 1.955809068042086429e-01 1.531512109029405622e+01
-5.763179220907157507e+00 -3.748829335395278850e+00 1.538095492366650774e+01
-5.988899413411677308e+00 -4.589816991729201767e+00 1.594165142238562538e+01
-6.203634309345050113e+00 -4.739865225549693584e+00 1.620868022673581521e+01
-7.361844233546963601e+00 -3.023602477416340140e+00 1.516511986294310077e+01
-4.441659803132557371e+00 1.439866721270937733e+00 1.151617630128527026e+01
-7.001782332915155393e+00 -5.592624172745452871e-01 1.370014366469249012e+01
-6.014187438964929910e+00 3.509270724049436740e+00 1.626110755146660125e+01
-4.870390312152805379e+00 -3.601581236552478527e-01 1.766971365829340357e+01
-3.852442963696656619e+00 3.709773421423118389e+00 1.715199053049589395e+01
-1.208888317650342881e+00 9.797025448376028844e-02 1.717846136497881560e+01
-6.271916268639659897e+00 -1.558275563703809707e+00 1.405209408396414972e+01
-6.394728041941950103e+00 -4.707953388783074899e+00 1.625389047580920021e+01
-6.241198853837521376e+00 -4.873864350069768925e+00 1.661353337799487662e+01
-2.809076443192528583e+00 1.705714802293430421e-01 1.231454006788117539e+01
-5.013191960837487748e+00 -3.690357808071422330e+00 1.744229169370145627e+01
-7.039950632917099327e+00 -2.957858936691379004e+00 1.755756808310166406e+01
-6.256493097596320663e-01 6.510448714382628399e-01 1.553551497754329347e+01
-1.429866592313174367e+00 -4.077276600032640808e+00 1.688524169347096660e+01
-3.664045249331245646e+00 3.481597410596481978e+00 1.612912016667339543e+01
-7.013384976066045162e+00 -3.116101968898527197e+00 1.754438518492717947e+01
-7.656461649733417474e+00 -4.471662375628758235e-01 1.506130302446798197e+01
-6.768482433524282804e+00 -2.162879165427411987e+00 1.769147763269422313e+01
-6.094686783441847666e+00 1.309273997065786066e+00 1.720810166462518254e+01
-2.812977657270889775e+00 -4.290371673512111350e+00 1.687056321398594605e+01
-7.294289427711666995e+00 -2.539399016627343908e+00 1.742187604757236841e+01
-2.329004027570671376e+00 2.849968733567953549e+00 1.721386641105483761e+01
-1.017705809105012182e+00 5.455316071571318925e-01 1.700776380867421977e+01
-7.492859852840517476e+00 -3.306681101616555374e+00 1.571912979690567624e+01
-6.085726720512515620e+00 -2.143413629509787199e+00 1.777792162554018063e+01
-1.448292706986274103e+00 1.145350080575723295e-01 1.727766293588075541e+01
-2.046767346909364349e+00 9.204420145000784537e-01 1.277414607790958456e+01
-3.467323739946142513e+00 9.312922824028507796e-02 1.750546221296117722e+01
-7.181895184163053614e+00 -2.764484951848195315e+00 1.749848455196061536e+01
-6.719000761417984746e-01 1.123466547094386758e+00 1.660359403926428001e+01
-3.794200536734839257e+00 -3.264336191074770799e+00 1.509007967470850531e+01
-7.367122441147862411e+00 -2.334184467340409519e+00 1.732682514022563680e+01
-7.031351148404314522e+00 -2.747149483122885094e+00 1.758933773194198125e+01
-5.005940963620147954e+00 -4.838590629165248735e+00 1.644934652877349635e+01
-5.982505680044615026e+00 1.976701790352420884e+00 1.386577700577620931e+01
-6.821547218385286548e+00 -4.681231574691143038e+00 1.682786126509247282e+01
-2.424481449479881423e+00 -4.293418443953477492e+00 1.685534276474555071e+01
-5.687797096594916502e-01 -6.615840189855983766e-01 1.675175838450386578e+01
-6.652123700444040999e+00 2.547183875807285780e+00 1.583363147424719841e+01
-6.825125418512183018e+00 -4.011967927325891803e-01 1.342847369017649584e+01
-1.571381791172909548e+00 -3.967513878967871666e+00 1.555452571256331851e+01
-2.942421584785565591e-01 -5.392837899485829478e-01 1.453166859922297505e+01
-2.650119548366428823e+00 -2.771286447627334226e+00 1.474244561157622257e+01
-6.753704645648901383e+00 -4.661032117028106825e+00 1.696308875332812960e+01
-1.327186105595881571e+00 -4.829214902295060896e-01 1.723880205663179765e+01
-6.633213241859887255e+00 -4.667555470906700421e+00 1.702972278505028214e+01
-1.648754096963881421e+00 -4.804060194330664335e-01 1.731983039221766774e+01
-5.073413346754545472e+00 1.394255728554410600e+00 1.189154636626019368e+01
-6.983002018505430009e+00 -4.511464390849755368e+00 1.685328041644068975e+01
-6.683874481966272540e+00 1.859055971207272506e+00 1.454981374180924547e+01
-7.000788192504096230e+00 1.797032944972537072e+00 1.514987674138821916e+01
-3.453841719134689292e+00 3.639192503865264161e+00 1.695752993265886488e+01
-7.128283584976981224e+00 7.706512537376541960e-01 1.620755463586297651e+01
-1.071266898958037395e+00 -1.262525437440569664e+00 1.355596055694984159e+01
-7.710105297445475792e+00 -2.746645937460982623e+00 1.655984007498081922e+01
-5.073166714769626218e+00 2.966158428275028069e-01 1.761011760990430020e+01
-5.455442625092458364e+00 2.715615714179723250e-01 1.757954331433538897e+01
-2.963207034389112038e-01 -3.813296071901596473e+00 1.628277980076052955e+01
-6.809477194820956036e+00 -4.503638827167145031e+00 1.707508927619056038e+01
-6.927574960857791453e+00 -3.521086238694411397e-01 1.352157860750062923e+01
-1.618481639695623198e+00 4.811905268342600572e-01 1.731818917632226373e+01
-7.005307857628476853e+00 -4.315733113841471180e+00 1.707673851448003433e+01
-5.170808588653343030e+00 -4.493112821196714179e+00 1.703890230705532360e+01
-6.879391560948037387e+00 -4.359471298022573826e+00 1.714726835772339797e+01
-2.807035296489451603e+00 -4.406413717557581045e+00 1.614776090956060983e+01
-6.966501152069219494e+00 -3.529558977808592513e+00 1.746331036572755835e+01
-6.283790497065653291e+00 2.819710930319711206e+00 1.540152818402447110e+01
-1.372485471369147891e+00 -3.504866065198574354e+00 1.504930109475650113e+01
-6.001102610373451718e+00 -7.421390977877111439e-01 1.767289296536529264e+01
-7.027656236196896167e+00 -3.765989209941174476e+00 1.735742122358041684e+01
-4.795452126299379891e+00 -4.697925337553529701e+00 1.685325842292426302e+01
-6.819169733952179513e+00 -3.523797130571513669e+00 1.752032491242807311e+01
-4.205980291726234555e+00 1.578246475696876816e+00 1.159520857206197064e+01
-4.183047850632839015e+00 -3.511641562607835887e+00 1.740610335821198618e+01
-7.057784179521482848e+00 -3.320977962727679866e+00 1.747803218464665065e+01
-6.085375930721013127e+00 2.092729737353343999e+00 1.415360471312874324e+01
-7.563572294749368652e+00 -1.820544384677263983e-02 1.508860891680935623e+01
-2.058644449450721114e-01 -3.417671722141991886e+00 1.575326618672941947e+01
-7.415944770788652995e+00 6.047033091343483324e-01 1.490243212160857667e+01
-4.460868830689028286e+00 4.639263806650486544e-01 1.758640933050615018e+01
-7.002302491339627899e+00 -4.467781802254721768e+00 1.648183235525591783e+01
-3.227718251569439811e+00 -4.153576576544366183e+00 1.576103968642615172e+01
-5.822889807601265844e+00 2.195942818411525277e+00 1.406082213545265347e+01
-5.223622905652393733e+00 -4.781576690995162693e+00 1.672579562825300314e+01
-2.600127959222505947e+00 -3.631854274679435779e+00 1.514412233459717072e+01
-7.041796997667557179e+00 -3.885557823305179515e+00 1.583144422263475093e+01
-7.022915109445704296e+00 6.724920272081696959e-01 1.651431858748113513e+01
-7.034398086071086631e+00 -3.936023202161691881e+00 1.728783293417463085e+01
-7.172435741305006829e+00 -3.857653936656030513e+00 1.724573002141438849e+01
-1.766589722666362050e+00 -3.625025878905242305e+00 1.511432435406493369e+01
-4.612544969433231223e+00 -4.406012385440718937e+00 1.594078591866941963e+01
-6.429643755591169629e+00 -3.511216024648680545e+00 1.759083764944783468e+01
-6.818556622997721917e+00 8.704914291005070304e-01 1.672265989438393063e+01
-7.217932491569944986e+00 -3.961447933424547596e+00 1.711124124666736179e+01
-6.813387785720316892e+00 -3.372496260181541139e+00 1.756424456668217715e+01
-1.866763311461802965e+00 -7.094482125611614176e-01 1.734837912614188582e+01
-7.218515633797624176e+00 -4.100221038013108554e+00 1.628377840355605599e+01
-6.745388426676989901e+00 4.920350623071537699e-01 1.311890686951275597e+01
-3.009100078750994278e+00 7.532551355485012090e-02 1.246726739120861538e+01
-1.220200760203744572e+00 1.246716302662777887e+00 1.538347698232194460e+01
-7.285266371411366570e+00 -2.351094261880688485e+00 1.741174834852789388e+01
-2.427003932001082998e+00 -3.476859638358152704e+00 1.714246833484057220e+01
-6.401712615687190855e+00 -1.711424945249537366e+00 1.407665626661517422e+01
-8.414627074110748728e-01 1.103484633043583907e+00 1.680437097583914863e+01
-5.220625626944080722e+00 4.090483563351382523e-02 1.291875084786272510e+01
-7.244652739052852120e+00 -3.155775276582092115e+00 1.740524861217227937e+01
-3.257502139656911044e+00 1.277982717407230240e+00 1.746062223683263426e+01
-1.610971501005998618e+00 -4.573527130558542986e+00 1.651128350540749068e+01
-7.270976092964952286e+00 -1.949202574482048256e+00 1.736104996247517107e+01
-3.211169932095168988e+00 1.767158442688889775e+00 1.220104217729778640e+01
-3.042318532856453928e+00 -1.525205860388373358e+00 1.746419927584576470e+01
-7.163398654642095131e+00 -3.169878951820612745e+00 1.745615905952789859e+01
-3.881227010937596589e+00 1.657583726459169293e+00 1.746187424052812531e+01
-2.361847096893295639e+00 6.415479280446156896e-02 1.244500067989933001e+01
-4.883176781085284190e+00 -1.750390845416764929e+00 1.772888307222733317e+01
-1.830415988653919523e+00 -1.363283892300152012e+00 1.379831926462064473e+01
-4.341095388674880873e+00 -1.525976339959632111e-01 1.760860381723559698e+01
-3.388540605666917838e+00 -4.534883383858585582e+00 1.626850848729679910e+01
-3.793325128021771686e-01 -3.338051162052836918e-01 1.454587059860227072e+01
-4.040994561872817137e+00 2.329485323829948662e+00 1.323446113338120256e+01
-1.728109024435804164e+00 1.914550139830176967e+00 1.564992379010614343e+01
-5.407283904500611804e+00 -2.200091108257726802e+00 1.493347052235554173e+01
-6.642929419382819667e+00 2.373469266166470248e+00 1.519497717172560414e+01
-7.079987930873989477e+00 -4.373983364321255785e+00 1.690372052170830841e+01
-4.345435687876864961e+00 -2.287901120056582971e-01 1.335170452428441479e+01
-3.829311841274100292e+00 1.252160837269619131e-01 1.251768359105964379e+01
-5.264184558541494141e+00 2.869657224315024013e+00 1.488170168581424235e+01
-5.200940151554400259e+00 -2.981719481084687207e+00 1.518552936891948946e+01
-4.619163715446430452e+00 -3.178720147432501530e+00 1.512847497933932317e+01
-2.589905935065732745e+00 -1.043308929265699403e-01 1.271457739633245865e+01
-6.215556698554314252e+00 -4.461815247322518552e+00 1.588706062732379820e+01
-3.004600507645959206e-01 -6.066190136746121286e-01 1.435016089966601527e+01
-7.791318004028723543e+00 -1.253733217435540004e+00 1.544053736894024098e+01
-5.628863564619925874e+00 -3.657179651275761056e+00 1.534134821223463518e+01
-7.267447862210296705e+00 6.485186013710177999e-01 1.414686920259186564e+01
-6.004024505593645422e+00 2.286404297207333514e+00 1.698106427117438955e+01
-3.827296730872023822e+00 -4.069594761333382493e+00 1.564181821590981514e+01
-5.440595210290452677e+00 -4.011355565485321684e+00 1.736670556032238011e+01
-7.445977546082724885e+00 3.687925322677254591e-01 1.532243942106549639e+01
-3.251434454747350156e+00 4.953167009832804002e-01 1.749032854597459163e+01
-6.385663436557222461e+00 -4.607579904854405939e+00 1.610649933651149723e+01
-5.651194199515123806e+00 1.166101039689803498e+00 1.236266280969010012e+01
-7.694755735958752396e+00 -2.921225905340081308e+00 1.652491700268746655e+01
-1.015916589692336114e+00 -4.239093645015996614e+00 1.591692147126928347e+01
-4.931307907730535511e+00 2.555798239229605695e+00 1.733364659641518557e+01
-6.418274897505503951e+00 -4.514564487162990858e+00 1.602382667486994450e+01
-6.089938447053313553e+00 2.089523570004343966e+00 1.698041856972432839e+01
-5.638805975351190547e+00 -4.380720102151987483e+00 1.570267986872320876e+01
-7.246250185252562481e+00 -3.357807651432585416e+00 1.736089319066995529e+01
-8.376692776726897272e-01 -3.494828933399313442e+00 1.691259442911641031e+01
-6.433333762252321897e+00 2.099579073233889037e+00 1.661844568191850868e+01
-4.602436933777356742e+00 -3.698376616189650856e-01 1.363535087047048933e+01
-7.343716405856887341e+00 -1.682466279035174650e-01 1.640634992833771122e+01
-7.032856032121412859e+00 1.609756837579728206e+00 1.496635943702336391e+01
-7.429302733159024896e+00 6.154350589682651140e-01 1.474281785798531530e+01
-5.550457550758555847e+00 2.750729403537643947e+00 1.712490159166680570e+01
-4.816537482420337746e+00 2.584077989727023850e-01 1.267174060032068894e+01
-1.820697960043107688e+00 -4.497207201997168724e+00 1.671545169489660054e+01
-3.000095543971700862e-01 -3.643435652634258726e-01 1.475911475033355202e+01
-1.937593756327097849e-01 -2.367340458843709139e-01 1.614638459563605011e+01
-5.651774563620958425e+00 2.699412717563732578e+00 1.708761494294147809e+01
-1.877988305754877407e+00 1.977675060331935519e+00 1.543961734435219313e+01
-6.260477420484538591e+00 -7.514793353059017189e-01 1.763987304215284269e+01
-5.194185290156991819e+00 -4.684561000537196485e+00 1.685720434183896543e+01
-4.275420509473759623e+00 1.867656628095961002e+00 1.745938186072392284e+01
-6.805301463960072184e+00 -2.741024727230839009e+00 1.768486844609760311e+01
-7.186030740940906547e+00 -3.830729484964370268e+00 1.589743339856453730e+01
-7.476077426498364709e+00 6.104466832582772229e-01 1.451297428378950372e+01
-2.130599680426652209e-01 5.569827377348013364e-03 1.572375517475104800e+01
-4.184171326135277980e+00 -1.545410865923983579e+00 1.467982848264720985e+01
