-7.811483900266659397e+00 -3.080319996170580499e+00 1.894915907045387371e+01
-4.942944646192667157e+00 3.462567814262819788e+00 1.759588820267418185e+01
-1.204073563584209694e+00 -1.934896713684155944e+00 1.942858870944419181e+01
-7.549202539037160875e+00 2.517438915115958853e+00 1.569685516639188450e+01
-5.228347170894610763e+00 -9.736399539260209846e-02 1.253961514855403436e+01
-3.978430044822618861e+00 -7.290521490568971918e-01 1.382989962471868495e+01
-6.334162647781496958e+00 3.275319794784854466e+00 1.738635433246354722e+01
-4.102170827881126414e+00 3.335955640987041004e+00 1.480646508201261469e+01
-7.851450883074774900e+00 1.853868745155265785e+00 1.546793270838559664e+01
-8.023955003382869933e+00 3.918848403635771249e-01 1.761277398944761785e+01
-5.359122617294755031e+00 -6.814182156890774555e-01 1.380045499102020301e+01
-4.904312015299255201e+00 4.481953088139797536e+00 1.659932360953006736e+01
-2.175454505336809952e+00 -2.612009989470287064e+00 1.976044445813352013e+01
-9.459992295364161308e-02 -2.860714787453573216e+00 1.714069344614543411e+01
-2.338296029659795661e+00 3.711622120905440969e+00 1.605861836838172252e+01
-8.172807296460380400e+00 8.787029976705533763e-01 1.547128232286917182e+01
-7.490118994776372219e+00 -1.267835372458015364e+00 1.926105066751944150e+01
-8.365796445689039018e+00 -2.084187394258881998e+00 1.816582682114858471e+01
-8.360451249524480488e+00 -2.244844329157726026e+00 1.816907295618902651e+01
-8.140419583926373548e+00 -2.048918433844350240e+00 1.868093851256191584e+01
-1.970241673838229790e+00 -2.824790654704780302e+00 1.679458332837126022e+01
-4.390608462825945635e-02 -2.837307209218168147e+00 1.738592582229790651e+01
-4.567702902807566190e+00 -4.074059664054316521e+00 1.864458853956261919e+01
-8.330267313427590636e+00 -2.263759810578338971e+00 1.832153145511593806e+01
-5.084734895401199495e+00 2.196567578106611851e+00 1.311285033739277850e+01
-8.092107313271693414e+00 -5.844725423235864747e-01 1.582689188310496320e+01
-3.738262054325947048e+00 6.437199207808469437e-01 1.907802440456557491e+01
-7.991264305972973325e+00 1.606174948122488066e+00 1.530531030608155874e+01
-7.475729146819264592e+00 5.124136230126692393e-01 1.384050729089592835e+01
-7.000856267901317542e-02 -2.868167026898257976e+00 1.855314650572873347e+01
-5.941003038280089577e+00 3.233811676528087098e+00 1.761057747231438242e+01
-3.924285824842301373e+00 3.372445681933483375e+00 1.766854864178365148e+01
-1.134712462258793852e+00 2.578529085344433147e-01 1.321074686039084867e+01
-8.007546139186704437e+00 1.600191183968926900e+00 1.512667098297617230e+01
-7.677879400477867655e+00 4.694486857944060176e-01 1.424659295557940908e+01
-7.638443980889495499e+00 -1.468035198480465819e+00 1.918327316382416825e+01
-7.754567005055412743e+00 1.202711234731381751e-01 1.471664632950086826e+01
-4.507265900140293269e+00 2.877204452733540307e+00 1.798707271148912668e+01
-4.511662367721648081e+00 3.449595022680560508e+00 1.761898133323258975e+01
-3.365581584925817271e+00 -2.885000900011681857e+00 1.720508873229009339e+01
-2.116431963424992180e+00 3.844285591928084056e+00 1.711472221894930357e+01
-1.183860807030224338e+00 -1.503378770922630725e+00 1.928705752733539924e+01
-8.162556436310648422e+00 -2.188584124351519833e+00 1.690058387977919097e+01
-2.750689997774490969e+00 -3.927585349764301625e+00 1.812508110177107312e+01
-8.380712178957999470e+00 -6.299005496811728166e-01 1.718830878920888949e+01
-6.217699828113419258e+00 1.907241780465879444e+00 1.841473157003923689e+01
-1.461119079938470122e+00 7.235405535538276256e-01 1.865696389359393947e+01
-8.174529989121221973e+00 5.738639526235264077e-01 1.664762410162821737e+01
-3.389422393881473816e+00 -1.529542151425660190e+00 1.560053528689345370e+01
-5.404641791355921931e+00 -2.022796355372247668e+00 1.995702867207830167e+01
-5.832932826064792131e+00 -1.272096983406346027e+00 1.974954346125410609e+01
-5.206224291614811150e+00 -1.549739006438741740e-01 1.266510843189585955e+01
-3.191229819359259423e+00 -1.010632567777542068e+00 1.464105228276293502e+01
-6.382015622780270903e+00 -2.166301280745013269e+00 1.592266518054602642e+01
-4.572872930534381375e+00 -3.828479313360418246e+00 1.992922572801679593e+01
-2.674629270499955247e+00 2.669735998787150510e+00 1.432152712249882143e+01
-6.514638159877517154e-02 -3.069309099070828939e+00 1.851471959308404536e+01
9.982958905415539874e-02 -1.636095717926322468e+00 1.761948863210382399e+01
-1.138024014424786179e+00 -4.029564873187271523e+00 1.854403229588263002e+01
-3.001901516380482970e+00 7.056798227251971367e-01 1.109231821623342285e+01
-8.627491584039854722e-01 7.507847361667618902e-01 1.836931838600201417e+01
-3.007306818346466848e-02 -3.093496049448935636e+00 1.836797452219421700e+01
-5.657422022361814129e+00 8.509982055384274213e-01 1.201905631615650094e+01
-7.240791957495627429e+00 2.951432448722396185e+00 1.667465744961995711e+01
-7.356166523643593358e+00 1.667352829107204837e+00 1.775789958090452814e+01
-1.908661461080764621e+00 1.812778056018901296e+00 1.827077485234421061e+01
-5.124547291910272584e+00 2.258740174980275128e+00 1.834486038303794686e+01
-1.797372703717995623e+00 1.143318326468913959e-01 1.265588632411428449e+01
-3.067908033183210037e+00 1.056558905849212415e+00 1.882990377429549511e+01
-7.329115704965526668e+00 -3.653574955040239658e+00 1.852361475942342395e+01
-1.192717299048036583e+00 6.973929397609541780e-01 1.309357324028454173e+01
-1.960171330726372840e+00 -4.125516000621160195e+00 1.894519987016440155e+01
-6.189068519790409617e+00 -5.757149133267150942e-01 1.365772549606418096e+01
-3.435845373937230107e+00 -2.171221685456338868e+00 1.986755074235175300e+01
-3.962327633425054785e+00 -4.053394541689181452e+00 1.931487779263570559e+01
-5.591142635031797425e+00 -3.509089269927378574e+00 2.001483861105383255e+01
-3.068172881376419081e+00 4.626790092981016289e-01 1.905744079316334449e+01
-5.417462211269623573e+00 -2.251662590745350911e+00 2.000824759772005024e+01
-3.359913376541613150e+00 4.275876834202860799e+00 1.648437661697252565e+01
-1.014119914085150342e-01 -3.477195500063633204e+00 1.855136420151308130e+01
-7.397004948408566705e+00 4.865793692761991029e-01 1.857190306930768742e+01
-7.250431892529855205e+00 5.659787776154614480e-01 1.864117034638087489e+01
-3.647119784453035862e+00 -1.359564915979433852e+00 1.968826260196215827e+01
-7.752861142462374566e+00 -3.264207080540736605e+00 1.890567002749403258e+01
-3.761582574140089896e+00 3.074191695944249680e+00 1.446690909587232454e+01
-4.712837796106077448e+00 4.140464209608178514e+00 1.600018107654447874e+01
-7.923945209877786944e+00 1.556327521439977879e+00 1.481956645469301748e+01
-5.030534549741417116e+00 -1.220734259067549399e+00 1.506030002406952661e+01
-3.786376282154439110e+00 -2.983876094606070950e+00 2.003526084653528727e+01
-7.379499907203001641e+00 -3.256496570951957104e+00 1.930837066845709415e+01
-6.788577100208836868e-02 -2.410401680324023577e+00 1.701766459009941457e+01
-5.159467180165084876e+00 -3.190168077539865976e+00 1.771316391498505993e+01
-7.991491200149929419e+00 -2.836279853922272221e+00 1.753494150454069711e+01
-7.284310286337222884e+00 3.019149175812426922e+00 1.598392523445170355e+01
-8.141015811675242020e+00 -2.148862754897356453e+00 1.675141548319616192e+01
-1.878764141821779088e+00 3.211634328768231406e+00 1.556669697935502938e+01
-4.357227843261122224e+00 -4.037523771082597079e+00 1.852692089772267536e+01
-8.544527927125309397e-01 9.046088725159343591e-01 1.829492281596765224e+01
-5.913293224460113073e+00 3.840623182568673855e+00 1.582335271906419649e+01
-5.269466975648910534e+00 -2.239510730697331198e+00 1.685064014070278660e+01
-1.073141380363220598e+00 -2.985739288467433195e+00 1.968192911646761445e+01
-8.276368364764849161e+00 -6.204004314963763589e-01 1.762176992674779541e+01
-6.748362256847205032e+00 -2.963301454740244090e+00 1.714454088550890276e+01
-5.391460983878268998e+00 -1.783790274182652791e+00 1.613652431757179784e+01
-6.982469739822833255e+00 -3.014142414318821128e+00 1.714755452837367500e+01
-6.610562803998683457e+00 -2.075282550000654869e+00 1.555778788818295055e+01
-4.186356548112903475e+00 -2.602776820865122076e+00 1.709891100878445513e+01
-7.865177610605236236e-01 -3.380661695579208370e+00 1.759002306617060185e+01
1.860961309289610455e-02 1.153491308072466914e+00 1.672605901695053632e+01
-7.277930681073663255e-02 8.879441642776371157e-01 1.473085475266987743e+01
-3.103592481723755458e+00 3.925472882869621483e+00 1.723957692806006037e+01
-3.421625668076553772e+00 -1.603679255548933202e+00 1.972424447077836618e+01
9.038517259531320125e-02 1.863864746939797978e+00 1.572680563561397094e+01
1.803201223799771880e-02 -1.606013136096235083e+00 1.680998349780071521e+01
1.519232384376951739e-01 -1.267581582124392980e+00 1.724965965362036258e+01
-7.595017738306862221e+00 -7.416436948303773979e-01 1.484553371454319404e+01
-8.282146405881565698e+00 -2.345984759800107788e+00 1.844362804054811278e+01
-5.783933093410748683e+00 6.276144765055474695e-01 1.208975729263018906e+01
-3.645595908202043489e+00 1.471946558758756129e+00 1.191377303274107646e+01
-1.373581697845753791e+00 -3.893878759373583520e+00 1.968398544351627777e+01
-7.903191028879823499e+00 1.689107797310208881e+00 1.573689065203482329e+01
-2.628982439995311005e+00 -2.926129684784867457e+00 1.713872008929126167e+01
-7.725433119730515052e+00 -3.381998551847488876e+00 1.836831638974865655e+01
1.400398835129784691e-02 -1.998809893650218772e+00 1.721562788853266568e+01
-6.065985838467665481e+00 1.969223441321825696e+00 1.351281526817778911e+01
-3.535408843230777975e+00 4.435765485999756841e+00 1.692869488553017732e+01
4.859815141106471614e-02 -1.294485361818154434e+00 1.787588938741028244e+01
-7.463313511458292027e+00 -3.355145810272688323e+00 1.918604609933886707e+01
-4.404169997891781207e+00 -2.162831278380070721e+00 1.676827150423540758e+01
-6.900439754042075879e-01 1.076851150402610369e+00 1.391864189356061132e+01
-3.407203989743963213e+00 -4.044004766494321501e+00 1.845828170301265203e+01
-7.098126249671946830e+00 -1.200011344032254623e+00 1.948098594526824456e+01
-8.007175100102813303e+00 -3.746927632937125940e-01 1.559720734383274987e+01
-6.189586806479058900e+00 1.909382662710111589e+00 1.356442196750386131e+01
-7.914948511520090157e+00 1.682138523639195471e+00 1.550713234877840563e+01
-6.367619723472197180e+00 -3.987857492381961855e+00 1.914617538295164678e+01
-4.083859675936561295e+00 -9.192133471061204597e-01 1.435280684059133449e+01
-7.859255040584121055e+00 1.838090977422199401e+00 1.568488891929274587e+01
-2.133873579321461378e+00 3.930379124548857295e+00 1.643513903768246109e+01
-6.436392361966700726e-01 -2.566827957351456302e+00 1.938144747012032099e+01
-4.022191248181465006e+00 -2.423132234812362951e-01 1.261449246893729281e+01
-2.797749373829617969e+00 -1.189560991797403489e+00 1.479958142016491962e+01
-8.217355563577530830e+00 3.812187775627865483e-01 1.660902458098612300e+01
-2.056072042369374575e-01 -3.834141805846923212e+00 1.869389751087197737e+01
-2.919829814334750306e+00 -2.292597249065745357e-01 1.279049829750918832e+01
-6.814702727469499344e+00 -1.254944830352832330e+00 1.462100642835078901e+01
-5.552867686784940915e+00 -4.019492437170071319e+00 1.954102158756818142e+01
-4.044315888370113576e+00 4.238758371370527911e-01 1.110904292260606496e+01
-3.607078128019250318e+00 3.024228324708194471e+00 1.787074935533388498e+01
-7.798912293143435370e+00 -2.439783862827391570e+00 1.635196509445346891e+01
-2.956741608943189270e+00 -3.918017956203999397e+00 1.811607756441599548e+01
-6.779135924442180716e+00 -1.166745726685229467e+00 1.452246145377736752e+01
-2.108222370125931278e+00 2.746070949361692382e+00 1.783527084292606446e+01
-7.525469891012716239e+00 1.193455658335492053e+00 1.791667640944572781e+01
5.043884666526249339e-02 7.556975357532348392e-01 1.649556070904083782e+01
-3.139022752908020575e+00 -3.745361475354957115e+00 1.792000425877694170e+01
-8.187081231207983478e+00 6.179069929708898012e-01 1.606964232756894972e+01
-8.166621146920437724e+00 7.264346994478541042e-01 1.617984628095022259e+01
-2.835362224995307212e+00 1.678923744055587530e+00 1.247771140639221699e+01
3.357017511534471366e-02 4.002609818142972564e-01 1.689051796276577733e+01
-9.945008236119026179e-01 -1.920576610878964363e+00 1.528150031868215564e+01
-3.880565173663991230e-01 1.766323795775676775e+00 1.742213255837002350e+01
-6.998394142318862698e+00 -3.716674676396943156e+00 1.933388659397633802e+01
-3.066988384695279457e-01 2.427279349123477203e+00 1.577693210787204237e+01
-5.249488242846745756e+00 -1.851781589293732377e+00 1.990933313118278392e+01
1.436963980224310045e-01 -1.424839307692751689e+00 1.723047725817606590e+01
4.126378700396221566e-02 1.168776541607745800e+00 1.643751465674688461e+01
-7.918614345724853898e+00 1.648174457974719065e+00 1.588905121197578296e+01
-3.407945058177894282e+00 -4.056685991327523055e+00 1.899436880442623021e+01
-6.102588745816078131e+00 3.008482349616565799e+00 1.773699038077806733e+01
-3.506747639872412226e+00 3.205941889993795257e+00 1.476079288929515343e+01
-7.052389483245494084e+00 -1.832491081402018551e+00 1.964359022775222741e+01
-4.753966189780234330e+00 -2.660996315942378843e+00 2.004970493512074370e+01
-2.926574145526460224e+00 4.397151971784056812e+00 1.678047314892940989e+01
-7.697307607049890699e+00 6.846580219823501512e-01 1.420445421178011003e+01
-7.109093875498844639e+00 3.252367317887621567e+00 1.655386393880908003e+01
-5.517058808167038642e+00 2.015051646830828158e+00 1.847056622470233123e+01
-5.011235164106897066e+00 -2.462664882589229887e+00 2.003057575863874007e+01
-7.055254194893358921e+00 3.422298869182121450e+00 1.636704754878692825e+01
-8.245344123396890268e+00 -2.454636981082416014e+00 1.774021159571844919e+01
-2.186442659847893655e+00 -4.060156182381938095e+00 1.853846256939537085e+01
-5.534011306100328653e+00 3.903266371709943172e+00 1.579805847556524157e+01
-2.733710860141342458e+00 4.155512328871944661e+00 1.704242345587853436e+01
-1.155154255081641823e+00 -3.358015553130355713e+00 1.973115344240669344e+01
-6.765175432156938840e+00 -3.846890438954290836e+00 1.931417347280311247e+01
-6.403205533799631866e+00 -1.325874402905150351e+00 1.475737912478464864e+01
-1.936841102601331244e+00 -2.180680936670497783e+00 1.586782458335895996e+01
-2.865744594621049135e-01 -3.363600635139414763e+00 1.900283756609185559e+01
-4.765652613554318684e-01 2.814395903421693212e+00 1.677677737723506368e+01
-3.928182995389892795e+00 1.553720898563731856e+00 1.203081892426317978e+01
1.159663894977885912e-01 -8.287487561368623856e-01 1.723118486123405546e+01
-4.658876533407248388e+00 2.069955706327723188e+00 1.287128570840411612e+01
-4.564282094934474232e-02 -3.475762698013783236e+00 1.832552484319087682e+01
-7.229315278409339740e+00 2.644262040465295005e+00 1.535818767657745809e+01
-1.532650144379580359e+00 -3.380387446777313620e+00 1.740687993445761350e+01
-6.820766049241702156e+00 -2.863119262456876424e+00 1.979888074730674674e+01
-4.322503532197932152e+00 -3.791586266391402837e+00 1.812818097452485233e+01
-1.167592224507768117e+00 -2.714886724505395588e+00 1.965587303909958905e+01
-6.703919699445191061e-01 -3.631877970320858573e+00 1.946758043694616447e+01
-5.812447447577718584e+00 1.906214348350992793e+00 1.318388469382314554e+01
-5.565956358541654936e+00 -4.044022003034784873e+00 1.872240818462709200e+01
-4.133552420942230299e+00 4.231810465658159437e+00 1.624530777515597180e+01
-7.658347181902890988e+00 5.545826565379685658e-01 1.823159396005925714e+01
-5.783344920638241460e-01 -3.740039609623331707e+00 1.934967442914277314e+01
-8.336344431993278903e+00 -1.199152739362056685e+00 1.661316438405266638e+01
-2.749063715666742347e+00 1.783192436341158871e+00 1.844115552707921779e+01
-1.905003857709451243e+00 1.418571282818086310e+00 1.846206416269141215e+01
-7.614298168071462314e+00 -1.151091408571642827e-01 1.874861735291586484e+01
-1.926344711603008353e+00 9.946804629746722748e-01 1.866000836745439528e+01
-7.580992185485310841e+00 2.234303583407414528e+00 1.676233400370688997e+01
-6.215766051621003818e+00 -3.701286783513375589e+00 1.979570088990649168e+01
-5.567139603355720778e-01 -3.077085068321856465e+00 1.716007679105349837e+01
-4.959420368830001813e+00 2.518543425713780648e-01 1.161065469140134354e+01
-7.645251990977613765e+00 3.243163167479274911e-01 1.841234310822597564e+01
-6.784650870432193059e+00 -2.479341938548917934e+00 1.983102215436716875e+01
-5.202842634884223827e-01 2.175629951588704536e+00 1.518388835366226175e+01
-6.000881193477151321e+00 -4.769345203630698249e-01 1.346595569539085346e+01
-2.382868443609135856e+00 -2.477815625706980107e+00 1.659557229512007837e+01
-2.075615150108538476e-01 1.373864497659986750e-01 1.807314940732572950e+01
-6.251100347095509768e+00 -4.234115243122416050e-02 1.928280668553315280e+01
-8.061031329754616337e+00 1.483604044294239310e+00 1.508844597659427933e+01
-1.403492885246710786e+00 -3.139472257921554821e+00 1.707884772497690307e+01
-6.258457479442149030e+00 1.553561609355731399e-01 1.920630772120455276e+01
-8.376671623875438399e+00 -1.009677702902684437e+00 1.677786306798141425e+01
-6.817745243477945749e+00 2.089595628529715032e+00 1.437130222693145498e+01
-3.451780655599483438e-01 1.374248703327676013e+00 1.462053419704390222e+01
-7.656208828548254353e+00 2.265281197472208685e+00 1.650865123491722386e+01
-2.412036519146550928e-01 -2.573497691969055978e+00 1.658845441629954109e+01
-5.718463967703355522e-01 -3.096721482268775638e+00 1.940227624791582883e+01
-3.082373637800555066e+00 1.022581171328049710e+00 1.137840515896697013e+01
-4.180833902135225877e+00 -7.320782183465101012e-01 1.385586171553904933e+01
1.172990031428937097e-01 -8.040295906896425260e-01 1.686095010740088185e+01
-4.789192873092837033e+00 -1.655258662605530340e+00 1.597569283813787422e+01
-7.839908443878093713e+00 2.013916549747819751e+00 1.610480536363420612e+01
-5.228742565364775885e+00 2.121708718719310660e-01 1.187124079120897591e+01
-5.337721050432266523e+00 -3.421982507542045582e+00 2.005574287424455093e+01
-6.074894347712171516e+00 1.589082454475149841e+00 1.309941885851819166e+01
-4.855502691180747732e+00 5.295852982702377032e-01 1.108472600130537700e+01
-3.569811770209868396e+00 -4.046803555775349892e+00 1.910380684027432352e+01
-7.163759002434209933e+00 -3.247598747730566338e+00 1.948562849530514995e+01
4.461775395142919542e-03 -2.319461844796987249e-01 1.764523118252930090e+01
-5.854777158765155143e+00 -8.291264105396382034e-01 1.405342556480520244e+01
-2.697670162817729533e+00 3.273528353472530572e+00 1.760634792225732781e+01
-3.000956690927021331e+00 -4.055097269899872181e+00 1.912497024172892424e+01
-6.742702566807110998e+00 4.079179774488150834e-02 1.329883219301612485e+01
-6.186185302671356467e-01 -3.904934907148196466e+00 1.931489396297337890e+01
-4.519921690107700840e+00 3.048453659799277737e+00 1.788421812053969973e+01
-7.524530354363010431e+00 1.441047832269633178e+00 1.770759705843288145e+01
-9.307025251340996785e-01 8.735546567096230675e-02 1.357802892388421157e+01
-8.193845141271335564e+00 1.196298269541468340e+00 1.570280987311840448e+01
-4.540191042801829946e-01 2.613799325832536491e-01 1.425607836165924169e+01
-5.812239166067652896e+00 -2.650815821086350166e+00 2.007213806573605552e+01
4.742309236280178864e-02 9.948551254758501994e-01 1.650978891691494255e+01
-1.354284120262181590e+00 -4.074092027341492894e+00 1.934986915461860235e+01
-6.994226379207097999e+00 -8.392961722221080612e-01 1.426099792008864142e+01
-7.512656715959375120e+00 -2.454122328279561005e-01 1.889715011790563182e+01
-1.043499549915702040e+00 -1.537870737270510713e+00 1.484737336527688711e+01
-3.553820291580310764e-01 1.919122475198795197e+00 1.728757310120496271e+01
-4.736964607434375196e+00 -3.922644421928374037e+00 1.838377401423751678e+01
-3.469451308107180498e+00 3.633893928007285279e+00 1.551239416270799865e+01
-1.025231542461544354e+00 -3.300685509628717540e+00 1.968580458334042760e+01
-8.248350920474649683e-01 1.702257702318058730e+00 1.425351113592833485e+01
-3.755892344117870429e-01 2.708643626669418492e+00 1.668230672435066708e+01
-2.563298220149406781e+00 -3.939944662695975097e+00 1.814100013766295660e+01
-2.282805367910751837e+00 2.126765167220661557e+00 1.818917363082840666e+01
-1.459667601567665729e-01 -3.381504290752435082e+00 1.776313515998334935e+01
-7.977630666300135509e+00 -2.593763704402354708e+00 1.696971769473982050e+01
-8.248626716735429909e+00 -1.247897368431857501e+00 1.821560648022369122e+01
-3.832665431889296315e+00 -2.008138882542796821e+00 1.986080534429533628e+01
-7.790025340840608159e+00 -1.531010912733918872e+00 1.541457597092232845e+01
-5.636330293197469921e+00 -1.255777797512006799e+00 1.975890324421347799e+01
-7.363218188161187783e+00 -6.749788183129402652e-01 1.444673536609315079e+01
-2.997966725154512790e+00 5.845143429946459968e-01 1.109177004465604455e+01
-8.330683712974106925e+00 -1.827003581838495538e+00 1.717156305081213219e+01
-3.923981644892235998e+00 3.923111361071837333e+00 1.579854322662408350e+01
-3.578160141634891378e+00 -4.056604893279557089e+00 1.898440765677661801e+01
-3.213246561188789041e+00 -1.579158157640738747e+00 1.565037230751588027e+01
-6.544772451673758873e+00 3.885819534222416660e+00 1.659903518282149548e+01
-4.606842630815557449e+00 -3.446597984512624002e+00 1.786807364910967522e+01
-6.571824331419459320e+00 -3.471885454077849431e+00 1.977347939578717728e+01
-7.866466991454932334e+00 -1.556440870412047150e+00 1.555977358799545129e+01
-3.778337882639871692e-01 -3.192968924735651193e+00 1.740227995263320082e+01
-7.228941928841360109e+00 1.961649489425436599e+00 1.767611804397186148e+01
-1.888573997851345609e+00 1.549057800468050416e+00 1.839482096192434568e+01
-2.439294852893372223e+00 -4.948136821483776204e-01 1.326207675344181069e+01
-7.917079260869521740e+00 -1.539571109099294066e+00 1.566084550704305656e+01
7.371275125037779485e-02 -1.195398601226964619e-01 1.587391130333521261e+01
-7.736013004275739124e-01 -3.336697707308354133e+00 1.751603812174625574e+01
-2.787621039918712906e+00 -1.969451984893040741e+00 1.970830172361744559e+01
-1.206602297006921676e+00 3.676241863642486063e+00 1.673944351475184789e+01
-8.008558788169452214e+00 1.090923913492951591e+00 1.483774074863400472e+01
-4.143824391031848187e+00 4.322621954025291480e+00 1.703322602248697137e+01
-2.478107201586041253e+00 2.504251507383495667e+00 1.803388435376783150e+01
-4.946329100932508993e+00 3.019040136947600317e+00 1.789736724449453220e+01
-4.151885217758700897e+00 -3.334637954737124765e+00 1.768341231315469742e+01
-5.549292099489831820e+00 -1.853748376153812938e+00 1.621944204708786685e+01
-4.446024118805694592e+00 -1.430812444875333878e+00 1.975255842419939967e+01
-3.222460019438461387e+00 -2.483685142972479332e-01 1.273820194543417017e+01
-3.915766957423387318e+00 4.506236662716843533e+00 1.681425837479623198e+01
-4.321394269615981720e+00 4.501114697563986411e+00 1.678036903325973839e+01
-5.631921477540126730e+00 3.052199427474169724e+00 1.461264229869227904e+01
-2.495523129019383113e+00 -1.267057343151846815e+00 1.476382329186064624e+01
-7.581704986296393223e+00 -1.543105994876869058e+00 1.520993842265419005e+01
-5.066824689737067011e+00 1.280650062165354708e+00 1.184846150969539025e+01
-3.540930658170518885e+00 4.508496115640099333e+00 1.679402058204989601e+01
-1.185061852281579231e+00 -3.146941778319648275e+00 1.972835848459894237e+01
-6.736443971498393246e+00 3.138089440043529965e+00 1.550219849472446754e+01
-2.801589069647832719e+00 -3.113128297215961293e+00 1.732481810083272222e+01
-7.600970586903718740e+00 -3.453605871637352109e+00 1.892107839867583863e+01
-4.819995459540080240e+00 -1.409138298355272045e+00 1.544597473028648693e+01
-5.914450743228140794e+00 2.040487349008071938e+00 1.344414913061280714e+01
-7.049530170855486055e+00 1.712125295351625942e+00 1.412122686690305073e+01
-6.985537656801121820e+00 -2.742325329747950402e+00 1.655391818752455890e+01
-3.485890111515856926e+00 1.464964374138520320e+00 1.871577791427800008e+01
-8.044993841124401968e+00 1.225354920125344194e+00 1.606647369415110660e+01
-2.737974893291574396e+00 4.106204083985060649e+00 1.643448613019002380e+01
-8.356724618059384824e+00 -1.414143624220676632e+00 1.680216070942034179e+01
-3.868759234416537574e+00 1.707712118092383768e+00 1.226562350343243679e+01
-5.203654897091117171e+00 -1.759274020569996377e+00 1.612453687408273595e+01
-1.536814873775138590e-02 1.808641758641101216e+00 1.653483070556267620e+01
-1.705957257875177380e+00 2.947456289964820009e+00 1.758817483545362137e+01
-7.970669381481523708e+00 -2.679251300343191033e+00 1.889266762231850549e+01
-7.200093745092701170e+00 -2.092204870936684724e+00 1.958012621151046062e+01
4.459247436268315434e-02 1.809038876422348174e+00 1.637492933966506570e+01
-1.842901950649340481e+00 2.094615683543438411e+00 1.390840667038318657e+01
-1.645334516584764373e+00 3.625311678688262207e-01 1.251015132280623732e+01
-2.462309417857624361e+00 5.708731300013565324e-01 1.149634453021882763e+01
-5.988215194388003759e+00 -3.267603486996961237e+00 2.002446588421901197e+01
-7.465888413463997786e+00 2.649015598556295537e+00 1.574023193973495438e+01
-4.656539803177135006e+00 1.598987791963119687e+00 1.214725678605443449e+01
1.126546789643155799e-01 2.054313061701619869e+00 1.614476553860207275e+01
-9.612911695234418463e-01 -3.504180845025098634e+00 1.771750569867098335e+01
-2.363147404468438850e+00 1.162918229210897492e+00 1.203476078747392819e+01
-7.419337117150315297e-01 -3.525089154476933828e+00 1.953526693580327134e+01
-7.846377482438456674e+00 1.650556274716512561e+00 1.489830440229781061e+01
-1.372006011190063379e-01 -3.488141470637117436e+00 1.792741885280457126e+01
-7.352949618586011482e+00 1.961438259839336506e+00 1.462089276530993942e+01
-2.124129231775851778e+00 3.944349606100389760e+00 1.705466289821121251e+01
-8.077526650672918862e+00 -2.888103621973720170e+00 1.784824672824217373e+01
-8.207419034274636260e+00 1.191445519267805064e+00 1.583297229332389122e+01
-1.932336327299317702e+00 4.158050030372298700e+00 1.680419132657146264e+01
-1.562264332188419980e+00 3.246993202849650206e+00 1.731867659261567383e+01
-1.907752984313387579e+00 3.802380714395618533e+00 1.707336575118667099e+01
-1.377736369600270239e+00 -2.811173382586236613e+00 1.657566843132885026e+01
-1.159938028911723817e+00 -3.520086606316889188e+00 1.766248962427069102e+01
-3.402317677129122586e+00 -1.788382754499135974e+00 1.604350292479843887e+01
-6.993774277718236121e+00 -2.336963616552368617e+00 1.577922784030270975e+01
-8.200562259994125469e+00 1.037380053669867630e+00 1.586718509289155321e+01
-7.352806897816321019e+00 -2.325235768319066754e+00 1.578744703548464656e+01
-4.793468372284212187e+00 -1.483674059345342577e+00 1.560300569003680238e+01
-2.400364184958934999e+00 -3.512652521073030831e-01 1.922629005189582330e+01
-6.632681808803734036e+00 6.064112606784591852e-01 1.283511064046858507e+01
-4.473793249707386011e+00 2.636872420609918777e+00 1.374956313986325540e+01
-4.283378238869453014e-01 2.862119226852892329e+00 1.660299667085484998e+01
-7.428917956846257553e+00 -2.180835255424462549e+00 1.567518515243848043e+01
-6.616651527183930348e+00 -2.457571477620857259e+00 1.617946831834537846e+01
-1.613153692930568761e+00 -8.835625195734656545e-01 1.386735275464344141e+01
-6.127999809902862971e+00 -3.969066147289090019e+00 1.947170557684366798e+01
-5.578280472951953062e-01 -3.995972696773359978e+00 1.861623335881496644e+01
-3.214334442709356754e+00 -1.308165043524318172e+00 1.517757314266881252e+01
-5.975608408565848073e+00 4.100883280479185045e-01 1.228635760284878842e+01
3.293162352349893185e-02 -2.211014458491658896e+00 1.761516786808632418e+01
2.609836552250505148e-02 1.208951611047905494e+00 1.655319809587621194e+01
-5.584289312021079255e+00 -3.837382942948273978e+00 1.834539457272671825e+01
-5.883052667784328449e+00 2.196810554841427177e+00 1.832622640389250535e+01
-5.710437290521758413e+00 2.185548862353547506e+00 1.835848434266129914e+01
-7.773756718224336559e+00 1.676600758746974229e+00 1.692789924025891679e+01
-3.997918535653608885e+00 -9.471717772048503514e-01 1.443745574613097205e+01
-3.018530968114396806e+00 -1.030642204478513069e+00 1.463013600232547162e+01
-6.362755898726740966e+00 1.306977357446247989e+00 1.314463587920538146e+01
1.647255316119949353e-01 1.794697079165766374e+00 1.591655514148862949e+01
-2.584360437031355762e+00 -9.551073948279343862e-01 1.421354315669206869e+01
-2.462201857750996314e+00 1.278586378076571606e+00 1.211928968698726550e+01
4.778303469405165149e-02 -1.813072771080970647e+00 1.720630639806217488e+01
-6.337433671257118206e+00 2.657135028112733277e+00 1.789910690664238047e+01
-4.489593650870340014e+00 1.662618547123408952e-01 1.160150666487014348e+01
-3.011927685044862635e+00 -9.366344474310429602e-01 1.443246891218915096e+01
-7.391218060920021315e+00 -2.418065509203617847e+00 1.591786044418724799e+01
-7.716320167154115062e+00 -1.657534347771990380e+00 1.537620321871209228e+01
-8.056121985333707158e+00 1.004526508679800534e+00 1.665608069232376920e+01
-3.370098017039212301e+00 -1.722590177060632666e+00 1.592353911144396506e+01
-5.199111706774195873e+00 -1.299673589253456996e+00 1.520775700191644120e+01
-6.712174467410759959e+00 9.672820534622617039e-01 1.873151111939925073e+01
-1.693299228002272727e+00 -2.799895216255632313e+00 1.661925565104193225e+01
-8.462615928725971681e-01 2.675043819645225529e+00 1.550700231352472969e+01
-7.204563020858838485e+00 -2.881543403757771848e+00 1.953955157911462948e+01
-6.646519393148349941e+00 -1.343275328577818506e+00 1.472293615541155987e+01
-3.646362470199515649e-01 -3.919955987872032921e+00 1.853133442071409576e+01
-3.597758381878814138e+00 -1.411861976634163796e+00 1.541319652340160218e+01
-4.997517196961973163e+00 -4.083988846770073344e+00 1.950424785251335891e+01
-4.324133581484151945e-02 2.625747346671236659e-02 1.530045921945039566e+01
-1.963538442381482341e+00 -4.063736048667090373e+00 1.951112584666993399e+01
-9.560974660320025187e-01 -2.787560612035212770e+00 1.658137411588997878e+01
-3.227413707570922607e+00 1.300205655442167707e+00 1.168839996820171478e+01
-8.405451604993704251e+00 -1.011637617667004552e+00 1.723070973462140643e+01
-8.095142689779823542e+00 1.502155585390454018e+00 1.552037038572921546e+01
-5.785595675993936204e+00 -6.832568212378170580e-01 1.378032032246464667e+01
-7.464237883421974473e+00 1.779499226892412356e+00 1.749364818635003616e+01
-6.336772955665730400e+00 2.837993974856878321e+00 1.776177368079199681e+01
-7.843000470262777135e+00 -1.028681657993708143e+00 1.884758693522706352e+01
-5.211309933316934373e-01 -2.453982612308752476e+00 1.926166704072506519e+01
-4.808188730234609132e+00 -8.535372783384646000e-01 1.423907165959415977e+01
-4.098675046934483923e+00 2.103612629222795682e+00 1.841490542606575076e+01
-4.618034254221035972e+00 -3.002503019309170185e+00 1.750248395296468829e+01
-7.662730513893722950e-02 3.385456197033063219e-01 1.494210801323856685e+01
-7.128387489623098539e+00 -3.628386621827359271e+00 1.931698454269672993e+01
-6.409919331822048427e+00 -1.954400673926769194e+00 1.554173800657067517e+01
-7.434399790288359178e+00 -1.107666168488666836e-01 1.420448519563378653e+01
-1.835043236298834923e+00 -1.352360810294891635e+00 1.940804024256364357e+01
-7.065390492165031233e+00 2.800323617250679131e+00 1.538283058712907092e+01
-3.343999873604885487e+00 4.243117584894667838e-01 1.118829844136036655e+01
-4.123583862719298665e+00 3.278706293612996259e+00 1.773343473091268407e+01
-6.217142915710166307e+00 -9.244163133024533296e-01 1.421433631897201622e+01
-2.394626021277476147e-01 -3.816948966484417838e+00 1.839922470116911057e+01
-1.682676134804500734e+00 -4.579396370167628794e-01 1.333603765065171132e+01
-7.528580126794760297e+00 -3.579275521115961034e+00 1.872111497526911705e+01
-1.892391628766956657e+00 5.606319402889601289e-01 1.212426207864299244e+01
-9.534938104604693265e-01 -2.350622936763395288e+00 1.583043380356865271e+01
-6.515503435932123999e-01 1.381996046546407619e-02 1.404842139332881601e+01
-1.562319403090291159e+00 -1.909893122491303608e+00 1.526905921555341195e+01
-4.129256933488456571e-02 -3.486144712579143601e+00 1.814660728510092014e+01
-5.739938153106463936e+00 3.615489234720027589e+00 1.547124271827260600e+01
-4.658056412953074599e+00 1.101026964533264874e+00 1.148489348740494620e+01
-4.964026765708117850e+00 -1.954721777402721905e+00 1.654849418861593335e+01
-4.793985390781164924e+00 -1.876222762325196580e+00 1.644427700882801702e+01
-5.358700619863004277e+00 3.080760819985286059e+00 1.783537115642207027e+01
-6.462029189941391749e+00 3.246902961271913135e+00 1.537578577701219729e+01
-1.414668339984642698e+00 5.709365847489566992e-02 1.304066756979939612e+01
-2.727487889704971025e+00 3.512322963035221957e+00 1.562950836444073843e+01
-8.247252145137128565e+00 -2.254420630346730015e+00 1.753677614264490359e+01
-7.350583983226707474e+00 1.771472996206900685e+00 1.443453099917546467e+01
-6.749206979411127350e+00 -6.025221069833813781e-01 1.388965881284887871e+01
-2.364073306379815609e+00 3.319580033724563783e+00 1.751752648173240345e+01
-6.370027352153213585e+00 -3.821749986314384451e+00 1.963679711502224023e+01
-5.573180528478398621e+00 -3.525716309160328521e+00 1.801176162384029311e+01
-3.138075164332451372e+00 4.456219713314574449e+00 1.684668632942801736e+01
-1.059688752550128621e+00 -3.111747304820231541e+00 1.968740421962002074e+01
-6.796034476796359414e+00 -2.274866237537978453e+00 1.573867035779257151e+01
-4.965236438395087326e+00 -3.620338977564058425e+00 1.808207377125176407e+01
-8.277944667632112896e+00 2.656854761301619128e-03 1.664458086757394284e+01
-4.099010177253834541e-01 -1.115746371237865908e+00 1.880805689705282191e+01
-4.548337919558169240e+00 4.057371829586823075e+00 1.583742304956380309e+01
-1.227892479002813175e+00 -2.807605497028396790e+00 1.969359500839885868e+01
-6.602118963524135076e+00 -2.720311361722099974e+00 1.679348624597689366e+01
-2.624111004470019548e+00 3.663611132646131807e-01 1.166575574120356862e+01
-6.094570831022920743e+00 2.165832712880708222e+00 1.829784599253444100e+01
-3.578863572328807585e-01 2.775445743980335500e+00 1.655748808260905491e+01
-9.500941957447954778e-01 -3.922473243406340515e+00 1.832927926341429270e+01
-7.016304677245853050e+00 -1.259622621375317220e+00 1.953011705385348051e+01
-3.629154822980830142e-01 2.629875023696618408e-01 1.444196525728961689e+01
-6.474439476414768357e+00 1.746698681563066291e+00 1.369429258238501745e+01
-6.611345281472814861e+00 -3.910941897683461121e+00 1.930523654394841770e+01
-7.561522027375414901e+00 -2.603619478155525524e+00 1.634457761795733433e+01
-8.008409776745434527e+00 -2.563733067289607481e-01 1.821711373212503560e+01
-1.261687634778188016e-01 -2.445670610362059794e+00 1.678781784440410263e+01
-6.105532815658309964e+00 3.452459590134924650e+00 1.539719254227733813e+01
-2.916289981828762645e+00 -4.066789989542720640e+00 1.928071962290466956e+01
-7.915479974821995945e+00 3.315900559136708559e-02 1.520771277571076041e+01
-5.371227350026823721e+00 -3.957617759409870928e+00 1.850604372979358914e+01
-6.237513091706975210e+00 3.410129169952420547e+00 1.543653956633286128e+01
-7.159711690076097312e+00 -3.145835069548321261e+00 1.750832819710786481e+01
1.016659691452668213e-01 -6.061606029045470967e-01 1.708275388283922069e+01
-3.403928876129337588e+00 3.243993197178278276e+00 1.488852511353826458e+01
-7.410243011530071477e+00 -2.387648476843161616e-01 1.897530119954042505e+01
-1.892769373417864109e+00 6.314763950819535232e-01 1.880207165367855282e+01
-5.574076576870995225e+00 1.016863269845652562e-01 1.232626214581853219e+01
-1.465870181089099722e+00 1.477697482669053874e+00 1.332697813922957408e+01
-8.214771425587514386e+00 -9.719864921229096622e-01 1.619737010552974965e+01
-6.498880941089180130e-01 8.454542752188679566e-01 1.390658907490877283e+01
-5.101279217479726569e+00 2.406517736997595414e+00 1.826423929260680268e+01
-4.326324232464475728e+00 3.679879750858888077e+00 1.746616673985710833e+01
-1.462309147603831683e+00 1.400865389150353080e-01 1.291968416986811974e+01
-8.102600949355352355e+00 1.097364420435303689e+00 1.507861831295214472e+01
-2.175715525994119659e+00 2.195676126285722729e-01 1.223029420670145839e+01
-3.778433262260351810e+00 -4.048402768385022554e+00 1.934610992304351385e+01
-8.283466845128081957e+00 -1.997230754891365923e-02 1.682815096059383109e+01
-4.410144369632262418e+00 -2.050773340610054341e+00 1.666038071531942677e+01
-3.708598700640129309e+00 2.284778440211235218e+00 1.830190372982468716e+01
-2.841594919772346906e+00 1.522999297019402398e+00 1.858647721424685528e+01
-5.404733085795182523e-01 -3.330815385147005259e+00 1.938222258440715962e+01
-3.028298132559108513e+00 -1.108892725442927940e+00 1.476928374479975048e+01
-6.365134265590592477e+00 -3.050399581548601802e+00 1.996416398999643604e+01
-2.206647818851068976e+00 -5.004201125092108127e-01 1.325102680011535483e+01
-1.993866865360616636e+00 -3.564539636732060757e+00 1.983927446967413033e+01
-5.669237885104918551e-01 -3.522730464436880204e+00 1.938531759442806646e+01
-6.879040727535044475e+00 5.260630083697778181e-01 1.306711729606671923e+01
-7.130343902282899826e+00 3.042818901022157352e+00 1.675831517025025619e+01
-2.289490290049711163e+00 -2.139631824721847320e+00 1.604883403337968417e+01
-5.982384595251994952e+00 1.346447514217171459e+00 1.276121721062284564e+01
-3.563011798728149770e+00 3.687410566899655961e+00 1.744558156579547159e+01
7.358101646612830171e-02 -1.264726664701314451e-01 1.607301170730521989e+01
-1.587727809764925224e+00 -2.255427600219160222e+00 1.576744317232289916e+01
-3.155676117441983841e+00 -4.048010851860955661e+00 1.913431468337822139e+01
-3.380564918659064721e-01 -5.885618023385886799e-01 1.503293310742101596e+01
-6.538233215916808838e-01 -3.315935038827118930e+00 1.948528775407049807e+01
1.358960922130640070e-01 -9.972427773421875807e-01 1.726368188078489396e+01
-8.011851873902411825e+00 1.463671889678849869e+00 1.492755455724915947e+01
-6.133099727715453753e+00 -3.934044953431856229e+00 1.954955840012571855e+01
-5.143588898104306750e+00 6.820258450070013634e-01 1.128382590574965860e+01
-2.791054486414921154e+00 -2.480729673332816354e+00 1.676586044765814876e+01
1.073695262640583237e-01 -8.060047860961540023e-01 1.665315417381758323e+01
-8.355073073847055554e+00 -1.600448463558518331e+00 1.695033855370780884e+01
-5.395856863187987074e+00 2.295741579437276414e+00 1.338820730439324791e+01
-7.387825098540916180e+00 -1.505786972148044356e+00 1.504968444270541994e+01
-5.284603611351746721e+00 1.780215902672227513e-01 1.929315114391139474e+01
-3.151927231972571075e+00 -4.075246508773373577e+00 1.888461716497454290e+01
-2.995342050223392061e+00 -3.329705152212530939e-01 1.304441894645702860e+01
-7.241156685248026470e+00 -1.062926048494157172e+00 1.937186166796598741e+01
-5.151777802571605669e+00 -3.434581411336173673e+00 2.006164121513745613e+01
-1.127073305362022437e-01 -1.640106742993560740e+00 1.633280013133114750e+01
-7.348259148912828387e+00 -1.131346652996741309e+00 1.932832641760663961e+01
-8.316490292187221911e+00 -2.560863919566837232e+00 1.816748084211412362e+01
-8.202097663927300886e+00 -2.435328017023025371e+00 1.756671308396318665e+01
-9.212202911260869431e-01 -2.247476421309012817e+00 1.569670102042363879e+01
-7.180927039891988883e-01 1.244007216236984847e+00 1.803626768761869670e+01
-7.821902402830651191e+00 -2.850829696889278786e+00 1.730571369804603421e+01
-2.485645898774661244e+00 3.839568770904485673e-01 1.173967815816578764e+01
1.277212833351428767e-01 1.440812862912005166e+00 1.548911850942628377e+01
-2.163358116574172652e+00 -1.396221645089452679e+00 1.479737193520801952e+01
-2.758018455784156941e+00 4.383636419425723574e+00 1.680193558108283725e+01
-2.609903879999954768e+00 3.800576040926950672e-02 1.225187266232290284e+01
-2.117079510519728203e+00 3.337653277920886286e+00 1.563628978614286780e+01
-8.276623081191431197e+00 -2.281223709503071184e+00 1.769661863616379094e+01
-4.381997002010968423e+00 -1.951473381134882334e+00 1.653075602588761939e+01
-3.556001594149959644e+00 -4.043479056430737906e+00 1.931396480626899859e+01
-6.644557606075601086e+00 -4.516235913714407024e-01 1.936297044938223877e+01
-5.410973189155004803e+00 -1.411490927336916723e+00 1.540025157723255944e+01
-6.198694176335458828e+00 -1.442022360281880911e+00 1.502083821477876313e+01
-4.750098966927784438e+00 4.064951303123535808e+00 1.718557535800120206e+01
-8.188318421506824762e+00 -2.007959534004637447e+00 1.674383967838230802e+01
-4.686868910199128990e+00 1.429030924730132046e+00 1.876268415821638058e+01
-6.354644153518991700e+00 -2.810529039998970191e+00 1.712871914313520705e+01
-7.335732117931360818e+00 2.348566408128388350e+00 1.509161780886894633e+01
-5.367998175465971578e+00 -3.242642772853963073e+00 2.008395971048035022e+01
-5.385957832026981862e+00 -3.649329945836766065e+00 1.997896342654559731e+01
-2.725278612385476418e+00 2.160484309843641704e+00 1.340811350707083704e+01
-5.969860550795048404e+00 -2.664382926332408141e-01 1.314747353778820127e+01
7.187517153757616573e-02 2.207580924377305909e+00 1.614658425863343183e+01
-7.172761668284752368e+00 -3.241299643179658574e+00 1.770807747009713751e+01
-3.202511567469857656e+00 -1.564234265327836049e+00 1.968237838989924171e+01
-4.393274963911836473e+00 -1.748769360098350045e+00 1.619514050265694038e+01
-1.322767408451011928e+00 1.577123440833265722e+00 1.359929977658497791e+01
-8.297673257296654725e+00 -1.633165228956483084e+00 1.673009745981098462e+01
-7.772801292556771990e+00 -1.976533959960708575e+00 1.578015735633614014e+01
-6.835585213365005242e-01 2.372380357077868318e+00 1.737956454257037819e+01
-1.902898872567581723e+00 1.161362984950659705e+00 1.858219337798966819e+01
-1.912939048107409334e+00 3.543240595077725708e+00 1.600164390285979721e+01
-8.202580893217799485e+00 -1.594390400166816324e+00 1.639543273665346135e+01
1.185950148394118164e-01 8.315028822419188170e-01 1.531596206855113707e+01
-3.371530926253071936e+00 -1.568154402106820555e+00 1.566650819740340239e+01
-6.866881968109824541e+00 9.500512683221604693e-01 1.866955045014569237e+01
-7.172394936810801980e+00 -2.848216927848504998e+00 1.672418149776154905e+01
-5.637745376163309174e+00 -8.143264674445124252e-01 1.404210790445475965e+01
-3.762125401566963845e+00 -3.894942496151291955e+00 1.814980007505003812e+01
-2.773696155354620885e+00 -7.489945579525347785e-02 1.243229684266913182e+01
-2.213553148481447241e+00 5.407991864735972598e-02 1.245581651675163926e+01
-1.259366663869461167e-01 -2.288137583939243047e+00 1.864845524642703367e+01
-7.372297290947414261e+00 -2.562929368792295381e+00 1.616276406654588271e+01
-8.040422884008890492e+00 9.704562519485876448e-01 1.688189874789247114e+01
-1.609738810468600345e+00 2.897521782280391811e+00 1.527540037239799631e+01
-6.978393843867567448e-01 1.257042852935656763e+00 1.397699126584748797e+01
-7.653803821173512212e+00 -1.654225661126597746e+00 1.920231114003379957e+01
-3.609984806658152579e+00 -1.856800191037317305e+00 1.620363445355678778e+01
-7.981209975876162765e+00 1.568582518737386078e+00 1.560102569473697542e+01
-1.763753975451364919e+00 -4.018921828335331625e+00 1.841100297202287805e+01
-3.991939885206199357e+00 -3.297511790153980549e+00 1.762156176853471834e+01
-2.433199886105591236e+00 2.102487233546543877e+00 1.350499923423792836e+01
-8.212420368981419472e+00 1.385643657799708883e+00 1.548558580545056884e+01
-7.428315923128285370e+00 -6.440069589980834674e-02 1.887867720377015246e+01
-7.595935896671269560e+00 -7.791736951433525515e-02 1.446071112661234537e+01
-3.593817228745708636e+00 -7.099490604520263259e-01 1.388804221966364594e+01
-6.840814676728471433e+00 -8.473436476812313822e-01 1.945663143929669303e+01
-4.716773236643211575e+00 3.887273237140355331e+00 1.558937947212445607e+01
-7.408464219891404134e+00 6.979799210499192386e-01 1.369500550218233315e+01
-7.329886901364465857e+00 7.912943306268028776e-01 1.357712538858342555e+01
-8.316339170461223063e+00 -1.787096288743649897e+00 1.700532974014836896e+01
-3.230415249136414424e+00 5.266147902923250523e-01 1.107886132134910184e+01
-6.793288355834450343e+00 -3.902469486146169508e+00 1.888120780552250721e+01
-3.774183043175282748e+00 -2.503918507702481033e+00 1.694587614107395979e+01
-5.622662539340011811e+00 -5.192666069270945872e-02 1.264321667123572013e+01
-8.065613902999508866e+00 -2.679402505321743178e+00 1.877226411248645377e+01
-3.772158776116751433e+00 -2.115577888324510436e+00 1.658743620825357823e+01
8.016976540948461682e-03 -2.225111968094273251e+00 1.741046267654782298e+01
-6.063133177959132425e-01 -1.287275218108389740e+00 1.898865222009371223e+01
-2.729647999378291168e+00 3.922794065579547240e+00 1.718736035465857270e+01
-4.797718427277986031e+00 -3.828752794150906524e+00 1.826757541015317088e+01
-6.231115263817117444e+00 -6.732179042774221189e-01 1.381077956275149177e+01
-6.548216263897922218e+00 5.222604741307609322e-01 1.274767618851958417e+01
-5.977083965739207194e+00 -2.617946803550287971e+00 1.708585943145092045e+01
-8.131689504346333308e+00 -2.635867506146207351e+00 1.868723947808538099e+01
9.846615005984288294e-02 -1.162443729593667374e+00 1.666480749928482652e+01
-4.260110610558830224e+00 -7.858260894771641469e-01 1.400555544029517563e+01
-8.403067690963148095e+00 -1.248330062852910594e+00 1.743745818802790382e+01
-9.467857220348048219e-01 4.564701122179588566e-01 1.342826192968153265e+01
-4.980172456042090801e+00 -4.118503814279429243e+00 1.929481567002969911e+01
-8.120323318528630097e+00 -2.774913435171735276e+00 1.866204142113480913e+01
-2.538316636395787640e-02 -1.818012907530591971e+00 1.682914010031784358e+01
-1.265923909654241841e+00 2.086464560255767875e+00 1.434926749324941397e+01
-6.489333392417706570e-01 -2.982918045299581822e-01 1.868568912026043449e+01
8.978102219440597942e-02 -1.305342108099627030e+00 1.675605601473004924e+01
-3.662063462158569926e+00 1.613139127068916157e+00 1.866202062499856851e+01
-7.538390562733328082e+00 -2.084636272463673556e+00 1.565206981482563720e+01
-2.133821690908530133e+00 3.758638025406767724e+00 1.620134459357436896e+01
-5.928111906742298487e+00 3.594672396732709441e+00 1.731500516759702180e+01
-4.768814920699833149e-01 7.764057332382634513e-02 1.432181878088588434e+01
-8.044365192972179557e+00 -1.676552760661249586e+00 1.875940184106296726e+01
-4.267055714597203675e+00 8.264727627281763800e-01 1.077838527157014425e+01
-7.051994231882652286e+00 1.509512144237078468e+00 1.390821720314912824e+01
-2.259579794007235520e+00 -1.451774738959878519e+00 1.494162698034684666e+01
-3.107797514308945352e+00 2.444933678687204015e+00 1.815360639644139695e+01
-5.015882241570484901e+00 -7.253459927624786863e-01 1.393321405073518093e+01
-8.138991163390102201e+00 -2.258599773596075888e+00 1.870664082386601024e+01
-7.523155025020393794e+00 -9.071479973596191515e-01 1.481276418375607307e+01
-6.561186767238281980e+00 3.694256925156170546e+00 1.679531640484616162e+01
2.079883579461078158e-02 5.639262554418087436e-01 1.689120124554579405e+01
-9.235501334362818948e-01 3.413847756488443963e+00 1.677818919039875567e+01
-7.989018310917459509e+00 -1.965999549540520253e+00 1.615628799372144186e+01
-9.127137945011181142e-01 3.384388633939414248e+00 1.660542443449870120e+01
-6.158251872428359697e+00 -4.001927469311652885e+00 1.928915689581461379e+01
-1.088762302222948009e+00 2.685150659682884910e+00 1.530512872307983940e+01
-5.405912679769461215e-01 -3.630728629067861313e+00 1.800812648488157919e+01
-4.229736522318638947e+00 9.017904117152233390e-01 1.088324230933257297e+01
-4.598619422979895788e+00 -2.136112003169125195e+00 1.677150093808230480e+01
-7.618238401499032086e+00 -2.655579221159908077e+00 1.651152361755945464e+01
-8.310988333502990599e+00 -1.926354224489768896e+00 1.725531776691612151e+01
-5.738861027594921005e+00 4.209788489206479412e+00 1.623927365855539051e+01
-5.130748068626903580e-01 -2.934997952071453087e-01 1.448967089969561073e+01
