-4.719643384752132853e+00 2.152339697976608957e+00 1.557549359353386009e+01
-5.973160899669948343e+00 2.468349358747107924e+00 1.016572660424748165e+01
-9.306836625656060846e+00 7.691736736294190191e-01 1.377119084684643369e+01
-3.847881266205114947e+00 -3.985560811044475127e+00 1.400378879228007278e+01
-5.037065309122176870e+00 3.544813347374758283e+00 1.407512135214103566e+01
-6.077088708421102048e+00 7.381081691861203220e-01 8.580458326049875240e+00
-8.982786744940518986e+00 1.253049711601032623e+00 1.208734826674563223e+01
-5.846313967447633431e+00 8.505594611636622115e-01 8.495158009005333355e+00
-5.063596953419299496e+00 2.099994707281727546e+00 9.006810521474342579e+00
-6.079027858404394635e+00 6.391083446749796781e-01 8.664561386804262355e+00
-6.777544571717903921e+00 -4.135886128702765063e+00 1.282868808193503085e+01
-7.118271836854197510e+00 -9.889130126974868817e-01 9.753463476247329567e+00
-6.869695866565042941e+00 -4.593464985833158210e+00 1.437614768710707480e+01
-2.060344745205070272e+00 1.756282295310957142e+00 1.464286394367635680e+01
-3.566902556982865846e+00 -2.284913980230035335e+00 1.581064442614080789e+01
-3.762753646922266881e+00 -2.290087459829157623e+00 1.579233106366345041e+01
-1.873317922927656642e+00 1.575342901974782883e+00 1.466146309964876693e+01
-3.354898123141718536e+00 -2.066728746603679223e+00 1.585838710341560542e+01
-8.707508945680473289e+00 5.469044598460560680e-01 1.451197096130549724e+01
-8.732664495482925560e+00 9.574028648805242847e-01 1.439946832615461503e+01
-8.762256069263788305e+00 -1.442216211733585052e+00 1.458353229882487412e+01
-4.464242614260498065e+00 2.645158030789337644e+00 1.145073403486771824e+01
-8.893202351406792161e+00 -1.041296707762620954e+00 1.448852719329441285e+01
-5.164158864769841983e+00 -3.024891281911851415e+00 1.287997652168591500e+01
-4.368130837277155010e+00 -1.691026557478398917e+00 1.581327393753396748e+01
-5.401627724089608229e+00 -4.072316706355372240e+00 1.345994131293275231e+01
-8.658167668924853899e+00 -2.046191902278517549e+00 1.460976708728384565e+01
-8.735248456299490982e+00 -2.037848252504661062e+00 1.455171356085808654e+01
-6.048198671899777779e+00 2.882232418241838179e+00 1.136497917132262714e+01
-8.760462939740758515e+00 -1.679575031603439683e+00 1.456566305896067703e+01
-4.387879842161575006e+00 1.362668419939871089e+00 1.574791276691131614e+01
-8.673512658093859073e+00 -1.655223813564535629e+00 1.463172136023052516e+01
-3.378838414843126081e+00 2.865509718622448521e+00 1.495221403108125813e+01
-7.121186457957489502e+00 -2.767818415066898852e-01 1.529213534362419935e+01
-8.311237321434731484e+00 7.399656036625782418e-01 1.473303689891562485e+01
-6.547851018988063210e+00 3.276373701052545773e+00 1.269642662970646896e+01
-8.352448073186042876e+00 9.675076462562087753e-01 1.466113788948132779e+01
-6.508563392110412238e+00 3.136013664035798953e+00 1.214139318506260068e+01
-3.500928533519354069e+00 5.237618515425727095e-01 1.601965876455764359e+01
-2.461491374052228398e+00 -7.334338823083615955e-01 1.182118833055870155e+01
-6.862517744929973240e+00 3.811246337552851582e+00 1.434822347439330414e+01
-3.912140159815397311e+00 3.171312798420017565e+00 1.514122454409768537e+01
-8.458128368118355667e+00 1.327675890764923317e+00 1.451465865299560321e+01
-5.266041313321574435e+00 3.666842002865895456e+00 1.432224218925012238e+01
-3.301881371857483316e+00 -1.168515730617051940e+00 1.230403460757380074e+01
-6.268641161522131355e+00 -4.413373478687997675e+00 1.402361405980542841e+01
-6.544949539722690446e+00 3.393124290751236005e-01 1.537860715930112931e+01
-3.927521235107762188e+00 -3.872302586792821799e+00 1.543445001754471591e+01
-4.380181546522511127e+00 -1.295656196504207269e+00 1.582918463736855230e+01
-4.610000401259978453e+00 -1.093639778719366351e+00 1.580520449008279726e+01
-6.051039511639907609e+00 -1.673499721424609454e+00 1.180737343022859065e+01
-5.941043151444863391e+00 -1.329357756727133744e+00 1.155662172944208166e+01
-3.760321663237453649e+00 2.887900733857277302e+00 1.533770758741532703e+01
-8.453697953542445021e+00 2.542292201250388572e+00 1.419478483014828285e+01
-3.527215195658128799e+00 -1.041987776785691988e+00 1.222627072881354238e+01
-3.009980635076382249e+00 5.885231666521138771e-02 1.093484838690136129e+01
-6.325972448802653858e+00 2.385772867349065240e+00 1.036999159520833302e+01
-2.638039743280514937e+00 -1.138274241965503419e-01 1.120464824524760772e+01
-1.244394791081911311e+00 -2.385519235362200119e-01 1.242967831427169401e+01
-1.144209603809874132e+00 -8.220268248343008954e-01 1.266726770230227217e+01
-1.079840281243477085e+00 -7.861435079215255417e-01 1.284158185663427432e+01
-4.742292226879444073e+00 -9.183652866885659849e-01 1.205885091762782579e+01
-7.273206127533862642e+00 -4.584624778062086570e+00 1.450500269585652902e+01
-2.413591980042840479e+00 6.346653105008094944e-03 1.115302544504477922e+01
-5.157605067730571591e+00 1.023683477113445650e-01 1.001293329368128937e+01
-3.982407309897253889e+00 -1.262078010781304549e+00 1.586824455960814007e+01
-7.108407352566976201e+00 1.707462514993745462e+00 1.500030420915166829e+01
-4.315625893611066743e+00 3.327748440898195437e+00 1.397436197159042948e+01
-6.932258555386908050e+00 7.698221581249671264e-01 1.523254315139321946e+01
-2.809806902950367391e+00 1.089972405366760544e+00 1.591301058196187412e+01
-5.731669178934069464e+00 9.772199423367310123e-02 9.370651583291778053e+00
-5.708765340358399776e+00 5.857214001334353978e-03 9.516903497431734138e+00
-9.109589517311302842e+00 -7.843007372799934984e-01 1.105242200599142066e+01
-5.347566093579545488e+00 2.455105342498950627e+00 1.002112758251507074e+01
-6.544306709328394867e+00 -1.271827813187520029e+00 1.547146903160589559e+01
-5.804875271370855572e+00 2.653663580941648448e+00 1.059894749225112065e+01
-6.369103142648222970e+00 -1.457804908295488477e+00 1.552251946039931241e+01
-5.777582954774033830e+00 -3.171857249655004596e-01 9.961220287187742883e+00
-8.999759635022076765e+00 1.149569996241584402e+00 1.409189968160427142e+01
-8.809694996309346493e+00 1.157453173175649219e+00 1.428107828293016368e+01
-8.900918870030963603e+00 1.165482707063449919e+00 1.419374764220265561e+01
-7.327627275530089079e+00 9.395726909155295292e-01 1.510113320157159578e+01
-7.059684194963669057e+00 6.463656638892705253e-01 9.103009125015091740e+00
-6.605460373771999016e+00 8.717252632276261126e-01 8.758265493534903356e+00
-5.925760771836537266e+00 -3.666202731190453701e+00 1.533171240724358242e+01
-1.945699352488429845e+00 -2.256765629861815725e+00 1.292955528237431295e+01
-1.970040302509502794e+00 -2.136482090991356220e+00 1.284432044344933743e+01
-1.932929276901584448e+00 -2.019220139056874697e+00 1.277043799275442737e+01
-6.300377576311719352e+00 1.537270154376336517e+00 1.525428655539775136e+01
-1.533574256565008120e+00 -1.742028666590909047e+00 1.267827244124858410e+01
-1.527902796932833818e+00 -1.858804804606607686e+00 1.275634480703689988e+01
-2.815131194254584468e+00 1.858920523641455880e+00 1.099421029063686106e+01
-2.800704514842634829e+00 -2.512286953824326208e+00 1.585321405538897110e+01
-6.773896978771763777e+00 -2.745333472868070501e+00 1.185233643060962905e+01
-9.370932390356141894e+00 -1.023461249397024986e+00 1.381498029208211520e+01
-3.067580663274599218e+00 1.480960783270757197e+00 9.536914934411960587e+00
-3.481811742172142399e+00 1.651138647324496667e+00 9.117113766270694697e+00
-2.847911612448386087e+00 -3.932660286882251999e+00 1.440900999974680374e+01
-5.931450715409985364e+00 2.530182976888858626e+00 1.520130541755251485e+01
-2.992975434265106927e+00 2.058736778988374816e+00 1.554035596761584870e+01
-1.346618096253317853e+00 -1.816316992985567591e+00 1.278196846978541501e+01
-8.532122739402073108e+00 5.652131387826715425e-01 1.463430770810040471e+01
-6.102741466395396941e+00 1.750116302625507103e+00 1.527617613792338958e+01
-9.594186289582459892e+00 -1.617122283327241838e+00 1.281678697834457026e+01
-6.485661816270106961e+00 2.880561843579646508e-01 8.935612234641343576e+00
-5.991681308361486380e+00 -1.038598516917468739e+00 1.106631156014090678e+01
-9.372500462081038819e+00 -1.826159655948999649e+00 1.361247030513757394e+01
-9.598571270183786197e+00 -1.423155648184146305e+00 1.303818624941559889e+01
-9.634690169930134829e+00 -1.426626138174706071e+00 1.283610465143619805e+01
-6.152493901146517175e+00 -3.069121337021549323e+00 1.540584893848962977e+01
-6.145121913701835581e+00 -2.870701822824764715e+00 1.544518462451894791e+01
-6.882754736003411367e+00 -4.592287142675139044e+00 1.455537503109924202e+01
-3.620809016622722698e+00 3.023358260742304626e+00 1.498362292817814634e+01
-9.459895752998871643e+00 -2.233629319212032893e+00 1.284840124007900286e+01
-4.597208597677671094e+00 1.100496662351090116e+00 1.572807958907796078e+01
-9.547289144862844523e+00 9.744226765765801046e-01 1.284701161014238480e+01
-6.838558197665372873e+00 -4.379803534478655891e+00 1.354824115762925985e+01
-1.746513801692127554e+00 -2.210744619156258750e+00 1.294330770738227088e+01
-1.204433903358574476e+00 -1.409875002476169925e+00 1.267537957646525726e+01
-3.988260200479043505e+00 -3.212891589145979054e+00 1.325391065333932161e+01
-4.762952494219519828e+00 3.669167160755038459e+00 1.510564026369054247e+01
-5.109241111200543806e+00 3.770032487286575140e+00 1.510520869536421529e+01
-3.236178441361069691e+00 1.943309265177940226e+00 1.041196347424632762e+01
-4.088113649764544277e+00 2.330844067449326484e+00 1.044733044404305744e+01
-5.093084240602182788e+00 3.766082312728269432e+00 1.485818768529823686e+01
-2.045491598515527532e+00 -2.269239080857077262e+00 1.588507192074164820e+01
-1.923786559341312596e+00 -2.283321793150656642e+00 1.585713703398504393e+01
-4.630806634209824857e+00 1.214767516557137217e+00 8.556554312837477028e+00
-6.735081627215587119e+00 -6.066145215210664299e-01 9.577700163219823537e+00
-5.151453594997203567e+00 -2.920635167838163126e-01 1.571405865030929405e+01
-4.571641453849638381e+00 -6.700358035078598506e-01 1.579983254895617861e+01
-1.916824955012394582e+00 6.323249679430967829e-01 1.128040477030920030e+01
-4.348228030670384214e+00 -6.835369168140892349e-01 1.582827865895700015e+01
-9.626055637243634777e+00 -3.883614851594453521e-01 1.245445564362178104e+01
-4.780069065535753836e+00 -2.723105899337520119e-01 1.576069327894603944e+01
-4.759566003284205316e+00 -4.242805975582571443e-01 1.576759321123108393e+01
-3.976146851136529214e+00 9.133270573129356196e-01 1.589167009928950947e+01
-1.046451541642670069e+00 -6.034807960778784119e-01 1.307707093462962078e+01
-5.656792703808828371e+00 2.187502017822464229e+00 9.420604396187012952e+00
-7.894919543778788018e+00 6.972834779721559517e-01 1.493933124695046999e+01
-5.573585983073407135e+00 2.714207487536182573e+00 1.092961737337866523e+01
-6.907058234099205940e+00 -3.884225646584725133e+00 1.501123808835713547e+01
-7.363932122721611684e+00 -3.924043381006657505e+00 1.222405167618103050e+01
-6.507299686621156987e+00 -3.851732216476382753e+00 1.513658436142234009e+01
-3.186421154799749633e+00 2.086896947275327818e+00 1.112739457428082446e+01
-6.706063744166922191e+00 -3.653307040195880706e+00 1.513128941776747993e+01
-7.772546454730821175e+00 -2.816845917484104511e+00 1.087563531375845471e+01
-2.355106261008326651e+00 -3.993534235243066721e+00 1.541924376116554285e+01
-5.497813765180731949e+00 3.873586841390829427e+00 1.481454404510126110e+01
-4.148182600656660668e+00 -3.866340937718296900e+00 1.543150062171610770e+01
-2.880988356543565665e+00 -4.150121116785749464e+00 1.504002296436056341e+01
-5.183726255514948811e+00 -3.377598891030941797e+00 1.298039240817114504e+01
-4.953572285401135034e+00 -3.029423192010959109e+00 1.294103201113737001e+01
-4.766601762824788757e+00 -3.048757372349041095e+00 1.299980312239930313e+01
-4.576995505090330596e+00 -3.228010772736465750e+00 1.310282737766780414e+01
-4.970060090569184297e+00 -3.424443199660993198e+00 1.305526398569745439e+01
-4.737159501385931115e+00 -3.234689707424954097e+00 1.306118702856352698e+01
-6.589439441958947263e+00 3.333198845424527157e+00 1.292440741729173581e+01
-2.641313161043201241e+00 -3.661101059266988145e+00 1.387170920543540475e+01
-2.251189713927944869e+00 -3.604960643094869521e+00 1.394211279499885947e+01
-9.156863489615265195e+00 -1.209110271734668896e+00 1.113171516008431539e+01
-2.252826998544039672e+00 -3.518662601746527230e+00 1.383945791615899523e+01
-2.382505638174943652e+00 -3.708121665784925192e+00 1.404726837672942352e+01
-8.207070876718567831e+00 2.801843100169446377e+00 1.301276145264617767e+01
-2.999205275053280495e+00 -8.594486686432782907e-01 1.601027652548030389e+01
-1.820360185462634561e+00 1.501680323560440566e+00 1.200511638211349563e+01
-3.003715480458001963e+00 -4.704404298792791983e-01 1.603859515212701226e+01
-2.664754587677125031e+00 1.557335538316711343e+00 1.025908676777524420e+01
-5.160389663655584158e+00 -2.485333804932585711e+00 1.568604762747417070e+01
-3.347548768158500554e+00 1.601023867695834824e+00 9.194452656433110604e+00
-7.139730706504573199e+00 -2.853484455359329264e+00 1.517486179607903196e+01
-6.913701204567873404e+00 -3.059197372075907584e+00 1.520354888998520337e+01
-4.965159541724593062e+00 -3.270875971464844767e+00 1.556568056253095378e+01
-7.169354946591685263e+00 3.399263212957805091e+00 1.292029138487260909e+01
-4.148374688079654149e+00 -3.065252212316464941e+00 1.564384208845494229e+01
-4.756941689358670011e+00 -2.044318360019775849e+00 1.270124083805123760e+01
-7.874609293066719751e+00 2.966259783548665041e+00 1.443118426133894516e+01
-7.546908614935711412e+00 -1.266855803531917068e+00 1.515348346347591146e+01
-1.082175045998010843e+00 -1.864782123917050782e+00 1.296101599096045831e+01
-7.346316987574532220e+00 -1.085455044222944476e+00 1.522438853841394391e+01
-7.568976242833779011e+00 -6.537492328653461415e-01 1.515668868773351008e+01
-7.312915259233295551e+00 -1.270039039748490861e+00 1.523417117290331291e+01
-5.414728807445410297e+00 2.761692293453923863e+00 1.530859457743869356e+01
-5.738362724361255829e+00 2.710216960350109616e+00 1.522761623527157226e+01
-5.519428147906989324e+00 2.928187172979633601e+00 1.525343180743545091e+01
-5.551509890770066846e+00 3.136544313376515625e+00 1.520874180309377621e+01
-9.257038279794659985e+00 -2.695579985537023548e-03 1.149646507334985657e+01
-5.548308763891284912e+00 2.732395377336458875e+00 1.527722428664813137e+01
-5.448646562157492212e+00 -2.757674096419031606e+00 1.560818881806358505e+01
-4.991817260076564011e+00 -8.780638916790063364e-01 1.575825913553665103e+01
-2.350478232558215197e+00 -2.240203142834068739e+00 1.288022313494417048e+01
-5.237473348145787355e+00 -1.017968008432406091e+00 1.188204493563641861e+01
-3.639491060009896195e+00 -3.771784444224722144e+00 1.366309808873822007e+01
-3.625634569884099712e+00 -3.862945508385820848e+00 1.381081869595528744e+01
-4.020468199654437136e+00 -3.819591539633739874e+00 1.359580729103700136e+01
-4.421449284026008009e+00 -3.990016214507515091e+00 1.373107633018209484e+01
-1.440996147528587290e+00 1.304979659189231089e+00 1.293993165915842880e+01
-7.162411188512321836e+00 1.804859926216423105e+00 1.496544465667906465e+01
-4.069829570353688197e+00 1.978050741566554471e+00 9.143871040037407028e+00
-7.321293474679796631e+00 1.746621146373261713e+00 1.493041825336959860e+01
-7.095012575282213518e+00 2.363542911058250429e+00 1.487812471017226201e+01
-7.289263223218389598e+00 2.349454507181460539e+00 1.482076548194963905e+01
-5.752465999945677311e+00 -2.443877441483075508e-01 1.560867489854327417e+01
-6.828326518299108194e+00 1.901569647544846475e+00 1.027300212923660183e+01
-6.961758934576549152e+00 1.814427558985181044e+00 1.030996657836142205e+01
-5.760378167906319291e+00 -1.078198078552820238e+00 1.565231036393322839e+01
-5.904077207861271326e+00 -1.067298349032988813e+00 1.561955306990079251e+01
-8.276148904273242124e+00 2.139286072141236339e+00 1.223283030984331887e+01
-5.788006104381860695e+00 -4.956712606216077122e-01 1.561329892161145594e+01
-9.758056211280901060e-01 -8.320106725104390311e-01 1.343124633041555072e+01
-1.068915545719764326e+00 -3.014136650460483846e-01 1.335012456030198891e+01
-6.938288005188147700e+00 4.606899128348125871e-01 8.972971732746000129e+00
-7.093937516181001435e+00 4.479843832763912292e-01 9.076066810455813538e+00
-6.840365493502509331e+00 4.648248166342996424e-01 8.921337323745163417e+00
-1.747568685764878005e+00 1.356235517282122327e+00 1.185430031751509361e+01
-7.393613233447569932e+00 -2.829414316929718343e+00 1.106357057089865847e+01
-6.787006443300955816e+00 6.950360168435245622e-01 8.904795691215664277e+00
-6.248137174755890477e+00 3.613925120533180824e+00 1.394484160574669218e+01
-8.795029243756161463e+00 4.946902133650568079e-01 1.445134377608800591e+01
-8.856953556185747090e+00 9.353380986836551392e-01 1.429068910530678593e+01
-3.722976799076378462e+00 2.072825972404269912e+00 9.921880002926169340e+00
-6.558988665107151839e+00 -2.504153207445617424e-01 9.335419700407967980e+00
-7.918534924814133014e+00 -2.081572059670783403e+00 1.498034732598979346e+01
-7.258708999266631601e+00 -3.202808681836171179e+00 1.507121034160612183e+01
-7.710286705562638510e+00 -3.474433583988335794e+00 1.486435274556312081e+01
-3.009201449607660006e+00 1.559184597792443228e+00 9.639661212411340330e+00
-7.799712763578107833e+00 -1.038084517883625324e+00 1.507010926259721018e+01
-3.288283287269246902e+00 -4.147071536342361142e+00 1.532065366569748832e+01
-4.458793772915403686e+00 -4.073961210459721372e+00 1.395067583818027046e+01
-4.032006813610229834e+00 -4.003808163884510662e+00 1.396051181537474051e+01
-8.527314222510149477e+00 1.078378060239263192e+00 1.131919333218089818e+01
-5.285004497986132144e+00 -1.273141383517738756e+00 1.205427531489710091e+01
-5.465332433812498003e+00 -1.453443299424078461e+00 1.207664704184172066e+01
-2.212184120414847577e+00 -6.147349163624983570e-02 1.129784083896982239e+01
-5.482268160246983157e+00 -2.416712499358853461e-01 1.028108399008317164e+01
-4.291155277963851766e+00 -4.172974558336323803e+00 1.438614649021890202e+01
-4.650394545042948025e+00 -4.215780782076779865e+00 1.432525507532507802e+01
-4.469803962615169546e+00 -4.252941415571231509e+00 1.453895754808769780e+01
-4.167561605116935297e+00 2.710392870570627721e+00 1.196781133365524497e+01
-4.481995865804779378e+00 -4.323058213296507191e+00 1.473059606388328646e+01
-8.734202076198684495e+00 -1.818071873871975885e+00 1.457482529854631181e+01
-2.597960522862788224e+00 -1.687911193940855092e+00 1.596869018105711646e+01
-2.813838444923183690e+00 -2.046902450936699758e+00 1.591069686257141669e+01
-2.546285963108693373e+00 -2.051770477207715881e+00 1.593201885667665252e+01
-7.181385900966739122e+00 -4.275389708017942603e+00 1.293110346923351628e+01
-1.823208342440545415e+00 -1.288991625216206582e+00 1.230313271933810526e+01
-2.155106126849857695e+00 8.159330742737304076e-01 1.096401890914517097e+01
-6.323409271240516993e+00 -4.268469974092184316e+00 1.504544401796702502e+01
-1.375263324330326942e+00 7.927302473416169004e-01 1.245440349534345259e+01
-3.496282115389129697e+00 -9.232811163728796844e-01 1.211790982536638595e+01
-7.707979784385739386e+00 6.057758924281329005e-01 9.804722591473552740e+00
-3.736615188684748290e+00 -1.030353828435944585e+00 1.225279122967016932e+01
-3.888145729937616757e+00 1.863975573975882760e+00 9.075515841305541898e+00
-9.048996898571019187e+00 -2.064076616283186727e+00 1.422618955033541610e+01
-6.221067528825638959e+00 -4.326915556479558944e+00 1.378182731933408078e+01
-4.515338055076060897e+00 2.202477807021298695e+00 9.451759698711995838e+00
-6.059072893760220957e+00 -4.372801538682786315e+00 1.402286065571357554e+01
-1.671648367737021523e+00 9.347336171327882415e-01 1.506033590003768907e+01
-5.661207295685400709e+00 -4.246587667028443924e+00 1.384891270496069282e+01
-5.565803609716268419e+00 -2.827415453496298525e+00 1.270082925082200731e+01
-5.135598265026314557e+00 1.327573598731793592e+00 1.558630443033968405e+01
-1.161411701058948198e+00 -1.792950956537823881e+00 1.286421651251052722e+01
-4.932096291646712594e+00 2.725655877904455515e+00 1.543949555937961904e+01
-5.331705308649858033e+00 2.526501923802649596e+00 1.536715548009719257e+01
-4.640362858734205176e+00 -4.051214846547043891e+00 1.378102332874524549e+01
-5.853455166211229965e+00 1.294278042891722880e+00 8.288709570383041125e+00
-8.167596906112962074e+00 4.362248808172342063e-01 1.017476044350441100e+01
-7.315549013331149375e+00 -8.913624130313518856e-01 9.666456859726846318e+00
-3.988704238804036351e+00 -1.881651065727783845e+00 1.582417884501522209e+01
-3.881040989649902073e+00 3.197943300165606573e+00 1.493736596595683253e+01
-8.079845212376998376e+00 2.171632222565420989e+00 1.203875958427355286e+01
-4.360836069525486636e+00 -2.076985559726631791e+00 1.578076693099432859e+01
-7.496097047188132301e+00 2.521626581531895450e+00 1.471518733069434504e+01
-7.515200385958103801e+00 2.335014603467987282e+00 1.474854033888506777e+01
-5.855258309644517212e+00 6.479376226519432125e-01 8.688012457953156797e+00
-6.076523733695274210e+00 4.242063064124997340e-01 8.860316918626974569e+00
-7.033991125345854023e+00 1.864882722852880814e+00 1.045516922618290323e+01
-4.689273304069374149e+00 -7.810502331503577089e-01 1.197956821643188974e+01
-3.166448287722688715e+00 6.780077113507899655e-01 1.017527630575375497e+01
-5.315574531116615375e+00 2.255854823460829439e-01 9.555158742840848873e+00
-5.271735800242725922e+00 3.946454448635731693e-01 9.318207302751318366e+00
-4.601625895300406555e+00 9.543454794259340623e-01 1.574094697472661508e+01
-1.473224607490740912e+00 8.311666443918607206e-01 1.222463490193412028e+01
-8.191719926134037877e+00 -1.280178812704826086e-01 9.695223461657267450e+00
-6.520877401655454264e+00 3.355762160334456734e+00 1.484358866159189816e+01
-6.561682053920817381e+00 -3.244244192402431004e+00 1.526389266862249272e+01
-6.861348356446135277e+00 -3.581046338399256346e+00 1.510335782259892667e+01
-6.917469446707259273e+00 -3.242184597359629716e+00 1.516412800700376451e+01
-7.108382083670658602e+00 -3.292208482692604132e+00 1.509638932555040824e+01
-6.924055270370667259e+00 -3.470509890302789113e+00 1.511213023449080239e+01
-5.122407804682313603e+00 -1.470573841167242879e+00 1.227716581470363977e+01
-2.346141748977298658e+00 -2.499149187562281327e+00 1.303509197059450386e+01
-2.543229963105209546e+00 2.298141836212670430e+00 1.462399866641093737e+01
-4.604079439431573384e+00 1.411708086684898333e+00 8.360674847054639258e+00
-2.796079261706235997e+00 -2.694260248494915189e+00 1.582849887603369510e+01
-3.139167209131202618e+00 -3.073527958907805502e+00 1.570624220890649880e+01
-4.192621095337494275e+00 -1.846937480695540756e+00 1.581226259968950743e+01
-1.573613684715974959e+00 -1.468501907630265890e+00 1.579397038523832819e+01
-6.852370345738277635e+00 -4.563355482323423473e+00 1.418441344822026551e+01
-7.312863295410807929e+00 -3.069066080665612262e+00 1.508217287171276766e+01
-6.455443489029337734e+00 -4.536877367369838154e+00 1.434079755064152906e+01
-1.949784592719640219e+00 1.822532139519231542e+00 1.283630940001567566e+01
-5.150361172893812345e+00 2.077474542750763487e+00 1.547783153019949154e+01
-5.521658698249201080e+00 2.335855655085141702e+00 1.534428904354841094e+01
-5.328617428882841622e+00 2.178452364211778125e+00 1.541779256472448978e+01
-6.267475538031897386e+00 -1.454218649886696024e-02 9.218814359815159065e+00
-4.193101022976416736e+00 -3.023855750030799872e+00 1.314899567131479685e+01
-2.369931517203803573e+00 -2.676024803310323552e+00 1.586203655629966747e+01
-1.252130967767863368e+00 -2.290067028940866667e+00 1.529743482352514761e+01
-2.339113578293386730e+00 7.412671643843370406e-01 1.585741230783067479e+01
-1.095880794246869128e+00 -3.132471010243657178e-02 1.371375639938606028e+01
-1.463127439805261609e+00 -1.065781836666230831e+00 1.571635904698549169e+01
-1.467094881817777363e+00 -1.307015609449482696e+00 1.569999869853300467e+01
-3.318190019893828779e+00 2.438166499852059577e+00 1.232679386673519772e+01
-1.399679835172381148e+00 -1.675296475344091540e+00 1.556391461239374152e+01
-6.255109893584203995e+00 2.891316258688634733e+00 1.133614147085664214e+01
-1.253994380278736775e+00 -2.642337295647767981e+00 1.528267225042455735e+01
-1.191057541463785618e+00 -2.677858621818116625e+00 1.517522297407731102e+01
-1.809876003634913744e+00 1.042441199612115454e+00 1.162945430280222681e+01
-4.931783333550218806e+00 -4.081461951453224657e+00 1.534873330693212878e+01
-8.523220893346639571e+00 -1.643788022031003049e+00 1.472304867502848325e+01
-5.835166820866304782e+00 3.701485907442146672e+00 1.421877169078948455e+01
-4.442616875492291229e+00 1.238765752492815508e+00 8.640059078215731603e+00
-2.600209707698457162e+00 1.770976055092913781e-01 1.090913657011099858e+01
-2.654439822765600088e+00 5.297600157647313485e-02 1.101497867387184115e+01
-7.913502306861428970e+00 -1.456649034168810086e+00 1.501153961684908111e+01
-8.111390868877080607e+00 -1.072238361211148128e+00 1.495062092714976743e+01
-8.909847940468239358e+00 1.009637848501009127e+00 1.173172507235190309e+01
-3.906164521987609994e+00 1.793683990098649872e+00 8.883327759553868219e+00
-8.113102444459016738e+00 5.734379687367511247e-01 1.025616906257977234e+01
-1.041949696323721364e+00 -1.200853211965304812e+00 1.291615972296981951e+01
-4.199589124572587373e+00 -4.731850212312996296e-01 1.584763546816698820e+01
-8.431947116713388368e+00 3.003212601308693497e+00 1.357146389901457084e+01
-8.578041938878737227e+00 2.744789462715168327e+00 1.343894438625214960e+01
-7.896398410512115440e+00 -3.347538748049080581e+00 1.136582042500738865e+01
-8.398111770766387707e+00 1.566332930743706164e+00 1.449926690254666184e+01
-6.170569655417075694e+00 -8.744347601911643952e-01 1.554845840716997785e+01
-5.970745696339767150e+00 -4.749279557159090670e-01 1.557001002307148596e+01
-5.942094898523405888e+00 -8.493203978994224856e-01 1.559836815211176386e+01
-6.624106640298125015e+00 -4.360762565143436298e+00 1.363218576600558052e+01
-7.628675642473251806e+00 1.089536708192271774e+00 1.021164063628935992e+01
-6.646957808606712703e+00 -4.410000604957568626e+00 1.377904374693098433e+01
-3.630400612679602457e+00 2.893417654811276218e+00 1.357519849972105064e+01
-6.270687561028262635e+00 -4.351248314520040239e+00 1.383014898107254353e+01
-1.254805459792106781e+00 -6.139389554849983277e-01 1.242444884979294173e+01
-8.696583246507440634e+00 2.978895815072396536e-01 1.068847179614584419e+01
-1.177871269222541706e+00 -1.006433943662793595e+00 1.261653389198966480e+01
-7.077569159346889016e+00 2.286780102531946302e+00 1.104568405822505284e+01
-4.968496148459528250e+00 -1.085882506296657724e+00 1.577186186160892944e+01
-7.803720012655392502e+00 -2.863695440296098460e-01 1.508008164013798691e+01
-7.723637397991551801e+00 1.334266974734926947e+00 1.487847061987234909e+01
-7.571694292746495414e+00 1.409553448194170056e+00 1.491958547014036540e+01
-4.967353712755086192e+00 3.660781884673547815e+00 1.451269280493790959e+01
-4.563031638500490317e+00 1.321205665964054476e-01 1.096424463868382659e+01
-1.645804883070619562e+00 1.157683982888072727e+00 1.487017622405005213e+01
-3.770325953963305388e+00 1.310736929079246327e+00 1.589484112155345130e+01
-7.343824192666720485e+00 3.186543072648131858e+00 1.459339169701618388e+01
-1.753065993169967918e+00 -5.381909031717418967e-01 1.187332732872527785e+01
-5.771241174590942435e+00 -8.324867089331412506e-01 1.109055848556153379e+01
-5.941000107850800127e+00 -3.873699702351752983e+00 1.298217832454437470e+01
-6.449416682876796258e+00 1.451421873297962684e+00 1.522537982222673136e+01
-7.019346815947469231e+00 -1.183175295173637842e+00 1.532778572030101927e+01
-6.331212828353136146e+00 1.128794281241008335e+00 1.531390114348116427e+01
-4.049571115552144107e+00 -4.118951299983734771e+00 1.433949811976561151e+01
-2.934745031328750642e+00 2.152122165228440576e+00 1.541735618385279238e+01
-3.385276439290850536e+00 2.474434553919768742e+00 1.551033331379489155e+01
-8.312318752638859110e+00 -1.057322725076935921e+00 1.486529970630740749e+01
-7.329200154442808923e+00 6.541395122677021723e-01 9.406703198049228831e+00
-5.835715347073502812e+00 -3.752462526344817473e+00 1.292993016842379106e+01
-5.065902087100327300e+00 -4.220123112129079423e+00 1.410311257242494420e+01
-1.888724881682396273e+00 -5.894172281301566230e-01 1.183514446957446253e+01
-5.533189284599110636e+00 1.306994492965738885e+00 1.550495905147650788e+01
-9.503131547976309434e+00 -1.012476215159264115e+00 1.350959781963593187e+01
-2.960638330939569851e+00 -3.072781516761235121e+00 1.573114757252889362e+01
-6.786202792462287192e+00 3.667435527230428871e+00 1.401948980910341547e+01
-5.842868613332325545e+00 3.889360831795379170e+00 1.493492286513602707e+01
-5.708271324208911146e+00 3.909390274556794331e+00 1.497252486019461415e+01
-9.120345929039196164e+00 4.435321726663722375e-01 1.144460614101048535e+01
-4.469837203272305715e+00 1.033272640976401924e+00 1.576481122622532283e+01
-4.088433456816652267e+00 2.534952858718626523e+00 1.135402794904161894e+01
-4.774429498238272451e+00 -1.530118136589013300e+00 1.245369264065034898e+01
-6.931816051241521670e+00 1.355823978121884765e-01 1.531946515763580052e+01
-6.535240684646043796e+00 -6.685916643741712795e-02 1.541477703821843548e+01
-6.362643338873998466e+00 -4.647853711691343759e-01 1.547970648487542533e+01
-6.563459613737792075e+00 -6.663172737889156982e-01 1.544406700005555066e+01
-6.053701823962033046e+00 3.809783811202709369e+00 1.443000842342613410e+01
-9.375020138989100360e+00 1.160853550121107580e-02 1.187711185797719438e+01
-8.910791942421091960e+00 1.571869701548141318e+00 1.234283808445121977e+01
-4.992361413142337057e+00 -3.843840496239900872e+00 1.328591549411605754e+01
-5.015548665576797127e+00 -3.944709696487705308e+00 1.339383948482015185e+01
-5.334162951149618692e+00 -3.892398892336785821e+00 1.321706672197121790e+01
-5.210678244066537346e+00 -3.957599224718614472e+00 1.333654565719133345e+01
-5.395012584986118576e+00 -3.984653335024907594e+00 1.330588688089583016e+01
-8.381505737637560571e+00 2.089022961996669370e+00 1.229774710046273967e+01
-4.394158963342138513e+00 -3.412882084969778074e+00 1.321181494802943845e+01
-4.031799533468081620e+00 -3.350195798536304004e+00 1.328121076488883645e+01
-8.668432309650113687e-01 -1.833553243332119997e+00 1.364630880691175818e+01
-9.490738947674337567e+00 -1.634903904198475200e+00 1.184884075501028278e+01
-4.360023630630676550e+00 1.542410058514108506e+00 1.573479430304017157e+01
-4.331873588275008125e+00 -4.373409172775343912e+00 1.497299272169571438e+01
-4.179385253357567720e+00 1.752641124268592865e+00 1.575230500693727365e+01
-3.997220701704979007e+00 1.324222205128745777e+00 1.584399941503437148e+01
-7.736407697042305465e+00 -3.670104170720223991e+00 1.480363308295543234e+01
-2.317667650203711016e+00 9.605925926151993588e-01 1.567568920679588373e+01
-5.214894598218589472e+00 3.282473370132705792e+00 1.332229894964396166e+01
-2.737709370584920698e+00 -3.952399127935998457e+00 1.453281165432684574e+01
-1.929246447597475544e+00 8.788520236040532341e-01 1.540249071385663981e+01
-7.829453835289688080e+00 3.246565190167185477e-01 9.689703832213226065e+00
-3.836064247140345884e+00 -3.783941470438574761e+00 1.361229944590327889e+01
-4.399442403677743307e+00 -3.784719000463243166e+00 1.342278003810754328e+01
-3.666787436140572787e+00 -4.070167657545857409e+00 1.439809886324602317e+01
-4.752510519428053470e+00 -2.212353600669193288e+00 1.276198137314260705e+01
-5.404386298792518417e+00 3.508936109009303639e+00 1.385412018794147926e+01
-2.622573658341248226e+00 -3.734771358453675028e+00 1.398835665489170665e+01
-7.711534978463702394e+00 -9.094681379952599398e-01 1.510537170087634351e+01
-7.332996791425688166e+00 -9.906241164634447260e-01 9.718198166107143265e+00
-7.791571016905748159e+00 1.285586171697093993e-01 9.514562836800678269e+00
-9.020194180270863171e+00 -3.916307198508215404e-01 1.088330171798882517e+01
-8.259262667504756905e+00 -2.071435624953738674e+00 1.483322212843061649e+01
-3.022558476168927921e+00 1.777171545629342209e+00 1.019818463452800827e+01
-7.250623576665062409e+00 -3.902775817183023577e+00 1.226190208742647414e+01
-6.343847519615238184e+00 2.928115340580810688e+00 1.500547035787165484e+01
-6.489779919804293584e+00 3.114480761874746317e+00 1.491434130665070157e+01
-9.520537687091749746e+00 1.375106962453712445e+00 1.310130505878553819e+01
-3.410703302681311389e+00 -3.647981033002938300e+00 1.360137828153602513e+01
-4.808931442583924465e+00 -3.812206572962182793e+00 1.331859502089285385e+01
-7.934653758232745879e+00 1.169870593071482556e+00 1.068149354688888053e+01
-6.328863049845196542e+00 -3.281190144225546668e+00 1.531863627869818245e+01
-5.807346889739952722e+00 3.281942697615238380e+00 1.310057459570397853e+01
-3.549050366751646646e+00 -3.060985461711091205e+00 1.566936538028345538e+01
-6.150750548418955077e+00 -3.259579630307216647e+00 1.536975368928397145e+01
-3.338048237239070737e+00 -1.398415161216217673e+00 1.250016109366859141e+01
-4.169444199457009503e+00 -2.650161117809711087e+00 1.571663332334407315e+01
-3.992287348080519216e+00 -2.649938218371036491e+00 1.572444821232195622e+01
-2.851368217791983906e+00 -3.701212173367184555e+00 1.384840249667613321e+01
-5.956776291745367047e+00 2.134710732185836068e+00 1.525569127453426077e+01
-1.751946503798446297e+00 9.521797857672423815e-01 1.170607573475877317e+01
-1.486622814060976960e+00 -2.106472770719172605e+00 1.293648823744282694e+01
-7.807920034048714264e+00 -2.728840601075860572e+00 1.077784138791073332e+01
-3.894002423213268393e+00 -3.718916876847893516e+00 1.548220148513590644e+01
-2.559535047771205107e+00 1.343954390631777240e+00 1.561528744380447975e+01
-2.122676432041243899e+00 1.340820531105797908e+00 1.523109938271286623e+01
-4.587159618263936700e+00 2.710593690443696691e+00 1.162053001218546555e+01
-2.088662169762587784e+00 1.202648769121366534e+00 1.530428096187680964e+01
-2.181866497381041103e+00 1.128277991055306462e+00 1.545774158977859614e+01
-2.299214256751469510e+00 1.536710535485640072e+00 1.524189215497123584e+01
-4.952823440223371065e+00 2.512423815352843981e+00 1.041408992098381248e+01
-5.109773135029914926e+00 2.261277456176988387e+00 9.426758008601648697e+00
-3.767515257916038252e+00 3.077143225205541732e+00 1.512786518728381324e+01
-7.810524358425623426e+00 2.309094158775114369e+00 1.188838139944992989e+01
-8.845095577247107599e+00 -9.355074781079780744e-01 1.047920065377628518e+01
-8.906141702230346624e+00 -1.063818867431662429e+00 1.058294982644398274e+01
-9.046553124487097364e+00 -1.174357653172204419e+00 1.086885641253619283e+01
-9.535103731051940201e+00 1.924698949533214243e-01 1.245683110557318329e+01
-9.521102091521854049e+00 3.920316478474493715e-01 1.248470146168036976e+01
-9.109655583847874993e+00 -4.060417025366296340e-01 1.107189347694241732e+01
-8.943991558218158389e+00 -3.828579069535752444e-01 1.073261900008974834e+01
-1.674571314971831537e+00 -1.255671966870496536e+00 1.232486686623080985e+01
-9.106558854461603403e+00 -2.103003510473296367e-01 1.107582505087452418e+01
-9.477487583849534047e+00 7.750506312212177562e-01 1.249880866564123139e+01
-9.206142263435108219e+00 -1.585365725945163673e-01 1.129417638480337516e+01
-3.810949373152064723e+00 2.496441615451713059e+00 1.151096788155782846e+01
-1.873100447894290088e+00 8.168465253613187427e-01 1.142239162361001448e+01
-5.789478257928777793e+00 1.414973660295165470e+00 8.371788350175204840e+00
-3.152969149277797811e+00 2.408956766038341524e+00 1.256326540957914872e+01
-5.534991826911000778e+00 1.740381978490728176e+00 8.715689109310481797e+00
-2.511794117127443826e+00 1.247012263124842590e+00 1.035866213625186560e+01
-9.416059471154881066e+00 1.401285423141956699e+00 1.289113401897369826e+01
-8.546506009487973898e+00 -4.478885102618687664e-02 1.016958134431785155e+01
-3.868134140167749813e+00 3.213658663981591612e+00 1.474783776356494158e+01
-8.326707501307023307e+00 -2.617968970167396103e-03 9.948262296382793579e+00
-6.101373939841093552e+00 3.082805778649887252e+00 1.214481067289139915e+01
-8.337352001377077215e+00 2.097275394850177943e-01 1.016533772570338812e+01
-9.006334526159939458e+00 1.611141516982249833e+00 1.251501736785852259e+01
-4.188365824334432830e+00 3.114798623770278052e+00 1.332876448917732048e+01
-8.992889106035367064e+00 1.806686427819759189e+00 1.272326353427840573e+01
-9.237539547592927391e+00 7.492230164314753749e-01 1.192477560935050818e+01
-8.882060320110181095e+00 1.776854309774165142e+00 1.253780310718118685e+01
-8.204753819143856930e+00 1.172888248173730386e+00 1.101938963493114798e+01
-8.373479644855269299e+00 2.789585586605793921e+00 1.321464067116024310e+01
-8.525838517313552245e+00 2.184841442553520530e+00 1.257766479560085671e+01
-7.525019979022657957e+00 -8.657116172376286833e-01 1.516827457177928906e+01
-6.311537759937944969e+00 1.284589466133681857e+00 8.880314117386873818e+00
-6.633673326118380231e+00 1.215523142902358966e+00 9.149798571761770916e+00
-6.693696296259226131e+00 1.285191041595745265e+00 9.299714862867595855e+00
-8.239011423082981622e+00 1.124694501937468782e+00 1.469317128485626611e+01
-6.238231876596196379e+00 1.424927857937791753e+00 8.950514652312261177e+00
-5.456334557065009250e+00 1.675848455506323109e+00 8.585392472216376802e+00
-8.078479125383974946e+00 2.533453406289110532e+00 1.248521330605710133e+01
-8.160939005373734290e+00 2.906980470815948348e+00 1.309785648164416827e+01
-8.180179980922758887e+00 2.714514380872400601e+00 1.285181597599627068e+01
-3.070674131449373512e+00 2.760588347377718854e+00 1.459332224659118893e+01
-5.917574754964936012e+00 1.659537280392467729e+00 8.952054081082948755e+00
-5.231018781540773155e+00 1.848515519009546360e+00 8.635553625890125318e+00
-7.302739306907310102e+00 2.059652688533805787e+00 1.100076613113879276e+01
-6.145890979436567036e+00 1.727941522533573693e+00 9.296985645019919531e+00
-6.352578149539176877e+00 1.863574443568519090e+00 9.706373774183969516e+00
-7.147200656153914977e+00 1.977542013197550741e+00 1.072408096761695617e+01
-3.134214579409693169e+00 1.624776034658846680e+00 9.565476453843622551e+00
-3.451118253581501261e+00 2.987004111123429784e+00 1.455989392596167775e+01
-8.189579626074930729e+00 2.982157462192993602e+00 1.325808727794857234e+01
-7.856392786511825044e+00 3.074950462093282599e+00 1.298986261939903741e+01
-7.585398762100788339e+00 3.334201539686333149e+00 1.327181149839679009e+01
-7.705522643076172962e+00 3.116765179674545028e+00 1.288390855211856589e+01
-7.469977994185163617e+00 2.753000096308648725e+00 1.207801610915581492e+01
-7.276478602490464631e+00 2.775929537425910532e+00 1.190040000011811472e+01
-5.961858074760870707e+00 1.893295168858900368e+00 9.329663873249703698e+00
-6.154498429024370942e+00 2.046613882605603063e+00 9.739246356350069078e+00
-5.859308870291151550e+00 2.007761180997329475e+00 9.385089790011281963e+00
-6.995273207902864776e+00 3.868296272398159985e+00 1.443128661862217044e+01
-3.522702996122344388e+00 1.868914010408433857e+00 9.542093774935516137e+00
-6.215158937205590206e+00 2.109920819009078130e+00 9.887997719844950240e+00
-2.000540312911627705e+00 1.677097834454266412e+00 1.202435855018186217e+01
-2.124288448798539175e+00 1.751211750844344106e+00 1.203529886180620778e+01
-4.067726442261809794e+00 3.311855547587495341e+00 1.454912466362639734e+01
-4.100657942853625393e+00 3.296199669222870554e+00 1.435131879121390952e+01
-3.258312001572000405e+00 1.704037622907655702e+00 9.529700503836807002e+00
-3.329927875314537822e+00 1.818327553145985043e+00 9.726719137010778837e+00
-3.494612301461364368e+00 1.901567605885766010e+00 9.714980118190556624e+00
-8.839873749672797487e+00 1.342174080734188646e+00 1.199910273254129933e+01
-3.674968467041067832e+00 1.922284977016887275e+00 9.459641453825241797e+00
-4.034599539277378355e+00 3.144852392858119572e+00 1.374465924941489803e+01
-4.448798793140285923e+00 3.308742025946487253e+00 1.371105271604874432e+01
-3.660737426484580226e+00 2.383954665611379475e+00 1.133718752907273242e+01
-3.790217819901333662e+00 2.250326017108798649e+00 1.052500832106829876e+01
-6.211361428442470967e+00 3.456843197616536578e+00 1.353128468727520684e+01
-7.203509406064592113e+00 3.496245190236892064e+00 1.353753845654818733e+01
-6.631589326197468104e+00 3.509128222326656221e+00 1.358804422904576015e+01
-6.384795741817870685e+00 3.425719598457728221e+00 1.337852107712002336e+01
-6.602046160927364404e+00 3.440428985686817320e+00 1.336109367144564075e+01
-4.037495272706961735e+00 1.931832159810547012e+00 9.058175627456591883e+00
-6.570948085806920247e+00 1.518617153646085072e+00 9.469458059081983237e+00
-4.166716206478827900e+00 2.184381146425073972e+00 9.674816418242954796e+00
-4.092494691881044311e+00 2.109612184639637178e+00 9.474749785417380110e+00
-2.470875490059958324e+00 1.824433229223858977e+00 1.160880080962644101e+01
-6.615724063581561509e+00 3.391345435742342929e+00 1.316898554357447537e+01
-6.413973675887502779e+00 2.586553870225789087e+00 1.074069696062102608e+01
-5.512801296007061147e+00 2.959941262806450091e+00 1.199930328431610249e+01
-4.316011019735506160e+00 2.227803578490071157e+00 9.689065747677634732e+00
-6.972941148495427122e+00 3.477368837404902990e+00 1.339202083105390173e+01
-6.666069975037741457e+00 3.107500305063612522e+00 1.200724220443527557e+01
-6.803835698412910915e+00 3.405696154443945467e+00 1.313320535505651421e+01
-4.283824338508386731e+00 1.913726080650957506e+00 8.847074969307218595e+00
-4.509957749491584345e+00 2.135190932216274540e+00 9.261945572636541613e+00
-4.702504376996516910e+00 2.223640775574710737e+00 9.441715863840659750e+00
-4.944727620919900701e+00 2.247268492128516648e+00 9.435322982756613186e+00
-2.431437660015778324e+00 2.186419716896641496e+00 1.461488379355312262e+01
-5.087236039374960939e+00 2.013107714930481684e+00 8.812753681275079742e+00
-6.941972428802442252e+00 3.378406887934817249e+00 1.292070139815630725e+01
-3.379242758754774201e+00 -2.267885524998213054e+00 1.583121652444187433e+01
-6.713851909456237443e+00 3.209508926520012295e+00 1.233352998441653980e+01
-6.804887013331300416e+00 2.573091389646602334e+00 1.112881206277382162e+01
-6.859562861883290452e+00 2.652872268892566776e+00 1.129220005180949116e+01
-7.548267090555357939e+00 3.133213891090943282e+00 1.269660081939288077e+01
-7.351604285790971360e+00 3.235630032438317372e+00 1.263590132175086822e+01
-7.587015949627395450e+00 3.396276785082724903e+00 1.345580327725258130e+01
-5.341129833941221428e+00 2.365703039459637669e+00 9.677343809323325274e+00
-5.532004400135019040e+00 2.467474126059733930e+00 1.000295399340882696e+01
-8.338333173935339460e+00 2.211396291578386464e+00 1.239488207816240006e+01
-5.514240748545049087e+00 2.089219145478653061e+00 9.170092264279844585e+00
-7.913183746967257015e+00 5.890910997114828795e-01 1.003464138253852767e+01
-6.449308174360451673e+00 2.867286432839944776e+00 1.132387657376552781e+01
-7.237835490198348154e+00 3.287193777234262093e+00 1.264300176358114314e+01
-6.913750123080619758e+00 3.026187857260898895e+00 1.191144545379559716e+01
-5.119460290047718409e+00 1.975091424116563577e+00 8.710188515127342157e+00
-8.991956902663606144e+00 -1.104281484599590968e+00 1.439126677272334476e+01
-8.427448667259309190e+00 6.522866900712425142e-01 1.468489441696644704e+01
-7.885071445992976713e+00 1.662990129372882375e+00 1.119758129454713824e+01
-5.660203053219528435e+00 3.814815513529331015e-01 9.054981428350117767e+00
-5.496482801630635961e+00 5.005976408031826974e-01 8.996382963691900159e+00
-8.262613768279354787e+00 2.856403440834124119e+00 1.316674949792016136e+01
-8.566090998078216501e+00 5.484071258478743216e-01 1.077569257160921978e+01
-5.016198658652263553e+00 7.792362890300217337e-01 8.918377547215364132e+00
-1.652522347721506968e+00 -2.663612667355451435e+00 1.569631378070161176e+01
-8.916912517113328107e+00 -3.945391957884185175e+00 1.319839258148578764e+01
-4.349145823681772605e+00 -3.276908671175091659e+00 1.558981423700705804e+01
-8.082204963131992770e+00 -1.851621435020283535e+00 1.492396795696167189e+01
-8.130652416190752518e+00 -1.288230267649077554e+00 1.493257668098392443e+01
-7.953787236720587295e+00 -1.171301679540895258e+00 9.877206157746385884e+00
-4.918181843181867130e+00 3.087013368185099527e+00 1.537641336916372481e+01
-5.168864600813735777e+00 2.964074270008828726e+00 1.533914193111877822e+01
-5.488139513116681023e+00 -4.356229184199481352e+00 1.429945694536209189e+01
-1.792379211686311535e+00 8.719178309855472042e-01 1.158096389908753920e+01
-5.762238484660237248e+00 3.381037629677211775e+00 1.509648206664195058e+01
-7.791254171549879537e+00 3.504642499194232208e+00 1.424264812254519441e+01
-8.203791254372344355e+00 3.299149764931423423e+00 1.388062838140995936e+01
-8.097519458651341040e+00 -1.867972517361652596e+00 1.018366023290425915e+01
-5.749583483918365268e+00 -4.122135172273118542e+00 1.339387916394926137e+01
-7.115147113616059116e+00 -4.074279699157461465e+00 1.488940763767987718e+01
-7.342486267067433126e+00 -4.076217301925161962e+00 1.481489704816930342e+01
-9.006068600213001929e+00 -3.299767551798683751e+00 1.171835352063453328e+01
-2.206719442447810486e+00 1.506197723823583079e+00 1.516451344383488831e+01
-3.309253581747461315e+00 2.394882883472070567e+00 1.216286631167815457e+01
-7.545038614678650113e+00 -1.620661314827082755e+00 1.514407132385602850e+01
-7.684544417180400266e+00 -1.719316601423829027e+00 1.508710353714460339e+01
-2.343867118329366228e+00 3.532295118402555834e-01 1.089357732753859764e+01
-9.121059550676108074e+00 -1.336994464988372044e+00 1.104889899994201485e+01
-5.144747448593394168e+00 1.687005199478923689e+00 1.553227371583207983e+01
-3.477145948241831874e+00 2.806266777427479209e+00 1.522518520231263395e+01
-4.929070922356814322e+00 1.728814590852317146e+00 1.557657773380063659e+01
-2.590934430291083057e+00 2.422358546090637610e+00 1.444960505005594698e+01
-3.174637408902048374e+00 4.865560642765115462e-01 1.038804083961992930e+01
-6.794795410410671366e+00 3.706761077432276341e+00 1.464972956392042036e+01
-6.700506193389002441e+00 3.538644041634134929e+00 1.473025657673113287e+01
-6.908809112984156009e+00 3.351104398230678960e+00 1.470617919614841540e+01
-5.129739359329065884e+00 -1.379345797790029859e+00 1.221067301868258781e+01
-4.966001215639340494e+00 -1.302965384428866891e+00 1.223563553101610424e+01
-9.143362255607254241e+00 -2.243907624574258824e-02 1.417095295476280725e+01
-6.354617302651285549e+00 -2.784703061140303859e+00 1.229519171216910323e+01
-6.287954388269072936e+00 1.977922472481323357e+00 9.790665861534439074e+00
-6.643885460569098456e+00 -2.901136317944265297e+00 1.214130007171263159e+01
-5.566547455109122744e+00 -3.683550314811742332e+00 1.298996840672245767e+01
-2.740289668798297829e+00 2.500711873503350002e+00 1.461055510817109493e+01
-8.329776443511409667e+00 -2.429156128740496801e+00 1.477266004110620301e+01
-3.606409927303207308e+00 1.963469542533684553e+00 9.723071228553539669e+00
-8.587099858833955324e+00 -3.772137490293552275e+00 1.416037109679900752e+01
-6.344913308030090349e+00 3.834056520534113499e+00 1.461406147158043112e+01
-6.692735345090317978e+00 3.796259636121269487e+00 1.460450686252908170e+01
-1.373687018176733776e+00 2.042919371406525519e-01 1.209127239950151633e+01
-3.184987626964348895e+00 -2.364316466565009045e-01 1.603388411671856417e+01
-4.261950466606835519e+00 1.738485106108730083e+00 8.592131694186022628e+00
-8.760669585396893666e+00 -4.557185897232263749e-01 1.459756261123677135e+01
-7.104546965314740170e+00 -1.062249536929628757e+00 1.530176915175204400e+01
-2.030437785998370437e+00 -2.963679040674016107e+00 1.340017998644389863e+01
-4.368802560482579089e+00 -4.357994693513530748e+00 1.488629922673954198e+01
-8.873761464059821691e+00 -1.408771303092365201e+00 1.062494648358427085e+01
-6.115489054545971470e+00 1.047521296685479004e-02 9.250766731778817586e+00
