-6.450558344782979514e-01 -3.374075157277430792e-01 1.784362844066218301e+01
-9.904752177399067659e-01 -3.170942558826026492e-01 1.791437614068577844e+01
-3.204958927155930226e+00 1.916462505099057800e+00 1.776971623588790905e+01
-6.221071109462018356e+00 2.596983426003666828e+00 1.447498070394021497e+01
-2.973649011903896966e+00 1.766324316660416560e+00 1.780606670468653974e+01
-1.784979498151778143e+00 2.942073591132563060e+00 1.747315296237820448e+01
7.394109154026756725e-01 -2.382202580492316368e+00 1.557464123129316036e+01
-3.976033395043052643e+00 4.118839770452427551e+00 1.716358838095759509e+01
-3.406475027150965840e+00 4.158672466825636072e+00 1.700398525385606163e+01
-4.657078993007272016e-01 1.385237477379384075e-01 1.244741614051377709e+01
-3.393363706253266443e+00 4.085596108845697572e+00 1.722241991539112504e+01
-3.200807818593709442e+00 4.112180205232776942e+00 1.717567775211186998e+01
-3.387449558749634715e+00 -2.779584030896479763e-01 1.777880821282071011e+01
3.270082862835883009e-01 -3.543377046614112125e+00 1.475417101485728111e+01
-2.807162678940145373e+00 3.975359485812353544e+00 1.722753621772016075e+01
-4.183845462818036154e+00 -3.115693327628694664e+00 1.764673544687091677e+01
-3.222602542575702333e+00 3.739020842144234358e+00 1.737450298278426075e+01
-3.486071884017949873e+00 3.846169198015114254e+00 1.732428123645064133e+01
-7.548040594110689838e+00 1.188668959195098296e+00 1.408636398630934750e+01
-3.413357932977249209e+00 3.973392380795741641e+00 1.728918956342881685e+01
-5.790848097914743420e+00 -6.399153505003310372e+00 1.650978460738979336e+01
-2.461359055355803793e+00 5.088051834857163502e-01 1.789923065226109244e+01
-7.174221850493042396e+00 1.755838949675488259e+00 1.669290481034749618e+01
-2.637816426208253962e+00 3.901151892984410008e+00 1.699843111777755311e+01
-5.805955781508252755e+00 -6.879514993781661314e-01 1.207251041195607755e+01
-2.211237191561016058e+00 4.809581176140431125e-01 1.792796838297551076e+01
-2.780707303501111394e+00 1.703602028088201603e+00 1.782420279123730822e+01
-3.655757090624394579e+00 3.413015329809819587e+00 1.498277882229630009e+01
-2.747056025909800692e+00 1.454968832948306368e+00 1.785334459527897266e+01
-3.792480078687402223e+00 -3.094440215122046034e+00 1.768013633675741758e+01
-1.603578754089389768e+00 -2.300284217901581663e+00 1.775742855784973884e+01
-1.405520228539720140e+00 -2.301729595660682914e+00 1.777840546213895934e+01
-1.586470663711026408e+00 -1.884942543807142101e+00 1.779779703697132831e+01
-4.899308876008065639e+00 1.200257165832266715e+00 1.760517176511759985e+01
-1.882103765926716576e+00 1.817453918140670144e+00 1.264817469537493722e+01
6.130754142757025571e-01 4.452589646881993657e-01 1.552839824779438160e+01
-1.342520291927695730e+00 1.868827850399932267e+00 1.385156080213608831e+01
-3.993552724147189537e+00 7.217042041940818775e-01 1.778201801841077057e+01
-3.196558518157318840e+00 -7.903883291288965607e-02 1.779737166970785367e+01
-3.988778848916516573e+00 -4.852465557224004411e-01 1.772417741771588240e+01
-8.277183941475639628e+00 -1.729442880615713385e+00 1.484094470666302001e+01
-7.209333030136669151e+00 -2.494079378056074159e+00 1.321126063302879672e+01
-7.573347855036157483e+00 1.580708028620105843e+00 1.634517374420252978e+01
-1.200923677776895460e+00 -3.691515477783586352e+00 1.768271677430562150e+01
-7.843190669372290813e-01 -3.695307747508530305e+00 1.771468019840390795e+01
-5.930161275851610903e-01 1.537888793379165620e+00 1.722259286015962587e+01
-1.043206136354509983e+00 1.293298180908142303e+00 1.775254201586935565e+01
-1.033540803814544162e+00 1.707815900373419016e+00 1.759044765094963125e+01
-1.175601418858835512e+00 2.152923223297137145e+00 1.750235811692169463e+01
-1.195170914239009452e+00 1.902957299012323578e+00 1.761415094284166472e+01
-6.195309301577458072e+00 2.147437703905448636e+00 1.705559603954427317e+01
-8.323860527707701351e+00 -2.765497076731588511e+00 1.601450288902902130e+01
-8.394307082757100913e-01 2.146942368680555102e+00 1.721012429766062368e+01
-6.506472273816550356e+00 -8.039737355292804200e-01 1.222660055547057922e+01
-9.777531940330129734e-01 2.352912569525642983e+00 1.725967200793714440e+01
-1.001420740284167943e+00 1.952435762346282466e+00 1.745695784875728762e+01
-7.905934689366621582e-01 2.328915763037247899e+00 1.711366403833325123e+01
-4.390588079419751821e+00 1.347865842401934078e+00 1.105851432772354670e+01
-1.198039601855402703e+00 2.547903125536871372e+00 1.735521401997771207e+01
-5.819381274484385358e+00 3.128594986171188697e-01 1.740232703325687069e+01
-6.616763772809745703e+00 -6.362199202752523153e-01 1.721675052222689928e+01
-7.900557843585774842e-01 1.923779679117985086e+00 1.725837753348322323e+01
-1.045939089512436748e+00 2.533402244909003453e+00 1.724419921153254975e+01
-6.381194764582117429e+00 -2.864038938091593600e+00 1.735847700148239525e+01
-1.218003461014087963e+00 2.343534637705438683e+00 1.744961302018108640e+01
-7.748743813161850014e+00 1.360213080300483046e+00 1.467248263105102879e+01
-6.020277633408367413e-01 2.163032304876721490e+00 1.702893192709209202e+01
-5.755599513657415400e+00 2.772289988508973568e+00 1.452060935691457288e+01
-4.723245124401443396e-01 2.008383157032382460e+00 1.696139452397905600e+01
-1.407809655189195874e+00 -4.892852338382754240e+00 1.747040757348607443e+01
-7.241425263471995555e-01 1.994786326936178966e+00 1.714850422995347046e+01
-2.318755611596309829e-01 -4.987361458275907822e+00 1.564318792052943863e+01
-4.389687069194345703e-01 2.095084846673860302e+00 1.695982634669945455e+01
-4.320799053782493210e-02 -6.805377996538888308e-01 1.745579396429695507e+01
-7.733807266228332367e+00 -1.076605355129965247e+00 1.674554943076148916e+01
-2.276093580776183956e-02 -3.290733307565850474e+00 1.770273040870036496e+01
-7.122147126217948099e+00 1.118543231682425976e+00 1.686806199454442989e+01
-6.525775010242837126e+00 2.153707257925419949e+00 1.391849664098479522e+01
1.891261609340260108e-01 -3.069260923608349678e+00 1.758001135752451560e+01
1.419158040933989062e-02 -3.039800482483256072e+00 1.771332475010476415e+01
-5.302183501060259374e+00 1.732909890458242508e+00 1.235916832805001420e+01
-2.506911430439991428e-01 -3.325884532941988603e+00 1.775549251987166244e+01
7.029333543907831938e-01 -2.021035591147859023e+00 1.602107231448505686e+01
-3.494442613032287537e-01 -3.096036530111955898e+00 1.780089168895377938e+01
-5.925663554678977096e-01 -3.093152470290786660e+00 1.779748058140640055e+01
-5.091180386886433595e+00 -3.451430756370688968e+00 1.754166435355725540e+01
-1.929637494076683168e+00 8.616230290510369372e-01 1.117508695446225531e+01
-5.937764420779902963e-01 -3.726150965028867557e+00 1.771828166600411336e+01
5.766231190925846795e-01 -3.660429100976374084e+00 1.693539996508118506e+01
-8.341110243656548739e-01 2.531808273192480474e+00 1.705077830901180036e+01
6.733145420653134927e-01 -3.865669003700785922e+00 1.667984032894930024e+01
-8.069936407521072219e-01 -3.314321480820806798e+00 1.775719017987339399e+01
-1.022595900479688735e+00 1.762314127420201437e+00 1.421324680762029047e+01
-5.263720836680304410e-02 1.726580348600914139e+00 1.676230360187784996e+01
-6.101321825597429083e+00 -3.116373627924833745e+00 1.740587476330357575e+01
-1.831126615777388389e-02 1.570983774399560051e+00 1.676317901447547953e+01
-2.116750164022368763e-01 1.380300379632491747e+00 1.686152929639034781e+01
-6.437406606821079791e+00 3.225242770217860766e+00 1.565026695440651494e+01
-3.645878529601152884e+00 -3.960374258367358458e+00 1.536160561906911326e+01
-1.561829939617521035e+00 -3.508812299121331524e+00 1.767493702324336269e+01
-2.431649693957021796e+00 3.712774661451707203e+00 1.679399129020955073e+01
-5.735270229656130869e-01 -3.500775405447837052e+00 1.775135462046069890e+01
-1.843233526480570816e+00 -5.696449287129036421e+00 1.727864015833793943e+01
-3.819600074990472383e-01 -2.880447827663258131e+00 1.782447921917914968e+01
-1.204073503344739393e+00 -2.459788598741305954e+00 1.779357322813525499e+01
-2.736976664149941563e+00 5.102563143384410971e-01 1.786280745653404622e+01
-7.727297098511700213e+00 -3.253957054739527344e+00 1.365329496878974780e+01
-7.448869203474238754e-01 -1.094817363379438468e+00 1.789159461462351786e+01
-7.848593222445028328e-01 5.047485494824808239e-01 1.779788107955490872e+01
-5.476669241514580122e+00 3.498700122806766899e+00 1.557968038718636805e+01
-9.929888695921650354e-01 9.032738086523012244e-01 1.781875016488595165e+01
-6.030321160916776169e-01 3.229138226359772323e-01 1.773556203987901014e+01
-9.698800640523320693e-01 9.481355455408699284e-02 1.789704586824126764e+01
-7.954112378547095741e-01 -2.913208557386408604e-01 1.787964143015600982e+01
-8.351802026787622513e-01 9.130697775887457457e-01 1.774557060470239733e+01
-3.243852429408428661e-01 -1.910601876205778815e+00 1.784548646620363499e+01
-7.888396783742777529e+00 -5.343024410494043308e-03 1.633372543118590059e+01
-3.783223807008423978e-01 -1.525280822647012258e+00 1.784600936818595684e+01
-5.638798432862801580e-01 -2.737673747393084334e+00 1.783590046207667612e+01
-1.002362218632554036e+00 -2.103391391013264222e+00 1.785124600520794402e+01
-4.022419818359098898e+00 -4.560600014293396676e+00 1.550606895797818297e+01
-9.583963501555168296e-01 5.248196784228522649e-01 1.785468063359160951e+01
-8.071617268869940576e-01 -4.337684510941099525e+00 1.759365299251830450e+01
-2.884620333149817917e+00 -2.175718983017648434e+00 1.460307604786865099e+01
-5.658737267032483143e-01 -2.504414832320219997e+00 1.785678304228985169e+01
-7.426156639317872177e+00 1.919981398878349566e-01 1.292823897836410296e+01
-7.806849913548182807e-01 -1.859225736159495046e+00 1.788667081959524907e+01
7.227533159766716953e-01 -7.633050165528486586e-01 1.567275154689110295e+01
-9.943307723508023610e-01 -1.710362059077128460e+00 1.787771450342495783e+01
-4.000276560394661729e+00 3.331923494984188938e+00 1.739074623130959552e+01
-3.019180363158141756e+00 -2.304760483059253406e+00 1.769584914402875953e+01
-5.271965380155535286e+00 -1.110512497105123231e+00 1.289527938150284214e+01
-6.640032420763072096e+00 3.276027732309446439e+00 1.583684527294704836e+01
-7.661188550612815229e-01 -1.726859492101209259e+00 1.788966468963146283e+01
-8.008660044938507028e-01 -1.534450683891051881e+00 1.789043794059003645e+01
7.435777133448512322e-01 -1.949679656894848900e+00 1.502417613557944875e+01
-1.531878640577540862e-01 -2.680752127730147372e+00 1.780372635877510490e+01
-1.970353324619995572e+00 2.923380352020875872e+00 1.546398549577398640e+01
-2.004925507238983773e+00 3.042409040915829532e+00 1.571835466556255412e+01
-8.273918937389497685e+00 -3.005871125231751151e+00 1.613260033446859509e+01
-5.339392461479999241e-01 -1.656929168918147344e+00 1.788017437672755605e+01
-4.403841574405431003e-01 6.477858210171780762e-01 1.749954599325182514e+01
-6.963143291826273895e+00 -5.644122244354273121e+00 1.691524379440298631e+01
-5.551086831309035574e-01 -1.091188332377924119e+00 1.786427755783855886e+01
-1.400981746868772415e+00 2.528900202931555485e-01 1.794907518898884646e+01
-6.115148194736116594e+00 -3.875970833587618625e+00 1.487471012136203186e+01
-2.304343319101438692e-01 -6.669749084025182739e-01 1.765474146761966168e+01
-5.673269245237675396e-01 1.920473752792740019e+00 1.558881010565997727e+01
-6.898756959602193817e+00 -2.201685781886057569e+00 1.725082600213209716e+01
-4.064345829985151898e-02 -2.288309455497594236e+00 1.775391727852641921e+01
1.685222022406483444e-01 -2.293409311854783361e+00 1.757161085697085312e+01
3.210769083778969302e-02 -2.873169844103498960e+00 1.771713741347612014e+01
-7.786475762018598701e+00 -1.464281577688133495e+00 1.675516636373758317e+01
5.584783481637712876e-01 -3.034064620032772108e+00 1.710664560295012038e+01
4.008314224638813705e-01 -3.296180968503834574e+00 1.734801470912547572e+01
-1.162665281664995609e+00 1.665149443090561565e+00 1.365395093443035890e+01
-8.237034746389262363e-01 2.359223195555196551e+00 1.626618554178815046e+01
2.379227038691985596e-01 -2.085028567528294019e+00 1.746440710024782206e+01
-5.904542363245372627e+00 2.752858000018344686e+00 1.457152435401434687e+01
-2.253608695168705933e-02 -2.681337722222360220e+00 1.775387249937937284e+01
-7.552537248279583837e-01 1.258768501145453911e+00 1.340059715394178497e+01
5.262666327942920885e-01 -2.659062229220295226e+00 1.710993473154661260e+01
-1.700332088646765438e-01 1.159497439824823228e+00 1.686635932877163313e+01
-2.213604837772611411e-01 1.976399980324040406e+00 1.665169005121608237e+01
3.505628739252975024e-02 7.615267111237794539e-01 1.674936667358915443e+01
5.440907213773220619e-01 -3.429475333536681436e+00 1.711426674831864503e+01
-1.856049180547497957e-01 5.512080234860302630e-01 1.717516218626822067e+01
-6.341504880490109741e+00 1.212154514573038355e+00 1.245966631789136514e+01
-8.181211108457736358e+00 -3.414904306798319578e+00 1.632098511393642681e+01
5.113545482151089505e-01 -4.429127960560350075e-01 1.664840176686359641e+01
5.640928025916099875e-01 -2.319774586372848613e-01 1.646278207179315345e+01
-4.570403981803346838e+00 9.152522955818216399e-01 1.768555693884387026e+01
6.104155711213719027e-01 -2.048260496395958086e+00 1.678565105742667285e+01
4.656238861961680131e-01 -2.267102237864028869e+00 1.722023912264957701e+01
-4.395350139094139408e+00 -6.360306839518617750e+00 1.650290671614952842e+01
-5.471230898572562396e+00 -1.678329623766221523e+00 1.744635438024550567e+01
4.470328115052308871e-01 -2.052928007606571015e+00 1.722808127400975664e+01
2.383410025013275868e-02 -1.887209355250945020e+00 1.764466960242113558e+01
2.521063890335309976e-01 -1.445021865057322330e+00 1.730255307874399406e+01
4.172347104330975665e-01 -1.663046916890730920e+00 1.716714824874840062e+01
-5.024474633719265171e+00 -6.557251359943304658e-01 1.754979387145791137e+01
2.076194366563028915e-01 -1.075259796162915116e+00 1.723745852952060531e+01
-1.027600474009615211e-01 -2.606061533519560269e-01 1.740847994738043170e+01
-7.294794863395027695e-01 -3.543474790202305602e-01 1.259768458158284332e+01
6.286624372848884645e-01 -6.426657262199204912e-02 1.446753908391825760e+01
1.147085186356269770e-01 -6.767497486809637142e-01 1.722841718431178393e+01
-3.785389509897010285e+00 -9.232584907196773882e-02 1.776822236145068601e+01
-2.141290001079364513e-01 -8.953666492356605611e-01 1.768754751918742230e+01
-1.793196739468881473e+00 -2.714821306717687399e-01 1.793239960868141125e+01
1.942852749586368444e-01 -2.290145779017826733e-01 1.692300941102613976e+01
-5.688194625449932929e+00 1.711077982090487559e+00 1.258262387272961647e+01
1.634408108130230297e-01 -1.660483931610101216e+00 1.746908424708934504e+01
6.307036701197740181e-01 -2.885058297649414349e+00 1.678415511280816119e+01
6.325131164908225356e-01 -2.659148478102930646e+00 1.677063277720384704e+01
7.403790968319933219e-01 -1.366152462880047214e+00 1.543092603918459460e+01
6.577683826499203246e-01 -3.231843657298905548e+00 1.675452417038912856e+01
-5.235872433491891798e+00 3.241514175721718072e-01 1.753866966787925108e+01
-4.056261000547570106e+00 3.320448976640374639e+00 1.475753219582137277e+01
4.016367266309928130e-01 -3.489716420165685395e+00 1.732762418644820102e+01
-7.691678672654600479e-01 1.909914183153739398e+00 1.515249676943930623e+01
-2.059637873202966596e-01 -3.085932043725811980e+00 1.778261121911942055e+01
-6.853099249077532207e+00 1.118095491007832454e+00 1.296924034440514006e+01
5.344436124778931818e-01 -6.789475618313466354e-01 1.664457142323707117e+01
1.453630029398535195e-01 -2.087114050938692067e+00 1.756339654081264356e+01
6.114496862111886699e-01 -6.250819419803343990e-01 1.643392063021591909e+01
5.457447561580744955e-01 -8.360001128922842639e-01 1.668033995963360994e+01
-1.638575755652580401e-01 -1.272896086837386420e+00 1.771289109698745179e+01
-3.747470626479491584e-01 -2.120748055303892432e+00 1.786235755755286547e+01
-2.602620023857226128e-01 -1.307854772962133261e+00 1.778240876789826430e+01
3.941485265412601469e-01 1.220472097356768426e+00 1.618930287464968032e+01
-3.163210376286531567e+00 8.340996242311070619e-01 1.095847176006374823e+01
-3.129684501421996501e+00 6.093973430039066885e-01 1.114670691306494987e+01
-2.973761527237074986e+00 8.061824860298874018e-01 1.100743487988121316e+01
-2.759409051810666647e+00 8.314912498207982505e-01 1.099543339645773088e+01
-4.898621398302884233e-01 -4.383785996521283757e+00 1.526251579631318478e+01
-4.030261038310457011e-01 -4.742596200520523553e+00 1.548670052439356581e+01
-7.530435321617634514e-02 -4.528198380158777958e+00 1.536626060858336373e+01
-3.210893587548558248e+00 3.523829915411065272e+00 1.553652905340463874e+01
-1.031681391151639371e+00 -4.199178903402022378e+00 1.537964296069899106e+01
-6.496086272088145819e+00 1.573177211758428840e+00 1.312466335697375897e+01
-6.428658543524737867e-01 -5.384545582024685473e+00 1.588243482360168102e+01
-6.633410521109960101e+00 -5.606457988308624074e+00 1.552717497905575428e+01
-1.029032899971540793e+00 -4.827524406347318831e+00 1.561237430226411149e+01
-7.554276126662752944e+00 8.061653930658609912e-01 1.364992596728032836e+01
-1.686537389621206362e+00 -1.574451283266471879e+00 1.403615723515287428e+01
-3.927146272577620056e+00 -6.792844811136860006e-01 1.257623987689379774e+01
-1.862754315194997456e+00 -1.592834086339196098e+00 1.409093148080849645e+01
-1.658655910702407699e+00 -1.755307464033130316e+00 1.419837831041522591e+01
-1.381412088000083971e+00 -2.083943781120898731e+00 1.780361599519197213e+01
4.463978696832376913e-01 -1.045706965201693261e+00 1.392720205809906631e+01
-1.681123386272490139e+00 -2.064067321456097392e+00 1.445695458315987381e+01
-9.671825190564182773e-01 -3.924100545693382625e+00 1.523187210593516383e+01
-5.755430883284104127e+00 1.264892517879082412e+00 1.186528044308501606e+01
-1.205312036811485354e+00 2.732556596029398044e+00 1.726790141024234870e+01
-3.310254322184954301e+00 1.029552165084857140e+00 1.077078770744968139e+01
5.730395730376705021e-01 -2.655177224476872766e+00 1.696409183318055724e+01
-8.609893766829157524e-01 -3.797041186722776462e+00 1.509880896497572067e+01
-1.862306035066046972e-02 -5.299021982013718102e+00 1.590414979736695855e+01
-2.469320462274463779e+00 5.278394076619908892e-01 1.129497021460135997e+01
-2.114473202903626614e+00 -8.896113382869715869e-01 1.783594096543677310e+01
-5.821087893560868309e+00 9.923179848875333109e-01 1.737634010501869497e+01
-3.549907955423519557e+00 7.184197243064879834e-02 1.164093063847612441e+01
-7.806980902270517220e-01 -4.082970974472304171e+00 1.519699564785902979e+01
-7.676574310349367769e-01 -3.755060314508294805e+00 1.499170773871877671e+01
-2.729009327483996383e+00 3.366347857229246565e-01 1.145967269218919071e+01
-6.398200912823776676e+00 -2.233967037814941214e+00 1.732571320726669839e+01
-2.634475532923900243e+00 9.563820219694489921e-01 1.090273448260334632e+01
-7.513909771176651375e+00 -5.305896046068697913e+00 1.670150041783191242e+01
-2.542097193706322145e+00 1.086666540803927550e+00 1.081406296532219002e+01
-4.183924281780210919e+00 -5.466891100818704885e+00 1.563940009575236800e+01
-8.145213373115714361e+00 -1.671909101161293876e+00 1.435257203884432542e+01
-2.537647888608589142e+00 7.330759901405351497e-01 1.109278357717520080e+01
5.742430748732125778e-01 6.328423825124488422e-01 1.553961528051745589e+01
-1.178535964078712972e+00 -1.814895803008181652e+00 1.392384612241920294e+01
-7.940324633359203688e+00 -4.183061010698499338e+00 1.659410645233453252e+01
-1.264733573811891443e+00 -1.478997516866930262e+00 1.367008585092039041e+01
-5.133373993604394059e+00 1.401578120269813543e-01 1.131613342243887743e+01
5.424649118414331950e-01 1.131154667360805867e-02 1.646037956003089775e+01
-1.459279473990855003e+00 -1.220875151597910602e+00 1.351977820010986520e+01
-3.868917727780284643e+00 2.313683677924511350e+00 1.276215795890909632e+01
-1.893955422673049283e+00 -6.073590802849929693e-01 1.273421475755657539e+01
-1.709900417598088307e+00 -7.464672973813863965e-01 1.293182485379515256e+01
-2.289893280163782130e+00 -6.448191521598993781e-01 1.274485876443420196e+01
-2.762753900703993182e+00 -7.369877582332725607e-01 1.281421778141299583e+01
-1.956109178460947007e+00 -7.750984629772083023e-01 1.298510325253679198e+01
-2.438557098952830238e+00 3.228168615654534168e+00 1.554814091627617856e+01
-1.897568114464289746e+00 -3.317320012598142243e-01 1.240089462906168549e+01
-5.047633006324188543e+00 3.480566437498607613e+00 1.537446011049107497e+01
-6.709226687241242715e+00 -7.548411945897824660e-02 1.716994744666945039e+01
-2.478852928033068448e+00 -8.078046576000902368e-01 1.297468121783386508e+01
-4.061508517844655941e+00 3.110150231070858418e+00 1.437951479285901613e+01
-6.151360951976187152e+00 1.996545601885056642e-01 1.157573284024568139e+01
-2.473795575859804696e+00 -6.533500474815875370e-01 1.273007797267079511e+01
-3.363676842650948906e+00 4.671779483467337069e-01 1.122361622633017575e+01
-1.542839870019862225e+00 2.033527881044355556e+00 1.389896004211569291e+01
-5.797727440056132053e+00 9.113962974284519625e-01 1.143934716432073273e+01
-3.322066691089027746e+00 7.051327750581131149e-01 1.101188767344623542e+01
-3.233074079465659612e+00 1.376296375392810134e+00 1.055527601467466425e+01
-2.722526904860983699e+00 1.952387267704046581e-01 1.161797082023997163e+01
-6.394778407629255312e+00 3.367744857154755245e+00 1.657400019210907871e+01
-3.417757459541175713e+00 -4.307840610214500821e+00 1.760693261108056262e+01
-3.331237910939406355e+00 9.761651950572973468e-02 1.165489023900950016e+01
-3.340103580977869413e+00 1.537980404414933944e-01 1.157985459858825905e+01
-1.947244152982225751e+00 2.417967392284869454e+00 1.414314013083751220e+01
-7.950511115362036918e+00 -6.639215625631826601e-02 1.623893558580324381e+01
-1.188366609353530112e+00 -1.098639014227581256e+00 1.789419228530951145e+01
-3.235834284110447268e+00 4.007472736331602059e-01 1.133407732708441884e+01
-3.078323280449176025e+00 2.782217262172191896e-01 1.148236265655411970e+01
-1.881530963451212513e+00 -1.082946536983340202e+00 1.348708003379929110e+01
-1.074679986095937512e+00 -3.198708993468301731e+00 1.492236973100091646e+01
-3.141697560885897911e+00 1.184615303360553540e+00 1.070989932812583234e+01
-2.049242525377622748e+00 -1.509806016758953540e+00 1.403875049962366361e+01
-1.239603449023803483e+00 -3.786657074452913996e+00 1.527725033120917075e+01
-4.732021465580865893e+00 2.601995484641237422e+00 1.372939223665356323e+01
-1.400077158540939726e+00 -3.536588435226928340e+00 1.521518711241793298e+01
-4.208765324196097168e+00 -5.071942280100138589e+00 1.748008738427530417e+01
-3.042424538581703697e+00 1.318771719390558483e-01 1.164855527039972927e+01
-2.605591300328957693e+00 -5.909546534390829109e+00 1.721572049554043460e+01
-2.133293252561017983e+00 -1.613996319902458176e-01 1.215485822743911015e+01
-3.915381821897226722e+00 9.080948915719858627e-01 1.062004646546980879e+01
-1.337073503162304222e+00 -3.043440845725010391e+00 1.495828370324295165e+01
-5.411393708351381449e+00 -6.788769948398994947e-01 1.747294379574657697e+01
-7.966956641243104542e+00 -2.013599625880571897e-01 1.624698091965151647e+01
-2.298078556343081669e+00 -5.462573423340119083e-01 1.260042662000186553e+01
-6.021084072263978015e+00 -8.907533077888966089e-01 1.734929519655348074e+01
-2.006749892723446393e+00 -2.135722893596187610e+00 1.456188104529086402e+01
-5.282523286547943897e+00 -4.758156575587079828e+00 1.545486158233056884e+01
7.737304566574890741e-01 -3.570629216937009520e+00 1.552019238576133020e+01
-1.564788980969866072e+00 -2.496673976111285942e+00 1.471235623560490424e+01
-1.792260271346389988e+00 3.024283788640910409e+00 1.609768815123538488e+01
6.761152233662375277e-01 -1.627372307565302378e-01 1.451235997055895055e+01
-1.707810816705011669e+00 -2.489100624887551572e+00 1.473821087848051903e+01
-4.566118827171603556e+00 3.277761501246040599e+00 1.730408081139394838e+01
-4.037521502686895469e-01 5.301546178279309407e-01 1.749743816379288930e+01
-1.410645391366072143e+00 -2.579100201060172903e+00 1.471679014637978966e+01
-6.585015276645554749e+00 3.348778399111823845e+00 1.590918927404919359e+01
-1.721379332223809122e+00 -1.936053273691221488e+00 1.436900147950720097e+01
-8.927312611397335562e-01 -2.354602344641551603e+00 1.413013315510455570e+01
5.563393479444893597e-01 8.854348828374475344e-02 1.428763618102658839e+01
-2.533469183266050528e+00 -2.104884816104041489e-01 1.212635242620231324e+01
7.531824049103698071e-01 -1.112126715880816352e+00 1.462791716268857201e+01
-6.624536360315268491e-01 -3.381221067645810319e+00 1.468490568919148487e+01
-6.691950059629953040e-01 -3.122847325523606887e+00 1.453405015993824279e+01
-4.604632877197301966e+00 4.143979330243061199e+00 1.644934928475701597e+01
-2.196646978591510813e+00 2.926728318455180666e+00 1.508522552030715858e+01
-1.914198560738868515e+00 -9.247889295345634864e-01 1.322912750009756522e+01
-6.742644629942907031e+00 3.395447323708957743e+00 1.617878723627590531e+01
-7.792469595757541612e+00 -2.673089739568534906e+00 1.378476145758463289e+01
-8.900869685673410414e-01 -2.136378891673969438e+00 1.398534885281729956e+01
7.477510656035136760e-01 -1.766594600018616568e+00 1.503508564921069635e+01
-6.410817893549221935e+00 -2.440325730392931991e+00 1.733546513256272803e+01
-3.326499763168643042e+00 4.037356177425691084e-03 1.176992520500809647e+01
-3.081689165219749782e+00 -7.225212787630146127e-02 1.189234965902889130e+01
-5.658375333523895989e+00 -4.779904605319529765e+00 1.539773670208261436e+01
-1.121231033868917981e+00 -2.362558112278105416e+00 1.435029360191478887e+01
-1.289075771694721873e+00 -1.102993009335071939e+00 1.328676622098369009e+01
-2.605396290364631717e+00 -8.762078365574170746e-01 1.776550095704008569e+01
6.321285473404026911e-01 -4.636456874932049388e+00 1.561977636812486381e+01
-1.827969507061009136e+00 -6.146380965265945129e+00 1.652971454332780255e+01
-1.963276420190457117e+00 2.371242932006281112e-01 1.177452649727223744e+01
-4.220843952958333034e+00 -9.097876900304304737e-01 1.766179934121578654e+01
-4.908685980202925236e+00 6.654068982961037770e-01 1.080184679081291321e+01
-2.129005876107822992e+00 3.011711437267466374e-01 1.163932637740027687e+01
-7.203569780285766555e+00 2.635769835073704659e+00 1.624454006101695924e+01
-7.643183472472713902e+00 -2.647173882741930218e+00 1.360615036606170136e+01
-1.588844904892874998e+00 1.011787993680543229e-01 1.202757326881979694e+01
-1.507111027334938846e+00 -4.917733037557350112e-04 1.212961558604091650e+01
1.683030610445119257e-01 -5.365157671517932769e+00 1.607754465287706935e+01
-4.150438657371429557e-02 1.467216884463413251e+00 1.539776217346581078e+01
-8.809596316813065320e-01 -2.482213831166729112e-01 1.246671302800429615e+01
-3.814249875741070550e+00 -2.500979905441512496e+00 1.474141848192415338e+01
7.487921055569843332e-02 -3.981712041634506871e+00 1.502060348261396783e+01
-7.055595254675605332e+00 -3.299444152736432656e+00 1.362726857768783972e+01
-4.441879601500222208e+00 -6.318716460632500365e+00 1.694554434961844791e+01
-4.675652510225414282e-01 -3.532450822008987856e+00 1.473382978458340276e+01
7.414420299955544191e-01 -1.581596110727065074e+00 1.542635186547113690e+01
-7.876409420647357829e-01 2.462527812648423353e+00 1.665912037660570277e+01
-8.148570962596373590e+00 -2.246637571972493141e+00 1.636814582921552486e+01
-2.237918301078694938e+00 -2.290300564820376028e+00 1.469185435676810059e+01
-6.845770639421221659e+00 2.412395401353826685e+00 1.462862504757477566e+01
-1.510644221300001977e+00 -3.654678469094991833e+00 1.528852634617573258e+01
-4.814720406513117723e+00 4.299276789321933023e+00 1.670535337060714554e+01
-2.115333752004876722e+00 5.785483931054740125e-01 1.136014699253423643e+01
-3.381294744784809403e+00 -5.383153350537217108e+00 1.741647866928817834e+01
-3.135934807840931704e+00 -2.774451649812432752e-01 1.213853505355296036e+01
-3.126274834541893810e+00 -1.844952921081354502e-01 1.202701064891613569e+01
-5.004767427680546277e+00 3.174374158461224393e+00 1.485057755670596080e+01
-8.046679601315776864e+00 -9.176633557565615495e-01 1.425974542730746109e+01
-3.298157359710902181e+00 -3.420204000286511947e-01 1.220826039803296581e+01
-4.238056860182012997e+00 4.019849919743746725e+00 1.622562125263178601e+01
1.000761680524200337e-01 -5.756071079071040764e+00 1.675084207453680918e+01
2.952683678262384426e-01 -5.557283188355222059e+00 1.662657603801362782e+01
-2.480469883771571293e+00 -2.557914692268140389e+00 1.486342235555206415e+01
-4.750307070702772805e+00 1.258483378650880447e+00 1.110648843147582809e+01
-2.251393620241265214e+00 -2.770558413697874478e+00 1.498045512369587939e+01
-2.656070129058173634e+00 -1.825960724297065685e+00 1.436784180884383844e+01
-2.300746700491295371e+00 -1.401008814006312608e+00 1.394612812627150689e+01
-2.676190431311879170e+00 -1.426920556074992685e+00 1.396085170980446222e+01
-2.250612187117170038e+00 -1.524526059479105911e+00 1.407479667069408791e+01
-3.341627147392232100e+00 -8.554959272175849394e-02 1.188269621776411000e+01
-7.982807202252281797e+00 -1.067546714036625849e-01 1.415749003414238061e+01
-2.714357136859360864e+00 -6.336436408705375944e-01 1.266048648793304565e+01
-7.691451058014461495e+00 -5.285958067651836956e+00 1.524896147124789891e+01
-3.196217444507207794e+00 -6.632848368682336959e-01 1.775464266615361097e+01
-4.658840657631447613e+00 -1.710453075394084976e+00 1.408782049438472583e+01
-3.090981657207132915e+00 -6.825566157987715821e-01 1.268907670656547637e+01
-4.524661847512776447e+00 -4.674810788903756009e-01 1.215021199066998392e+01
-3.751058214631579180e+00 -5.274726130404959468e-02 1.175380954759697616e+01
-3.713717818105490398e+00 -2.367243182926496436e-01 1.201065092464198969e+01
-4.238040088987940379e+00 -6.358521862084443477e+00 1.682266625822072470e+01
-4.798079047171748712e+00 -2.076825362804362474e+00 1.755210501682369184e+01
-3.089649454627066749e+00 -7.508211713669913356e-01 1.279915772138474850e+01
-2.019263326236518274e+00 -1.830973677714366588e+00 1.433541862487652807e+01
-1.834387025484968126e+00 3.167373649325313512e+00 1.743026556056706156e+01
-2.398043019922155850e+00 -2.061905170348212302e+00 1.455346090132429637e+01
-2.861670867861513923e+00 2.668882355021178654e+00 1.763398391338580851e+01
-3.297697550121146737e+00 -7.663405926825838099e-01 1.280138913094357278e+01
-5.023622845337786913e+00 -2.430899312685785851e+00 1.459608895582130472e+01
-2.067249449121341343e+00 -2.806882238938238405e+00 1.497827162948783197e+01
-5.622585885267172401e+00 -1.515080992189098197e+00 1.742131212697274734e+01
-2.959389481958603518e+00 -9.806961958941313728e-01 1.321443576018775801e+01
-2.322451523140882934e-01 -3.424760536068264027e+00 1.467028874611531464e+01
-3.553064784886002858e+00 7.201769757073206435e-01 1.090441500667018104e+01
-7.772158158453033039e+00 -2.844718257854833565e-01 1.360744976100047055e+01
-3.736706549699358337e+00 6.023028706645748853e-01 1.093132878307550371e+01
-3.717652570223087150e+00 4.164559211518738535e-01 1.113999406871465325e+01
-1.635147158377736831e+00 2.995207833619574433e+00 1.633439149390575196e+01
-3.075859306643137003e+00 -1.037864071484490225e+00 1.330110975618149993e+01
2.479401002194439596e-01 -2.003035077286781929e-01 1.339836225625721866e+01
-1.448773279356529553e+00 2.309859720831965113e+00 1.484256534845803444e+01
-6.694067795305949531e+00 5.941025543277521637e-01 1.211821793623493804e+01
-4.581998057558839932e+00 8.560266635810981350e-01 1.060533340348021980e+01
-4.395700204746146866e+00 9.694482215009901926e-01 1.054994983927799623e+01
-1.800313089206033279e+00 2.195595641630905259e+00 1.383062633128931296e+01
-6.068164425769022596e-01 9.471626522332109166e-02 1.236985683700682515e+01
-4.344144953614096138e+00 1.102847576233316751e+00 1.063223298236936287e+01
-1.676893396936369518e+00 2.419043553879664632e+00 1.468007120890356632e+01
-4.027487752021059464e+00 7.475239560760704727e-01 1.069844804696464635e+01
-1.068873671464947384e+00 -5.724841378764518041e+00 1.611745383427313882e+01
-6.851092393712538975e-01 -5.884461193666921552e+00 1.634229725000141187e+01
-3.926971988731465579e+00 2.988120003673842839e-03 1.162011728507867403e+01
-5.249226203076752029e+00 3.688962664420388560e+00 1.579437502585103559e+01
-1.377948134454648921e+00 -4.667969925237377637e+00 1.561464179243611383e+01
-6.190242895126370826e+00 -3.294716090973669242e+00 1.739993245655076137e+01
3.290534025883706803e-01 -4.955107598193365881e+00 1.574894910625604538e+01
-2.234307948074889971e+00 2.255077141146089481e+00 1.319826933836647598e+01
1.252117762745295904e-01 -4.830247475511074917e+00 1.559107980293284967e+01
-7.021994649381170461e+00 1.104412702573589478e+00 1.318406796578411289e+01
-6.603516195021297719e+00 -3.506324392227094577e+00 1.734699004331207917e+01
1.740696802847631064e-01 -4.591927724458045645e+00 1.543882723279785907e+01
-8.149083838390273726e+00 -3.899304436790818063e+00 1.439848771754931889e+01
-5.381010984158976385e+00 9.378126203163608121e-01 1.101540585442530684e+01
-3.489678062733650776e+00 -6.198651443877696288e-01 1.255867669273914444e+01
-7.146147993800436637e+00 -2.276408254161039757e+00 1.309772491152629570e+01
-2.669659135147013806e+00 -3.164631616599274722e+00 1.515262233778053869e+01
-2.588973765768590063e+00 -2.939650232574739341e+00 1.505709899864734425e+01
-2.860885147089954117e+00 -2.919086427489129054e+00 1.502704950235758119e+01
-2.002283280881969940e+00 -3.554295824725702158e+00 1.531080207718897768e+01
-1.853467714594542626e+00 -2.681539067334958837e+00 1.487735729469785539e+01
-3.480691136812609443e+00 -5.052271719023810892e-01 1.239982430277214931e+01
-4.002727144750042321e+00 -3.727319169693504186e+00 1.528736432394665101e+01
-4.393284833434655923e+00 7.196382070621836213e-01 1.069150093167835891e+01
-2.031559891393574624e+00 -2.953230464207971195e+00 1.505200181002212290e+01
-1.549712888891402018e+00 1.869675926162227775e+00 1.343990427624026651e+01
-3.620425436825359000e+00 -5.282959766636968091e+00 1.744716294930170974e+01
-4.256267176893238968e+00 3.326848538369705732e+00 1.481772969350746294e+01
-1.840262723008788015e+00 -4.988362453899020998e+00 1.568090736493214976e+01
-1.962870291384060550e+00 -4.835301967748606877e+00 1.563803612233194329e+01
-3.805331254745163871e+00 -6.348670076828011766e+00 1.666280658503765366e+01
-2.851100129592735399e+00 -1.641642733111888575e+00 1.416350399042794450e+01
-3.082452190564390460e+00 -9.669040734032802176e-01 1.317069545733453495e+01
-1.672986938745981922e+00 -5.136672185264042234e+00 1.573502902414633908e+01
-2.015356957064436294e+00 -4.693183013871322196e+00 1.560251102498621734e+01
-3.089846365285398910e+00 2.309076318803502836e+00 1.276484412858318152e+01
-2.688725022111409846e+00 -2.347010373766424962e+00 1.472914798799962810e+01
-5.766172288404682433e+00 1.495344436683789802e+00 1.223142583085570934e+01
-1.846390477696726151e+00 -2.958187636018931865e+00 1.502816279739148442e+01
-2.376828382347544899e+00 2.109658220197405676e+00 1.255677685543644984e+01
-6.272815040200983461e+00 1.376832768331063939e+00 1.260468166009671975e+01
1.021041240968846298e-01 -2.261429632487312880e+00 1.404728826751756898e+01
1.888339042026602188e-01 -1.128459578906076288e+00 1.360977478681273212e+01
-4.424107614935379740e-02 5.413877638991320129e-01 1.695221053216075191e+01
-7.180338828318065580e+00 -1.998638117747265908e-01 1.239451612542517367e+01
1.228792066397456639e-01 -1.456631440587098592e+00 1.368354248493009706e+01
3.174088452261035753e-01 -1.314739647796641986e+00 1.382876708750005079e+01
4.542041399241456001e-02 -7.946711674582285223e-01 1.334307179605098170e+01
7.637090692566140815e-01 -3.327733591922524603e+00 1.495415433514400050e+01
-8.168504205781756511e+00 -5.383293807646173379e-01 1.469179489380753623e+01
2.715652763317849550e-01 -1.056370480411876311e+00 1.369183195175216028e+01
5.917515545665529286e-01 -2.108235984140413688e+00 1.433662309270380675e+01
-6.841259465188363365e+00 1.907562386399585641e+00 1.397043958634595029e+01
-8.808561119621478863e-02 -4.802280166547012730e-01 1.307345606374244440e+01
-7.190905323153200968e+00 2.690968650967571207e-01 1.247378757492439760e+01
3.831404720529651975e-01 -2.110600029272237332e+00 1.413198531662741075e+01
-6.615162330165601290e+00 -1.204920739146065137e-02 1.719725638683173585e+01
3.078191522226690346e-01 -3.138027488202451032e+00 1.746108375874411323e+01
-1.573734483622161173e-01 -8.043436603790562467e-01 1.317929398145306763e+01
-1.924489170863653564e-01 -8.916056969454748682e-01 1.320225204570475697e+01
-2.913106013938698835e-01 -1.065184424549962650e+00 1.324852218453959196e+01
-9.350181401939361425e-01 6.743321358812742750e-02 1.223308371890237467e+01
-6.814193964340677923e+00 -2.429334025021118837e+00 1.323611279253141859e+01
-7.115000125732517944e-01 1.579398772988696298e-01 1.227894797108268321e+01
-4.606373599787829676e+00 -4.070777075236965636e+00 1.757801929272509156e+01
3.993358117326715750e-01 -1.474896934190140119e+00 1.398360088777176102e+01
7.671809251693765264e-01 -3.680904945666691130e+00 1.497854810109527435e+01
-7.023135860766267058e+00 2.062634460639179323e+00 1.668434717803664213e+01
-5.412687464385450564e-01 -7.445149242259134770e-01 1.294335148925935997e+01
-5.261178128668861476e+00 2.770741579607216121e+00 1.724322037810595631e+01
-7.146656080685330759e-01 -7.008574481008362778e-01 1.285218724153267900e+01
-2.710133256441577543e-01 -2.046807910575958012e+00 1.389394476021368874e+01
-1.334104513970804984e+00 9.882274794984143851e-01 1.159972715484310513e+01
-2.058685817625968362e+00 1.081763992441028943e+00 1.097475010446022381e+01
-5.245490102501271679e+00 2.839395007471527066e+00 1.439921709002419803e+01
3.936351474973184827e-01 1.029600419659024269e+00 1.538277086104720226e+01
-6.628476073852292316e+00 -5.717274048387114505e+00 1.702929268419727649e+01
-4.486206906654549798e+00 1.377056398699669781e+00 1.115543450901542499e+01
3.515410371727592520e-01 -3.005040700272956222e+00 1.446051436947682234e+01
-6.240939123414953826e+00 -2.429979171642553837e+00 1.735922874335704691e+01
-1.087957836355386121e+00 -3.711598214433582954e-01 1.251800844076449337e+01
-6.416402295968385516e+00 9.332528031947958658e-01 1.216243203328902567e+01
-4.207135054160085375e+00 -4.498499365221741542e+00 1.756654432735741622e+01
-2.640205567957437882e+00 -4.814051595526466443e+00 1.558593158229527731e+01
-3.517098709997320771e+00 2.172829578509076320e+00 1.248496154728365681e+01
-8.527813823959622119e-02 -2.041826427309405112e+00 1.389645861550561889e+01
-5.408436697610712329e+00 3.431106689314991076e-01 1.749965079569136961e+01
4.924121779644967667e-01 -2.105080638800392201e+00 1.424264742685157259e+01
-1.078632455236880894e+00 -9.984954977587175984e-01 1.309642864571311449e+01
-8.288875873650356496e+00 -1.984140888240871980e+00 1.601881957496048514e+01
-1.121528596460064087e+00 8.602522117695152737e-01 1.178091574747149295e+01
3.479077970161556510e-01 -4.139076522003322545e+00 1.514581896343543477e+01
-5.207783136545468539e-01 -1.761907901103346441e-01 1.258296277879437852e+01
-8.086150260715886162e+00 -1.780019725582361101e+00 1.640663595749363779e+01
-6.997725362987900155e+00 -1.631255770870220889e+00 1.718238105651738223e+01
-4.635840889967544953e+00 -2.752497699417246757e+00 1.487310815900684347e+01
-8.105549035181633499e+00 -1.398586009059362034e+00 1.629702715800857860e+01
5.185550188851071329e-01 8.158719085485522937e-01 1.574189188170325693e+01
-5.239066568381613109e+00 3.732306970067272189e+00 1.698880663127049573e+01
5.823719740541301038e-01 -3.959881337259646195e+00 1.509611860336631750e+01
3.588899967635614252e-01 -3.860182964220999935e+00 1.495876835735215948e+01
-8.317137489437248732e+00 -4.371628795394282285e+00 1.526220846888762495e+01
-7.399144609740211820e+00 1.324197205269256550e+00 1.400472797207713782e+01
-2.105327147408456945e+00 2.287560768670688471e+00 1.350828212235105141e+01
3.334991745998087120e-01 -3.729673238058974327e+00 1.487384183104201085e+01
2.417284528128852972e-01 -6.777154818151644999e-01 1.354216625180652400e+01
2.608025340157797967e-01 -4.674792113171991059e-01 1.350232340972270961e+01
-3.701447299090127707e+00 3.037894212475082512e+00 1.420704634965232671e+01
2.385352980120461486e-02 -3.875991628615550466e-01 1.316111846140217878e+01
-1.568047331660538113e-01 2.934767286211019122e-01 1.280258756663876696e+01
-5.705891158621053449e+00 -6.150671303579045457e+00 1.700471107563285145e+01
-1.738561342184375413e-01 -2.257743168525455646e-02 1.277764873853383065e+01
7.006253528302066602e-01 -1.498464464654931216e+00 1.439878502854847042e+01
1.770936953762261012e-01 9.247061234851761125e-01 1.663827355817875642e+01
-5.828254343216414668e+00 3.826666127665897310e+00 1.625420231017278283e+01
3.900402067134348116e-01 -5.159425928746236290e-01 1.366326876997129247e+01
-5.538255948634972725e+00 1.109617313547246020e+00 1.147903895628083504e+01
7.147847674560897646e-01 -1.933112268830222469e+00 1.458034782114488692e+01
-7.996649044434734677e+00 -2.780386671239479801e-01 1.415764165655010842e+01
-1.363805475846120885e+00 2.554445549920738578e+00 1.745087284717270038e+01
-1.052011911116761400e+00 -1.221000608561849887e+00 1.331363142040058634e+01
2.116667531746815878e-01 -4.240893927968440558e+00 1.520673269502905001e+01
-9.029212310051781820e-01 -1.787846196967453949e+00 1.374205451921664078e+01
-8.152067579303654554e+00 -3.526481254253964526e+00 1.426698021015571882e+01
4.286766338505485496e-01 8.625939784930155563e-01 1.512753478128371043e+01
-2.295039366068228670e+00 1.367588014973061927e+00 1.083549024032485519e+01
-2.568842904083502798e+00 1.454398346616188498e+00 1.086634915576985705e+01
4.834201928934342973e-01 -5.139993826473665983e+00 1.609063984775826484e+01
-1.053482915556621879e+00 -1.428834408216609564e+00 1.350685038111093306e+01
4.616458394038900348e-01 -5.299536219765879075e+00 1.645331090420745923e+01
-8.280002904336624781e+00 -4.530040254662879740e+00 1.526944793276167545e+01
-5.719516441717873434e+00 -1.098738072302376523e+00 1.250779838638666419e+01
-5.532495040736353786e+00 -9.594075470911120895e-01 1.243810687999989639e+01
-1.274847306335481489e+00 1.590164636113085450e+00 1.321852920080815252e+01
7.447317972767016903e-01 -3.171805691660305460e+00 1.573703154267664317e+01
-6.481670877949163412e+00 -2.044672170941045586e+00 1.309432854185250861e+01
-7.625780042559663130e+00 -2.303449485824757559e-01 1.330421918509311396e+01
7.439390221127382130e-01 -1.932977374019730910e+00 1.523189492669348866e+01
-6.125939983820808621e+00 -7.469225437891935382e-01 1.732855090020444422e+01
-5.157674621862772923e+00 -3.263035384743980583e+00 1.753320593376214376e+01
-5.240949587155753875e+00 -8.833710117006541296e-01 1.251084758961583887e+01
-6.625875162961563092e+00 3.656987322774483129e-01 1.176562587852488306e+01
-3.620537611869962813e+00 -5.573624853578872163e+00 1.574694207950462399e+01
-5.028260484929395702e+00 2.732524348010222148e+00 1.731980335402186100e+01
-3.652908647182936619e+00 -4.801459434874049137e+00 1.555991921360208252e+01
-4.018733500801439540e+00 -4.814221988794945339e+00 1.554445103106280257e+01
-4.228233855756510451e+00 -4.967477915812712475e+00 1.555189349998230242e+01
-5.219340771067692231e+00 -6.199253968656014635e+00 1.608229078325057415e+01
-7.712265784934865920e+00 -5.464875252931206795e+00 1.551382349600214994e+01
-5.941784404123433561e+00 3.085530864023084546e-02 1.158216128298782266e+01
-5.525598286623495170e+00 -5.855922264303476954e-01 1.201956265858315831e+01
-6.552928799149553285e+00 -1.019529017354278005e-01 1.190456474878374493e+01
-6.216531351035921915e+00 -4.557035745265091697e-01 1.195690738512018569e+01
-6.169589002638774744e+00 -5.216178727062162679e+00 1.728512476631749806e+01
1.159184636662532464e-01 8.897780364495359029e-01 1.435938336432564810e+01
-3.179053080468058567e+00 -6.316769235590536269e+00 1.665204155351777970e+01
-2.691667308806462877e+00 3.717946019451465745e+00 1.645792960422637563e+01
-2.877613082235510156e+00 -6.139108705318964354e+00 1.633954399637255861e+01
-3.027706822711674572e+00 -5.949346780500895271e+00 1.610604557665859105e+01
-5.440710881831762435e+00 -1.473928055777462998e+00 1.745155527349524149e+01
-6.039550575776550190e+00 -1.382546867751923703e-01 1.171461131227071562e+01
-2.200177673988110705e+00 1.745443817212235960e+00 1.192649179045497831e+01
-4.837276932221101333e+00 -2.585259550352745905e-01 1.760257677837074297e+01
-6.508089998683150412e+00 -2.812845718151448349e+00 1.356671714571879406e+01
-3.539467074090950405e+00 -5.900037881786218463e+00 1.599023056426820588e+01
-3.453790118730272862e+00 -6.095928634518216427e+00 1.619871600960975044e+01
-3.769420127007940824e+00 -4.091217124126753646e+00 1.762484254199906175e+01
-3.437762870382199409e+00 -4.533618153277037877e+00 1.551665284080214136e+01
-5.451445712836834545e+00 -1.480304213804379376e+00 1.336514279256268978e+01
-4.884062418014398332e+00 -1.471042379872552708e+00 1.376191088333219525e+01
-5.998321394370156767e+00 -4.582846098707938687e+00 1.524713008647239931e+01
-5.109139522808426648e+00 -8.468575714039369151e-01 1.257295408009398230e+01
-7.984434114593469189e+00 -3.832586330301396282e-01 1.626286083309038233e+01
-4.909194678731173767e+00 -1.663819721511528460e+00 1.398942301190362869e+01
-3.907252113662635029e+00 -2.844701285375882183e+00 1.493492449278177148e+01
-4.262992290510368321e+00 -2.593393891294687670e+00 1.481250147467902778e+01
-4.854432659774655434e+00 -2.118105079345113495e+00 1.443715985809459212e+01
-6.614727610859267415e+00 2.795531282580893784e+00 1.505528009797580680e+01
-4.786849143474515955e+00 -2.377338543569759821e+00 1.463154486167683288e+01
-3.577509521478485333e+00 -5.235162377703027836e+00 1.563255023156208878e+01
-5.571720092687238335e+00 -1.851190852623697758e+00 1.381824616713003095e+01
-5.033164664093545682e+00 -1.327767384749877877e+00 1.352341505579839875e+01
-8.005858789193888825e+00 -3.302089313500968792e+00 1.398362776750480307e+01
-5.324064167812363024e+00 -1.383549793659847094e+00 1.337953847608606495e+01
-4.858517236678197904e+00 -1.310196432542266809e+00 1.353679563295392185e+01
-3.230437156858668946e+00 -5.623279319354294259e+00 1.581631565025945818e+01
-7.075995305743321140e+00 3.920102352856700278e-01 1.698862179279901241e+01
-4.679294393032883193e+00 -3.000631575069660162e+00 1.498566456676669034e+01
-3.625854669994011736e+00 -4.995760418091320432e+00 1.558666883797382852e+01
-5.220389081266523235e+00 -2.607177975822182692e+00 1.463712263389185253e+01
-1.519347269188584981e+00 2.396036841591032918e+00 1.493439351243261015e+01
-5.075042375291307195e+00 -2.693917248483323146e+00 1.473792097626447273e+01
-5.178348550733183231e+00 -2.073271892723417498e+00 1.749860659517749539e+01
-4.095102776170163494e+00 -5.321801281606237666e+00 1.560830670505127316e+01
-4.151765731329923881e+00 1.417887643352138571e+00 1.110578538469158261e+01
-3.435678715589031373e+00 -3.808020524165844023e+00 1.531626682733702083e+01
-4.024137355193346366e+00 -5.213029352938149508e+00 1.559393765319723357e+01
-9.345856631081762567e-01 -3.346566465825699499e+00 1.488950431700017774e+01
-5.085636731926838294e+00 -3.088075536118147113e+00 1.493889419043737732e+01
-5.257177364739622050e+00 -3.122229685106404862e+00 1.489608369548028932e+01
-4.957171649076963504e+00 1.684669009560838759e+00 1.205987027996847516e+01
-5.251422165618414795e+00 2.071002306847644192e+00 1.300624517979366246e+01
-3.407963001814559689e+00 -6.177816739654864442e+00 1.701345214760463520e+01
-2.082663151692185632e+00 1.998769457923657900e+00 1.777530443215669820e+01
-3.611659890360818803e+00 -6.031043419708543851e+00 1.611083009224896401e+01
-4.234869856228382190e+00 3.959028908765756416e+00 1.602942317189159738e+01
-3.690274263256357656e+00 -6.099708742093921110e+00 1.618317932491295252e+01
-5.929172227500844272e+00 -5.224498574051955613e-01 1.194323854098754722e+01
-4.893972027833910943e+00 -2.654515006510076880e+00 1.476948970463187649e+01
