-5.940456231005590837e+00 4.514593551524155757e+00 1.509706238013334811e+01
-3.459400963171217924e+00 4.757082066623951278e+00 1.702285838869866197e+01
-4.667928126320360249e+00 4.428420190645329768e+00 1.449211873961148100e+01
-3.432701630260807768e+00 4.610118011662275528e+00 1.707590578901654155e+01
-8.100457513202027116e+00 2.881984207889097815e-01 1.600465408069310413e+01
-2.517511280114314687e+00 4.515701312112338606e+00 1.614505119256336130e+01
-4.512789892388641810e+00 -4.305091790251855066e+00 1.817435733114033169e+01
-3.624225449521859765e+00 4.492631670810439459e+00 1.728874034014017624e+01
-2.070357748614099158e+00 -3.967384905292365094e+00 1.692613920327415045e+01
-3.829149877848246675e+00 4.025325734314171733e+00 1.766178308153317644e+01
-4.189022735351231930e+00 -3.090650516069330944e+00 1.547619122922448653e+01
-3.488764314518453702e+00 4.425819776262693850e+00 1.721538293281217946e+01
-5.035522459005629337e+00 2.219859952928900260e+00 1.942373163813988768e+01
-4.923806275792348863e+00 2.193040408919611828e+00 1.935096028876857233e+01
-2.177095789928338299e+00 3.880894071093425435e+00 1.609532059655243685e+01
-4.082417833152014452e+00 3.775214848100687526e+00 1.798868452459263878e+01
-4.269758049831408719e+00 3.615917224008139197e+00 1.821576745719693591e+01
-4.109351492044423182e+00 3.533158024259178021e+00 1.814610825044759324e+01
-3.405565453008046362e+00 4.445495472682036819e+00 1.713173012761109604e+01
-2.168312729127002125e+00 4.081975464005492604e+00 1.590115628382421775e+01
-2.092260233920865353e+00 3.898201430122212319e+00 1.595627103340121167e+01
-1.753476825459021171e+00 3.288144009579347049e+00 1.553928395260187401e+01
-3.214585774873102153e+00 4.651387053322300069e+00 1.685253088709877645e+01
-5.680435607747235771e+00 -1.855060173235718146e+00 2.047623372331473846e+01
-2.353297999702808951e+00 4.263495930775217602e+00 1.572848264121499895e+01
-6.835796435263118198e+00 2.488289966265504916e+00 1.943791616575778747e+01
-2.727001111497268759e+00 4.460913047396363851e+00 1.644824900066082662e+01
-7.340666475367640942e+00 4.375390878736678424e+00 1.553716390197191899e+01
-2.879508799303845734e+00 4.468942990265390769e+00 1.660466282910563862e+01
-6.328116073672807040e+00 -5.587609828460023964e-01 1.684186395021442806e+01
-2.942043406273393558e+00 4.692362046951426890e+00 1.655890730640186703e+01
-6.917203461490274208e+00 2.920035891580119447e+00 1.384049925018032567e+01
-3.389066974519057140e+00 4.169039724223117527e-01 1.842782728937033809e+01
-3.049347409504506778e+00 4.686571318137080944e+00 1.667185685478485979e+01
-5.500637573326881302e+00 -2.482507671046391140e-01 2.044446259381227904e+01
-7.780170387251740038e+00 -1.031734466915670723e+00 1.914416283396272789e+01
-6.090119657045428347e+00 -4.718899277583241680e-01 2.071901431747000899e+01
-4.224021585490591590e+00 3.070760448003078569e+00 1.304370058942471999e+01
-6.289831448705778705e+00 -6.966279510158094324e-01 2.077634541909641186e+01
-2.802340061581868547e+00 -1.371754887543466417e+00 1.792922206124523044e+01
-1.402394915204983494e+00 1.924461165415390251e+00 1.484488245448187982e+01
-8.345891739253488595e+00 3.596652198922147381e+00 1.642211648920175193e+01
-5.273510960545281456e+00 5.635623551547663812e-01 2.018667611843585874e+01
-5.474921442188516174e+00 -6.618375565253532544e-01 2.045081913526273709e+01
-7.339326077968623352e+00 7.861367938026649904e-01 1.476317022895323205e+01
-4.416763066393211368e+00 4.438740459403288874e+00 1.780563125925118939e+01
-4.134307870420811604e+00 -3.456212728465598794e+00 1.894070881004063622e+01
-7.156094870463606483e+00 -1.703175731099529244e+00 2.042403970048897932e+01
-4.249861074013247197e+00 -4.094937518930634290e+00 1.666240331408460307e+01
-1.751043576539686786e+00 -4.383718382760876109e-02 1.283009848193293223e+01
-8.217377238802239248e+00 2.457888124841368427e+00 1.447263511515863499e+01
-7.268666849075131609e+00 -1.635316792296487520e+00 2.033022877449299770e+01
-7.600104607471969587e+00 1.559186700347656718e+00 1.409091454541730215e+01
-4.859999831700802631e+00 -2.219299251504382120e+00 1.982119303982366532e+01
-7.533759614871204491e+00 -1.300016901934270663e+00 2.019854897908399138e+01
-3.310184416924829343e+00 4.099592724112794961e+00 1.467103389405425773e+01
-2.859034415260993001e+00 -4.506142616899817099e+00 1.569536746419514728e+01
-7.513764540952953652e+00 -1.063401099739995637e+00 2.038699171970518265e+01
-6.894363867678556801e+00 -1.824958392739374879e+00 2.053677445281839553e+01
-4.388486655337463738e+00 -2.650223551598268834e+00 1.345888439638969558e+01
-7.733656925492057965e+00 -1.119090054710174975e+00 1.995353648980954731e+01
-8.689271531231982593e+00 7.101144395354703764e-01 1.871269965001833313e+01
-8.656888099896127287e+00 1.405100695409912115e-01 1.874252496701165072e+01
-8.856567106828626024e+00 7.256329007938562281e-01 1.830174711735106641e+01
-2.155349352611520164e+00 2.869757460973576091e+00 1.454594435012840492e+01
-8.900954567786067528e+00 5.461861345782408339e-01 1.819043093181186421e+01
-7.533478368244132639e+00 5.128149621268374148e-01 2.041136493373994298e+01
-9.043917001031470448e+00 6.257437980905946606e-01 1.652049672733431507e+01
-1.123482894825112766e+00 -4.495773127810003267e-01 1.429072050641560665e+01
-8.875512075573018578e+00 5.941423946063196793e-01 1.613322258033981527e+01
-7.996058490725335588e+00 3.074289196423495962e+00 1.796584811908815382e+01
-8.523177925430537982e+00 4.621377625142946144e-01 1.597212739515396507e+01
-8.759953984918510628e+00 7.306267015568406187e-01 1.587263759965766141e+01
-6.733269683053537236e+00 -3.636083950782061924e-01 1.705873634018742635e+01
-2.710729879679741217e+00 2.325316277165226708e+00 1.733679671951555079e+01
-5.319329559506480898e+00 1.124785562753234380e+00 2.008097267877365155e+01
-9.072331168243028543e+00 8.088520428543815033e-01 1.637465554255686939e+01
-2.275105578374885251e+00 -1.339979571022292149e+00 1.728483958960289968e+01
-3.916501345603553119e+00 -2.387956899551599843e+00 1.276026234345048849e+01
-7.294496832520625418e+00 1.037753446780251831e+00 2.034315338224006453e+01
-5.136451161375465979e+00 2.037863995172998877e+00 1.958237398208690294e+01
-1.816622873954655493e+00 2.264455841014013870e+00 1.641192563742320587e+01
-4.455707608182671642e+00 -2.183437770616027507e+00 1.946506394402269891e+01
-9.067844811683464457e+00 7.441242113427903870e-01 1.768698881456645111e+01
-4.428276973248617132e+00 4.999871709414795973e+00 1.743743953568892735e+01
-9.078855352011247604e+00 9.469802530110045247e-01 1.759414075430283830e+01
-7.123824259346337229e+00 -6.982639959259310247e-01 2.073299881474244089e+01
-9.003461468238246113e+00 1.140319647127301383e+00 1.775640781314041661e+01
-6.670272412644637328e+00 -1.582880276312971457e+00 2.070465273975872478e+01
-3.682808188927332971e+00 -4.258250539780505939e+00 1.816040654873690485e+01
-4.427270251609253471e+00 4.290296822543037791e+00 1.790819756643896099e+01
-6.720224939150508447e+00 -1.909379959485696165e+00 2.057177405330726927e+01
-8.323396876241304199e+00 -2.793187955234222031e-01 1.939564572820519217e+01
-3.354565118083573161e+00 1.351374038894303631e+00 1.199599877471501586e+01
-8.276009279452006595e+00 3.291655503347894474e-01 1.957984099213603812e+01
-8.420705200944546220e+00 -2.368135939188970029e-01 1.915982679699797941e+01
-5.929288037741773820e+00 1.536285729918414944e+00 2.022128348488712035e+01
-8.505614209392257763e+00 1.727080913146605556e-01 1.913255116411301415e+01
-8.475628435730561350e+00 -5.093551379469163365e-02 1.913599743724546087e+01
-4.823221764441954384e+00 -3.869294272625509290e+00 1.906134790379475774e+01
-8.974728127589795434e+00 9.520709427402949121e-01 1.792543474469520604e+01
-1.375485192977608406e+00 -1.494481538178036750e+00 1.637689098957720901e+01
-5.389333340680209083e+00 1.337711722026751149e+00 2.007171957190450584e+01
-6.341114297457624005e+00 -8.797202988894331499e-01 2.078329102168541098e+01
-6.722417480286036806e+00 -9.092066454966206690e-01 2.080285356553993026e+01
-4.813369171913623568e+00 3.102108689127068608e+00 1.298117425579033934e+01
-4.212894242985957938e+00 5.874921459168882087e+00 1.627321105226149811e+01
-4.591862140119805424e+00 5.959480221497338803e+00 1.631290305338743352e+01
-4.869599237152068660e+00 4.210988602339217124e+00 1.427949543313538427e+01
-4.062866703962213499e+00 4.395514757179766363e+00 1.762563492729641368e+01
-3.260338102086964618e+00 3.967069938263238615e+00 1.458282768784184569e+01
-3.445608146930283944e+00 -3.757132353614397235e+00 1.823268915511319577e+01
-3.878652867463914689e+00 4.644902328759387800e+00 1.738255740901535873e+01
-2.615974795916255147e+00 4.426850277581801052e+00 1.556162208258898616e+01
-4.379972692312901650e+00 -2.937116376343250845e+00 1.585557921091351474e+01
-5.071402270804525436e+00 2.613146698206945118e+00 1.923778341817840598e+01
-6.149848732661113537e+00 -2.429446625656055403e+00 1.837145756405536545e+01
-4.184905462171453649e+00 2.343485514141563364e+00 1.236888871178744509e+01
-5.092932359070120540e+00 2.395138899839155844e+00 1.936998266202308727e+01
-4.776040089089886642e+00 2.457507807044108983e+00 1.224194454153695588e+01
-4.719549504816576757e+00 2.800995592301775972e+00 1.892234431456281740e+01
-8.174738439323991912e+00 1.948241587935083619e+00 1.451691710375887467e+01
-4.394470140627984911e+00 2.798177382769119426e+00 1.868431015565567677e+01
-4.568911282929557949e+00 3.453438183634955028e+00 1.851696655295807759e+01
-4.391749883745118765e+00 3.284818803727044045e+00 1.848259790310105544e+01
-5.687208996178728881e+00 -1.953329223394582481e+00 1.704652153703476714e+01
-6.408009727247435450e+00 5.298292291994004088e+00 1.606967990089402676e+01
-6.506283229969842097e+00 -1.268039434281350797e+00 2.076679745196743809e+01
-4.872100856125369361e+00 3.848600584184393547e+00 1.841231310058050852e+01
-3.461101062870802103e+00 5.066167300146894092e+00 1.682628401607052737e+01
-2.754553391360206049e+00 4.697292037701303435e+00 1.570967441102071049e+01
-3.815789460389938270e+00 -3.554179008747899271e+00 1.445442654801089688e+01
-3.052250261964696953e+00 5.042119637228223539e+00 1.647198526912500327e+01
-8.413747426817547392e+00 9.797837107331713868e-02 1.932592680513359440e+01
-6.172085414330997999e+00 -6.760875493867121167e-01 2.075217832793937944e+01
-5.286304778863703646e+00 -6.433210010574120785e-01 2.033424588371826403e+01
-6.382027428225874210e+00 -1.579410329771368193e+00 2.072450433794596947e+01
-5.951209775812349001e+00 1.761196761391803367e+00 1.186508638439749674e+01
-9.195848427476045472e-01 1.138076266203294384e+00 1.532146561634604964e+01
-3.107401489375327230e+00 -1.766840582652412506e-02 1.171275465554583306e+01
-1.003524975981499701e+00 -8.038031719334034486e-01 1.342213203953815182e+01
-1.977926504450349565e+00 3.281614170972803723e+00 1.515892849145385313e+01
-2.127598844945794987e+00 3.661934062183868299e+00 1.532892326743022338e+01
-5.004308559755040520e+00 3.239186137923471875e+00 1.886507001089157498e+01
-9.047272103031341217e+00 1.212636045975036936e+00 1.597368463363005375e+01
-1.359010065924383337e+00 8.300136230442618501e-01 1.418014383378830345e+01
-9.101945128967649623e+00 1.376898762611287630e+00 1.610609974921750975e+01
-9.134872163091472430e+00 1.616463698651380732e+00 1.635023984620327653e+01
-8.919338950850233871e+00 1.445774573838903621e+00 1.780431479004343842e+01
-9.348363366029928123e-01 -9.042713653742998625e-01 1.356845490490617223e+01
-7.464851472209767635e+00 -1.456848458000826962e+00 2.016346486257513604e+01
-5.699706926448170563e+00 9.473970086063037144e-01 2.034741443534860750e+01
-5.739633382820955809e+00 1.973695783164235884e+00 1.994084177400773328e+01
-5.888339552642625208e+00 3.176551193447822108e+00 1.350408454506875344e+01
-1.583438453127278045e+00 -1.545065056171205597e+00 1.659745766810094025e+01
-7.252134330103730875e+00 2.472839166904833519e+00 1.924446286051840005e+01
-5.971837453429913012e+00 3.770094537997464190e+00 1.425243575298108212e+01
-4.809807705698898594e+00 4.874714289358508701e+00 1.764772118838443404e+01
-7.725910580342389977e+00 1.585399525687299360e-01 1.614626251302638948e+01
-1.730387796366061437e+00 -2.912323054939012668e+00 1.676036582446150547e+01
-8.468196091188062269e+00 3.785453770314472166e+00 1.555307894548162650e+01
-1.749173850525180818e+00 2.887044017442506494e+00 1.514049050711789945e+01
-5.297680781546825202e+00 4.007809143265925300e+00 1.841999692244252529e+01
-1.175598774428706861e+00 1.545360800720630312e+00 1.585097561248565157e+01
-3.917944725327012989e+00 -3.449107717460984546e+00 1.876178941349894203e+01
-4.888927825196961230e+00 3.386810582987893170e+00 1.872829858187644092e+01
-7.243486068438626191e+00 4.456575522384420118e+00 1.672863400141170942e+01
-4.970440694967635409e+00 4.554471138669928365e+00 1.791795803015156352e+01
-5.293759451781513192e+00 4.232526883630972847e+00 1.823912626934455616e+01
-5.169156561547100459e+00 2.511377660323720562e+00 1.235843808860756710e+01
-5.026552335388422499e+00 4.768462041523306993e+00 1.775830043694040583e+01
-5.851809574539666770e+00 -8.718709375313248300e-01 1.645317204598590521e+01
-4.202893664022261611e+00 5.523433753847808880e+00 1.691564943118153153e+01
-8.063155913234355765e+00 2.370102809359497797e+00 1.863724078438924536e+01
-4.342431500406690681e+00 4.756740621683412940e+00 1.757253201190463798e+01
-9.097814057130291232e+00 1.508362424428810744e+00 1.712204680460048323e+01
-2.965532813784341748e+00 1.805310126545580207e+00 1.277758627339263953e+01
-5.032106564429039253e+00 -1.734542770654551092e+00 1.386393212510057893e+01
-4.481837183080172871e+00 5.370776614677028604e+00 1.715500321432258701e+01
-4.809887542721806852e+00 5.906868179280420073e+00 1.669362878259701333e+01
-5.000755197419008091e+00 5.208571337861066297e+00 1.739253210336392286e+01
-4.119963683892440720e+00 5.341924825857996773e+00 1.703643827826403978e+01
-5.821548047985282359e+00 2.211206605139954373e+00 1.980548107007163949e+01
-6.902885760554873684e+00 -1.658006786241336350e+00 1.873725937973762612e+01
-5.931117146816962560e+00 1.983583143913679070e+00 1.997415818641841767e+01
-6.310855409687104789e+00 9.386073504043782600e-01 2.049306731412690752e+01
-6.675629182278592921e+00 3.302669353031755684e+00 1.409178402498573135e+01
-8.071564597138531028e+00 -4.873618601276319406e-01 1.820506933570869634e+01
-7.614533960587676731e+00 -5.341568991272429567e-01 2.043625133834994401e+01
-7.581515625332560404e+00 -6.705018622522317395e-01 2.044941731481537417e+01
-6.228510531433285813e+00 3.047548822892171660e+00 1.352955507205300378e+01
-6.927845005817705015e+00 4.973912867837845475e+00 1.598134730103468470e+01
-7.337970720274263670e+00 -1.652020215300973316e+00 2.018110782199095965e+01
-7.709151588977148251e+00 -4.560934366777932292e-01 2.034033105035978295e+01
-2.498423068207732189e+00 1.450294120137391563e+00 1.733058501828586984e+01
-8.430370128792860740e+00 9.194520032240089957e-01 1.918075430907445522e+01
-8.356483119494752643e+00 4.950989477904372826e-01 1.943500830361980647e+01
-8.479990969971471060e+00 1.168620630843730801e+00 1.897690966730847961e+01
-9.474405810264969752e-01 -1.115264357098886272e-01 1.494443910839794754e+01
-8.571047062254212534e+00 1.376408908293411670e+00 1.870744472741009545e+01
-3.273328502201975354e+00 3.204075611880706109e+00 1.760197729571761371e+01
-6.934388055904868509e+00 1.141566064934120828e-01 2.069325178916013996e+01
-1.249879990022997767e+00 1.322150813579133999e+00 1.469955430904638760e+01
-5.019489525499288618e+00 5.787483682246456596e+00 1.681693447216825277e+01
-5.196446186465840000e+00 5.726045921631947699e+00 1.684639448640659154e+01
-1.756337686705876866e+00 2.691210515956329985e+00 1.494729291301760199e+01
-1.376972032897411324e+00 2.101421963707224894e+00 1.589911053724164347e+01
-3.902646045190010682e+00 2.637538528630627876e+00 1.285682306306972222e+01
-2.578250589084829070e+00 -4.298843669880675122e+00 1.727884530612815794e+01
-6.954003655100375880e+00 -2.889035269810801276e-01 2.075080354910933877e+01
-7.458173671006900207e+00 -8.445492343764479104e-01 2.053569261897263587e+01
-3.196665836713044051e+00 4.462337032649416613e-01 1.824042570896196835e+01
-6.103352143015936981e+00 -2.570141480734889905e-01 2.070194375233298345e+01
-2.023331777191981651e+00 6.959225158928045163e-02 1.699558804568522774e+01
-6.138571121083406190e+00 1.339760340174522835e-01 2.066888127749232851e+01
-2.315186245259927666e+00 -1.351350551031305081e-02 1.214906608983470804e+01
-8.718844795765791744e+00 1.370526772770263690e+00 1.837249366799298045e+01
-7.604842217623527745e+00 -2.857057484799646607e-01 2.048355557901665591e+01
-4.453588120806986517e+00 4.026534291610225580e+00 1.809022732528139343e+01
-7.870724414214322451e+00 -6.140808333625363824e-02 2.018217647339350052e+01
-7.973361787456843430e+00 1.355955097272438237e-01 2.005145792451439135e+01
-8.240415168182609662e+00 7.535193031360117866e-01 1.955030493673141123e+01
-6.681145353943232834e+00 -1.205670419768025692e-01 1.671758886451573645e+01
-4.162377963379126911e+00 1.338970663232789793e+00 1.893571598419157098e+01
-6.557760976353192106e+00 3.153855398465070237e-01 2.068089411772468722e+01
-5.283253686374547620e+00 -3.745670860151684156e+00 1.761934751046893055e+01
-4.664235998530865679e+00 5.419449077748776489e+00 1.715859890921656117e+01
-8.952624992265683090e-01 -1.285852376190397273e+00 1.506223752820278250e+01
-5.456168056017506096e+00 4.627619369363425328e+00 1.787943309071766507e+01
-8.965544728919253359e+00 3.805217282525861222e-01 1.793084878234439472e+01
-5.481728942990428344e+00 4.543728679673542104e+00 1.795600657917069398e+01
-6.071256628227762242e+00 2.018571169039367952e+00 1.996404095787523758e+01
-6.158073255132048729e+00 2.250941867924006523e+00 1.980021955037434012e+01
-3.149030239835106215e+00 9.946122986919163633e-01 1.177970828338661491e+01
-5.616749981854082918e+00 3.488223495993955758e+00 1.886159271147134930e+01
-2.200988877838677471e+00 -2.936967865431190816e+00 1.711825180525650225e+01
-5.656563119173608101e+00 3.914455455955689889e+00 1.850980463752845750e+01
-5.780256352518497565e+00 5.562499057241839573e+00 1.674276806233812565e+01
-5.958077887355787361e+00 5.546431155833924542e+00 1.658572892308351143e+01
-7.527461986714385489e+00 3.701213945211718759e-01 1.571705320534193007e+01
-4.999963838468743482e+00 4.990175946945572427e+00 1.757908331442504490e+01
-8.137111580417183632e+00 3.742013812968389974e+00 1.662373342312478641e+01
-3.972517033117430429e+00 -3.251154688543588911e+00 1.407959623714506492e+01
-2.819541844046144163e+00 -3.347000556935558535e+00 1.345385305309807578e+01
-5.215327679278508377e+00 4.879637886300388416e+00 1.767491896649518068e+01
-8.997593911844608883e+00 1.832731256421630039e+00 1.720901293157126943e+01
-9.100431352388010708e+00 1.713368309829933711e+00 1.687599153627176563e+01
-9.114603469544148240e+00 1.792871425018557119e+00 1.654513911321937414e+01
-7.992815842359037859e+00 3.167662482946584368e-01 2.001389893224723338e+01
-1.581678966393165187e+00 -1.359753948038758598e+00 1.658159717281685985e+01
-1.370809636320953206e+00 -5.856718529600616341e-01 1.309751869057322082e+01
-8.141683962862838797e+00 1.324594307294947315e+00 1.939774278852091172e+01
-1.090375728980389258e+00 1.144475149255591795e+00 1.491353220738819729e+01
-8.032977443470720402e+00 5.468431320940315699e-01 1.990814522738483916e+01
-8.055176845071006397e+00 9.603594318650151562e-01 1.972586332595535552e+01
-7.121448637473873688e+00 -4.790607767946741813e-02 2.069368066150267893e+01
-7.362349904501067854e+00 -4.597533152445112403e-01 2.064866053936544077e+01
-8.859183905371910583e+00 1.766889186429114300e+00 1.772136911005202009e+01
-6.214821411549828589e+00 1.231758476800536517e+00 1.206731086653885043e+01
-6.007181627277620173e+00 4.959533373387617905e-01 2.057390197155101319e+01
-1.959477585419400203e+00 3.274750632207730661e+00 1.613215913362030918e+01
-8.255493480779922066e+00 1.708080859507492999e+00 1.895892955118961609e+01
-4.627017282996899183e+00 7.661299856990987367e-01 1.956682835333471715e+01
-8.115168493520723558e+00 1.891382821063761988e+00 1.899830526810984921e+01
-8.123570741761039216e+00 1.580142642777369488e+00 1.924988115112986620e+01
-3.177922807183328757e+00 1.853218049545689805e+00 1.790936753578185048e+01
-3.997889952860665730e+00 3.651519924983648302e-01 1.899173315214017421e+01
-8.109474711410410208e+00 3.946893370065245765e+00 1.620473888585304323e+01
-7.095882558443159738e+00 3.116124691647227385e-01 2.062973860994729947e+01
-4.627977892924356240e+00 5.968656923851085594e+00 1.658973867879519659e+01
-9.827656573455572087e-01 -3.144205557001130469e+00 1.541741818178460832e+01
-2.525234680799737674e+00 -2.618794295696588392e+00 1.304250033442160728e+01
-3.618139302349014486e+00 5.447116067613690049e+00 1.666257212961962253e+01
-8.430963494300923955e+00 3.185498148259547690e+00 1.702507520805380992e+01
-8.136401307394978133e+00 3.318897871027621349e+00 1.740466702275760369e+01
-8.852572598958087013e+00 2.849743129600444291e+00 1.621912358742236293e+01
-8.300877847490504280e+00 -5.053891876064604549e-01 1.875468745582108809e+01
-2.023950547550062318e+00 2.351638878776820984e+00 1.424290170705616632e+01
-7.885308868856862219e+00 3.240137397169228439e+00 1.789527282271699349e+01
-4.325486927396905656e+00 -2.425096541032226494e+00 1.310712039484195301e+01
-7.824593846740834024e+00 3.347949019575533036e+00 1.783083124342670445e+01
-8.900043429423634578e+00 2.863016124037175203e+00 1.558383794055479754e+01
-8.187317510857436531e+00 3.112104000413600691e+00 1.761269009111487449e+01
-7.463780262206133997e+00 9.080343062710578561e-01 1.461872364927952006e+01
-5.460435014946907195e+00 3.623521452276116106e-01 2.035573353958798393e+01
-6.026430258729222444e+00 -2.988167156012290437e+00 1.993788645312799801e+01
-8.387864780823701238e+00 3.357152018220464385e+00 1.682321552254526509e+01
-8.615629406662826284e+00 3.027066864364118537e+00 1.681614213758164667e+01
-3.479900992334426846e+00 1.791364133345282994e+00 1.817822706150895939e+01
-3.396213767337473932e+00 2.992857575177980678e+00 1.356938343822211479e+01
-7.588225014255545631e+00 4.445933898699121478e+00 1.608754927107316846e+01
-8.636289015423860960e+00 3.198390922429004579e+00 1.643157406617590155e+01
-8.705971405217322712e+00 3.116432749730078555e+00 1.637316924770788162e+01
-4.169080675110900636e+00 -2.831683633143318168e+00 1.913067670453803615e+01
-8.363096581358375303e+00 1.740257894700567298e-01 1.942991676201138418e+01
-8.982558806659483253e+00 2.255150862341294804e+00 1.518365857872638358e+01
-6.957855910189055137e+00 -2.140311367622254934e+00 1.969716953201832510e+01
-7.423665949320183088e+00 3.103921262166051687e+00 1.857191835564102789e+01
-1.668701838867960419e+00 -3.909918923724435391e+00 1.656248778109107533e+01
-7.195955170530092815e+00 4.601626364551457016e+00 1.650300200685432728e+01
-7.064995603436292626e+00 4.687656238154976229e+00 1.655868492462682084e+01
-6.876598798123705336e+00 4.847182581830736581e+00 1.656941517364586147e+01
-6.603851562824585741e+00 5.075214955973808451e+00 1.658803024752392119e+01
-7.688534475021889136e+00 4.371280986696731929e+00 1.575802632506119849e+01
-5.344955875500854603e+00 1.325438984175252521e+00 1.092784993233737723e+01
-3.908801093198651877e+00 -1.786739274299811608e+00 1.902078213594591105e+01
-8.062486804443187438e+00 4.142435894446959921e+00 1.567594231841081509e+01
-7.829850550299848777e+00 4.309317909069693364e+00 1.584445340865805818e+01
-6.940952426408363962e+00 4.284790048405485052e+00 1.526509867954706934e+01
-8.314575687194921016e+00 2.477950777123278492e+00 1.454926285386241958e+01
-5.526492395946418057e+00 -1.787854702656162420e+00 1.664609116269417299e+01
-6.462527929112572345e+00 3.428621141554221374e+00 1.879846464365538949e+01
-2.251933808830806960e+00 2.977903983498787266e+00 1.659161133846440705e+01
-6.884545850983677440e+00 3.643344036227285088e+00 1.835809493706301865e+01
-5.613917694183321316e+00 8.826232126350375129e-02 1.488659140212281429e+01
-7.578475519549742856e+00 4.488158404779144739e+00 1.589015085844794228e+01
-5.010649434386082568e+00 -1.734208321291506483e+00 1.280607159335778888e+01
-5.181538036298920957e+00 2.690125774582092788e+00 1.257372033398097599e+01
-8.985822330302095651e+00 2.425965743557184418e+00 1.559775364524018570e+01
-7.132333359606001011e+00 2.994510144928470119e+00 1.888769701477535179e+01
-1.155550845933634552e+00 2.323624618421781252e-01 1.438795536274354347e+01
-6.639950081155042483e+00 4.915580166285820951e+00 1.677726489238309782e+01
-1.380613750515505611e+00 1.299418893804344943e+00 1.443858194433190434e+01
-6.836853538463657287e+00 4.049387055930222523e+00 1.791840447135890102e+01
-8.707641749290415234e+00 2.226558264914832552e+00 1.765185750727345138e+01
-8.767095916444070269e+00 2.866463980666751343e+00 1.491734110937970215e+01
-6.653159314398285673e+00 4.179110084762271526e+00 1.790243862519637119e+01
-1.620963060302589298e+00 2.557221287700359280e+00 1.503052604593618824e+01
-3.803273892935190581e+00 5.255871412683740473e+00 1.693101785707701268e+01
-5.928850774158201276e+00 -2.022710666555596504e+00 2.053582134994217867e+01
-7.011601113554348785e+00 4.566234643649299763e+00 1.687803276765420080e+01
-4.429599583880115432e+00 -1.204647206984363006e+00 1.955676168619188005e+01
-6.841887396634934504e+00 4.558248104357818242e+00 1.714028488431933184e+01
-6.646308095913795455e+00 4.419054115397383242e+00 1.758630939953257055e+01
-7.018121715556697282e+00 4.445404439432555144e+00 1.710651208790160993e+01
-7.218834216219422117e+00 4.663622168264144108e+00 1.633954929590754190e+01
-1.922469525605323692e+00 3.313325227276825657e+00 1.529397772691498503e+01
-6.419812306023483295e+00 4.975473089998988740e+00 1.693420564340739176e+01
-6.201659268791034130e+00 5.003369391860346127e+00 1.710970624900999226e+01
-6.569313380925270174e+00 4.722648433554112124e+00 1.715811712684611123e+01
-7.478858933004469023e+00 3.600476551633350120e+00 1.790400876492628512e+01
-7.443530164533910920e+00 3.784057494081796591e+00 1.768452447897084667e+01
-8.515539811175539597e+00 3.372490605340411562e+00 1.643200375955026615e+01
-8.241966188635631241e+00 3.414667629521538128e+00 1.704783431180959852e+01
-6.466239974349319297e+00 7.355064997404808791e-02 1.628664254651891596e+01
-7.827354314717048567e+00 3.817348631848352714e+00 1.708659792722830773e+01
-7.678194315510026513e+00 3.834891812504484854e+00 1.728959306324808054e+01
-2.981829987306468865e+00 3.277116080133878118e+00 1.726425522331028262e+01
-7.982184785763857704e+00 3.576857126222340533e+00 1.725021344461761785e+01
-7.932833437825479450e+00 3.525675592145824488e+00 1.741864200691459885e+01
-4.241322757980455549e+00 -1.623979440188951795e+00 1.934131087396619009e+01
-1.449362817974830797e+00 -3.062843787998107636e+00 1.439508143208905366e+01
-5.682709066785262664e+00 4.383019201536433762e+00 1.483746084158991252e+01
-4.825283968311521399e+00 -1.080634831319219114e+00 1.994415876605026128e+01
-8.762992402195036945e+00 3.176100303985744500e+00 1.579019435593567877e+01
-8.559962216467802421e+00 3.392398202677966434e+00 1.623312754336786767e+01
-8.234728189237955576e+00 3.872486911873880722e+00 1.608340379041097279e+01
-4.671453263488918317e+00 1.009562172270169311e+00 1.954142368003541819e+01
-7.077347152989316825e+00 4.471073186326927740e+00 1.696511913488968659e+01
-1.638763052855595870e+00 -2.572356420788979747e+00 1.669257751643370469e+01
-7.408942230289738973e+00 4.167955837532903551e+00 1.707006554102720131e+01
-7.346974688784833063e+00 4.146578492217032341e+00 1.721178428632028456e+01
-7.078269416632497979e+00 4.261247399120071222e+00 1.736685635147009421e+01
-3.346862344676647005e+00 9.707619059368707282e-01 1.161091491073640825e+01
-7.007685289427614705e+00 4.219751863654780166e+00 1.752028191262091994e+01
-2.085397652394981982e+00 2.509191742144041282e+00 1.430733584287918703e+01
-7.480682423077986698e+00 3.854634136546010392e+00 1.752950867554839576e+01
-7.289623670673362810e+00 4.003681092288970511e+00 1.753480891959273791e+01
-1.909887440605285480e+00 -5.357694806490767014e-01 1.687994812109687004e+01
-7.276282053413295259e+00 3.933383453706074562e+00 1.765749180391519602e+01
-3.721006025323468691e+00 -1.729082002828253639e+00 1.223241221289596226e+01
-7.255655405073040853e+00 3.777502043993057335e+00 1.789243896072971651e+01
-6.909471010011815295e+00 8.196780983092954997e-01 2.052600944952272854e+01
-2.775730713988219023e+00 -5.983249773732158827e-01 1.794530920761165405e+01
-7.153683916585441338e+00 3.901348125162004798e+00 1.783140860625697499e+01
-5.519599559178075765e+00 2.171204663508042643e+00 1.973619363778874813e+01
-8.862393364898911940e+00 2.207043059736237822e+00 1.501235758694247480e+01
-4.712800617497128641e+00 4.504254481284353240e+00 1.458417129575052584e+01
-8.853508448288677002e+00 1.644026494297456065e+00 1.525435918007526581e+01
-9.025166135125585853e+00 1.498800924774004173e+00 1.559783228469853000e+01
-5.278827841670012511e+00 5.388911457094354596e+00 1.718352140019905150e+01
-1.610389929490426475e+00 -1.080415101833067659e+00 1.317097789584196121e+01
-5.255807250347946713e+00 5.155989442287632230e+00 1.741493939792242074e+01
-3.790686651481160574e+00 3.471295969692211880e+00 1.792570167906852063e+01
-5.487352266813909196e+00 5.262143799950131040e+00 1.724820642289208550e+01
-6.505935092668345021e+00 3.005728853297000569e+00 1.915794945377001923e+01
-6.583467972235144572e+00 2.201241979606082477e+00 1.978154234474750339e+01
-6.598903310224208951e+00 2.424736735222644768e+00 1.957066919936943705e+01
-6.329345049149674551e+00 1.899224566406737758e+00 2.003932535437232687e+01
-4.901607682988606385e+00 -3.754803923488934547e+00 1.704186777839395361e+01
-8.528587906323982892e+00 1.811419524265762415e-01 1.636239577556732527e+01
-3.252104661056318236e+00 4.108118783220870984e-02 1.836783319670058390e+01
-6.481889997440756446e+00 2.003680432028345226e+00 1.995278278225151425e+01
-6.108151417830812946e+00 3.338104753100080924e+00 1.897215327044602518e+01
-9.083700964991816562e+00 1.964743909781858644e+00 1.657501671434440382e+01
-3.006532323172039334e+00 9.341046483428865344e-01 1.183457102751222223e+01
-9.087103199462564618e+00 1.996257349864613229e+00 1.636008071470855540e+01
-8.780038449908904141e+00 2.135833369070639698e+00 1.756077214085366833e+01
-8.760426913566728757e+00 2.347833769062490195e+00 1.735005337476201603e+01
-7.400489994254261461e+00 1.118698639758178182e+00 1.425323319955505852e+01
-9.002918585274203522e+00 2.000770273673267763e+00 1.699123144629682614e+01
-8.744844502531325503e+00 1.603854217981590669e+00 1.516081646175660680e+01
-4.829571897859451290e+00 -2.328521216835245378e-01 1.993972171326737097e+01
-5.714311606652431763e+00 3.807531259207816099e+00 1.859957247619998455e+01
-7.705449045458793833e+00 4.176623151118990407e+00 1.550882063976225922e+01
-5.853889392168737160e+00 3.600452741881838836e+00 1.876345131532695021e+01
-5.913378484790934309e+00 3.928222388589202030e+00 1.849095557840800907e+01
-6.044192274841588386e+00 4.103987334918428154e+00 1.829843415038776655e+01
-8.946545428684126833e+00 2.602448685074632007e+00 1.600772380427347841e+01
-6.173777574874533158e+00 4.096541587421294928e+00 1.826670333288526038e+01
-1.339896415555082765e+00 -4.379544479385617528e-01 1.364542404706545753e+01
-6.067797829370356943e+00 4.222176864147501263e+00 1.817047418670410153e+01
-6.493106211714131604e+00 3.632976354078798487e+00 1.858292199518448129e+01
-6.495563682664234229e+00 3.542734315511555820e+00 1.868064490736025718e+01
-8.391436492474289466e+00 1.929421418192425630e+00 1.857148489651217105e+01
-8.301581574238458217e+00 3.208047351994316454e+00 1.486274296700723241e+01
-8.001624316805298065e+00 1.236690589641188831e+00 1.962362576073977394e+01
-7.911433758090709034e+00 1.130565397156278795e+00 1.979457144078537212e+01
-4.590582426124057314e+00 1.655374871412583104e+00 1.925390448848695613e+01
-7.734797932760418604e+00 1.331914482133751410e+00 1.983900121502842850e+01
-6.901890441405676313e+00 5.734155560397008466e-01 1.519523562450433118e+01
-5.618668299595441340e+00 4.732233706580839971e+00 1.776119560456146829e+01
-5.106646330114447352e+00 1.043950742709718327e+00 1.099083457293371779e+01
-5.839711172152494356e+00 5.027802980628594653e+00 1.735392377317756640e+01
-6.372730562144071520e+00 5.235596695693032210e+00 1.599314357090900174e+01
-3.498304247599659966e+00 -1.725255105950960655e+00 1.865142784245243845e+01
-1.779185399366733922e+00 3.273418859410786030e+00 1.592423934342654590e+01
-7.900804612918257419e+00 2.147544805576277582e+00 1.902509841443150762e+01
-8.523789473400551486e+00 1.797908313595475871e+00 1.488923839820361295e+01
-5.632929433721334256e+00 4.524701715975171901e+00 1.796716981284518866e+01
-5.584038197896314060e+00 -1.398385360811326805e+00 1.642714505748300624e+01
-5.309998902988391833e+00 4.844571607405810276e+00 1.521449699824325208e+01
-5.651021144192035273e+00 4.164522879579087622e+00 1.830688156117374277e+01
-1.249046960948169360e+00 -3.490132960178586874e+00 1.517041060219246518e+01
-5.803832486079045339e+00 4.332859776906751392e+00 1.812775658190914285e+01
-3.497706817418430703e+00 -2.620382466215596118e+00 1.277286887215629108e+01
-7.488217963131292620e+00 3.347824835051430803e+00 1.456520394571602495e+01
-6.539300695389090201e+00 -8.885196123467694607e-01 2.079927722100434195e+01
-5.664286890826201848e+00 4.356814462816232414e+00 1.813164188793968279e+01
-4.019845876307002186e+00 -1.413640356281578025e+00 1.915041446895143551e+01
-6.020949288949068112e+00 7.237068718985311122e-01 1.407356136786708944e+01
-8.001432371164677093e+00 2.482632768587564875e+00 1.861139697101442536e+01
-5.339505605539948796e+00 -1.606685193231143227e+00 1.621570545048664869e+01
-8.150155342685232895e+00 2.215693303351083721e+00 1.867307306535152023e+01
-2.616922185656907374e+00 -9.501672350597828443e-01 1.773797338625231035e+01
-8.025707713280297639e+00 2.285775538483547198e+00 1.876614082339185430e+01
-2.223256628291145010e+00 4.674396970593424627e-01 1.720843178992882727e+01
-7.621444821724297825e+00 3.016970461428097217e+00 1.430060446048029021e+01
-7.573322158661067505e+00 1.700808311301655606e-01 2.047521996374681308e+01
-7.661602121019829070e+00 4.996098742978617446e-01 2.033430151874518899e+01
-5.484761310479045804e+00 1.656979558300348820e+00 1.160467371951290616e+01
-7.620132873635743209e+00 7.430671421201833216e-01 2.028745837058186297e+01
-1.469446862646196283e+00 -2.888230840123193754e+00 1.424105971190386910e+01
-7.170347825283316823e+00 4.346496368758894668e+00 1.707144598950270975e+01
-6.728206709884780423e+00 1.779083873116879655e+00 2.006140055582420345e+01
-8.587126647197870000e+00 2.913705062497228937e+00 1.490673589695810719e+01
-7.472563440755584097e+00 2.807954731815420768e-01 2.051520445802500703e+01
-7.387954223814784172e+00 9.784527643360964033e-01 2.032163281816949407e+01
-6.987042558550541571e+00 -2.793707305625593440e-01 1.719191581981518269e+01
-6.797923917541494276e+00 8.038434676130022938e-01 2.054328456639837341e+01
-1.862416003357684868e+00 9.328622295831349165e-01 1.328498297642893178e+01
-7.489041839533030043e+00 1.180443155770705133e-01 2.053560283153213462e+01
-9.032086021850789237e+00 2.106761817068918852e+00 1.567957804783290854e+01
-7.254151487577606972e+00 -1.531734715249517986e+00 1.910553960507066407e+01
-6.232319168039289536e+00 5.481275147774480772e+00 1.636961480328470842e+01
-8.116831798369785744e+00 3.256468636722004373e+00 1.479807631803498325e+01
-6.342347917592833895e+00 5.361939592674457522e+00 1.646547289125831171e+01
-5.689823220760377609e+00 5.520229371426899512e+00 1.686360285099893375e+01
-5.989332141341497717e+00 3.594822113398439822e-01 1.507930343223075553e+01
-5.170760257242474012e+00 5.306755492140635688e+00 1.727855521019773377e+01
-3.095994866761265563e+00 2.462564680881312196e+00 1.331935524994487352e+01
-4.358667068941280753e+00 -3.627618831015513745e+00 1.637538800676941619e+01
-8.938113480551706402e+00 2.598494742337907226e+00 1.622314909918270232e+01
-2.485117919396905517e+00 -2.261607417080886417e-01 1.212804457323619900e+01
-6.909263896768424118e+00 1.490825512544946552e+00 2.020454139001031635e+01
-7.718572640850290156e+00 1.834358117994376869e+00 1.947599643108608447e+01
-7.544971136209971618e+00 2.100403100601079931e+00 1.938447959718615365e+01
-4.987401332641623775e+00 -2.329096502911445654e+00 1.990066333827085643e+01
-3.511401066594549647e+00 -4.463586608060322369e+00 1.710403061158030269e+01
-7.496623141468843343e+00 1.113027727350995200e+00 2.018243409183504511e+01
-1.268041370444193738e+00 -1.609234646136685321e+00 1.371913704946671331e+01
-8.885247166790577467e+00 1.834189733003394718e+00 1.518915335392891919e+01
-2.865635475062057402e+00 3.421969484988048649e+00 1.705177908428580125e+01
-8.884340527886140038e+00 2.720253267892668081e+00 1.636448486214104392e+01
-8.115698555970492833e+00 6.854796828731524183e-01 1.543514680810966766e+01
-8.923952660139306658e+00 2.589051362713120863e+00 1.640419754596304003e+01
-8.908761953712559745e+00 2.571342761355320583e+00 1.656820100701466103e+01
-8.892246509848039437e+00 2.547742322143595306e+00 1.668824161079866641e+01
-4.382449898763898233e+00 -3.851886809830646019e+00 1.891323435859199620e+01
-8.859350058488699275e+00 2.672968196530521645e+00 1.660903726533633673e+01
-7.517830651529912700e+00 1.663451689397719147e+00 1.978588195525082583e+01
-6.755196942418447037e+00 -1.180123649903806804e+00 1.800589904772968097e+01
-8.541246918909878971e+00 2.500781533127365286e+00 1.773446972889558637e+01
-7.035882619269155924e+00 -2.001504215936570574e+00 1.957367892642129803e+01
-7.151915211721416199e+00 1.106089919524362752e+00 2.036209096987514400e+01
-7.427324098715816447e+00 1.244405459532804681e+00 2.014763173175829891e+01
-7.375807196212790018e+00 1.342573176893731235e+00 2.011783943980241318e+01
-5.850187047983835598e+00 -2.220450231827431953e+00 1.754389981979110402e+01
-8.214248475772468083e+00 2.511088076266743574e+00 1.831817832986460459e+01
-2.641205851422694373e+00 -1.144213840367719115e+00 1.775172009941474371e+01
-8.554656477208229859e+00 2.738449854162940511e+00 1.738040975269002431e+01
-8.754870986153498791e+00 2.692331984309145554e+00 1.693630634885361630e+01
-8.354872538835923734e+00 2.913484166518927054e+00 1.757925305743072997e+01
-7.466718655923948234e+00 2.200448594276947389e+00 1.934143068420470613e+01
-4.948587243031809635e+00 5.300915592421797662e+00 1.730759565226688679e+01
-5.369185765134242949e+00 -3.744304049985278215e+00 1.782880574826749509e+01
-6.387235207749841770e+00 5.113941113647030967e+00 1.677589775435213326e+01
-5.871449240990147089e+00 3.340360560131721002e+00 1.369167844815310175e+01
-6.297317246941519286e+00 5.319620625694672533e+00 1.657691438035200449e+01
-6.209365638395464515e+00 5.135125353396849945e+00 1.693171737138193933e+01
-6.030419630312804813e+00 5.314409545534072521e+00 1.686262521455905627e+01
-5.977624273322529547e+00 5.165445193458426232e+00 1.709370442560645031e+01
-2.518235462274386105e+00 5.813979488592962985e-01 1.197580396673411585e+01
-6.947690985858276491e+00 4.982262318707029181e+00 1.607154561976471641e+01
-7.100295864991046813e+00 2.532892651082489621e+00 1.358380674526603471e+01
-6.476061809282289694e+00 5.304971264752749605e+00 1.639015066757852779e+01
-6.905039499580668760e+00 1.848856286839305252e+00 1.996866700588705257e+01
-3.491268902221955628e+00 -4.717414859692793394e-01 1.170204149584194298e+01
-3.650022970708615588e+00 2.884537158661266254e+00 1.327819489869461123e+01
-6.878699589927801838e+00 2.052541722916750633e+00 1.981688833177331688e+01
-2.209085963208877068e+00 3.441635040514544386e+00 1.499520867046662786e+01
-7.094034700050183773e+00 2.100375469008953555e+00 1.967626742040738819e+01
-6.927406990296105960e+00 2.839084087744513152e+00 1.912176283092582096e+01
-6.263272682193890439e+00 3.973064587082184573e+00 1.835039384044487676e+01
-6.935613844610308831e+00 3.466512027643453564e+00 1.852398475027240821e+01
-2.580043189436021844e+00 1.246701633222093264e+00 1.745424179293337730e+01
-6.697572934983307746e+00 3.185116742088612174e+00 1.894224116190344986e+01
-8.401728508655963878e+00 -8.564267702226863177e-02 1.686887438291552499e+01
-2.855571469537825813e+00 3.028061165367280427e+00 1.724695111635368150e+01
-7.015615057912800268e+00 2.468094628080270692e+00 1.937216715802483336e+01
-5.334273315222102241e+00 -2.140401590173298008e+00 1.661742892039587005e+01
-7.151867118147775315e+00 -1.299955525066319062e+00 2.063213965503072345e+01
-8.489492831540074391e+00 3.780343107150946569e+00 1.540762755593684474e+01
-7.942244623935195591e+00 3.748897487687460117e+00 1.701919377997504412e+01
-7.870424272140317257e+00 3.881621103198173550e+00 1.687928147875632945e+01
-4.336270468277806600e+00 1.728016678591152377e+00 1.173707646470060340e+01
-5.108239931382414944e+00 -3.004825817397510423e+00 1.681421613297113637e+01
-4.778255684572875417e+00 -3.622178035212896052e+00 1.680439909255923325e+01
-4.509442140642246244e+00 -3.882773429889840866e+00 1.672202002239321317e+01
-4.548211951725868119e+00 -1.649500499846362711e+00 1.963228025686404621e+01
-4.550300753056982117e+00 -3.677149776753740884e+00 1.912911768147236202e+01
-8.689008044776489470e+00 2.803555393295132703e+00 1.488640333588478981e+01
-3.606387133714531679e+00 -1.983890357058489151e+00 1.872457900201964165e+01
-5.357794286359137459e+00 5.108078697532469903e+00 1.553625026653666552e+01
-4.464138844046446231e+00 -3.275033222493993978e+00 1.925125329075253333e+01
-4.369974690058071154e+00 -3.493195030075916918e+00 1.910982595825618446e+01
-3.485281929276697888e+00 -7.806247786673899958e-01 1.869758989046797737e+01
-3.723571062159884093e+00 -4.008576123255449097e+00 1.835293854636909927e+01
-3.114294853233761984e+00 -4.413157850802587490e+00 1.754850820581890147e+01
-3.447481864902319337e+00 -1.327616171370788134e+00 1.864448525570867687e+01
-5.074070623438231564e+00 -3.171468929665323344e+00 1.686145129040093948e+01
-9.445179963725678363e-01 -2.691641265448317277e+00 1.582740640171850899e+01
-3.564518555061192195e+00 -1.367600512490673825e+00 1.875603268340347185e+01
-3.646849231017424309e+00 3.346232702581588003e-01 1.136517733847567158e+01
-3.494959223596397102e+00 -1.571613130601771768e+00 1.866670316958763820e+01
-1.579360378928566622e+00 1.700158505819139521e+00 1.628219365185158196e+01
-3.635966377000459993e+00 -3.759246163766496007e+00 1.464701478520583677e+01
-4.683829939066984416e+00 -3.733880624164466422e+00 1.915234327530005132e+01
-8.700312473531028878e-01 -2.129836549515864874e+00 1.497435413558106987e+01
-6.275720639835934200e+00 1.243057693685283960e+00 1.262881096778138712e+01
-4.576740405187110561e+00 -3.935818091089234638e+00 1.894521178193884836e+01
-4.532353291457542177e+00 2.947358966174003392e+00 1.872754380304691679e+01
-2.551512908327326024e+00 1.613221440087005298e+00 1.734524875687045053e+01
-3.310334086208218451e+00 1.443466788654023336e+00 1.212657440021328981e+01
-6.352340329666176011e+00 5.741527478548197339e-01 1.505310976626761388e+01
-2.799187559903407063e+00 1.438196441163277051e+00 1.762660981174495944e+01
-2.656835091491521084e+00 1.624337992080014725e+00 1.744354978226207109e+01
-2.213397126190807640e+00 1.801862086687012532e+00 1.697702976828195531e+01
-2.730075884723989432e+00 7.165971330984359788e-01 1.771206614813935332e+01
-3.789595363874646239e+00 -2.969330286459492818e+00 1.875617238052959479e+01
-4.973775112197738935e+00 2.066519379664047307e+00 1.182411850420069399e+01
-7.362468019057340385e+00 -1.856391085943437380e-01 1.715882969671867286e+01
-4.854428130388241946e+00 -4.100883776578705842e+00 1.867462872045534894e+01
-5.525989959204145485e+00 -2.725591694451936498e-01 1.319107697145814839e+01
-5.469083531442207047e+00 -3.695683003810365630e+00 1.796432471314826884e+01
-2.616461014142458019e+00 1.958923977862395915e+00 1.323673525073666113e+01
-2.764272727537322893e+00 3.453722961495041321e+00 1.691655303527270249e+01
-5.379290047931784891e+00 -3.403030864416044743e+00 1.740111457178786125e+01
-5.908301750805065922e+00 -2.381947754913970261e+00 1.780299607592185041e+01
-6.565997257490855610e+00 -1.020960029995740648e+00 1.760284598514428822e+01
-6.033997529509407265e+00 -1.632016204502250822e+00 1.738989320572927610e+01
-6.439351198479279503e+00 3.470771076326232052e+00 1.413905309230712604e+01
-5.077452169698732476e+00 -4.081839812553036850e+00 1.828516512890204027e+01
-4.945793711556380146e+00 -4.158289285946877634e+00 1.803152887083825462e+01
-7.256154273569903168e+00 3.325783762417356737e+00 1.845569184372859795e+01
-5.252371379955873998e+00 -3.880747954158063617e+00 1.783025240490235674e+01
-7.314639237363843804e+00 -3.238407954923619991e-01 1.744153811050636804e+01
-4.684181858985379421e+00 1.342347540320317334e+00 1.117353503446419083e+01
-5.714535043986622043e+00 -2.773756040512407317e+00 1.764662940188009443e+01
-5.896997422221012641e+00 -1.980779337803301399e+00 1.744689232062598094e+01
-5.061293572672226126e+00 -4.073026171484663394e+00 1.848289655408104082e+01
-6.819629516517112577e+00 -2.010023230282115270e-01 1.695047750631494310e+01
-5.087812508699828484e+00 -3.891064825357884782e+00 1.746692818932352864e+01
-6.031270646845261929e+00 -3.090090532761514464e+00 1.940369374123858748e+01
-4.793945776152320093e+00 -4.225054052104215252e+00 1.822044021481648812e+01
-6.113002568122568370e+00 4.442626613382405498e-01 1.506515154207357554e+01
-5.470220017705054616e+00 -2.951240595020304003e+00 1.727104130397163928e+01
-4.534285906749812689e+00 -2.609819214820413347e+00 1.350574515227742367e+01
-5.838961772374048564e+00 3.127774641122221810e-01 1.484828487168448063e+01
-5.491766837508786026e+00 -2.759502812526946958e+00 1.721706184462167144e+01
-6.226817402565111514e+00 -1.038366696414691148e+00 1.718104518395063351e+01
-2.406035809361211975e+00 -2.542129973353027594e+00 1.730321534219681823e+01
-6.184789283035001972e+00 -1.179091095496344721e+00 1.724383493156623715e+01
-2.291502284273777779e+00 -2.513405468617527116e+00 1.721082793630855790e+01
-6.095222580031933290e+00 -1.122562693767368724e+00 1.705723827726928121e+01
-3.723739427819841907e+00 -3.610674327859312971e+00 1.853973107756774041e+01
-3.406425065356709858e+00 -3.834387089016479955e-01 1.858000010817906045e+01
-1.242424233720095472e+00 1.254713314557587500e+00 1.598480269532786835e+01
-2.537855723362171023e+00 1.035478707099303231e+00 1.745903110738638375e+01
-3.558715911834296364e+00 -2.813960133486261839e+00 1.854547164329745712e+01
-3.981433354612371467e+00 -4.383444816910072817e+00 1.805592958199939702e+01
-8.337512975709117313e+00 3.631851068948505734e+00 1.521239356849953950e+01
-3.567579887098128566e+00 -2.992598365058576348e+00 1.852781024942218480e+01
-1.040096578972024677e+00 1.332172114641191563e+00 1.577860739981401750e+01
-3.575407804866735262e+00 1.688232208602546414e-01 1.863487541137261516e+01
-3.614489386045177888e+00 4.114278051506439216e-01 1.862554159002438681e+01
-3.033630037571736437e+00 1.656572174311065737e+00 1.781344895384504312e+01
-3.828833369396347663e+00 -9.573831960013635678e-01 1.899202681760332112e+01
-7.181447871819074180e+00 -1.750884828404511762e+00 1.937414058908968784e+01
-3.076707016898166280e+00 9.852157673243022717e-01 1.800936891041196120e+01
-1.374213893322365099e+00 1.480538867068327047e+00 1.608889834007902309e+01
-2.092680481264143300e+00 2.290906352358519360e+00 1.673009015956373347e+01
-4.563591510501529669e+00 -4.308377765120470215e+00 1.800630739949417247e+01
-2.836976224350690856e+00 1.271626116471498147e+00 1.232032980946641842e+01
-7.153272275437766226e+00 3.741041757992088268e+00 1.481637568174854280e+01
-5.766052886250449205e+00 -3.346700962810859270e+00 1.920933787948411364e+01
-4.978148708193261385e+00 -2.860959156311404517e+00 1.972187912727792636e+01
-3.556504879356365834e+00 4.795972834447121969e+00 1.515949085513854655e+01
-3.914862186197161975e+00 3.231729406622358081e+00 1.813749700963469635e+01
