-4.651953497038422647e+00 -2.302084584397348088e-01 1.332335512122223165e+01
-4.249493239902051300e+00 -5.661043282990968484e-02 1.293536504454108993e+01
-3.990778418899515678e+00 -3.170325304454744586e+00 1.893688270467220391e+01
-6.600935337996299168e+00 -1.822327748397912117e+00 1.525455524990897871e+01
-8.545140583750043817e+00 -1.675553292412346185e+00 1.788434265848804117e+01
-5.587994859673276693e+00 -2.340969592967125923e+00 2.058150742415942958e+01
-8.599083114785400994e+00 -1.271636821990581367e+00 1.787565748580352576e+01
-6.821963828182641132e-01 3.111559399378546864e+00 1.561203195606605831e+01
-3.854314993050727445e+00 5.427507993913777140e-02 1.271714319349852573e+01
-2.301083946667351832e+00 -1.437202235823510144e+00 1.745853733546895725e+01
-2.457033840106988443e+00 -3.314440322119236448e-01 1.431357575153909423e+01
-3.617730468752117456e+00 5.623460055526054990e-01 1.173533344533694489e+01
-4.275994607328353680e+00 3.468785128613347535e+00 1.829454736717535113e+01
-3.102907047562626364e+00 5.892813882544294835e+00 1.647624212083843176e+01
-3.214898298779905073e+00 -2.632655868611575301e-01 1.497006432977992674e+01
-2.090777925262800707e+00 4.602720023993621012e+00 1.762323565074277454e+01
-2.038668373819792379e+00 2.751151342512508369e-01 1.288659307835722601e+01
-6.162978560331017208e-02 2.477712882575791475e+00 1.703331914350025400e+01
-2.899157845605605743e+00 2.591012224359557248e+00 1.905364750758311132e+01
-2.264842870501847738e+00 -2.419872813920467713e+00 2.078057703287135283e+01
-2.304450637016790093e+00 4.634835076620107408e+00 1.470276593605583670e+01
-5.577705931419806085e+00 -9.322934991115836567e-01 1.431948386165784015e+01
-4.895148455425568645e-01 -2.781367375309702350e+00 2.025036662209602056e+01
-1.394860694302157089e+00 -3.139635002182016077e+00 1.891687262638972911e+01
-1.074029710469861509e+00 3.634969671904115796e+00 1.805350625413946020e+01
-6.283930511232995286e+00 2.372417993007065018e+00 1.861627792342726551e+01
-8.395442770163706214e+00 -1.434826252777282374e+00 1.708955799253428509e+01
-3.475097890967278502e+00 5.875537669543699160e+00 1.648721529578144285e+01
-8.076398931124767699e+00 -1.858425978764340680e+00 1.649607740244690390e+01
-5.824990024507490816e+00 9.356649169489589246e-02 1.294604798414950508e+01
-7.190093704249383322e+00 -2.479561144675243245e+00 2.024451279660464209e+01
-6.161504704921594744e+00 5.269926510649192153e+00 1.517176514510126495e+01
-2.117242799307946122e+00 5.239931539646322634e+00 1.704539344579677973e+01
-2.073111267612631536e+00 -2.214767049212659433e+00 1.829600002439036288e+01
-6.234301344885977869e+00 -3.895842860762237514e+00 2.021971104837135513e+01
-5.232085440316468272e+00 2.881594800391267253e+00 1.264079877756256209e+01
-8.420487090154665566e+00 -1.101445257715917281e+00 1.905649968499607283e+01
-2.058460307386368981e+00 -1.579316651269583316e+00 1.729668183285506089e+01
-7.442908161325342276e-01 3.793788560217293604e+00 1.742983216037908889e+01
-1.188361303069757957e+00 -3.484519091645116307e-01 1.430361480747664515e+01
-3.002153221585359244e+00 -2.855691765640908208e+00 2.080879531373204472e+01
-6.618825718590685803e+00 -1.588934239656447200e+00 1.490173579701886908e+01
-3.050170910873268859e+00 -8.647027871517316555e-01 1.702929899377621226e+01
-2.450032076935109160e+00 1.515546171180255586e+00 1.221605112151832984e+01
-8.530434422193682309e+00 3.576674436220045328e-01 1.751059959085839424e+01
-1.013018175562315770e+00 -3.688879149336175445e+00 2.004232939736359143e+01
-8.197009081515002293e+00 -5.980244719097796979e-01 1.611562225153290839e+01
-9.029469049404230674e-01 4.606355176310704458e+00 1.664943972014947704e+01
-8.376791273463437548e+00 3.276956019714209467e-01 1.847163516743787071e+01
-7.206209747791765707e+00 -2.959380852460925304e+00 1.728607778402561124e+01
-2.440616916739003717e+00 -1.011972414949013244e+00 1.691067829817434287e+01
-8.160256792436371143e+00 -1.250720619284053425e+00 1.629215481073002181e+01
-6.253806295667980741e+00 -2.585274997071583147e+00 1.788900320801131372e+01
-3.838760886928313631e+00 -1.258551773537365470e+00 2.054547400549872194e+01
-2.052194587500766332e+00 1.906219081545671434e+00 1.282919916588951637e+01
-4.430314170707391419e+00 -5.392419380567706755e-01 1.611223813500900448e+01
-1.863697275787465912e+00 -1.973747831315307621e+00 1.748483010288946460e+01
-2.185184902774172655e-01 -1.788781770739129584e+00 1.966836781299771886e+01
-1.359742974240380597e+00 -3.711198933372274134e+00 2.050858586600080358e+01
-6.465971489913017400e+00 4.992123952590626246e+00 1.622025630447028632e+01
-3.758553360843794433e+00 6.449429983305634551e+00 1.586384170446693886e+01
-1.064212957104216706e+00 1.803605982608057046e+00 1.937530211286754778e+01
-8.225841732319981503e+00 -3.063567627442096430e+00 1.886881915372593355e+01
-1.671058328166857399e+00 2.206190199633537574e-01 2.023226497300268889e+01
-6.022413962598857751e+00 3.390397995229704753e-02 1.309282684400611529e+01
-4.836245470493917509e+00 -1.247621914548752597e+00 2.045965062483472607e+01
-2.009448970559072123e+00 -1.757197263788969899e+00 1.750200558577136789e+01
-1.832838821400724072e+00 -3.261866609687196661e+00 2.076552766397188421e+01
-5.847931349383731714e+00 1.323850181311489460e-01 1.989041280080646246e+01
-2.444386486575790940e+00 -7.566997642308701533e-01 1.612104710702689303e+01
-2.435813706752867347e+00 -2.657598619115502103e+00 1.882854107844962854e+01
-6.079004947095051570e+00 5.413624537823119809e+00 1.522653695360279258e+01
-2.211081733173085873e+00 -3.262440991265108448e+00 2.077735805655563794e+01
-2.820021594466408210e+00 -3.580249563347049913e-01 1.550058753296559289e+01
-6.399261923382541184e+00 3.586744532168001154e+00 1.409268407823550362e+01
-2.435678963612759595e+00 -1.221636895003701095e+00 1.726132289981971368e+01
-2.628829483302399517e-01 3.042029758204331191e+00 1.679174733271508657e+01
-3.248488394434838611e+00 3.563906242647713607e-01 2.008614618249332651e+01
-3.827254511339228227e+00 1.914600107752743308e-01 1.237544336332985395e+01
-3.879676911857401933e+00 3.811901360864343946e+00 1.809928664000979026e+01
-1.944960309981321078e+00 5.614404050235365595e+00 1.573901709133903282e+01
-5.747508771210006806e+00 -1.424337887977657813e+00 1.591494901540164264e+01
-2.714059496266921556e+00 4.484006566846784558e+00 1.772925837631590795e+01
-7.858585308384828494e+00 -3.293589193898187606e+00 1.966625271080166115e+01
-2.413131546420589579e+00 -7.521232120116616571e-01 1.573812272940862655e+01
-5.200945122066626070e+00 -3.736771657820646020e+00 1.959902380281074485e+01
-2.390489112250244297e+00 -7.045272923749905658e-01 1.531157230496042487e+01
-5.024447943010405204e+00 -4.576626185180353579e-01 2.022229660687597530e+01
-3.061785683276620151e+00 1.686022729886826443e+00 1.205042084291720883e+01
-7.439651247719397453e+00 -3.508095256986357047e+00 1.843234884437555010e+01
-2.253964592767374597e+00 -3.044396660035009639e+00 2.080135651544474129e+01
-4.664393640280302122e+00 3.311312436064796749e+00 1.298922673164102193e+01
-5.013021076759135219e+00 -3.932606262807039954e+00 2.048169036809369814e+01
-4.823840812236407594e+00 -9.637097291285739997e-02 1.291278781348497162e+01
-1.689449455844458159e+00 1.194977101812853881e+00 1.980929325900132554e+01
-3.851885699424745457e+00 3.548370001156331277e+00 1.337205013073223014e+01
-3.022382076867720091e+00 2.199570009944596283e+00 1.251822071748422971e+01
-4.274665346911948660e+00 2.142526490248088500e+00 1.200497165268900446e+01
-6.852241185083346453e-03 8.425686718775708961e-01 1.798919106737200835e+01
-3.440511197862977433e+00 1.555367826547605192e+00 1.178532514390868258e+01
-6.271988877885458002e+00 4.526270796888068659e+00 1.697656078313381656e+01
-7.644766214786954173e+00 -1.120441471268351696e+00 1.985732898437496985e+01
-4.174438368963821588e+00 -4.046432610210354497e+00 2.040547768859856248e+01
-2.820771197051494816e+00 -2.456931132607513391e+00 2.076934914999315041e+01
-7.662710087256368041e+00 -1.282211772562064978e+00 1.988566255900121504e+01
-1.891640078365026234e+00 5.583042298599693254e+00 1.661255779160343948e+01
-7.838342205334670965e+00 1.819378927785180178e-01 1.514503481279346531e+01
-4.010574105952261270e+00 -5.712542754536676926e-01 1.591213449031771532e+01
-7.344900700847719399e+00 3.624390159588829707e+00 1.642600324735011341e+01
-1.668897026405191664e-02 1.496636801985804732e+00 1.697828281865117717e+01
-1.991636890108571034e+00 -1.590623295670969606e+00 1.707629276854057920e+01
-6.211063552957223344e+00 -1.203562652679953437e+00 1.446149015228375490e+01
-3.582764449815166508e+00 -6.524918537608859204e-01 1.650482150016272342e+01
-6.267417051924659255e+00 1.705693984768516858e+00 1.899881830446562603e+01
-1.854671478156096009e+00 -2.208792383852288932e+00 1.788106667188952414e+01
-6.651394386640753886e+00 -2.881721429694829251e+00 2.040830172600239578e+01
-4.438361388197281654e-01 -2.892472761682376436e+00 1.811848885359201589e+01
-7.482933575033408502e+00 2.646495493629694717e+00 1.477519804381288893e+01
-7.798803809458317637e+00 2.616013239958626002e+00 1.540884481857010613e+01
-3.286254939116880269e+00 4.124632387335319450e+00 1.400182239069743062e+01
-6.237722743562931882e+00 -2.878798401261096984e+00 2.050158977754398038e+01
-2.628529758195145671e+00 1.446196322279482471e+00 1.205397014029099623e+01
-6.119755270818102666e+00 5.259526052700708831e+00 1.627857007965953429e+01
-7.238410042757922547e+00 3.620502967377876025e-01 1.952135103220939882e+01
-1.362415977214738727e-01 -1.528726669672569871e+00 1.940740115473581184e+01
-5.661552593601145489e+00 3.812921209673792444e-01 1.981733604836061957e+01
-7.626191638712998433e+00 1.174932242926041703e-01 1.948595785144813064e+01
-6.196933666992769041e+00 -3.017819023092950026e+00 1.845466356437792044e+01
-4.919476937450089515e+00 6.273488961167587696e+00 1.547386546589132550e+01
-2.062826257620892223e-01 1.443469367754250277e+00 1.617295964922356077e+01
-7.641272402702192323e+00 2.547167734086461244e-01 1.942828227412439546e+01
-2.605007557202547175e-01 -3.177547987153370723e+00 1.966455448294466990e+01
-6.947898197909541551e+00 4.216034395495665166e+00 1.642082693577831165e+01
-5.897946311470463776e+00 -1.719031664368519952e+00 1.689836809244968308e+01
-3.297872230369467972e-01 2.306869339357905613e+00 1.600099785878802905e+01
-3.243438204039861716e+00 -3.787420049571889047e-01 1.573759527340935094e+01
-5.261980555287240513e+00 8.796134228748053729e-01 1.188579008961247396e+01
-4.212360269277735547e+00 7.880006273068891343e-01 1.152804195822188760e+01
-8.349872166702382970e+00 -1.413744303250098922e+00 1.690660563543623240e+01
-1.487478558237279813e+00 -1.218938205814065201e+00 2.065755474895714983e+01
-6.489286920599385944e+00 3.742264930887901464e+00 1.755036124748108151e+01
-2.006450963099090323e+00 -3.430875480123982690e+00 1.946909062816655833e+01
-2.293426538272626214e+00 9.200037759256550762e-01 1.181930859209875351e+01
-8.081285284929936807e+00 1.555399991436469342e+00 1.795402099201411872e+01
-1.236206469043915401e+00 -2.568470369042297197e-01 1.415103504887092711e+01
-4.389793123596466451e+00 -3.505040581775343167e+00 1.918351462975123312e+01
-6.405467933835462091e+00 -3.089953984110478391e+00 2.046016349212336038e+01
-6.260246688961458084e+00 7.106937917222593271e-01 1.954214599425309373e+01
-6.007093677286637678e+00 -1.976576481085946746e+00 1.726863678014008840e+01
-6.377582065170940062e+00 -2.426630359974254691e+00 1.743952059045262004e+01
-6.015880766102568167e+00 -1.728996622716791887e-01 1.326723125170142126e+01
-2.434185841172461728e+00 9.945942805818450694e-01 1.173717216301505673e+01
-4.212515289622908554e+00 -6.201911976489640210e-01 1.631632676479174293e+01
-6.238525204456485618e+00 -2.207373065959397529e+00 1.726187465860619241e+01
-2.704660744428264429e+00 6.109481627934830961e+00 1.566686304252028705e+01
-8.505521680588818967e+00 -4.430813236105586306e-01 1.707841731485779135e+01
-5.477308424627471695e+00 6.000561923799015318e+00 1.585721298091590725e+01
-5.122692859576869484e-01 2.800669965278483442e+00 1.817812496506340025e+01
-8.559490220243354486e+00 -2.623996810703166371e-02 1.729640594221823235e+01
-6.822069590336014677e+00 -1.384061786614388501e+00 1.466506636322187163e+01
-6.638401670481310912e-01 2.670698508998299747e+00 1.540185756267444717e+01
-6.335381892265638193e+00 4.854163403347293126e+00 1.497676802283626429e+01
-8.357972034992062760e+00 -1.771618599143170991e-02 1.651834867804459961e+01
-2.241138669555109431e+00 2.962888098251375890e+00 1.354537986472845645e+01
-2.187075716753688948e+00 7.163501389188731139e-02 1.329050260687630569e+01
-7.414753197428145981e+00 -3.846725071470180168e+00 1.926309255705543322e+01
-2.066735512225130744e+00 2.912613839071619637e+00 1.362910071864130046e+01
-5.623257787250476980e+00 -2.500387441879559969e+00 2.059936285643056308e+01
-2.726181527864066201e+00 4.494368238728925768e-01 1.205831553855854921e+01
-2.887276166819248147e+00 -5.974473381282724427e-01 1.648654694760337591e+01
-2.396846103282095353e-01 -9.610166500583969817e-01 1.631022306247165332e+01
-2.845086407979345200e+00 1.725999277532958454e+00 1.219052742928841937e+01
-3.629450621524209275e+00 1.219603827209367886e-01 1.257683104147816877e+01
-2.873207970845286230e-01 -1.252724409267735650e+00 1.630257442464565898e+01
-5.491316802409571096e+00 5.320791976074119134e+00 1.478407131786530115e+01
-8.506402083379651202e+00 3.806400594149449423e-01 1.694149545388605205e+01
-4.635311612302688289e+00 6.984061855144709785e-01 1.173524015989981351e+01
-3.102434553701024722e+00 -1.258693394994303993e+00 1.761930043456894524e+01
-6.456277467840677353e+00 7.360075189331878320e-01 1.948593216666668226e+01
-7.425164101103069569e+00 -3.004660366028650387e+00 1.726742419993474087e+01
-6.381306729832163072e+00 -2.182859746456705441e+00 1.627385107385505236e+01
-3.219394093648736188e+00 -1.156965661213001928e+00 1.749562940992775495e+01
-8.107812703821657863e+00 4.004622833863643594e-01 1.573175819528525565e+01
-7.971348472579807165e+00 3.118601094464712453e-02 1.544035260389373931e+01
-2.296841550047491687e+00 5.995736279989506201e+00 1.630972845788205561e+01
-4.990273554376483567e+00 -1.236710090741963919e+00 1.723921899694359539e+01
-2.321294783042224807e-01 -3.190844218126464238e+00 1.908258938195589494e+01
-4.612670017021986091e+00 -5.584387850559684452e-01 1.610885728460096189e+01
-2.436195605909636352e+00 2.191666038357497626e-01 1.279529728656762089e+01
-8.009482778559306126e+00 -9.807629808798024040e-01 1.589821529215063478e+01
-2.631281480432949849e+00 2.661044313565213981e-01 1.255020558033939082e+01
-6.585173932989895285e+00 -2.440335977867169603e+00 1.682539638607329735e+01
-4.980219026746005029e-02 -5.358597819466540679e-01 1.774645975646419416e+01
-1.031586706935832876e+00 -4.443559808082024887e-01 1.455160626003331359e+01
-7.644391109662112882e+00 8.523689011713759811e-01 1.474630345112217000e+01
-8.167050527948829242e+00 -9.230325887851305033e-01 1.942824898699171499e+01
-1.890180073175576680e+00 3.909983740599805024e+00 1.444968681366738750e+01
-1.264440050695120332e-01 2.211535589478458297e-02 1.933465555581329554e+01
-6.816366857640615784e+00 -1.855005399903336460e+00 1.523350584988723355e+01
-2.015430473452137328e+00 -9.617317465391685971e-01 1.530932255776510331e+01
-4.000026671786370613e+00 -3.665738485276808234e+00 1.945217929656467604e+01
-3.652811501076748790e+00 5.543544103803754730e+00 1.679911999353045005e+01
-2.022002490837403244e+00 7.351969612209456884e-01 1.216769027853777274e+01
-7.244320187664182065e+00 -2.908119019682190665e+00 2.023224243299221214e+01
-7.024305101745173197e+00 -3.118294537137030531e+00 2.028420794393806048e+01
-7.820383755095982048e-01 4.394954602447229242e+00 1.664388121627832717e+01
-3.236802173577977282e+00 -2.357222497164008779e+00 1.856294556793009676e+01
-8.063306406701599371e+00 2.651355510186661490e-01 1.908988696035649113e+01
-2.025859809201540518e+00 -8.275530435423763542e-01 2.053451293622918783e+01
-1.400362290558296863e-01 1.200499336960615615e+00 1.870986582588757940e+01
-3.061271426974062404e+00 -1.774920103748833355e+00 1.813515728562242302e+01
-5.101322244943294670e+00 1.782573809506318829e+00 1.921099596815509258e+01
-2.458317695900739785e+00 2.577600707758723964e+00 1.312935238249420777e+01
-4.868471879377484157e+00 4.412039992342185357e+00 1.389604148656550464e+01
-7.633734353866214128e+00 3.173154199862397995e+00 1.655121755607402534e+01
-3.468568139195562949e+00 5.968676422393021319e+00 1.639162365621217887e+01
-1.242044931391957041e+00 2.905809575524963329e+00 1.441169820128948587e+01
-6.973196244631463259e+00 7.339624076615808290e-02 1.372450529813771780e+01
-3.989023229524287117e+00 4.190114097065511523e-01 1.197787643871754781e+01
-2.790835758620878182e-01 -1.394220329623892640e+00 1.991741113905372984e+01
-6.790035196172386378e+00 -2.797566606088564889e+00 1.747626987653716313e+01
-5.191962310968453842e+00 -1.847922391044401369e+00 1.785101458372490058e+01
-2.086400748664792637e+00 4.346397679096413391e+00 1.783061390347865327e+01
-7.036086835164637066e+00 1.676053292352506219e+00 1.393624343142150579e+01
-3.329537634654843092e+00 4.459449824099446680e+00 1.769945160745824708e+01
-7.780678665138238692e+00 1.589008477168745159e+00 1.503070184342527327e+01
-2.599141617625424505e+00 -2.113414952175285855e+00 1.838735510670489148e+01
-2.071436724189696488e+00 4.027655287401801232e+00 1.808118320354143904e+01
-7.815504594741366162e+00 1.636755287710038198e+00 1.512257640975255057e+01
-6.002236972236948409e-01 3.090487046856455589e+00 1.577303269484543691e+01
-8.142269349819761359e+00 -3.278624379805575639e+00 1.866329019588843252e+01
-6.856653516012237048e+00 7.595350713495672146e-01 1.940080930671835446e+01
-4.317541533540294907e+00 6.394644462252403905e+00 1.587855005599899627e+01
-6.009199567216660931e-02 -5.855421759157786177e-01 1.914781872185328737e+01
-3.273667579925244375e+00 -4.650991199629320727e-01 1.615628131250256061e+01
-4.723552405717566849e+00 5.988455902104450779e+00 1.512922487900661750e+01
-3.874780048632641360e+00 -2.063035760862415469e+00 2.072178458571237414e+01
-7.987992741738121794e+00 -3.054868817236834344e-01 1.942125353375278607e+01
-6.463835981601351754e+00 4.166896383969247886e+00 1.719286849454259070e+01
-6.297697009025832182e-01 1.873930894834332062e+00 1.906679432056258960e+01
-5.424983211758839907e+00 -1.065397163848507689e-01 2.004917268260428997e+01
-4.843290418734663483e+00 -5.136974667060880684e-01 1.411212314259427458e+01
-6.421757299789907947e+00 -2.715496434518570812e+00 2.045865510137265275e+01
-5.047932822513672591e+00 -7.275243122996217782e-01 1.450043159058875020e+01
-7.999577371750270061e+00 -3.471662115076139532e+00 1.883562548232256617e+01
-7.836575209841881495e+00 -3.530971987311734672e+00 1.860684884830057584e+01
-2.044952159871516795e+00 9.473444560377380919e-01 1.216036008685570735e+01
-2.467198243030008786e+00 -7.846157245815486014e-01 1.631098520020314524e+01
-8.542410197697252183e-01 -1.487970635809121145e+00 1.595850000296428917e+01
-5.009565420521560064e+00 5.787750899715018438e-01 1.198819668081531020e+01
-3.213782508139573224e+00 2.340388953071630862e+00 1.250512650576041196e+01
-6.610311185292829350e+00 -5.909799335270083942e-01 1.385532222113639378e+01
-8.359367074174192114e-01 -2.503681037232563522e+00 1.726989451761676619e+01
-6.878459155756541321e+00 3.072034492008959727e+00 1.793096612750474250e+01
-6.394380819881040345e+00 -2.692559915228170286e+00 1.786744406400169183e+01
-1.814698821639678439e+00 1.525979933863909510e+00 1.278650226195770401e+01
-6.884817618491513080e+00 -2.687030351801866779e+00 2.034347631322404837e+01
-3.689113766149573204e-01 -1.847987558254857721e+00 2.012549410389447857e+01
-6.550577108176501184e+00 4.428397192223836321e+00 1.687185237830495410e+01
-1.095314591710097929e+00 2.569333745843041417e+00 1.893300602647692088e+01
-7.060245577403667205e+00 2.694025644821827381e+00 1.814422599501093814e+01
-4.408698946555984488e-01 3.244279987600848791e+00 1.739259675172103314e+01
-7.179765579935465381e-01 2.391946267691684724e+00 1.879131697476899987e+01
-4.558486977957670661e+00 -4.423981619131298615e-01 1.533335267968174165e+01
-5.578881213907364023e-01 3.792444207968689529e+00 1.686062681394770735e+01
-6.651414744315766292e+00 -2.844404796079562647e-01 1.988973289134536415e+01
-6.031933529291062079e+00 -3.950512470727209902e+00 2.003078411596470332e+01
-4.202609098542458455e+00 -3.514687796521737351e+00 1.920449732948246080e+01
-6.637326776162438158e+00 7.333027052170915105e-01 1.945104558606619705e+01
-6.320844033590214295e+00 -8.459730928515178938e-01 1.399186017118043779e+01
-2.826015779104942283e+00 -1.206588116230247865e+00 1.746690873230846464e+01
-5.331108042556992110e+00 6.159158187178529253e+00 1.579493551518902095e+01
-3.000631294370093904e+00 -7.288375904814090589e-01 1.678281647306934232e+01
-7.483294285634523924e+00 -2.276101854058827367e+00 2.011381515804421483e+01
-3.652676483289833520e+00 -9.275694536815337621e-01 1.711890448081016203e+01
-4.636550829802878582e+00 -4.017024653883146001e+00 2.046184132238266429e+01
-5.523479349861113441e+00 5.092455306437900120e+00 1.460039952287122489e+01
-2.647194906546189053e+00 -3.714871438314231611e+00 1.982519297309267969e+01
-2.628847512653502694e+00 4.342780834962265857e+00 1.436508940878872309e+01
-3.527736097722056208e-03 -1.341481034778293502e-01 1.875368875681079217e+01
-3.112162296439497933e+00 5.660036648072473753e+00 1.670365303208371799e+01
-6.029353658279718253e+00 -2.379643992194154123e+00 1.787231805089622227e+01
-2.802917537081601740e-01 2.457476379097363495e+00 1.620366330652952414e+01
-1.907436780281304589e+00 4.684113108408306303e+00 1.751680310773176430e+01
-1.912560734278600516e-01 1.215763225919304524e+00 1.617476309186430328e+01
-8.170032678457198827e+00 6.258107380849768919e-01 1.594164124458177056e+01
-7.940204732663161735e+00 -2.147638319720034161e+00 1.651540707633634852e+01
-7.775567846834182895e+00 -2.558611131144919781e+00 1.671361874653385016e+01
-4.358958463821823059e+00 6.515160903743359988e+00 1.569905548336032197e+01
-5.819153086703148681e+00 -3.875737632473632566e+00 1.982311647696324641e+01
-5.814372965128230319e+00 -3.826652692103428066e+00 1.964728956006547023e+01
-4.012235041127564017e+00 -5.294479140309785725e-01 1.571778404772868853e+01
-4.288449486490829576e-01 3.078550834557599369e+00 1.763584025619607232e+01
-5.055407353082381761e+00 5.109836205679331833e+00 1.697042368770014420e+01
-5.581864275574244694e+00 4.195031062210420103e+00 1.389776499698376355e+01
-8.186776527489369570e+00 2.123514052896656068e+00 1.634128458990629085e+01
-2.128088815309855941e-01 -8.217263709439202035e-01 1.975298462214982820e+01
-3.880672715741552814e+00 2.778327160934366269e+00 1.881128911406954174e+01
-1.451929107108027805e+00 -1.105399713425575747e+00 1.534917331812203756e+01
-6.824069330854537263e+00 -2.177529023668586916e+00 1.568378444648231707e+01
-4.909099837895054996e+00 5.256233400402276601e+00 1.688043295194263393e+01
-2.831339715197765283e+00 1.520168607822859785e+00 1.200156244875780587e+01
-6.245338384206007731e+00 1.145821593554290363e+00 1.931069410881334036e+01
-6.399273839299771893e+00 -3.745893804379297976e+00 2.032175587750894508e+01
-2.483236914454160615e+00 4.848262396321556977e+00 1.744855467594227250e+01
-2.084038362633310326e-01 6.571297372827760164e-01 1.558306741137508666e+01
-6.935741594008711708e+00 4.461481753983096432e+00 1.599781368322454611e+01
-6.862761301074899123e+00 4.471878279048808746e-01 1.353310392593561673e+01
-6.006876026639653254e+00 -5.788083035388975617e-01 1.367340210055354888e+01
-6.380978149935678800e+00 -3.661495648102456535e+00 2.037382841175447012e+01
-2.379181910711292147e+00 -6.643305878104737161e-01 1.511807151863169096e+01
-7.603015535749961806e+00 -3.231997733867251199e+00 1.782559179733423704e+01
-3.369326676415558275e-01 2.040118277346198550e+00 1.858227034684823664e+01
-1.277838121387077530e+00 -2.645800829290121836e+00 1.763797309539230795e+01
-1.681307946730511427e+00 -1.858743281876307218e-01 1.383582091038618600e+01
-6.025767376868220282e+00 -2.492243919773482475e+00 1.801203625445819156e+01
-7.855295420760993963e+00 2.238597078540186747e+00 1.534298708890792895e+01
-1.399381358981222068e-02 -4.113579159875028202e-01 1.832005330668501486e+01
-2.155007292704872235e+00 5.978424927003914924e+00 1.629593332840824260e+01
-6.241168263263554117e+00 -2.663746781276048026e+00 2.049532417105150373e+01
-5.018609139477483438e+00 2.975451600702364030e-01 1.232227600366134013e+01
-6.912295841326082879e+00 1.417082743707803516e+00 1.903987709732313149e+01
-6.841339421812898003e+00 1.666778771320326147e+00 1.891058237405411901e+01
-2.827540869445726912e+00 4.500375268403694617e-02 2.022909468377234177e+01
-1.669530862233044255e+00 1.800679602079484853e+00 1.951097624544203413e+01
-5.202818229774911707e+00 6.796036929030074836e-02 1.270219360581530665e+01
-5.239437210958747926e+00 2.406213001105646232e-01 1.248312786818103959e+01
-2.421591207721282668e+00 1.623364144217814831e-01 2.021746847833398775e+01
-4.192171612254270485e+00 -3.010361083103213264e+00 1.881378473986685762e+01
-1.217906349522850151e+00 -2.191771594765748787e+00 1.688344894771472937e+01
-8.211675725617763044e-01 -2.202830405269661451e+00 1.686116265073070863e+01
-8.214517421007528242e+00 1.202571388565673693e+00 1.594255902383059365e+01
-3.574660654466525478e-01 -1.176217315664083163e+00 1.608178591778029798e+01
-8.710782366020450862e-01 1.991467216599332124e+00 1.917445345223104525e+01
-4.059494566124201675e+00 -2.874176892027837660e+00 2.082830058555982689e+01
-6.754409283882847781e+00 -1.323285186531926616e+00 1.456360158853871312e+01
-1.670429663495704542e+00 -3.799689011700058128e-02 2.033128638926725884e+01
-4.250960442490979041e+00 -3.169422876248833898e+00 1.890898064357469721e+01
-7.707076942145338450e+00 3.133764045148009991e+00 1.556255853199177963e+01
-2.839913982291824901e+00 -1.420410562663567022e+00 1.772249805873181216e+01
-8.564868466003412451e+00 -6.620259940660271347e-01 1.850247600234140677e+01
-3.489983847172837716e+00 2.875190189758702441e+00 1.286448144361998303e+01
-4.221074043682764731e+00 -2.678336480271158448e-01 1.412394414586931291e+01
-6.392299016367806175e-01 3.468818990857173823e+00 1.763674428928402094e+01
-2.039519869202638169e+00 3.110437775084983425e+00 1.379143952920836469e+01
-6.039153249739242391e+00 -1.808286134089823527e+00 1.626694962112647502e+01
-6.156800414514814079e+00 5.491951964724123947e+00 1.542410200086331074e+01
-7.412458481559300871e+00 -7.749058610318337870e-01 1.487909974383929423e+01
-4.978918193322626529e+00 -1.623015010459318397e+00 1.770573130677400187e+01
-4.034328137679015214e+00 -9.797976982293021830e-01 1.714104232385973958e+01
-5.830753705007259313e+00 -9.955206982371049840e-01 1.429280122201627634e+01
-7.308365632004950596e-01 -1.435283104483624506e-01 1.464628851047929103e+01
-3.846684793188685614e+00 8.967125171082777069e-01 1.129959043248907236e+01
-5.451912406194425742e+00 3.936077468891927555e+00 1.774084763376392360e+01
-2.657775694328612826e+00 -8.135043768667271635e-01 2.047104506769673904e+01
-6.727208727663080978e+00 1.397091246897544936e-01 1.339190353678120360e+01
-4.231631687999736435e+00 -3.293143080961482561e+00 1.899952252297172706e+01
-3.584178282329963938e+00 -3.290855928017816234e-01 1.474394065127026821e+01
-3.431117270450352308e+00 9.818527402287958727e-01 1.113580706131348208e+01
-3.966777185593871380e+00 8.069590116982039429e-01 1.143953415438179988e+01
-7.617838969167819663e+00 2.632487152213040638e+00 1.497815399351450694e+01
-3.627374712431830517e+00 7.987834985487477502e-01 1.137888490281486398e+01
-6.514846894877249106e+00 4.648047735293839189e+00 1.499315839585618804e+01
-3.562333619828166764e+00 -2.298362156226902986e-01 1.433812523724911969e+01
-3.230772468912906703e+00 -3.668208502125637871e+00 2.069183899298510099e+01
-7.087847931107632782e+00 2.393477073857969706e-01 1.386408614081365087e+01
-5.886043443460715174e+00 3.382588436363819451e+00 1.803068478280080811e+01
-2.686610471267008915e+00 4.835313725223260306e+00 1.745497283253597587e+01
-8.007456850750498845e+00 2.046824930341242244e+00 1.558772862208435228e+01
-2.694042153245403970e+00 -1.218446077485880741e+00 1.743007871449024648e+01
-4.882287047360318155e+00 -3.322895914378512838e+00 2.074677708291121192e+01
-1.019772836521507076e+00 -3.033872829899081580e+00 2.063612637146735196e+01
-7.539115252168509862e+00 -1.476473780196494667e+00 1.997535885506621511e+01
-9.623837902903238373e-01 3.215838866796282502e+00 1.507214195879516083e+01
-4.648534770268695659e+00 -8.494718087135129103e-01 1.686603663783153095e+01
-2.290907969517253839e+00 3.622861493705218372e+00 1.841864774474516153e+01
-5.895051088607858425e+00 -1.589830361783784118e+00 2.038243332284887899e+01
-2.218938625930283237e+00 -5.833823800126159975e-01 1.468112847070509375e+01
-7.379102931655523889e+00 -2.401309070296544945e+00 1.608300939918674644e+01
-7.863582464109798664e+00 -1.074377871884839131e+00 1.972677509874593582e+01
-1.473309023764930892e+00 3.310320420496819072e+00 1.440475132541627445e+01
-8.334455422247650347e+00 -1.189660505491718867e+00 1.673153032411434893e+01
-4.038067332785729491e+00 -2.252797817822556947e+00 2.075085477661125921e+01
-3.846577843986722645e+00 1.113765973509541207e-01 1.256292192237930649e+01
-3.297941359752871726e+00 4.325616984252757646e+00 1.415691946309528859e+01
-8.347026958622286941e+00 1.546693321106523689e+00 1.653249712558250550e+01
-8.558631942704428841e-01 4.364766822054872986e-01 2.003486810019629516e+01
-8.292115418610993771e+00 1.778256030976054669e+00 1.651173893289380246e+01
-8.277197393859857755e+00 1.800386707955765608e+00 1.636538150319143980e+01
-5.844787346212854118e+00 -1.790513966202530449e-01 2.000634269028730827e+01
-1.826747836133443714e+00 8.038204865568115975e-02 1.334817373517765660e+01
-1.676126216889457510e+00 -2.232779707316244089e+00 1.748550237249295591e+01
-8.250989802437144860e+00 -2.784787307165021986e-01 1.913206084128733764e+01
-2.238178478071028099e+00 -1.397320598110270984e+00 1.731427646739472337e+01
-1.854884216810582798e+00 3.657944656246795434e-01 2.017328592449159075e+01
-6.414156786658358200e+00 4.942381773666089551e+00 1.638011485233321096e+01
-5.267859846460628326e+00 2.167521700019340969e+00 1.897904470603539195e+01
-3.896808497991507636e+00 5.087536822282286764e+00 1.460576923345143641e+01
-2.423243186300536145e+00 -3.653560741050128513e+00 2.067916511427306503e+01
-8.089504344839255623e+00 1.100484457690358853e-01 1.914754257905643797e+01
-5.868133974243998630e+00 -1.762452538716968498e+00 1.710886573288418688e+01
-1.492286377706393274e+00 2.090039673513776064e-01 2.023353274328242080e+01
-7.239680207811717949e+00 4.192023241034043224e+00 1.563574558282499183e+01
-2.210450024437526029e+00 -3.619460760890165218e+00 2.069320087585952095e+01
-4.701244443157676756e+00 5.430576875822501037e+00 1.472513164228852744e+01
-7.198865699525505590e+00 -1.761911748136801403e+00 1.529921698786658979e+01
-2.284996516606025985e+00 6.103895636650318757e+00 1.585787029789692681e+01
-5.089126510259206704e+00 2.124445265908905256e-01 1.245928992489591636e+01
-3.851875939610948318e+00 1.878171132432549628e+00 1.929285940978976654e+01
-8.570906166393466918e+00 -8.789990702413708057e-02 1.808180829777131393e+01
-4.651048718905776980e+00 2.889565273555471769e+00 1.260850621215793765e+01
-1.007600689164206420e+00 -8.998523749872946453e-01 1.511223683370095827e+01
-3.053682043583941130e+00 -3.718052656405777867e+00 1.979184596840267929e+01
-6.866236319593716608e+00 2.168523247113010477e+00 1.859084943820789348e+01
-7.962034261215945818e+00 -3.001429851784267910e+00 1.767273610112499327e+01
-4.388341635399741314e+00 -4.056526851325545913e+00 2.026658162864790214e+01
-2.701909026302680594e+00 4.254767777040179055e+00 1.427126180594437344e+01
-6.169346737285982485e+00 2.598995767265284140e+00 1.324849171776023482e+01
-2.051347537149039280e+00 1.204900367610704848e+00 1.980682874698358731e+01
-2.201972205449681308e+00 -1.969691781507041828e+00 1.809291679175253975e+01
-1.358533917912990718e-01 1.355856385790392249e+00 1.646112515152931977e+01
-4.196491835821442251e+00 2.459147334749550995e-01 1.225309810396472798e+01
-2.411813448163122597e+00 -1.486044884495409946e-01 1.377608312941445590e+01
-5.400447201722409218e+00 1.884805181844498856e-01 1.262296855969301745e+01
-3.820898060576028321e+00 -5.408838938961960663e-01 1.568883786523058532e+01
-4.620836220278762063e+00 1.026942187150959307e-01 1.252373766271969302e+01
-2.151303120746733022e+00 3.025037126113943486e+00 1.365199935597693681e+01
-6.870320850086969244e+00 5.409924657297375816e-01 1.951347499045120415e+01
-8.013638905342598262e-01 -2.872868603502439999e+00 1.795350534277287480e+01
-5.576451888392487177e+00 1.332347001989163449e+00 1.203533579874371284e+01
-7.313717799909509765e+00 2.785048248104634805e+00 1.782723510742857442e+01
-2.403469378376623666e+00 -3.836089721223991944e+00 2.044958432922547686e+01
-1.884300475352245652e+00 4.909485384678752062e+00 1.730592814835267390e+01
-6.402036898106646667e+00 -1.686696225703719687e+00 2.031317416938215459e+01
-1.700404600603862004e+00 3.630664311802163535e+00 1.836535177625746584e+01
-2.221902985659134355e+00 -3.842468524196849700e+00 2.026364410054080523e+01
-6.676900824036358983e+00 2.707564360857644958e-01 1.327912960613607751e+01
-1.395867303367582357e+00 -1.352847473238192544e+00 1.572797223951011958e+01
-2.867414711817534156e-01 1.610382382797147960e+00 1.880074159339735829e+01
-2.059008694613995161e-01 1.421780893638697973e+00 1.875740600631963773e+01
-3.227281315386518301e+00 -3.188204847813226106e+00 1.910931866439879556e+01
-1.048806333522483980e+00 -4.124332176523282101e-01 2.042099956118385862e+01
-3.717511473824615553e+00 1.258830309939332537e+00 1.961947319038008075e+01
-3.865795377502759145e+00 -1.551088385423222693e+00 1.784415710864413640e+01
-2.135114657106443659e+00 3.735372484950275851e+00 1.832823487977394095e+01
-5.878482891921737341e+00 2.949284379180579396e+00 1.834458872339576985e+01
-1.036080432818890396e+00 -2.586361131682900494e-01 1.435336561604814065e+01
-5.463988817982913027e+00 -1.085401715267458878e+00 2.032793074318769655e+01
-8.268606497395136756e-01 -6.479817409868531275e-01 1.496998893826137689e+01
-5.042066523760182939e+00 -1.661017643626257367e+00 2.052786024208687010e+01
-4.455348415344267288e+00 1.779410987484667306e+00 1.172491850447233830e+01
-8.171218458419543751e+00 3.554905147942133414e-02 1.590168382933672930e+01
-2.673441356018828152e+00 4.036282838368999037e+00 1.410364477670839634e+01
-7.726568118496570214e+00 -7.370275302450359778e-01 1.536140839821005599e+01
-1.884786551196888205e+00 -1.395295425842891346e+00 1.611123567432975179e+01
-2.136420663978510603e+00 2.655619272454827762e-01 1.285031340944854961e+01
-6.756268355719107888e+00 4.769898917175769415e-01 1.334555072950398724e+01
-7.448019227647089124e+00 3.810868995315439101e+00 1.541158802336306977e+01
-6.456782059884131897e+00 2.605347190768492194e+00 1.841979952085107541e+01
-1.554886422478288788e+00 4.402718708500053424e+00 1.510843306172554534e+01
-1.206101515097360855e+00 -5.195268032084169318e-01 1.450679322320680953e+01
-2.001959145290059805e+00 -6.803628573250588563e-01 1.474289551407540344e+01
-2.617191433599644679e+00 -4.681527577052330136e-01 1.512196601761634085e+01
-2.585835992334746258e+00 -3.355664561870806750e+00 1.934938654238928635e+01
-1.703923034234998690e-01 2.452652460766205245e+00 1.658547947265688904e+01
-3.830560334121485777e+00 7.119176714832693431e-01 1.153542684326979995e+01
-3.015862721652075695e+00 -1.871798746008922487e-01 1.473465847439215892e+01
-5.821360969670750229e+00 8.747124103944576845e-01 1.235651149008140592e+01
-3.031067712640781675e+00 -1.328089865707097195e-01 1.433347827734825231e+01
-7.497699267521449329e+00 3.190814732163609335e+00 1.698910361995098484e+01
-2.743000529186748193e-01 -2.972946590936037303e+00 1.867508416861473464e+01
-7.795159424621600053e+00 -3.480469660698858547e+00 1.961764416173769732e+01
-5.846817614948912833e+00 5.785521601499114652e+00 1.581570165933842631e+01
-8.287064019905310275e+00 7.306149624437310308e-01 1.831804618840819998e+01
-7.608713309923921031e+00 -1.916652118089156254e+00 2.001681749987499259e+01
-1.365848974675747396e+00 3.299311120863037683e+00 1.451195132878817518e+01
-4.501906315391811297e+00 5.836605897414738564e+00 1.642549031871462617e+01
-2.540812496665524556e+00 4.386277006384526445e+00 1.781119387611238736e+01
-3.074873453659692224e-01 3.075032627802285479e+00 1.703046564261567752e+01
-4.434988432217412679e+00 -2.099694165415465275e+00 1.818669269687011436e+01
-7.642500735027100589e+00 -1.196366429164055889e+00 1.547931262795716023e+01
-4.508335213340706638e+00 5.592918542441100094e+00 1.666354436054416865e+01
-4.536276107456380657e-01 -1.228574120580619988e+00 2.030921777526298300e+01
-7.147619933449209206e+00 3.449665027234376957e+00 1.725599810416569468e+01
-4.060040984942077991e+00 9.278218833840249369e-01 1.975613903570149077e+01
-7.447491965220366383e-01 3.478640593761785027e+00 1.565659879307951385e+01
-3.654317863712866377e+00 2.126435430721477782e-01 1.235060416452786214e+01
-7.038460653643629605e+00 -8.920134777928807601e-01 1.999013070394828517e+01
-7.563059141013011910e+00 -3.786224072963976894e+00 1.908197174797433249e+01
-1.028134616167747373e-01 -3.908694777076291427e-01 1.935361363198898133e+01
-1.326670031142659134e+00 -2.084929500610691377e+00 1.677506777902840085e+01
-2.398537710714568671e+00 -2.790510279698905194e+00 1.892840275557309226e+01
-4.813397853788499603e+00 -2.028212315853167302e-02 1.275769564813525747e+01
-1.016316170372522087e+00 -3.407021052086060653e+00 2.052555092302467799e+01
-7.669106080730690778e+00 2.125576555288657410e-01 1.486942240763847067e+01
-7.159728184763423542e+00 6.570920142706552225e-01 1.400401897903129012e+01
-4.335732180787420731e+00 6.207682735822390718e+00 1.607212257937669264e+01
-6.000068382842640879e+00 3.468305577229375825e+00 1.364026692672900154e+01
-6.028197336534571349e+00 -3.940271067907511693e+00 1.981602214310538912e+01
-2.680359108906844590e-01 -1.726696358734976400e+00 1.693960942351844423e+01
-3.551417693379733120e-01 -1.980240092335395552e+00 1.709348067279696792e+01
-5.062859219490602136e+00 3.645724079315419086e+00 1.324151694248513778e+01
-7.963145805202092475e+00 7.879230825673370076e-01 1.540208337097545055e+01
-4.650209895009238537e+00 -4.877920687099335240e-01 1.551625625328088987e+01
-3.104536557385481732e+00 4.429584100935185731e+00 1.429271882286895945e+01
-8.091876840329627285e+00 -2.493450154733944935e+00 1.719200969219560804e+01
-4.455328572266687992e-01 1.495137090882653341e+00 1.536962280962621819e+01
-6.254379258063639035e+00 4.005839507762800622e+00 1.743307544659126407e+01
-8.018897791822688248e+00 1.116764164993504505e+00 1.853792930843774300e+01
-3.441450952777281636e+00 2.067748779076454824e+00 1.923938529776897255e+01
-1.618875764039032994e+00 -4.844232779481906226e-01 1.432976872092443088e+01
-3.039927009734673558e+00 -3.378702033577249964e-01 1.573400132060137580e+01
-6.062557816727581761e-01 -9.344235303351606792e-01 1.553653113203268177e+01
-7.161044749779100771e-01 -1.768623837180840486e-01 2.025667031048845601e+01
-4.848481518632785647e-01 -3.904836215570069990e-01 2.014502763672884456e+01
-5.053125410148792795e+00 -6.398224677496979762e-01 2.027323569107788259e+01
-2.465426864173370092e+00 5.886155021830903777e+00 1.561701675907387354e+01
-6.071928811141248161e+00 1.144311558805649609e+00 1.935297927094613257e+01
-2.968764015216701413e+00 -3.018687028288030705e-01 1.552600281304274077e+01
-1.191104941447716836e+00 -1.084926906808744818e+00 1.531246057150488227e+01
-1.789365220330593642e+00 3.500218681274250621e+00 1.849383630474342155e+01
-3.844006396679373161e+00 -1.812872438164231603e+00 1.806213466640405940e+01
-3.039569445664169756e+00 -3.718331365073919148e-01 1.590729898039615264e+01
-4.917331319250487498e-01 -7.345371365217945314e-02 1.497700343530296507e+01
-3.011680337364858406e+00 -3.399788104186189930e+00 2.076724937802868354e+01
-8.390507736373557179e+00 1.370753366426489706e+00 1.676311111171865420e+01
-4.481660427950517445e+00 4.994299793294455725e+00 1.719779691105708608e+01
-7.090767573571047144e+00 2.556592438842101522e+00 1.823132584264021361e+01
-1.818283188196429201e+00 6.577884255994119744e-01 2.005139892838404947e+01
-6.230940955822608096e+00 -3.971970791450786464e+00 2.007325128197889441e+01
-6.518838822322711835e+00 5.077531102962671739e+00 1.542360568810795840e+01
-5.034951983611387405e+00 -9.442702819781165768e-01 1.673594722336926921e+01
-3.935616146677107352e+00 6.044687804845233714e+00 1.628133131559704694e+01
-2.271266748916780376e+00 3.472399585680434164e+00 1.387916811386258686e+01
-7.448156068896961024e+00 3.604633985318987932e+00 1.519446007202545346e+01
-5.246477587042961410e+00 -1.052419570448549280e+00 1.668050790167896125e+01
-4.613769765503286102e-01 -1.511153607354222661e+00 1.630210735485228568e+01
-8.575773392732733313e+00 -8.516233272389372999e-01 1.845401802693818283e+01
-2.521359671597996233e+00 2.250736180706213840e+00 1.927529953036796329e+01
-4.947790548242641862e+00 -8.414013789592591497e-01 1.662124770780954108e+01
-6.092453121149039141e+00 -7.772547646874305993e-02 1.992397083700527460e+01
-7.468357406344842353e+00 9.550642423357235122e-01 1.913535639048755499e+01
-6.052879913625416997e+00 3.196127347572799149e-01 1.976998721141435666e+01
-8.525712902756222178e+00 1.276790684405398890e-01 1.809316580613147707e+01
-6.672230465441765901e+00 -2.266064090932816466e+00 2.036217606243610945e+01
-8.359025376409091379e+00 -1.642970204859591110e+00 1.709883609640915481e+01
-6.679719895705205523e+00 2.888686387304053027e-01 1.966518023768062662e+01
-3.619142827756837821e+00 -3.485534883811980400e-02 1.314015728151423090e+01
-8.597193532192228815e+00 -1.471385170369832851e+00 1.809353635700096774e+01
-8.057586467050652956e+00 -2.083203071302359266e+00 1.967512507126913235e+01
-6.827523262847401853e+00 -5.001207336368717060e-01 1.992545344961326137e+01
-7.628631029834995303e+00 5.433656760326093238e-01 1.928626925525562896e+01
-3.680918860864785813e-01 -5.307814675662229087e-01 1.552446300901698706e+01
-9.365685392300444612e-01 2.278930424275130928e+00 1.461474456877975214e+01
-3.860982081846665359e+00 -3.564836677139362031e+00 1.933023802330864171e+01
-1.024262975039795132e+00 -3.276396929966574945e+00 1.902647544379685129e+01
-8.427804634096055736e+00 3.252860537799170393e-01 1.832790928186313195e+01
-1.288240553407576927e-01 -1.326368682048844061e-01 1.653433111019724677e+01
-2.688811090879255072e+00 4.034095555856231030e+00 1.807780261287684098e+01
-2.690051802802266856e-01 -6.956441788250136149e-01 1.588930753602990009e+01
-6.383134187213737043e+00 -1.623534906912459608e+00 1.505885881983931895e+01
-3.396867625018813008e+00 -1.333038214638397667e+00 1.770569454031058498e+01
-1.809253608305150252e+00 -3.228956024976964212e+00 1.922618682648279176e+01
-8.473538993925592067e+00 3.310628381556475763e-01 1.811171288776153077e+01
-8.171124679805195967e+00 -1.824099607529414691e+00 1.668667728875567136e+01
-7.924940447034489743e-01 -1.813556609410970299e+00 2.064624449587111243e+01
-4.075920551575684669e+00 2.779948198009635441e+00 1.878636820463270496e+01
-6.865392879250340030e+00 2.051447317379413882e+00 1.866935182487563694e+01
-1.828685736676161300e+00 -3.464970902449893586e+00 2.071816538403933450e+01
-2.027286366165649056e+00 -3.436252272665804242e+00 2.074455687130204140e+01
-3.029877463063801901e+00 -2.445564063663671739e+00 2.077072697649000688e+01
-3.663960288004565857e+00 -3.759725504052409129e+00 1.970464232992772580e+01
-3.210469828941377113e+00 -1.819249193818776034e-01 1.453010635481927793e+01
-7.456167173421735406e+00 -1.441052557590094541e-01 1.965401252509663621e+01
-3.240992145974218364e+00 -4.071455669900843066e-01 1.592110612095846633e+01
-2.604161265450023244e+00 -9.189157978019659723e-01 1.692697170204147383e+01
-8.567202612141961993e+00 -1.484006608076949618e+00 1.845651836227881759e+01
-9.485444440468975280e-01 4.478936409110035655e+00 1.586499278895233189e+01
-1.413657837111103488e+00 -2.884261698887546022e+00 2.076738697607330764e+01
-1.866999966512416620e+00 3.505041984431586322e+00 1.419164274607959086e+01
-8.144901803478838964e-01 -1.742334422846067543e+00 1.630003666725146516e+01
-3.068187983002587660e-02 -1.182973167394556935e+00 1.834418477128005875e+01
-4.480691707839458360e+00 6.215778336823515104e+00 1.604415246619047153e+01
-7.846045301152660301e+00 -2.407556690177937053e+00 1.664780543970834614e+01
-8.025488668131661285e+00 2.598547734475608273e+00 1.635284306090286677e+01
-7.823367755588558126e+00 1.691186972732396265e+00 1.830951575633708117e+01
-6.430040036259381253e+00 -1.911831262930063779e+00 1.552608403265884007e+01
-1.658338942804710170e-01 -8.123264666810996459e-01 1.957794164719586760e+01
-8.113341020905826539e-01 4.868306660144786635e-01 1.414746565707654824e+01
-6.073864867288357061e+00 7.269357255895720904e-01 1.957304531285489801e+01
-4.894824769585887303e+00 -8.933359971197909477e-01 1.679526092721714647e+01
-4.109971407209551231e+00 1.204218701573580352e+00 1.961364412445828620e+01
-2.812131239283295336e+00 -4.940099661957604305e-01 1.616630415352242878e+01
-5.250888223764656360e+00 -9.493084984187725173e-01 1.507335663968045836e+01
-6.873857588179159706e+00 -2.772494913299607955e+00 1.728308044002922017e+01
-4.643212084349104707e+00 -2.298450364830589621e+00 2.071538952670532652e+01
-5.053178659643661419e+00 -1.177180666453260027e+00 1.711063453835486214e+01
-7.992165734171594593e+00 1.019331307126988051e+00 1.553700208032481456e+01
-6.411460772965166477e+00 4.935817831909183440e+00 1.511434594545101007e+01
-3.202868720886442588e+00 -3.324572638849812467e+00 1.922315554154248574e+01
-5.455469471366409806e+00 -1.106734763559789059e+00 1.531717651662380675e+01
-5.572960609467655146e+00 -1.189417254841157900e+00 1.514952102162941472e+01
-3.319888461961308490e+00 3.672247701811232279e+00 1.827460214484660028e+01
-2.707033172922106878e+00 -3.909990527890231382e-01 1.509413335272881440e+01
-4.835001316092439438e+00 -3.412061927336017320e+00 1.911106723579952771e+01
-3.823148967107105722e+00 5.598275976498905404e-01 1.175093569202357813e+01
-2.422450603884930054e+00 1.279290821327429661e+00 1.202241030144469036e+01
-3.454708693119939333e+00 6.925656622842235599e-01 1.152246359404999154e+01
-3.054816762080734271e+00 5.804650290267990842e-01 2.000479677968042225e+01
-3.855011973383837276e+00 -1.877652137287821432e+00 2.068576586753644264e+01
-4.404842663594537022e+00 -3.823023891942281871e+00 1.964513768764247814e+01
-2.297063677656956848e+00 2.631911462199782115e+00 1.909344693579365426e+01
-8.282582545705176713e+00 -1.095210650349436765e+00 1.931726014866405094e+01
-1.896692864544743395e-01 2.051229414197922374e+00 1.820536837270028840e+01
-4.639754400645011323e+00 -3.773121116907327988e+00 1.952820726086748593e+01
-1.625552985949453522e+00 -3.558917517344861725e+00 1.967363288183638659e+01
-4.418258015063107891e+00 -3.723438106592941388e+00 1.946613703905272885e+01
-7.039946019205957306e+00 -1.677840150925505869e-01 1.391479760321717052e+01
-8.536222428755442238e-01 3.867493331132795920e+00 1.565337857183422088e+01
-1.574073569055636890e+00 -1.056256212696615737e+00 2.062284081554137671e+01
-8.448973783179166475e+00 9.305896856965462094e-01 1.732566227501369482e+01
-1.059288179083732295e+00 3.030848351704869437e+00 1.859101620328206295e+01
-3.133469553352316028e-01 2.664235652904346718e+00 1.623519913869051479e+01
-6.468496322851075675e+00 4.558249236679331240e+00 1.680078435620757560e+01
-8.161218357274876212e+00 -2.693857427412556849e+00 1.941752224407801108e+01
-1.822136817851300661e+00 -1.347718646152003208e+00 1.591877897950298504e+01
-2.243369992240973332e+00 -2.852983975323245769e+00 2.081245602098782044e+01
