-4.235953318882077490e+00 -4.689740620870929355e+00 1.638883915566124116e+01
-9.377860231678294411e-01 3.777525977181521444e-02 1.797367804800414959e+01
-1.040382392335511552e+00 -4.874904844552870209e+00 1.737537621608899130e+01
-3.156440572201794303e+00 4.150842017714118093e+00 1.568207505479550079e+01
-8.525135717265751367e+00 1.235131423841452580e+00 1.688124482846440699e+01
-1.960997158705141352e+00 -2.408354442284764030e+00 1.878012833555871808e+01
-4.629605254003647197e+00 -3.400228966007321496e+00 1.824857672463952341e+01
-1.196466451899686811e+00 -5.007623876195892443e+00 1.757220402839748985e+01
-4.697810227905563352e-01 3.500396872522123504e-01 1.491985420779203153e+01
-9.655319903640113832e-01 1.021385839068425616e+00 1.341877873960998713e+01
-9.120886089761505389e+00 7.157258319412678205e-01 1.527785855302095896e+01
-1.405489062811429601e+00 -1.139258976970777715e+00 1.419735689081719343e+01
-2.929115442767888489e+00 -3.829919257887063333e-01 1.436852616341387900e+01
-3.525101046082208089e+00 -4.113971816835593209e+00 1.630329832240742505e+01
-1.025336081200875604e+00 -4.711667648868164804e+00 1.701329303335152687e+01
-1.123089478573492173e+00 5.624360101134893153e-01 1.352193472192407242e+01
-8.874233739846200564e+00 1.749956223082244078e+00 1.530018828166017997e+01
-8.328430548364348596e+00 3.045583550824419561e+00 1.605182917098830941e+01
-2.051769784860765888e+00 3.792375068206457644e+00 1.709687289815270717e+01
-1.065974253583720888e+00 -8.000384124756866333e-01 1.847887344607608284e+01
-6.783275033407011101e+00 -4.658821255205138456e+00 1.597873069789719480e+01
-7.913428094210583907e+00 3.080640916942706031e+00 1.523956716566732084e+01
-7.008264682121384759e+00 -7.621555832640937167e-01 1.784024557363948915e+01
-8.816072169156178973e+00 1.956010674297382401e+00 1.532865287549584465e+01
-3.388146289647296250e+00 2.883934032579141826e-01 1.361967624230589635e+01
-4.976742823704107366e+00 -1.045930931044639856e+00 1.463848215302858691e+01
-1.707059565018924419e+00 -3.040432486963127179e+00 1.872955499617372155e+01
-7.007329232142073927e+00 6.323655927653181186e-01 1.773373686742335664e+01
-8.853883050323190673e+00 1.820378022090928471e+00 1.510029257465759756e+01
-3.201162805513291687e+00 8.181121559075625882e-01 1.866728605329823054e+01
-7.516627519877053132e+00 4.415753954190442698e+00 1.677169391316479263e+01
-6.214372808864633058e+00 -3.969225412380404272e+00 1.783399557232619159e+01
-6.598538677910163130e+00 -3.516910177297244644e+00 1.533409631522123462e+01
-6.777168509952938180e+00 -3.673840466683301109e+00 1.531933144292959881e+01
-8.773856934809701746e-01 2.296938068401144228e-01 1.772772310697944320e+01
-7.377306663589541458e+00 -2.393522875610333500e+00 1.764807244370730288e+01
-9.329383891741542811e+00 -1.053056094756980698e+00 1.540452442853930748e+01
-4.619449009035968778e+00 1.817936503499875789e+00 1.831752617123039428e+01
-6.686315669119118343e-01 6.713336858712172228e-01 1.637487623784956625e+01
-1.603894530043249222e+00 -3.373279814131920684e+00 1.866988253626606209e+01
-4.370332271315280792e+00 -5.720110932701207851e-01 1.430296906874638196e+01
-5.698369876791294253e+00 -8.761694882971757803e-01 1.406529448119081493e+01
-1.581614716816153399e+00 -4.975464654794440555e+00 1.813936264867091452e+01
-6.482119532463219258e+00 -3.641876103175690105e+00 1.544538725878583918e+01
-6.831245777149846710e+00 -2.560048929859386480e+00 1.418672192841870228e+01
-4.765084220198309239e+00 3.723102693543181019e+00 1.387941245351408170e+01
-6.405464877373272081e+00 -2.171124409560325486e+00 1.799306386216084164e+01
-4.599026053253274959e+00 4.727037954597421709e+00 1.586421356873517752e+01
-6.727141719170575129e-01 -2.785014610688992587e+00 1.805965459202733214e+01
-8.533051356941872001e+00 -3.234084182445936761e+00 1.439073921218807683e+01
-3.233887748085509273e+00 4.468360859202798352e+00 1.628011830222810730e+01
-1.332856106556185471e+00 2.468062992413603940e+00 1.733931425857741360e+01
-1.821530866897671519e+00 -1.809499998209828098e+00 1.889863159389384251e+01
-6.989389583063053912e+00 6.562605692474855479e-01 1.209238490708974822e+01
-5.422259972894649671e+00 -4.191423171771035072e+00 1.797214795119015562e+01
-3.644930768248929809e+00 -5.041606697547558191e+00 1.680021642625260725e+01
-6.549781366469346722e+00 1.052267413696282572e-02 1.222851825699870076e+01
-2.458650513442660390e+00 4.609668310438994610e+00 1.791231786291912087e+01
-7.866911713854103816e+00 4.238703727077901551e-01 1.277469082930688060e+01
-9.666960926717320657e-01 -1.439431051915781801e+00 1.449557805384033671e+01
-3.056402630248405305e+00 -3.371122586217094153e+00 1.838288709396937648e+01
-2.098690676645862840e+00 -1.727573477714393901e-01 1.362436883787820463e+01
-7.554762048152755760e+00 -2.196805304685858218e+00 1.323424848619008642e+01
-2.231101393867391369e+00 9.823707947926344497e-01 1.878606959343668947e+01
-4.371496459588303796e-01 -3.078363597367722804e+00 1.606329638959890715e+01
-2.002786985297729139e+00 -4.976372148468018786e+00 1.819032735080822860e+01
-1.757471392491433360e+00 2.003964849783118840e+00 1.341959139962535019e+01
-9.148168715558465891e+00 -2.652518584572202354e+00 1.613038281585246025e+01
-1.398733476922250363e+00 -1.987263622518654405e+00 1.891946468829178585e+01
-7.635889364784089750e+00 3.275723794721119297e+00 1.704316249058883770e+01
-3.336433774533425378e+00 2.264319551165666855e+00 1.159940627923927892e+01
-4.563142858438447025e-01 1.772075028374874295e-01 1.474100842864164562e+01
-9.108277817765330298e+00 -2.857081697027390899e+00 1.577870214136678229e+01
-3.990690853242798042e+00 7.113993253957331397e-01 1.278943851453214009e+01
-9.175093980854299502e+00 -2.490991325895596908e+00 1.617692394613349549e+01
-5.212820435328164415e+00 -2.196440384739344776e+00 1.828421523068859855e+01
-5.383597272779095277e+00 -5.090209285874827572e+00 1.731776212698703787e+01
-7.620283952262706606e+00 4.300021043650542829e+00 1.661148056791122585e+01
-9.071648080374720147e-01 1.631324759252322121e+00 1.523050552968711813e+01
-4.021964766454997786e+00 -3.359784634448206742e+00 1.830807704180366002e+01
-6.576687887931458754e+00 -2.239256189844225808e+00 1.418851474065802520e+01
-8.547810087782142574e+00 -4.140107537329595466e+00 1.654841868990368781e+01
-4.619905311983772300e+00 5.824622241331269823e-01 1.840656370285945442e+01
-5.157506449793455516e+00 -5.013244380574396253e+00 1.732333859106294582e+01
-4.980722992317482500e+00 4.816541462472716972e+00 1.591798347653899626e+01
-8.883529661571106573e+00 -3.000520448518330774e+00 1.664980109922597862e+01
-3.768140688786226988e+00 -3.108161529621739305e+00 1.593069601623964715e+01
-8.519562611241674688e+00 2.475613708281422909e+00 1.542380337221569775e+01
-4.577068308644657968e+00 -4.414833410387508650e-02 1.368346952940185091e+01
-4.745829379950808891e-01 -9.076231781740967675e-01 1.570760400350318164e+01
-3.783951799225857560e+00 3.712506392188942961e+00 1.414235116798889536e+01
-5.413434141585180548e+00 -4.941712244968656798e+00 1.656368942397321220e+01
-4.082873494466872089e+00 2.024212371710663483e+00 1.086368513753044240e+01
-5.038273655202713641e+00 -4.709288249164939266e+00 1.786259244640442390e+01
-5.795248004275297404e+00 2.847426316359767950e-01 1.216608258662047248e+01
-4.958170804556437439e+00 -8.343151907769451592e-01 1.444672994347000028e+01
-4.364830791774982899e+00 3.524445178447701998e+00 1.349553345560468998e+01
-4.623106882966457221e+00 -4.813963828600850370e+00 1.774694727656715187e+01
-5.799748319209432346e+00 -5.107155128869836247e+00 1.748265853148078364e+01
-6.971885508544156673e-01 -4.179273516995259952e-01 1.772828108015347581e+01
-7.610156204375968514e+00 -1.768352575030345930e+00 1.758850941913474841e+01
-4.419288308481147176e+00 -4.733075135180903281e+00 1.788563360769563459e+01
-6.586275149016295849e+00 -2.633455604263780891e+00 1.482067369152750658e+01
-4.759114875694905322e+00 -2.684135399268006594e+00 1.562442223609138736e+01
-4.309927521512078030e+00 -4.843504479346007585e+00 1.781462481662751784e+01
-5.871698986680303101e+00 -4.460851535408943747e+00 1.782035428616024930e+01
-1.888496445653920386e+00 -5.278145708691776683e+00 1.792766090081179797e+01
-2.563666894663106710e+00 1.066807062292026709e+00 1.260254878744195750e+01
-4.604875351192490029e+00 -4.713448445147572663e+00 1.634130412371139940e+01
-6.023129180969412744e+00 -1.205279509052753273e+00 1.388016453103220371e+01
-5.404151198864079575e+00 -5.028952667691660494e+00 1.755013328607045153e+01
-3.030235132863367209e+00 -4.804232804476130880e+00 1.668352228323898245e+01
-3.198120377050754026e+00 -5.114566723763452671e+00 1.807448831942540224e+01
-7.961244626376244860e+00 -2.009525019340575813e+00 1.336650925354498654e+01
-2.212075084205660236e+00 1.204221718404335340e+00 1.873729688249155245e+01
-6.511056175956404068e+00 -2.125845592098274395e+00 1.413745753082235623e+01
-6.405691670791190617e+00 5.258849484361595827e+00 1.735339801552580852e+01
-6.818220570366347211e+00 -2.349916972712654317e+00 1.785329978903378745e+01
-1.160341274515944709e+00 1.409644301749128026e+00 1.379299280800519867e+01
-8.397086986300557498e+00 2.915197929507745034e+00 1.594910309806043003e+01
-1.735148982405769535e+00 -1.137737477264899155e+00 1.419546670534312582e+01
-3.497128256037984606e+00 7.348329781792161119e-01 1.290193292662856450e+01
-9.326706443357668519e+00 -4.762688332590421236e-01 1.537947736929494269e+01
-2.908544371861894628e+00 3.994014477547173314e+00 1.582048284628377033e+01
-9.241131169252916777e+00 -1.926042968889349449e+00 1.638543735937058088e+01
-2.947349405990074001e+00 4.141042415384500686e+00 1.609081733306196682e+01
-1.505062287058228865e+00 2.600511196154290161e+00 1.561134640433796150e+01
-3.770326049125796608e+00 5.469185879779223214e+00 1.751784287786509609e+01
-5.645923914885739414e+00 -2.822054239854880020e+00 1.548717195950493775e+01
-4.958108983107454293e+00 4.182782537268676215e+00 1.465621336737009628e+01
-6.971094208387581759e+00 1.253888591184473933e+00 1.186246591391260452e+01
-3.995421555904266064e+00 4.304587863409321535e+00 1.527242609149017127e+01
-9.354768198036378379e+00 -6.776118390231976596e-01 1.527771929781374283e+01
-8.986683538261878823e+00 -2.671240908857302809e+00 1.514582470630114486e+01
-6.964269570123010844e+00 -2.378202812759901974e+00 1.361572912735654839e+01
-4.996215917084765756e+00 -1.815211265306937882e+00 1.833922211147983816e+01
-1.169898591290237100e+00 -4.939122150155184521e+00 1.736082118820173648e+01
-5.525378537949708679e+00 -1.511191119152407003e+00 1.478661025375214066e+01
-1.831467469367390910e+00 -4.367904305235880358e+00 1.834790149467049147e+01
-4.648214213179137078e-01 -3.538521234210890931e+00 1.744819348033898976e+01
-4.397305087425994685e+00 6.726481425147003979e-01 1.272993824341692815e+01
-6.413000709904756569e+00 1.181338668781415135e+00 1.165867999832266477e+01
-6.982373300227681767e+00 -3.677023162556972702e-01 1.782458864067952575e+01
-5.734509619441353401e+00 -2.277097639608486546e+00 1.518016174896242276e+01
-6.816819066588038822e+00 -9.657773997454789372e-01 1.790970004654319681e+01
-8.797874886546715345e+00 -3.901227930871477678e+00 1.614698506151636437e+01
-2.011771511691539782e+00 -3.568686716479602339e+00 1.853808449780435197e+01
-2.883329220678964688e+00 -4.082243315584294763e+00 1.827456181405755942e+01
-7.931843435262019071e+00 2.728472858699512837e+00 1.482141974826290820e+01
-2.191211436527915613e+00 1.275545064976287168e+00 1.241208264893355206e+01
-4.224859693869964516e+00 -2.600705184742480025e+00 1.839701784240494575e+01
-2.187452799121571090e+00 -2.686946364911667828e+00 1.559992366025518251e+01
-1.754836515866959434e+00 -3.622720756751809379e+00 1.590606673372989732e+01
-1.054828021532473903e+00 1.279031457578164499e+00 1.740856424993512874e+01
-4.373746487187593068e+00 -3.730940517667334699e+00 1.602696425702891148e+01
-5.771240273809884691e+00 -2.452609525818318481e+00 1.525637274080009931e+01
-2.612289514871029006e+00 -4.869400434632175312e+00 1.680948641560008738e+01
-2.251844973746845557e+00 2.501143973886335914e+00 1.361816264728608061e+01
-1.783543324190733692e+00 -4.978001084237738461e+00 1.818130672399493974e+01
-1.089328123835478168e+00 -6.528977593140424807e-01 1.845457153217636304e+01
-1.555278500909632600e+00 -2.029940409097607201e+00 1.470808997330542311e+01
-6.383614986258522528e+00 -3.264191430364449698e+00 1.533391834787842001e+01
-4.776572014393106080e+00 4.280057460947970682e+00 1.488377227182060025e+01
-8.489214943797247503e-01 2.854746760827151508e-01 1.759704525624271199e+01
-4.446059741691831269e-01 -3.939968889897327742e+00 1.681481885416806321e+01
-5.535771541366986126e-01 -4.123432387913860353e+00 1.698099754114128146e+01
-5.172119474710276776e+00 3.693635876475988677e+00 1.391117766132175504e+01
-2.971796555263603867e+00 2.710297959642885002e-01 1.363071374509428679e+01
-4.805729602252507782e+00 -4.598596758577614629e+00 1.793908538372246042e+01
-6.865519613194752679e+00 -1.406245494581677136e+00 1.790550296465572089e+01
-6.734080387360297237e-01 -3.006815710264600927e-01 1.754354594655832855e+01
-5.204643909106794197e+00 5.540967155291767199e+00 1.702991441353725222e+01
-6.889663186427457120e+00 -2.696982041841160971e+00 1.437308914055845221e+01
-6.400160593015608690e+00 -4.738999937062552625e+00 1.610803131037808456e+01
-2.414837408518375472e+00 1.604512924488293579e-01 1.348962913516298912e+01
-6.522217981181278823e+00 2.159360523410670307e+00 1.262158106110709710e+01
-6.555009491535894739e+00 4.882009273267909677e+00 1.740488229808662268e+01
-2.959155792688376252e+00 2.995533868905897457e+00 1.855161653375927600e+01
-2.985537259249305020e+00 -3.934343132813733490e+00 1.632813690339694901e+01
-5.548992470104685548e-01 -4.143581295708156809e+00 1.677536592453300912e+01
-5.657590338290597209e+00 2.368344295192045812e-01 1.819448368792285109e+01
-2.082745948491192323e+00 -1.788652755183215204e+00 1.883078139835148690e+01
-3.524585646129067218e+00 1.906468244648577892e+00 1.101474058112300725e+01
-7.938388429411165070e+00 3.461913552228051305e+00 1.675611617920803909e+01
-6.532336534420857710e+00 2.916310613198322965e+00 1.368344397057364503e+01
-7.814773483800434128e+00 -7.403110476557421826e-01 1.750649275328252585e+01
-6.002979481111915483e+00 -5.110896354125531005e+00 1.743286357727115288e+01
-5.221350782582179217e-01 7.857983452619456965e-01 1.418945856432883446e+01
-7.633700222771376609e+00 -3.371737591069238205e-01 1.754199392974468097e+01
-1.655291764774387220e+00 2.798417589014088769e+00 1.781377310378423218e+01
-5.662916544354726911e-01 9.602585975310511390e-01 1.420163947621732703e+01
-6.990219221682268724e+00 -2.626993162131467496e+00 1.400898559756228323e+01
-4.795046735046573083e+00 -1.608594475832633153e+00 1.509624572855909364e+01
-8.666972652723515580e+00 2.328379053020023903e+00 1.595461782545981677e+01
-7.418365312243674126e+00 -1.155981262225508566e+00 1.765834955265033201e+01
-8.333389936977503964e+00 -4.103953816118650622e+00 1.686389312899035176e+01
-8.619619606785644095e+00 -6.298840551565419998e-01 1.402102178157997869e+01
-3.333817966312867753e+00 1.835266315854536145e+00 1.117153855802580509e+01
-1.617042482055010000e+00 -2.245452864563114659e+00 1.889540870626091973e+01
-1.622992668229875868e+00 -2.396533049762121781e+00 1.887128594704781293e+01
-2.390129001247954577e+00 -9.528173764692460246e-02 1.371253382157054901e+01
-3.178568754427731680e+00 -5.209061788217939082e+00 1.796703393517872982e+01
-7.370213400143563298e+00 -4.842252659018584815e+00 1.614848783131317944e+01
-2.991259502776471013e+00 -4.891155562203985951e+00 1.676772599033661848e+01
-4.300383754776205159e+00 2.030317167284247493e+00 1.102845911483457186e+01
-7.893288486568974527e+00 -1.914795717331218672e+00 1.749440347851748001e+01
-3.800693248059466178e+00 4.835686000562664510e+00 1.633806553524059879e+01
-1.795234244095023968e+00 6.492182833133819386e-01 1.303302852987662774e+01
-8.914565004642078350e+00 -3.601538877311140308e+00 1.577663617422131281e+01
-6.768883032971960700e-01 -1.572969690181299729e+00 1.815367141913024440e+01
-8.668407458150799272e+00 2.138127214977410429e+00 1.620203906741871336e+01
-1.197059568374332583e+00 -3.110730426578016683e+00 1.538712076467043843e+01
-1.001313177994406667e+00 -3.000159580824943717e+00 1.867145359944639793e+01
-1.036571032714477258e+00 -3.185435959719740584e+00 1.865180408482144614e+01
-4.072351906663597809e+00 5.782652482444664344e+00 1.761391045417677148e+01
-8.019246274757424686e+00 -2.099007352654038427e-01 1.302847245589828518e+01
-7.067186976477508153e+00 5.094862593137895468e-01 1.218714387821627909e+01
-7.626007543988934323e+00 5.440095039536313459e-02 1.753043067462358451e+01
-9.679885762110653769e-01 -3.419548466251915553e+00 1.848390447113694890e+01
-1.356061140884228022e+00 -1.802477991119375567e+00 1.455621987787780469e+01
-7.639389874220415599e+00 -3.199999144100647008e+00 1.438482078528146602e+01
-5.345287925468502621e+00 2.047349332588956905e+00 1.159462744357520236e+01
-5.659871196958645712e+00 -2.988312973971124498e-02 1.260975217432696738e+01
-6.196365588232678689e+00 -5.201008331400743145e+00 1.689341875005633753e+01
-2.784173341952680847e+00 -2.277867596819693752e+00 1.570868243860504165e+01
-3.665383604799574702e+00 2.706693750764478157e+00 1.196112361136524882e+01
-5.992049808387704957e+00 -5.226292380800962256e+00 1.710091660615281128e+01
-2.401583079845318380e+00 -4.792477863770169044e+00 1.821661048155184304e+01
-3.235187223694418357e+00 -6.979113332915201640e-02 1.410267324031664415e+01
-8.584826613207876989e+00 -3.723724325165248761e+00 1.674104787338383815e+01
-2.767148564767523578e+00 -1.893695243224261526e+00 1.550178152886428151e+01
-1.564777407089136929e+00 -1.768727222391979659e+00 1.454907605100349954e+01
-5.994015729472032206e+00 -4.470734433507733918e+00 1.600476556385737936e+01
-7.950724224985818545e+00 2.363557882497618223e+00 1.437583981248222997e+01
-3.812439188860315298e+00 -4.804015163478474904e+00 1.799664162361196773e+01
-1.276727392517558624e+00 1.841787794447020010e+00 1.760623449934595541e+01
-6.017902348549587721e+00 4.222228250728375265e+00 1.773599292904500757e+01
-4.489839434516160743e+00 -5.027174015065404289e-01 1.420566324745712095e+01
-2.833946293833981223e+00 -5.109979073367053815e+00 1.810311017636243136e+01
-5.793645451492876575e+00 -1.284985528036644009e+00 1.442547421506739269e+01
-8.933469695281679890e+00 1.500313159165662213e+00 1.594447378409913441e+01
-3.962248781146113785e+00 2.333597084279697143e+00 1.154319415682104122e+01
-4.023572503206174211e+00 -1.389861113598830133e+00 1.848352401783521159e+01
-8.362243574949133063e+00 -2.421323685840498285e+00 1.377165331630994771e+01
-1.200773989679457143e+00 1.859694228779994241e+00 1.740353335917356858e+01
-9.249585999020975891e+00 -9.016110386373907271e-02 1.586801946563657495e+01
-7.304939417536112423e+00 4.161016899698137816e-01 1.234266661104904372e+01
-9.268222500902812300e+00 -4.664760922011665922e-01 1.587371623854335567e+01
-8.931896977569977025e+00 1.524617368384897809e+00 1.534873297880549714e+01
-8.161487285548176374e+00 8.153076941445069892e-01 1.331532582807598075e+01
-5.548213440208981773e+00 1.546523256094303633e+00 1.119974755201871375e+01
-7.412545383220092710e-01 -2.632491438209136891e+00 1.827299649028862305e+01
-2.094639196586775665e+00 1.154611340165699884e+00 1.870259268772568007e+01
-2.844853236456617473e+00 3.306007873364863237e+00 1.430822728062907956e+01
-3.560218019692572788e+00 1.801914539161586948e+00 1.118792972796900287e+01
-2.757707834866146790e+00 4.515205788524869313e+00 1.728616381178696670e+01
-8.494878969401348234e-01 -2.811600425052762198e+00 1.846682519310461501e+01
-2.355526948235792783e+00 6.535884601652471870e-01 1.299829203039697134e+01
-5.301234604862739452e+00 1.064493007272767855e+00 1.161880348392295659e+01
-3.577289402522936257e+00 -4.974455234830162276e+00 1.673446309265196064e+01
-4.424434428258856578e+00 -4.976962395016230722e+00 1.714143245574163998e+01
-1.661151581051257153e+00 3.227568976820809787e+00 1.766170252027461274e+01
-4.033700691697371887e+00 -7.969862870781393438e-01 1.848606603175240437e+01
-2.234477000388766399e+00 -2.974802504518905266e+00 1.859802121104376127e+01
-2.201490647118226285e+00 -4.493481457776662857e+00 1.657914536720345566e+01
-8.618553915353964756e-01 -3.181346643940315300e+00 1.839652254485094929e+01
-7.810348877703274795e+00 -4.450203521455967426e+00 1.557434875409360941e+01
-4.382839578346964693e+00 -4.883306650590188092e+00 1.768295483417630365e+01
-9.326463621310772112e+00 -6.613139442363323850e-01 1.540096359761549749e+01
-5.357360739658433069e+00 3.004870054024624704e+00 1.301098359827477324e+01
-4.865683465114077677e+00 -9.756292120893140796e-01 1.837505887678283401e+01
-6.945641062735966820e+00 -2.667689722028875998e+00 1.419756204777542408e+01
-6.243192709614424629e-01 5.649833902843836020e-01 1.399917317816010254e+01
-5.409336510646285401e-01 -1.448808520282981238e+00 1.490458209882877938e+01
-1.233900994869874701e+00 -3.283397810018058305e+00 1.871934164803179712e+01
-5.195985239451649917e+00 4.648245189121580800e+00 1.550360394045251056e+01
-4.499567506957785845e+00 -4.854952854348069557e+00 1.753518056316652363e+01
-3.388151672060450981e+00 2.017054128675950242e+00 1.089044100398945858e+01
-8.386721757979962888e+00 -4.540878220785329766e+00 1.607752348792308439e+01
-3.708367956136426447e+00 1.914507213517610662e+00 1.099415645551141907e+01
-6.789042364569596089e+00 1.721449219460220448e+00 1.227128286762205178e+01
-2.420174486616325282e+00 -1.014554685977990811e+00 1.878043721925158493e+01
-5.003369946979674410e+00 -1.644512472360490696e+00 1.507859785843637823e+01
-4.605375041599526043e+00 -4.167427835042252227e+00 1.809622253409934345e+01
-8.844951140246301691e+00 1.920544250179596624e+00 1.552616120550980483e+01
-8.869215047813682418e+00 -2.321319978463792566e+00 1.472642492400739300e+01
-5.809018467325013368e+00 -2.363577293954677749e+00 1.813539496264580109e+01
-8.848947662940730652e+00 -1.850982340261458026e+00 1.456776004570103922e+01
-4.805376575664085159e+00 1.040266720185731852e+00 1.836713982653650490e+01
-4.201141274826658112e+00 -5.133258985325757529e+00 1.693522491165284194e+01
-7.437561386833912103e+00 6.512753029296666218e-01 1.754568245114670688e+01
-4.788800133572607365e+00 -5.336130736489047566e-02 1.364199109824038558e+01
-5.220100778459019430e+00 1.446437221924091521e+00 1.824989728367464537e+01
-5.641789629328433975e+00 5.045248739307790053e+00 1.767260168477548987e+01
-6.008111483983809009e+00 -5.189494732090135898e+00 1.692996661748011533e+01
-6.075652378188309832e+00 -8.238415486174462954e-01 1.299337631152522832e+01
-1.765934417878790574e+00 -6.407536598347994827e-01 1.388452826156771991e+01
-5.786145552480560283e+00 -5.838255623834729402e-01 1.327302222649573693e+01
-1.281320627976464621e+00 -4.762395373386668629e-02 1.369820125031599289e+01
-3.844583961199290911e+00 -4.958540857781713385e+00 1.791272746140014860e+01
-8.511130877108247006e+00 -2.852067309873719925e+00 1.420701410989966362e+01
-4.438300292500789723e+00 1.761162079155552673e+00 1.106207766778881307e+01
-5.617184514952772822e+00 -3.688266347351634167e+00 1.577330794927724256e+01
-3.830366470282808855e+00 -1.938488576388559814e-01 1.850603609382227788e+01
-5.414344195559619877e+00 -3.477497265997514742e+00 1.575651379572374466e+01
-5.235392013705365777e+00 6.837892096754007165e-02 1.318794197325810913e+01
-4.296655794080972868e+00 1.606391870769320329e+00 1.132241755306421638e+01
-9.000811294741648538e+00 1.286672103862396943e+00 1.588909310671249742e+01
-5.762745742090282342e+00 -1.095388950746552181e+00 1.425374299480916207e+01
-8.114103486497235451e+00 -8.199620268520066979e-01 1.327537928103354758e+01
-8.237949036378601875e+00 -6.091743447505121312e-01 1.339413548466923842e+01
-7.415598653194821921e+00 2.422303573231664231e+00 1.731716775903462846e+01
-9.039782710482157313e+00 1.105486465472773849e+00 1.591715451903298018e+01
-4.841950232089727635e+00 -4.871894645740016294e+00 1.754322215653058592e+01
-7.944615004963247351e+00 2.179160584761886676e-01 1.287756797633254635e+01
-1.057343732696921723e+00 8.329076931562860997e-01 1.775062050951641268e+01
-7.825242444206675252e+00 -4.533287239251375667e+00 1.710738592321646578e+01
-2.260737506409914666e+00 -2.542811991699177376e+00 1.558795336047192492e+01
-2.995419151218387199e+00 3.169838641281520264e+00 1.367136583074998768e+01
-4.369377267654852126e+00 2.408659916105913845e-01 1.335359269228910151e+01
-6.885085936383241290e+00 -2.911811586694407428e+00 1.468682107686474225e+01
-8.681062429726523533e+00 -2.386995561299138480e+00 1.707841652453218373e+01
-7.130278272196573397e+00 1.415449495109109224e+00 1.215786197163611959e+01
-5.423785052271210994e+00 4.649250963200490361e+00 1.781406340797742516e+01
-7.093294994116315921e-01 1.098370187858334956e+00 1.602329646752614778e+01
-4.002144757036890432e+00 -5.016271890155906021e+00 1.776031881672400559e+01
-8.637368944445800167e+00 -3.950440724474951537e+00 1.653358816574501944e+01
-6.394339813686823248e+00 -5.160279867311726498e+00 1.672788436495242692e+01
-1.448920761115162437e+00 2.095691716371816504e+00 1.447705781854617513e+01
-8.872632998491564393e+00 -7.461169121531031623e-01 1.710234253915552571e+01
-8.755382638708713472e+00 2.080883275778026675e+00 1.593962285781381993e+01
-2.354885793724304843e+00 1.228910750540810115e+00 1.243286858645027237e+01
-5.963515867925627489e+00 -7.243671020347550171e-02 1.237918495102499250e+01
-2.611785110853102054e+00 3.900241194974097825e-01 1.880609704729585374e+01
-6.585214231581170807e+00 5.441727590876115350e+00 1.691306176221046442e+01
-3.342265288543182944e+00 1.964618443173824502e+00 1.098221987140478717e+01
-8.605298984309182941e+00 -1.741670875678136943e+00 1.724501642492574049e+01
-3.112276712302166626e+00 1.948397926867872609e+00 1.107046359130767854e+01
-2.475417741904300861e+00 -1.725834586047114483e+00 1.522488564387159116e+01
-6.384187120415817596e+00 5.660710428689578855e+00 1.722472059089975360e+01
-4.244666525704587912e+00 -3.423198497295732778e+00 1.828393587318240421e+01
-7.166289895214598360e+00 -4.779152538661099570e+00 1.605255144383309940e+01
-3.392694442273495703e+00 -8.522276347769948135e-01 1.485284464132842075e+01
-9.381012860909966333e-01 -4.786231151490483171e+00 1.739094742117091741e+01
-4.760585980543938334e+00 4.420566972014218221e-01 1.294341358412379250e+01
-4.445059245663253167e-01 -1.684029901192973799e+00 1.591526478922374466e+01
-2.826723710307505577e+00 -5.144918158648191797e-01 1.445223511691402862e+01
-2.242853361955067459e+00 -2.880500892492499965e+00 1.578732688425935393e+01
-4.602005816157426210e+00 -4.562319158122758900e+00 1.796837502107555551e+01
-3.519180685261381392e+00 2.097749523241662750e+00 1.098580009688497228e+01
-4.135765448915505793e+00 -4.791946986762201988e+00 1.646916513164384455e+01
-8.540297175140480590e+00 2.297699880763340641e+00 1.640481158104129022e+01
-2.040566564989144016e+00 3.835355849369332937e+00 1.787091900769300068e+01
-7.696194642762951288e-01 -4.526809626480115867e+00 1.717652628670205317e+01
-3.402148938875869444e+00 -6.650009553837058496e-01 1.469368909869877982e+01
-7.622726244626544911e+00 -4.951771708497434865e+00 1.669776313345534291e+01
-1.641602269567939532e+00 -3.599465901247252742e+00 1.859369343928846874e+01
-5.119725615496006910e+00 -5.021912634015273547e+00 1.711919187922280017e+01
-4.586238376117640847e+00 1.124979976691726558e+00 1.195793664376157395e+01
-2.576857372477428409e+00 3.721792837004670451e-01 1.335483222123969327e+01
-5.923411001055319813e-01 -7.414885643012792960e-01 1.753011810970003026e+01
-3.770135628044247955e+00 -5.292213655587940657e+00 1.746977776130366422e+01
-2.128959454901669268e+00 -2.877971944212117883e+00 1.566282768638471268e+01
-8.526232198637035964e+00 2.446973738286141398e+00 1.632955105638049176e+01
-8.440203866979292258e-01 -3.015427084421729020e+00 1.842167647463474012e+01
-5.922414013201523275e+00 9.993692500302554516e-01 1.166733251117059567e+01
-7.769022367106974691e+00 3.846116406036792057e+00 1.679303730597811395e+01
-3.158421068482371030e+00 -1.364079583036882370e+00 1.522048226774350255e+01
-9.138694867373690300e+00 -1.147937436679328682e+00 1.680185708290877855e+01
-3.816775352474933491e+00 -1.494580309431952081e+00 1.525265944600708323e+01
-3.001066242970486186e+00 -1.880357396638455691e+00 1.552099347488133319e+01
-1.497298207378242596e+00 7.602729743288338948e-01 1.311077185431912184e+01
-7.850075595002828699e+00 -2.153511428492839830e+00 1.749785446643960185e+01
-8.329328691938382434e+00 -6.447679011065746701e-01 1.351771363500424528e+01
-2.005166606649282368e+00 -4.581358360435848098e+00 1.828831426360459389e+01
-6.397120459574793472e+00 5.027613661912976539e+00 1.743375247047500309e+01
-5.991270083116957856e+00 4.666395771262307868e+00 1.552550320418896845e+01
-2.935439400930889065e+00 -6.889471971740093181e-01 1.465356307703225625e+01
-3.604085230335368095e+00 2.193910191023513701e+00 1.100557665610423896e+01
-6.093768069413354915e+00 3.499377908651555735e+00 1.409358923042498546e+01
-2.800009114628419837e+00 -2.682131536194398702e+00 1.588842923416641995e+01
-4.997455043040896605e+00 1.220701642496554440e+00 1.831688359675045419e+01
-5.811311176026848102e+00 -4.308081008745054952e+00 1.596457957497219482e+01
-8.625310857384782537e+00 -2.662883321184557950e+00 1.435553181007259482e+01
-8.017445044240837149e+00 -4.762416230162075159e+00 1.671828561357520826e+01
-6.424040398801400542e+00 -2.228392955635071004e+00 1.466317709368494704e+01
-4.788748742465402941e+00 -4.811671809959062074e+00 1.776962850590318865e+01
-7.135981529113340827e+00 -6.329714398534290742e-01 1.777447812617129941e+01
-3.188548866678666549e+00 -9.914742288315491203e-01 1.494954549347898265e+01
-7.746626632510188237e+00 -3.479625470865874703e+00 1.468846787411888855e+01
-2.453517669164676729e+00 -5.325759515059191429e+00 1.772860950877876363e+01
-1.314151504399878823e+00 1.090656860933574723e+00 1.805694480397619728e+01
-5.187570522711318910e-01 -3.957075343712701532e+00 1.653875617147240362e+01
-1.618243015309384525e+00 1.043639899149856332e+00 1.286156706468027622e+01
-7.603230994695045375e+00 2.660268777476793467e+00 1.718247725800767611e+01
-2.732699912878048476e+00 -1.188101073415039455e+00 1.498783189767974378e+01
-6.384967971638613626e+00 -2.642864927365439431e+00 1.500698216724453360e+01
-1.633981347233749659e+00 -9.960618370021115942e-01 1.890324103017234236e+01
-2.170618408311538516e+00 3.298210602258663249e-01 1.885658479153527978e+01
-1.634326462410826908e+00 1.200721323872852686e+00 1.837386627329660271e+01
-7.390725907030951447e+00 -4.918648926668817367e+00 1.631771395683628256e+01
-5.607079871501190027e+00 -2.571566245607706858e+00 1.816564508338884210e+01
-7.174639108303463075e+00 3.556049929736252668e+00 1.498327420827861900e+01
-8.775118795645642678e+00 -3.703141080002615659e+00 1.533284258531950073e+01
-3.384181573253693731e+00 -3.487516535346200985e+00 1.611653510421961144e+01
-3.855257905292499565e+00 5.606734167171734562e+00 1.759282735064811121e+01
-1.986171229768245450e+00 -4.311657998161731342e+00 1.643852822042009265e+01
-1.273726936358132500e+00 3.316931502214209848e-01 1.351086063175400298e+01
-4.441527319970981047e+00 -4.815755234032986998e+00 1.778136589171723969e+01
-4.414675312894591030e+00 -4.887908252482875859e+00 1.754338965254899207e+01
-1.033647944964965149e+00 1.379176686548653885e+00 1.402057379132801529e+01
-2.587865714741891754e+00 -1.882010230392968886e+00 1.542698290546242745e+01
-5.105102906598302681e+00 3.450235435802587736e-01 1.283471647650751990e+01
-8.734876991281108616e+00 1.067154956864793336e+00 1.667047314727279073e+01
-5.799581390109210588e+00 -5.133466921158723828e+00 1.691645676074950089e+01
-8.617737345403483573e+00 -1.229305429143950246e+00 1.403342485268417406e+01
-3.979161094785625075e+00 -2.462181721078736008e+00 1.567899271305443776e+01
-2.972883979544633348e+00 -4.391663604551807154e+00 1.649511039474601759e+01
-8.871625538944245548e-01 -3.746592345377726119e+00 1.816501045916762180e+01
-8.333303952097192990e+00 1.389160331057489817e+00 1.392546825321553783e+01
-2.083785513151339863e+00 4.026255392196199878e+00 1.775745440097687933e+01
-3.064879367393733567e+00 4.591210859822105306e+00 1.690728870386123717e+01
-3.229397552717280906e+00 -4.997820244664168854e+00 1.810066978926384351e+01
-3.594757273361381067e+00 3.910412593984847085e+00 1.467237036407276562e+01
-4.617300801577070679e+00 8.476684869483241958e-01 1.840164015732716862e+01
-1.792347810972575894e+00 -3.124176191539431713e+00 1.558937608597819136e+01
-1.195667847083890623e+00 -5.273714204653140447e-04 1.833841408676207507e+01
-3.397981691479480926e+00 -4.966132465498536597e+00 1.806662975691692097e+01
-6.035039452461020026e+00 -1.601884621827887267e+00 1.451644384856858139e+01
-6.391230077825680311e-01 -1.249992493115297920e+00 1.473271117173601041e+01
-7.448177537635998213e-01 -2.383607078237213628e+00 1.832154305322504584e+01
-2.643615497913569534e+00 9.891347717765328618e-01 1.879914221374223260e+01
-2.964426152496105971e+00 6.371775886914430309e-01 1.315830055422475553e+01
-8.570978999314629476e+00 -4.267214610878629522e+00 1.552340573686212721e+01
-3.629696989745206714e+00 5.028577799390454572e-01 1.320963723771140153e+01
-9.102728353182179433e+00 -1.414964515005491807e-01 1.661793446415735431e+01
-2.111561251152816343e+00 1.343042666902357185e+00 1.236563415982306324e+01
-5.940552078357646870e+00 -1.252900350624182479e+00 1.422385212506389607e+01
-8.610121633199305791e+00 -1.345125772004827081e+00 1.726986367767052499e+01
-8.208854596962915195e+00 -4.524531480119377669e+00 1.672844080231449837e+01
-5.189341767888263846e+00 -2.073626388723526226e+00 1.527851069484670532e+01
-8.262620674038466673e-01 -7.297528638256303157e-01 1.813712640424630607e+01
-8.701157372172289683e+00 2.044615567094431263e+00 1.523561535689561808e+01
-6.188474931741069440e+00 -5.198390763115947166e+00 1.727253093739760814e+01
-3.397051548221245554e+00 -5.292163313001093883e+00 1.772147564115120488e+01
-3.590149647640138220e+00 -1.087022425888058530e+00 1.502264299918110524e+01
-8.376133769617961633e+00 -3.393545950501273722e+00 1.436680433295715531e+01
-7.417210983130875235e-01 3.636682586402067985e-01 1.397704484254994739e+01
-4.016881776612083677e+00 5.244020138614619242e+00 1.792421967257704907e+01
-7.594344860653327700e+00 4.346783664058769814e-01 1.751062677551272273e+01
-2.971056437097091774e+00 -2.592496234505934360e+00 1.850993793802421195e+01
-6.819783601388894390e+00 1.429902731044242481e+00 1.773307786178939338e+01
-1.811100787540410595e+00 -1.579339326362766638e+00 1.891476739617201375e+01
-6.617026150415645347e+00 -4.324299206904974824e+00 1.574948508820184756e+01
-6.566314777453365004e+00 4.841985112361914645e+00 1.606748606678856461e+01
-4.747278160497441224e-01 -3.348015770742083230e+00 1.758501669698126690e+01
-6.004190168272709904e+00 1.831249283262628813e+00 1.800969899587634515e+01
-8.644641046282693253e+00 -3.655948002050339873e+00 1.493470333107316250e+01
-5.143305449638158056e-01 -6.685024844804546840e-01 1.635222001057364949e+01
-5.356029051335712943e+00 1.006946233303849692e+00 1.166359658221712081e+01
-8.908211055351575425e+00 1.338059197042135606e+00 1.492693250344617084e+01
-6.898902054011126772e+00 1.749824421656531070e+00 1.240776435534406730e+01
-1.358623481930531618e+00 5.633126881967371880e-01 1.332132231686112434e+01
-2.191408508112467235e+00 3.630563101160045658e+00 1.811793102575217418e+01
-7.408103540789705121e+00 1.307072768253867423e+00 1.229144371167030059e+01
-7.762609623716872242e+00 -2.831726808505730997e+00 1.374079578735618057e+01
-7.203222782037149052e+00 -1.731053414576516403e+00 1.776657296806700614e+01
-1.286292209924603469e+00 -4.732734738968585653e+00 1.811818045634327135e+01
-2.753538216322374055e+00 4.898541937951520708e+00 1.789406780421152021e+01
-9.221836572444221503e+00 -4.639336284597982418e-01 1.503023925631591240e+01
-2.392263393965222473e+00 3.539239674362076871e-01 1.328752217679482683e+01
-6.566443669144300443e+00 -2.428117585439526493e+00 1.463661026445931768e+01
-6.354885052625223185e-01 1.591097105035235715e-02 1.691899996635714487e+01
-3.170799917804114632e+00 3.900021907309644931e+00 1.507579779538290055e+01
-1.996175420757980490e+00 -1.660525666738530637e+00 1.464930050059993860e+01
-3.303193740266518130e+00 8.062757664194049045e-01 1.863498036689231085e+01
-6.007345803682176966e-01 -1.360162105156868528e-01 1.693869353681271051e+01
-8.614346471197389832e+00 -9.425687832982959646e-01 1.727942396822858129e+01
-4.168701844793413436e+00 2.844408062257007153e+00 1.224247948535699138e+01
-5.927955266944909818e-01 -1.261792802444590689e-01 1.675400306164966580e+01
-6.039438380675979268e+00 1.432437244058542891e+00 1.803780418733077440e+01
-4.820729948953072608e+00 6.066259689640262742e+00 1.751950487912865739e+01
-9.207941358348559646e+00 -1.704943955174426540e+00 1.657974105525824271e+01
-1.923149543388275262e+00 1.412429451553549375e+00 1.240312323055711019e+01
-5.774195080050880113e-01 -4.263251482073832088e-01 1.457754415753552379e+01
-5.933164834825802814e+00 -2.084402028992411005e+00 1.496789360339334607e+01
-3.155325022333001606e+00 1.994525371424546556e+00 1.106771896604837124e+01
-2.275859605194695323e+00 -5.293312774432332724e+00 1.792695729240112357e+01
-1.570925141100022682e+00 2.358960939253181621e+00 1.482634597648991459e+01
-4.963672190509912374e-01 -9.112783557273272939e-01 1.654343895739076586e+01
-7.882135965269589484e+00 -5.528662457834921939e-01 1.292850875085992968e+01
-7.447474443801691990e+00 -3.970236422625306183e+00 1.524351784525935116e+01
-7.723012725667758538e+00 -1.686528680564535476e-01 1.273219815831992108e+01
-3.071324976494351322e+00 -5.152200951016081554e+00 1.806847441657821562e+01
-6.995232702292665472e+00 -4.908346289501480442e+00 1.728870487601281170e+01
-5.786366207824724661e+00 4.892739685191088483e+00 1.586559359908777722e+01
-5.608897316757355256e+00 -2.788676095839758506e+00 1.814143811750941992e+01
-8.901322562281798412e+00 -3.258950327284640291e+00 1.539382193923856690e+01
-3.648841428558724065e+00 2.021625956536293067e+00 1.847220215072394822e+01
-6.437652519801268625e+00 -2.550787579497552748e+00 1.794893031700807384e+01
-1.528507274636082602e+00 9.909422265931895346e-01 1.294762435940860357e+01
-3.938917628595386411e+00 3.827259522015107329e-01 1.327844365349353595e+01
-2.167044267163518168e+00 1.436534267823131872e+00 1.223382645617684616e+01
-1.985469952564352880e+00 -5.023497394001002370e+00 1.709363821502424585e+01
-3.655478158528944199e+00 -4.819489576376160045e+00 1.802804965153795891e+01
-2.223578576118760086e+00 -3.171155569795261364e+00 1.856878434707253334e+01
-1.366331370497943842e+00 -6.366195937750294132e-01 1.393407304150498405e+01
-3.034300013324397138e+00 -5.350502791980130013e+00 1.756916091586961315e+01
-2.015725291196794444e+00 -5.074976445958435889e+00 1.718076002283890702e+01
-1.137006206091756289e+00 2.280745126346725993e+00 1.662146213499049097e+01
-5.573311534883530705e+00 -4.100562286877790896e+00 1.593230980957090637e+01
-1.007255359650419013e+00 6.404153185868823872e-01 1.776319991413437904e+01
-4.884156450620052992e-01 -9.032617211335974838e-01 1.588966492108695761e+01
-4.560635987754629639e+00 -4.866822854542714794e+00 1.731535725117626257e+01
-5.368369211890646753e+00 2.975018960057403961e-01 1.253543902750473293e+01
-6.886786227460890863e+00 -2.510520886961658871e+00 1.392379730403968452e+01
-4.792083665329305298e+00 -3.908248819708274313e-01 1.838594470929473701e+01
-5.754835329473651839e+00 6.347788549960764470e-01 1.189974282629709634e+01
-8.132510406482285958e+00 -2.223180235861098808e+00 1.352960718008594299e+01
-9.183787769102586651e+00 -1.933267708001050966e+00 1.657218120406841066e+01
-7.834617331583762834e+00 -3.168686045874546497e+00 1.421044529562047742e+01
-8.236660516222933381e+00 -3.761055803737733516e+00 1.709978968763192242e+01
-1.384278961197184854e+00 -3.883039376028137868e-01 1.379735781764023628e+01
-4.594159432750577921e+00 5.338645201293348741e+00 1.687148187426277346e+01
-5.154897178327173535e+00 -6.926981510446817980e-01 1.422747463707255733e+01
-8.327643222224796915e+00 3.068139373848596918e+00 1.619042060004376182e+01
-7.791425257626684697e+00 -4.863740476794424339e+00 1.687408611462651820e+01
-5.046069090465760354e+00 8.119174620877160908e-01 1.832775125917283177e+01
-7.902621731953227702e-01 -3.247996383000092191e+00 1.550373108544927092e+01
-7.875519788725243719e-01 -1.404528528641637797e+00 1.830398396772378433e+01
-7.617479114351714209e+00 -4.937439942146317762e+00 1.693718331053209525e+01
-3.971417010081847998e+00 -2.670752855265416947e+00 1.575157423782494348e+01
-7.429469896371430515e+00 1.255426426181727839e+00 1.748313836469286642e+01
-3.208428184568445918e+00 -2.896636149040773933e+00 1.595129508385269546e+01
-7.862342326930460423e-01 -3.785137593409546142e+00 1.598649677059810514e+01
-6.425460957583625010e+00 -4.832584269531915666e+00 1.619297924340056127e+01
-6.035977839682637125e+00 4.901623473543088139e+00 1.591046363108671713e+01
-3.770562492312404146e+00 -2.054572719637045852e-01 1.412996601266095453e+01
-1.084505830839819662e+00 -2.855011674373578501e+00 1.877040055209772973e+01
-8.527922694573337736e+00 -4.398352858416600064e+00 1.572227457550933494e+01
-6.216294521580195465e+00 5.670630885074007921e+00 1.711093062291650213e+01
-7.287767164468450964e+00 -2.340304632244365468e+00 1.768781609411674438e+01
-8.646273583826239673e+00 -4.146334356019975687e+00 1.633394996927189524e+01
-7.214418401033831252e+00 -4.975959872561285913e+00 1.715577064518491923e+01
-2.750150808710036365e+00 3.025927936703916021e+00 1.383507971059125552e+01
-8.716005466936991297e+00 1.261253293533713737e+00 1.459008735343821783e+01
-6.734741916338710110e-01 -9.949469920016077440e-01 1.793231740753680370e+01
-3.202272460350695571e+00 4.282017590816891150e+00 1.590057844963193290e+01
-5.042990951122257037e+00 -7.767901574048009516e-01 1.436047501630769219e+01
-3.821218613208380521e+00 -9.950631146713005970e-01 1.851453693956170454e+01
-8.549328911813297793e+00 -4.406086441427997435e+00 1.593923257555078621e+01
-1.853883004798865919e+00 3.629652164906604028e+00 1.768915069373150217e+01
-1.178006155491281515e+00 -7.933002526574612912e-01 1.858063728091977751e+01
-4.543718977686602711e-01 -2.754795626971877631e+00 1.746061440554576549e+01
-8.847516752436951348e-01 -4.880568829999643032e-01 1.423823597206132163e+01
-3.892764066954604196e+00 4.035913313871127173e+00 1.477771756938828318e+01
-8.615338524784938556e+00 -4.298607598510884031e+00 1.569405374734402514e+01
-9.345965541178067326e+00 -8.527134002828750114e-01 1.538667063583824657e+01
-5.351132436582807905e+00 -3.685767353810280422e+00 1.807898320759905531e+01
-6.811232151055723882e+00 -1.941969263635361376e+00 1.329769684203175828e+01
-9.899412959180087235e-01 -4.784858106508543152e+00 1.760055856083869585e+01
-2.611910121092983150e+00 -4.796204739222095448e+00 1.819529887011561797e+01
-1.603590881333692986e+00 -4.523842197128161935e+00 1.658502574655153339e+01
-9.305839424905382629e+00 -1.263527069886539289e+00 1.622710123003883709e+01
-2.093788948153737284e+00 3.954340362704301004e+00 1.744079635641713466e+01
-8.031262678291627433e-01 6.017358688318654725e-01 1.378536426190586539e+01
-8.008818647743720653e-01 -2.489026305064649058e+00 1.500823008945214454e+01
-2.601325959835511625e+00 -3.207851359887696319e+00 1.847438683672230653e+01
-9.304869151394260740e+00 -1.274603549930021673e+00 1.635380787736970731e+01
-6.007014314328662508e+00 -4.901425157780661124e+00 1.633040364174147996e+01
-6.575854261789999100e+00 5.283995199042427870e+00 1.726726682721269057e+01
-7.756500074129863087e+00 -1.753207861492233732e+00 1.753286241420627434e+01
-7.788756140918176030e+00 -2.412743479745307340e+00 1.338019227069811379e+01
-8.716565056128324329e+00 -3.503901777372151471e+00 1.666167971081151578e+01
-1.079704632810510878e+00 -4.905578011184386966e+00 1.760606200245392117e+01
-2.984347282272920232e+00 9.528615749724910211e-01 1.271506375795268795e+01
-3.633318996691077718e+00 -5.003228885752824873e+00 1.797759878986721205e+01
-3.834873172888198845e+00 -4.631707250121407604e+00 1.643549405673426023e+01
-1.809691548080341938e+00 -3.628424954054413565e+00 1.856315624360054883e+01
-1.196390397368525260e+00 -3.175298425151017234e+00 1.874826144419641949e+01
-2.188890144903933077e+00 -2.270055419064242574e+00 1.527958330018127597e+01
-3.970704265458380178e+00 -6.501892645862691889e-02 1.387176503014329043e+01
-5.847938711156296376e-01 8.074274977959594590e-01 1.401536887182995983e+01
-2.598773440712601968e+00 4.592743653192989939e+00 1.802789940884295916e+01
-6.216829885060174199e+00 -1.648124143746139136e+00 1.422287129335551370e+01
-6.189277720058882437e+00 -5.138090642876041336e+00 1.671437660534784087e+01
-4.476578169634204407e-01 3.160426180548049357e-01 1.479153180142937529e+01
-4.250359414469878416e+00 2.427752476714601038e+00 1.829936436957420298e+01
-7.071680423570590790e+00 2.502209201779922232e+00 1.356825110260720990e+01
-6.291761459982604165e+00 9.364004547124776812e-01 1.178233042360431782e+01
-7.975624970048557749e+00 2.043554889149676868e+00 1.709951890145626052e+01
-8.182714756551906277e+00 -2.801039538654800598e+00 1.377014254179968944e+01
-4.747579619976862730e-01 -1.277549665308011395e+00 1.669438106518542142e+01
-8.891127629964451273e+00 -1.346651397690510565e+00 1.710410720411209340e+01
-3.622047336674917517e+00 -3.200110267527800367e+00 1.836021836274423791e+01
-3.629817304818829360e+00 -1.818724757185823104e-01 1.854022807864830114e+01
-6.424716166578213539e+00 -5.068800184872090497e+00 1.649960071889122659e+01
-4.191300236368967091e+00 -1.683443002746497275e+00 1.528020097611022621e+01
-8.374562098955614431e+00 -2.834239330979067883e+00 1.397440262939067779e+01
-9.004270937974783173e-01 -1.092180396783660079e+00 1.443095660261949931e+01
-7.593166285197243681e-01 -4.341854127276924658e+00 1.758977830854705005e+01
-1.079582413370333116e+00 1.983190323947494615e+00 1.695131374122857082e+01
-4.152006052019133087e+00 -1.378175919969764296e+00 1.508565638245350371e+01
-8.389652194921257689e+00 -4.234119646239601131e+00 1.531703664560578559e+01
-5.967095704993599981e+00 -1.669230508475786356e+00 1.464266491784327329e+01
-3.548134545889937819e+00 5.739082076226653673e-01 1.313021538489321571e+01
-1.978021388230989164e+00 -5.138733055171212705e+00 1.809923202802037778e+01
-2.060598423162505632e+00 -4.169448830490488644e-01 1.888701903103979518e+01
-8.157549580321571625e+00 -4.709494562564198183e+00 1.650755354352845572e+01
-7.970626414032353502e+00 4.187308439294851192e-01 1.741407938398884525e+01
-2.272100796764729758e+00 4.196957206281628494e+00 1.753086770219568180e+01
-8.615835830300142106e+00 -2.932160188996796091e+00 1.699791567242614931e+01
-2.759075850214990133e+00 -1.627678189170046030e+00 1.532611735879982362e+01
-1.108717769333266157e+00 2.170631647490556482e+00 1.621879403633701244e+01
-1.613373925772323192e+00 -8.081733862207194363e-01 1.886927441637313407e+01
-2.435874161404939287e+00 -3.759873691269153273e+00 1.840627196695949053e+01
-7.311821556566279190e-01 5.488879815884097069e-02 1.738197501536184220e+01
-1.812663911569378561e+00 -5.106184325312623784e+00 1.732064808639425380e+01
-4.597520335148023385e+00 -4.914256831844493689e+00 1.714259726715333088e+01
-2.400771978820164243e+00 -1.663381414223511712e+00 1.508130659252661943e+01
-6.575330609805935644e+00 1.273882445471659963e+00 1.165743346233896816e+01
-6.743011129188842823e+00 1.275878163579566404e+00 1.174062358943123385e+01
-8.243810349532413539e+00 7.549216429875476031e-01 1.345771919977499564e+01
-2.628964020823509884e+00 3.829799888311270717e+00 1.829477670881469820e+01
-6.492967653388224569e+00 3.034357553502710747e+00 1.769710532026553196e+01
-5.519865569704760500e-01 -1.757811660070011994e+00 1.785348412350373692e+01
