-5.273612928794703336e+00 2.646523327413159432e+00 1.411864631571613771e+01
-5.836923073223331926e+00 5.360292710971640062e+00 1.755800223020800033e+01
-6.632628545383775887e+00 4.033852178268591437e+00 1.694785234714764854e+01
-5.808230102171126674e+00 5.822988091081789719e+00 1.802994872910441515e+01
-5.818004297886347764e+00 5.600289457131452764e+00 1.780481219033545059e+01
-6.220347363461073087e+00 3.819499650864548013e+00 1.634493916992256501e+01
-5.661518596418686489e-01 2.633373514697971540e+00 1.770716200163687049e+01
-5.639954543590518732e+00 5.466420972527933131e+00 1.757897230458261717e+01
-7.060978283823826196e+00 -5.079793852486857997e-01 1.634929523408695573e+01
-5.818561862641150384e+00 4.825377226733984060e+00 1.699336284505362116e+01
-5.728931935948636145e+00 4.743347031326298868e+00 1.683588655205198492e+01
-4.415678183096166443e+00 2.703434611552680611e+00 1.338319848756257002e+01
-5.911600434684065597e+00 3.695764528918413117e+00 1.587531909086449744e+01
4.839484273950369619e-01 -2.238537882693811820e+00 1.766993582115791739e+01
-5.403155655084113995e+00 5.402416888527517003e+00 1.735925557760487337e+01
-5.133729142885408159e+00 5.536301566915970085e+00 1.728820012434100661e+01
-5.229257443191141164e+00 5.041832386029367896e+00 1.674936061702823409e+01
-3.607912761648157662e+00 6.052772399843340700e+00 1.834378831936912846e+01
-5.519608539258685553e+00 2.929633358811092325e+00 1.465538381282241787e+01
-3.643717297222370810e+00 5.963191188333968995e+00 1.819203809957027929e+01
-3.657105818980061152e+00 3.601364986421912828e+00 1.477274026198348977e+01
-3.177938564204919825e+00 4.280264907809310237e+00 1.634200035128577966e+01
-3.474488495669095123e+00 2.456172085507646763e+00 1.336582930337248243e+01
-3.231935564551452700e+00 2.339861285140556024e+00 1.348521701028814235e+01
-6.816211343557073477e+00 3.012189169796092081e+00 1.615656965534990164e+01
-3.411882870544635793e+00 2.681514265259315355e+00 1.371747873801367845e+01
-4.027233178531903768e+00 5.781050120590499830e+00 1.779842291459275927e+01
-3.611500990703249592e+00 2.515888905740086390e+00 1.330276369171051343e+01
-3.996978601867044567e+00 2.680952673684582788e+00 1.330286357712938994e+01
-3.554303507822541341e+00 2.932605275609575290e+00 1.387256493718217953e+01
-3.695637849450130297e+00 2.807878683457522229e+00 1.360190824661635745e+01
-4.013230191802446889e+00 2.789971881778483542e+00 1.339585664474750004e+01
-1.597559335039111073e+00 4.011453119853524818e+00 1.794553653655171743e+01
-3.776347967695741659e+00 2.946695719909209199e+00 1.368838292700452186e+01
-5.644918215911698400e-01 4.898804322888570817e-01 1.503409499383591097e+01
-8.079943294343166826e+00 6.201586286710241147e-01 1.641506985019011822e+01
-3.649708391787666706e+00 3.984831970156311076e+00 1.538152969037756534e+01
-3.796642386326817942e+00 3.308349982997600414e+00 1.417610002671099423e+01
-4.413828767510498352e+00 5.759610094744405551e+00 1.743115610965341844e+01
-4.597819494441059973e+00 3.040905578500597173e+00 1.374901725671313457e+01
-6.618921506031568036e+00 2.261518954549567084e+00 1.531145368833533738e+01
-1.895842185562055970e+00 2.771377113685543403e+00 1.598200210849214997e+01
-5.044550917190607997e+00 5.640408349635214869e+00 1.735234267603703628e+01
-5.163116081825728898e+00 5.346093824070936584e+00 1.705097395619095479e+01
-4.797751746807923823e+00 3.432238587819263831e+00 1.438088021812541584e+01
-4.655500551123887831e+00 3.128542238118632746e+00 1.389403473111878995e+01
-4.641174904082179253e+00 4.657853267436427025e+00 1.597128350480117476e+01
-4.135537510147851314e+00 5.291387311668236393e+00 1.690489685123830910e+01
-5.731220708124739716e+00 2.808568362323510925e+00 1.482039212493969771e+01
-4.162386617094705699e+00 5.465164210734767991e+00 1.715075433467114507e+01
-5.965022051932132641e+00 3.408446763742103425e-01 1.706763546910282159e+01
-4.365089104322316338e+00 5.678930102219526432e+00 1.732924331488539238e+01
-4.188967053535555429e+00 5.237432597427016390e+00 1.677737575516802693e+01
-3.994645452944653563e+00 3.095108090555778180e+00 1.374846856255625127e+01
-4.638900194307742808e+00 2.682055416940880122e+00 1.350818675959962789e+01
-4.018506449897585320e+00 2.914737677339773292e+00 1.350912789809653347e+01
-4.646376964759551420e+00 5.778583742493455411e+00 1.741058323563686017e+01
-1.777812359475403614e+00 3.227022429954829352e+00 1.672996631269742451e+01
-4.627402543164482296e+00 6.126150339573582571e+00 1.801621202093661012e+01
-4.420417671612607791e+00 3.260643098273646956e+00 1.395132639136477692e+01
-4.216006095500334006e+00 3.118045546959337777e+00 1.371951981435131884e+01
-1.009333753533522948e+00 -9.777066798712283902e-01 1.997272837764558417e+01
-5.552088795083498063e+00 4.719847565595744143e+00 1.667299313187472976e+01
-6.352379245594876878e+00 -2.972162963431520755e+00 2.133132382116940917e+01
-5.643996274992990614e+00 9.092265694104126883e-01 2.102420216339575276e+01
-2.572056346641945268e+00 -1.844562916602398905e+00 2.054227382219243125e+01
-2.580444567569676106e+00 -2.049236027838424512e+00 2.054161852301463043e+01
-2.578367449794264132e+00 2.613259156000538042e+00 1.982645493883340393e+01
-5.467276071846163710e+00 -1.446867783040947320e+00 2.131338022362364981e+01
-5.057916256183489168e+00 -1.897339002901289318e+00 2.124045988878561886e+01
-6.445977181012907842e+00 3.174268383957297712e-01 2.133576101878253084e+01
-4.853006730163249571e+00 -1.711322646511038270e+00 2.119489813066372719e+01
-3.274298157001756415e+00 -3.653613909517250402e+00 2.056223229496797344e+01
-2.858242854203261629e+00 4.105872506894696627e+00 1.930092212502096416e+01
-6.091608590209983021e+00 2.627913202009660942e+00 2.062290366141791154e+01
-6.195486763962626320e+00 2.062020372054038653e+00 2.083753093271554846e+01
-3.479209964427319335e+00 -1.429683792704693257e+00 1.820079744749161321e+01
-2.755308370485193947e+00 4.058329364851556598e+00 1.654568436679946686e+01
-7.582321979763633202e+00 3.166672868795354479e+00 1.953420818319535002e+01
-7.730958026331834709e+00 3.055655203060978486e+00 1.937955693144253289e+01
-6.468476850282765866e+00 -3.146078549728499318e+00 2.014107017010684686e+01
-6.248435697066174299e+00 -2.947716586782780812e+00 1.990277779807425773e+01
-8.563502818895219804e+00 -1.125660840706116161e+00 1.811203313957446781e+01
-3.084153479994077074e+00 -4.146343714187427310e+00 1.971014945626819426e+01
-7.099780127246684280e+00 1.964053274806141225e-01 2.137364117362023208e+01
-5.405609880101740039e+00 -3.774328100950676390e+00 2.028470443705425552e+01
-1.883015466516700265e+00 -2.467872292265240186e-01 2.021879630311817877e+01
-7.958644426383332693e+00 -2.549079921410970950e+00 2.043463255467841933e+01
-7.578573679483562309e+00 -7.792858104962407939e-02 2.118388602437977042e+01
-3.239933594241465098e+00 1.898546571161428220e+00 2.025381391466806136e+01
-3.377460246381595255e+00 2.141178627533012691e+00 2.019908110323197903e+01
-2.358742154999849738e+00 -1.548974014668764498e+00 1.755105546840292519e+01
4.845698439398257173e-01 -1.607253916777576563e+00 1.824191175476768123e+01
-5.301060796320869350e+00 -8.560225426523464520e-01 2.124551765856840646e+01
-6.776954772468762656e+00 3.972906154747617435e+00 1.700554870898723792e+01
-5.994362106361426079e+00 -8.737620703258219823e-02 1.782607387032154733e+01
-6.697315823139779134e+00 4.253955848604289436e+00 1.964344960116857308e+01
4.890319070935667534e-01 -1.444705023092746510e+00 1.745532957379244365e+01
-1.691004559670097329e+00 4.698364074538230462e+00 1.864636405690753307e+01
-1.833200132215039968e+00 3.761387559994043617e+00 1.920317893944860899e+01
-3.704060326210577792e+00 4.678279544730882478e+00 1.928228190585817359e+01
-7.167204530858701794e+00 4.122675255444621101e+00 1.928223141085917902e+01
-4.474180520631145797e+00 -2.875238799185115268e-01 2.103637213539539275e+01
-9.257612944433193380e-01 3.598427716504353779e-01 1.438389505450663464e+01
-3.894430113883242228e+00 2.426863774343228641e+00 1.300405736768781040e+01
-3.480311108474690052e+00 -2.051112341897964431e+00 2.087221369682780292e+01
-2.896897036501281386e-01 2.290825099195376857e-01 1.513092769780395841e+01
-8.307668537777804119e+00 2.702020126880163797e+00 1.745771265661825211e+01
-6.040237204526981429e+00 2.452532759148001507e+00 1.492552465696791941e+01
-4.370179798254073766e+00 -1.778045263542529897e+00 1.873325460065693093e+01
-5.595470741680161453e+00 1.015491909411823102e-01 1.782325070671440770e+01
-5.596900697753321552e+00 -7.650118451520837581e-02 1.801059979921187804e+01
-7.180044913109806970e+00 4.316686074864447775e+00 1.908232022528160954e+01
-2.221009352221709143e+00 -3.136442423669834612e-01 1.436264918736055662e+01
-7.286157762565232954e-01 -3.214264354314176342e-01 1.477634779208472438e+01
-8.506081136622132277e+00 8.008492897920518327e-01 1.956808931756628667e+01
-2.316501267658425345e+00 -3.473590958323621969e+00 2.033946270678204726e+01
-4.843711591105078540e+00 3.838868938892230354e+00 1.494874927042243584e+01
-7.071808636802085601e+00 2.466859702369794682e+00 1.587085600757570703e+01
-6.086676450874344724e+00 5.293704035681546793e-01 2.121594830583690694e+01
-1.660528890370706723e+00 -2.879318203313007363e+00 2.018629155922393537e+01
-6.582173170415574148e+00 3.293540320538065558e+00 2.027658289239896661e+01
-6.404517635236843809e+00 3.478309923131653214e+00 2.024976685368217844e+01
-1.559679363998406121e+00 -3.325732548745564454e+00 2.012276396058109285e+01
-3.037668930015829272e+00 -6.588689316502880366e-01 2.071493615555622725e+01
-6.031072425647050039e+00 3.070482160216014833e+00 2.045649873587743528e+01
-7.607677574046962654e+00 8.207775028517685367e-01 1.593275429187984216e+01
-2.729201699615644738e+00 -3.785016399520185981e+00 2.035127092898249757e+01
-5.864396228094564734e+00 -1.103053182450814296e+00 2.137650413706311880e+01
-6.239855583405005568e+00 -8.923641884895463505e-01 2.143379088059867499e+01
4.250688021781656722e-02 -3.510929060892990616e+00 1.783687430449832689e+01
-1.373868451338715158e+00 4.226628617946185607e+00 1.851514065256437291e+01
-8.006854409329243083e+00 1.992151949380037035e+00 1.973450158187164405e+01
-7.204349501470826311e+00 3.581631154652971993e+00 1.698861452293081342e+01
-5.574426943110077914e+00 2.208112668020357106e+00 2.060970481251511544e+01
-4.253219182979774082e+00 -2.459988243262915653e+00 2.106657853426233018e+01
-3.374783883485186209e+00 1.335259061370047018e+00 1.360971833187691615e+01
-1.841563371640853042e+00 3.796906188253379000e+00 1.737552343559179846e+01
-1.124989789425950848e-01 2.287782257854572787e+00 1.813986743006447355e+01
-2.186749544588588279e+00 3.475264198229597756e+00 1.651771875241184873e+01
-6.823884221430899899e+00 1.481714797940933970e+00 2.103567798291649282e+01
-6.695820070040480410e+00 5.440643137744910263e+00 1.858694758520388390e+01
-6.737146959272407365e+00 5.295584372896516179e+00 1.869147769481739019e+01
-5.786093825263047385e+00 -9.775899175130293717e-01 2.134871716247709017e+01
-5.951450115598186485e+00 -9.034459740192741783e-01 2.137359394920986588e+01
-5.300735049381382069e+00 -1.512869763832400904e+00 1.895694008500386118e+01
2.651847859527831641e-01 1.270051443573856798e+00 1.832031997850198834e+01
-3.070055231362252890e+00 -7.063556169534292994e-01 1.758220947334015349e+01
-1.547955261830033180e+00 4.637877454569795610e+00 1.880095293939038115e+01
-5.928664718642232323e+00 -7.492877418454182425e-01 1.855928594628113260e+01
-4.380728244919794179e+00 -1.231624720645614346e-01 1.774557775969668327e+01
-5.395213657765676629e+00 2.641510263615606924e+00 2.042930524047365637e+01
-4.081805764896388133e+00 3.361628436142936049e+00 1.987235414686596258e+01
-4.249442195707259451e+00 3.146705511605104810e+00 1.998329440692878833e+01
-4.664821133054100066e+00 2.191187862510003637e+00 2.039674415278209452e+01
-6.253261386802281940e+00 2.865492453718060606e+00 1.551119343716682053e+01
-4.724351647258401066e+00 2.058119023757566612e+00 2.045376933211217008e+01
-3.197035501708852312e+00 -3.768778947081719455e+00 1.910010347930159114e+01
-4.632069336019619676e+00 1.728609309648174053e+00 2.055527469235266480e+01
-4.405165627545860829e+00 1.556093577794030569e+00 2.058774741810453079e+01
-4.004898712471306688e+00 4.617417029031178011e+00 1.599095072182771915e+01
-6.332073587653529678e+00 5.504960744631763880e+00 1.891477680196562616e+01
-4.631643777646077709e+00 5.435121699583667088e+00 1.695304239160483561e+01
-2.636567685468298894e+00 -2.387549521557223553e+00 1.825078820785070022e+01
-5.380978971829661894e+00 5.051303802773360330e-01 1.741141454245685694e+01
-6.599644440579520932e+00 -2.755672136425570518e+00 1.990068549546040444e+01
-5.130039550488047162e+00 1.554032232337918540e+00 1.471536725403673884e+01
-4.979301784094068317e+00 1.557019266215412090e+00 1.485019873757215336e+01
-1.796873621462093951e-01 -4.424205311712836042e-01 1.520122674796817464e+01
-2.646365164437468831e+00 2.033793265918413695e+00 1.395219951056917651e+01
-8.148809234992960171e+00 2.974431090279695322e+00 1.733672485049319434e+01
-4.745563296527638641e+00 3.363137869580510309e+00 1.424329828237828011e+01
-2.125180932072245454e+00 -1.879991518008688578e+00 1.738763155047405817e+01
-4.269706278295227975e+00 2.317152363167597429e+00 1.305061455961468297e+01
-7.866061272040577812e+00 2.860854363651802679e+00 1.691153614098400837e+01
-4.329567268969699789e+00 2.210525572942870109e+00 1.300322990191402894e+01
-2.341255852664086978e-01 1.191282323363099804e+00 1.634545866012787130e+01
-2.981753187978754660e+00 -1.746108086213399302e+00 1.813271224884130461e+01
-2.797340935592635081e+00 -2.385736048292509182e+00 1.832132501044586448e+01
-4.200631149951956189e+00 -1.987095621953730573e+00 1.872599559405384539e+01
-6.475717629718905854e+00 4.459747289698047013e+00 1.965596421798552385e+01
-1.626103479564444676e+00 -4.347901261120036831e-01 1.440731576973749739e+01
-3.694407287160665909e+00 -2.908908320574540074e+00 1.874350817067335484e+01
-8.539070661997374856e+00 6.704951861027024229e-01 1.958766924622989691e+01
-8.572839108399115560e+00 5.395513619098918356e-01 1.960657980920874266e+01
-3.416440627902088245e+00 3.183916786238264240e+00 1.983133639803477521e+01
-4.898530319598672911e+00 -1.071037070877805197e+00 2.118147276554847380e+01
4.631159211743908211e-01 -1.022611053699790995e+00 1.744811314350595310e+01
-1.056675521846773602e+00 3.312212658871117377e+00 1.783362160932242446e+01
-6.128563530275826565e+00 6.876665090852713824e-01 2.120182021669655725e+01
-3.188471483208265234e+00 -2.030019154121739167e+00 1.833618194578174254e+01
-7.465592144399111341e+00 4.185980224779363712e-01 1.587316950289660511e+01
-6.139798980410828833e+00 3.154101238408164143e+00 1.563376149790859060e+01
-4.440655924314606651e+00 6.026049535509747201e+00 1.797346215214836818e+01
-4.636815785046596972e+00 -1.290742797935413577e+00 2.114045690002865641e+01
-3.665379851616582307e+00 2.115643981501006188e+00 2.026638716331656198e+01
-3.469697454214380805e+00 2.519889793004214340e+00 2.008194899229260599e+01
-2.568376946628452284e+00 4.871749068577852171e+00 1.788574662789475056e+01
-3.553301252774246244e+00 2.190616257459525595e+00 2.021744290773099451e+01
-5.848728102120694494e+00 5.282180464323673608e-01 2.115545843329864439e+01
-1.650152602706686178e+00 -2.659995358683652444e+00 2.018767115962628722e+01
-2.913089912547416116e+00 -3.418371814256940144e+00 2.053450925841334040e+01
-3.221232811643606642e+00 -2.889884167495664347e+00 2.072223007191420763e+01
-3.053935172461782255e+00 -3.061561518920768332e+00 2.064479982619897314e+01
-5.432501723402294314e-01 2.025585615364552616e+00 1.941287978262869629e+01
-2.539458126850755448e+00 1.297314564282202376e+00 2.023146806394099073e+01
-8.358600116024754723e-01 -3.959188360391252548e+00 1.840920093513316047e+01
-9.612951459031802148e-01 -3.935217550419434662e+00 1.843184614328835025e+01
-6.396854272032437283e-01 -3.744665662501139192e+00 1.789390495516515855e+01
-8.410189667993810403e-01 -3.540083234347475294e+00 1.764980947418986901e+01
-7.894072981163042790e+00 3.447141963790536945e+00 1.836858559911646083e+01
-8.012739227743019832e-01 8.408882515555373693e-01 1.509042996016532001e+01
-6.113608254570207734e+00 3.012889577257332197e-01 1.670141287478072556e+01
-5.251326115990925913e+00 5.374180836348554369e-01 2.101670539117057857e+01
-8.344649845858423731e+00 2.319364143064038153e+00 1.851194960835680448e+01
-4.656180063468911001e+00 1.157873409159206002e+00 2.075885316767898914e+01
-8.152243714598639279e-02 -1.014544682268331832e-01 1.980385864457317169e+01
-2.118002207118993008e-01 1.669365633463029130e-01 1.978728704771348035e+01
-3.859749269437225294e+00 -1.445770546775875465e+00 2.097991738238257753e+01
-1.762915963874977177e+00 -3.741137815388472898e+00 2.010516219882368105e+01
-1.022725795784378722e+00 -3.741168091179370325e+00 1.810874169315466631e+01
-3.228873325364582492e+00 3.805999179781745845e+00 1.558126679921931768e+01
-2.235588728883486809e+00 4.343561689833935979e+00 1.905297475529070184e+01
-7.779867068520709417e+00 1.480394764848234956e+00 2.042382396396584099e+01
-3.198371216236677750e+00 2.323058607790589924e+00 2.009281432305614246e+01
-2.759604012475328272e+00 2.216042452041409483e+00 2.001273256133276490e+01
3.971232162666915588e-02 -1.598856079433514266e+00 1.995968776538031975e+01
-5.065792104911079008e+00 1.389350370095426557e-01 1.783941652267156641e+01
-3.817006874853954734e+00 2.222333742508802779e+00 1.297830392521484200e+01
-8.361794748681077749e+00 1.173066033300033117e+00 1.962003775514043369e+01
-8.159207253678800953e+00 2.112894186440232414e+00 1.929140742095550465e+01
-1.914533587500688583e+00 1.327356419092372286e-01 2.019860228945530523e+01
-1.775635337882140785e+00 1.833528260573032531e+00 1.981867661306707262e+01
-2.156160777798048489e+00 1.624323509037058022e+00 1.999165650765009516e+01
3.195728350688451513e-01 7.972008389924104543e-01 1.812546175038695040e+01
-4.226664344060327316e+00 2.887679175562921863e+00 2.007428821077875725e+01
-5.194114326697427231e+00 5.018352689136021283e+00 1.947985931900189271e+01
-2.372746051752260499e+00 2.434600184138533852e+00 1.982006842738592312e+01
5.003489663917648489e-02 8.570640925776972230e-01 1.643924931367953590e+01
-7.442795431372675630e+00 2.314959983748933192e-01 1.589803269569132382e+01
-2.411747766395863746e+00 2.579489390365556467e+00 1.978646028742140928e+01
6.487132510335880120e-02 -9.203010948047156692e-01 1.557641485797586611e+01
-7.561809376548386474e+00 1.110755273371618834e+00 2.080441425526440824e+01
4.865844184545963236e-01 -1.841995139173308482e+00 1.867572929889659505e+01
-2.186660502768225545e+00 -2.347600495755523653e+00 1.791513660772498540e+01
-2.511131271533504350e+00 -8.580129031220995461e-01 1.699694738998839583e+01
-5.038509607572825288e+00 3.485694612693766903e+00 2.006868662082135657e+01
-3.878023524743421824e+00 4.873810362314219269e+00 1.928257538325184939e+01
-1.306132781652283859e-01 1.742164527929546125e+00 1.924605291403571883e+01
-9.011260555581015463e-01 -9.861953357315182966e-01 1.997419783070028743e+01
-4.769706409578930106e+00 -9.346291043120382724e-01 1.853541006026289395e+01
-2.836700090263715168e+00 3.332244920648089748e-01 2.055158433826119690e+01
-8.190493402232657871e+00 -2.149839461505989036e+00 1.982236065566562999e+01
-8.017822178653741361e+00 -2.384826268432331808e+00 2.009146142595641393e+01
-6.940092536419101954e+00 3.944782769906545195e+00 1.968184606100752276e+01
-3.746864345164003574e+00 -2.325160018045182575e+00 2.094429669053414145e+01
-8.378666802250528178e+00 -5.272903145808487402e-01 2.037891515345470239e+01
-8.336533203922694923e+00 -1.618301101894875083e-01 2.035418503728838502e+01
-3.169024883552548744e+00 7.759429143413920649e-02 1.606046346684349757e+01
-4.006647759182326851e+00 2.356697323073461803e+00 1.303932746006946175e+01
-6.647128091297751062e+00 3.404080161889847744e+00 2.019145370281151131e+01
-4.234723252493760803e+00 -8.829403926296269800e-02 2.096899164293090578e+01
-4.290251361686096665e+00 -3.022351949265533189e-01 2.100437576309137810e+01
-2.746585270706081161e+00 -3.260916749298023443e-01 1.677364740394590470e+01
-6.539656042757196808e+00 3.797436345778795741e-01 1.559531910213081218e+01
-6.882244047272336296e+00 -1.257110141084416544e-01 1.594446088753769786e+01
-2.086384983686573324e+00 3.277593396540289472e+00 1.947559371585334631e+01
-6.658726007948910564e+00 -1.582550133318933128e+00 1.909270008404443431e+01
-4.078641675403254396e+00 9.547902940160526430e-01 1.569716599721354200e+01
-6.821543161379981512e+00 2.713477618214705789e-01 2.139422468363209262e+01
-2.852892663558434627e+00 5.139396771526971719e-02 2.059900500284162561e+01
-4.573738870624528552e+00 -2.116125734040289696e+00 2.114372338817949881e+01
-4.676266705538696389e-01 -3.712868206976541519e+00 1.775976065186322117e+01
-3.874887661886806001e+00 3.278793469675724825e+00 1.986885735967144839e+01
2.565696101492269121e-01 -1.101262365859093206e+00 1.977907273195375737e+01
-2.594840465939300511e+00 -3.750720609235657310e+00 1.890540675674700211e+01
-4.597195572990502299e+00 2.202371455218374574e-01 2.098213271130356716e+01
-2.326624432980120005e+00 -1.914381970021797885e+00 1.777807250540031347e+01
-3.810062994211233622e+00 -1.932658276597958524e+00 1.854501583189877678e+01
-7.691838648822101554e+00 2.405700636474349619e+00 1.995833626132604266e+01
-4.271508106684767547e+00 2.328046851791917060e+00 2.028286562413803651e+01
-4.040935425847872686e+00 2.304144230440431151e+00 2.025613516131904035e+01
-3.572919038198581809e+00 3.220400267349421863e+00 1.984234083068582422e+01
-3.431997678084697689e+00 3.105674458405339511e+00 1.986283758938178678e+01
-2.073797847811575057e+00 1.227504774487181871e+00 1.396452292466554113e+01
-2.151211276908635561e+00 1.098009792367222737e+00 1.381388336689070329e+01
-1.730174479833323620e+00 9.151898281962578263e-01 1.404479650099069588e+01
-8.114335076844422900e+00 2.176463237358484015e+00 1.934040403241716533e+01
-7.946282319140585138e+00 2.924058865183266853e+00 1.905808465049174671e+01
-6.763326101632300968e+00 -8.862294346737287221e-01 1.803848346571589545e+01
-1.088803171912984258e-01 5.025546629770650808e-01 1.963480552960495729e+01
2.442527850484652596e-01 3.807490569916101020e-01 1.932583586211987736e+01
-5.197766014297416248e+00 9.146451339063883523e-01 1.683170726250371629e+01
-5.883103157820619877e+00 2.897408439493672550e+00 1.509295019271671734e+01
-1.617267850284158204e+00 3.897237167301328409e+00 1.908661461248771829e+01
-2.854156500069418012e+00 -1.883450711329424321e+00 2.065464149391770476e+01
-9.160478813792252151e-01 -3.423859115258856445e+00 1.993200959451735699e+01
-1.715269446697349487e+00 -3.591464549727042321e+00 2.012925346689258177e+01
3.654637188824018112e-01 1.409789144858503152e-01 1.867791712131378645e+01
-2.279372336626727780e+00 1.596433813732580420e+00 1.399503156251249081e+01
-6.114715806647072149e+00 -3.311654585336794021e+00 2.012119555209777744e+01
-3.414757326723911746e+00 -3.515375942514531005e+00 1.893037183438142179e+01
-2.958209459589221435e+00 -3.249931398357779888e-01 1.712344727505051267e+01
-2.906760819066464663e+00 -4.609177941728616612e-01 1.720519298922278395e+01
-7.152126970007707918e+00 6.368684690995074504e-02 2.138519861876146066e+01
-7.917104297325338713e+00 3.249790115297888971e+00 1.876987175574295819e+01
-4.519448485480613620e+00 -2.283612042598777148e+00 1.894472876759721558e+01
-4.006574672510184065e+00 -2.232011332713691676e+00 1.871040239903228652e+01
-4.289110590809336543e+00 -2.222501539176575225e+00 1.882604358672778133e+01
-4.657506347929211366e+00 1.492605290949632346e+00 2.064386626719037920e+01
-6.099993204723650475e-01 -2.904358867532953248e+00 1.611655888490502875e+01
-3.700213644795200985e+00 5.712414332311499088e+00 1.787565404913732792e+01
-6.051977061102784994e+00 -2.281042491494353008e+00 2.144419168260253272e+01
4.133312231155605865e-02 1.216798194768156982e+00 1.688619266137981256e+01
-3.377614979020685304e+00 3.179059758006542169e-01 1.600256816220800360e+01
-5.041291116118786775e+00 2.897950638592051043e+00 2.025541049101427760e+01
-4.861293389917390684e+00 2.710623171142072518e+00 2.026647891196281037e+01
-5.526919042834060214e+00 -2.596506550730748764e+00 2.133869491157509302e+01
-5.052177305647500560e+00 -2.476581632738731553e+00 2.124148364364100772e+01
-6.351481998143889030e+00 -1.105055924167712478e+00 1.877777100802810750e+01
-6.373073643213062134e+00 -8.934298846112085357e-01 1.857905102910207162e+01
-1.714043980367588649e+00 7.666389307598949765e-01 1.396492556761377202e+01
-6.234249454131039592e+00 5.422139706330511899e+00 1.904312807483077918e+01
-3.902227886450659433e+00 -1.108726419255836593e+00 2.098056635435120043e+01
-2.515778189176684609e+00 -1.004348420922367424e+00 1.499454728399553360e+01
-5.487545301084924887e+00 1.129100781126426645e+00 1.538316291651368672e+01
-2.168293577853984022e+00 2.692546052699817505e+00 1.549435141753722789e+01
-7.555015515195003140e+00 2.460841152374972918e+00 2.008204068790461250e+01
-7.491970727409072772e+00 -2.704853527629649701e+00 2.016946501917481172e+01
-5.633212077217013558e+00 -3.344544713925293067e+00 1.991915245940234414e+01
4.801144460497250854e-01 -1.225997147204477944e+00 1.747459267111069536e+01
-7.647185909792908465e-01 -2.247010352805871580e+00 1.535791304465652374e+01
-1.638628211310491967e+00 -8.647127347431242672e-01 2.015027547267034080e+01
-5.268899353883578662e+00 1.879614674874131586e+00 2.062922754854416851e+01
2.462007718559146574e-01 8.438241403544586294e-01 1.919247403187796053e+01
2.743757449494452771e-01 1.073289358879838451e+00 1.903132407268577353e+01
-2.904610113186197662e+00 1.693231840818294254e+00 2.023484762723815678e+01
-4.775652517806453723e+00 1.546227141253909476e+00 1.502275287358863309e+01
-6.166488659796465654e+00 2.823639035289964294e+00 1.537452708505104582e+01
-1.167733448345170455e+00 -6.485474464476730372e-01 1.996553623693293034e+01
-3.092551293006322588e-01 2.882048444849962809e+00 1.862716011365625590e+01
-1.113632884437404380e+00 -9.324869103507991142e-01 1.998068672590502004e+01
-1.630417277378219509e+00 -6.873453312241519786e-01 2.013782735563954773e+01
-2.872255004686081303e+00 -2.870408956998266703e+00 2.060582990536255821e+01
-2.682593177739414081e+00 -2.654248810547121362e+00 2.055367216547117337e+01
-2.450015815464135382e+00 -2.890912519047545537e+00 2.045540629893764262e+01
-2.114081832734467703e+00 -2.915717010812854060e+00 2.033816875144144731e+01
-2.715187299322238790e+00 -4.809616369348597709e-01 2.058171819805508207e+01
9.649642993484119913e-02 1.907632777785224221e-01 1.590714685095158742e+01
-2.047984442820429241e+00 -3.083121681109499690e+00 2.030549682180326343e+01
-2.579888990280629901e+00 -1.067826045929908263e-01 1.437579869503508334e+01
-2.353360587579093721e+00 1.840483820290666817e+00 1.999716774882873338e+01
-8.667989955055606544e+00 8.150230577732535675e-01 1.810780181089371510e+01
-3.563532626545630855e+00 4.936033637782361039e-01 1.676408167699223029e+01
-5.651700410967038124e+00 -5.097105007033468915e-01 2.126704146614826030e+01
-5.233153428993716716e+00 6.411188346482692424e+00 1.837570824954583415e+01
-2.732246350350615582e+00 -6.792659811482228971e-01 1.720548960008663997e+01
-3.801676832646812443e+00 5.645172241588968909e+00 1.773985737626058423e+01
-8.532071189237271369e+00 1.696633627605300898e+00 1.798228808008676438e+01
-1.344827881696005756e-01 2.601645677903051013e+00 1.864669509058275665e+01
-2.134024790528056048e+00 7.953607744536007607e-01 1.381089358042826021e+01
-4.384404430814928588e+00 5.244953585796000795e+00 1.926019945540771872e+01
-7.058170397580668443e+00 2.190154350523376703e+00 2.060882921577939797e+01
-6.672484392859498570e+00 4.809965625334244876e+00 1.921847984547022392e+01
-8.351320248113527356e+00 1.781721860464003049e+00 1.908772856702665521e+01
-2.243664442682390181e+00 -7.720944006313540386e-02 2.035831040371622080e+01
-2.341339216693215874e+00 -1.009703039786669088e-02 2.039271738167795078e+01
-7.932276577130643602e-01 2.972479686083840278e+00 1.924073964769822354e+01
-6.082225642697038026e+00 4.043938961590564318e+00 2.003500027133777550e+01
-9.002054848803011655e-01 3.688698469802188296e+00 1.894085437214020473e+01
-4.028945142464325890e+00 4.392199878812982128e+00 1.945640441821651123e+01
-4.041757971338437727e+00 4.137338507940117260e+00 1.955614424698987008e+01
-5.510754320444229748e+00 -1.875231444248657953e+00 1.915112961716917894e+01
-1.629207495090070346e-01 1.235632318696944232e+00 1.651355867850712045e+01
-8.347582471296938422e+00 1.966799986194000871e+00 1.890837170115970522e+01
-3.176634466369841814e+00 3.967017068060612939e+00 1.944813788117324904e+01
-6.146765912000537568e+00 4.389347118134876879e+00 1.683106686712476474e+01
4.355760030417680229e-01 -6.393256466574135377e-01 1.829143515091148586e+01
-5.072214646698264495e+00 4.300475695780950680e+00 1.570312046738026268e+01
-3.108153633108031055e+00 3.885085528821123901e+00 1.947239574946715734e+01
-7.955031989478288601e+00 1.965477995664841604e+00 1.985434911880143360e+01
4.514592704875655671e-01 -1.438742140987103735e+00 1.940456516188852376e+01
-1.240544834917554740e+00 4.160347023810439637e+00 1.877532464222112552e+01
-3.809032431711505406e-01 3.276784826172179366e-01 1.979965672384564002e+01
1.360638671172931247e-02 2.287196583117487858e-01 1.570346261852108327e+01
-5.587297570336170693e+00 1.387537336423278811e+00 1.466126543425243156e+01
-4.700646663411191639e+00 2.037304210111318348e+00 1.326413051240146146e+01
-4.929847172506271136e+00 2.132981935231861748e+00 1.342153324419399141e+01
-5.647233598093741591e-01 -2.011290293028925036e-01 1.482544162108986896e+01
-1.578569721330943754e+00 5.783735840625812141e-01 1.999868627041005809e+01
-1.184743398065093878e+00 3.200154442472547878e+00 1.751724768335028770e+01
-6.922898019002254877e-02 1.585683988255493837e+00 1.713790556801166431e+01
-1.805698324304404245e+00 4.211813720218000157e+00 1.792499212827876320e+01
2.632348073217554707e-01 -1.538557942747521556e+00 1.981067303338899066e+01
-8.733195434235547339e+00 2.724331085087822180e-01 1.747671942532079115e+01
-4.397403285366779713e+00 1.949144498854887164e+00 1.313890620644501084e+01
-6.268465033334902792e+00 -3.533593186604548353e-01 1.795635688183187639e+01
-3.836954341728496587e+00 4.711652741496113350e+00 1.930725725703956286e+01
-9.050893951903005163e-02 -3.527806610937303855e+00 1.746444955105028995e+01
-1.126212087449242727e+00 -2.682963226388955125e+00 1.579238189724598485e+01
-6.831791715330587600e+00 6.254588444380367873e-01 1.525651186263997872e+01
-6.238448040921617199e+00 -1.476049425466991583e+00 2.147797468640353102e+01
-6.570186095374109136e+00 1.468801502444561091e+00 1.495917157812674603e+01
-2.628193625960653534e+00 4.368371455809392678e+00 1.913169409531701959e+01
-2.913697540756247317e+00 -8.453171557874235020e-01 1.758099496160692254e+01
-6.530612020418881336e+00 5.714613519837460132e+00 1.852072118897637054e+01
-8.518376131129468121e+00 -7.936851187852644873e-03 1.698844453894457374e+01
-2.249754714221097629e+00 2.204398232633578480e+00 1.474777558328832683e+01
-8.571602035090059246e+00 -1.746200025291798075e-01 1.711823679148426791e+01
-8.356460397111089122e+00 -4.406555079224881433e-01 1.696028564703035713e+01
-6.125248215179029287e+00 1.957995022146582054e+00 1.464236733350641018e+01
-4.300299226235025252e+00 -3.411868613593129318e+00 2.093705835173367902e+01
-6.067138646473977381e+00 -2.735154825504921283e-01 1.802176711779284446e+01
-5.536360923692786429e+00 4.859644536736907883e-01 1.737304751991497298e+01
-6.178821356125889785e+00 5.360197285320060789e-01 1.587422865853758580e+01
-3.272340684655122178e+00 2.605188227687436520e+00 2.001432736949294267e+01
-7.920649180318915406e+00 3.487077836125485053e+00 1.796194905838573774e+01
-3.135772647729580864e+00 -8.555476276472467889e-02 1.538604136199838379e+01
-3.642516564625156050e+00 -3.906455383791842539e+00 2.049572727143528184e+01
-3.381338320059827929e+00 5.437590902851010100e+00 1.772394076170964539e+01
-5.023533789415364659e+00 -1.288729638412549283e+00 1.878530410385177518e+01
-8.726674178565421158e+00 4.177250078294914570e-01 1.766404522363474783e+01
-5.713033391621971546e+00 2.251757713676782569e+00 2.063867165681194038e+01
-2.711805642398035232e+00 -9.139048377806113788e-01 2.059971610010508059e+01
-6.165254868604762351e+00 3.438250303912777639e-01 1.643446159159761422e+01
-1.717099800748143057e+00 7.486910144020497704e-01 2.002475980975330927e+01
-6.866949500324226463e+00 -2.384160523781390761e+00 1.967134358953152073e+01
-4.243956231004005986e+00 -1.493149849240615223e+00 2.106553611632140743e+01
-2.541256218301825243e+00 3.621853943502187700e+00 1.945591228511777260e+01
2.600271896722310960e-01 7.515091004714974376e-02 1.943121253566819817e+01
-3.948812226870421327e+00 7.135548697891929137e-01 1.545748026536319841e+01
-4.108814988247455169e+00 -6.658716998165250534e-01 1.801532634784015485e+01
-8.514412801382896134e+00 1.200748917460246146e+00 1.914629494669741305e+01
-3.131678745978852429e+00 -1.631512949550721236e+00 2.076848351717454122e+01
-8.354178624399843933e-02 1.100553687062987729e+00 1.943944455251304149e+01
-4.702042408645723537e-01 3.079533926255686005e+00 1.906010087014984222e+01
-2.383983406917381309e+00 -8.893090408995429907e-01 1.476653963235192535e+01
-3.747004983742492357e+00 5.885366223315788847e-01 2.077908043285986039e+01
-3.454323982189756670e+00 3.979359485332671920e+00 1.558876478538403987e+01
-4.569224327675786235e+00 -2.991730945316734669e+00 1.911469704529936919e+01
3.312657713866801190e-01 -6.641114375624814770e-01 1.947579909773760320e+01
2.401345176802325287e-01 -2.439791627319626843e-01 1.957394703119484447e+01
-6.205531508465349511e+00 -4.789124049152324036e-01 1.819392430867728550e+01
-6.353673611327588233e+00 -7.040338443205917951e-01 1.838023643665058771e+01
-2.202161026901011009e+00 2.443339506738106959e+00 1.512082266274715536e+01
4.489334460092653245e-02 2.237782184320153078e+00 1.850681214248719542e+01
-6.966332694486338184e+00 3.309692812217544411e+00 2.007181211443705493e+01
-3.414130152450464806e+00 2.333733994733216299e+00 1.327037292980353911e+01
-2.330853340622576653e+00 3.476453726186244708e+00 1.946027400919079398e+01
-2.623964227322201470e+00 2.931481023319657986e+00 1.973697062629982568e+01
-2.408624573541219949e+00 2.850927864570775849e+00 1.535373779938487004e+01
-7.011975932575199799e+00 2.788141608472270994e-01 1.554298519445744020e+01
-6.531044434135574228e+00 5.729892301520497888e+00 1.828938351190589273e+01
-6.677062975180571236e+00 4.998738632558193729e+00 1.905814474900515521e+01
4.415257737900472046e-01 -2.093329208449214107e+00 1.677237233210717093e+01
-3.679692851447383894e+00 1.597075971917250925e+00 1.341980420467370649e+01
-3.555949820617168022e+00 1.745002091362980456e+00 1.319565922212403208e+01
-3.193925905078625949e+00 1.425937978185076060e+00 2.040830642195703959e+01
-6.487302529729218392e+00 5.169783579896884973e+00 1.907503949527339060e+01
-6.528489353028030351e+00 5.334538452736194536e+00 1.890360929865321182e+01
-8.257433220045278688e+00 2.546484998327490423e+00 1.697364356049617484e+01
-6.580976766939614642e+00 2.071757201750020483e-01 2.138275848925749401e+01
-6.932001232330496698e+00 3.680285119220929602e+00 1.986605629806716067e+01
2.323586131311972114e-01 -1.473648748959107024e+00 1.597127464538690944e+01
-5.747412313050618060e+00 -3.754136041910420385e+00 2.068778573600762272e+01
-1.544068992356831149e+00 -2.415294249960041384e+00 2.015521092356585697e+01
-1.433002183638075522e+00 -2.287176163986401889e+00 2.011940115925325401e+01
-1.682652739919322293e+00 -1.461151334292899229e+00 2.019602083977662588e+01
-5.649050026116398726e+00 4.553121382353804592e+00 1.976864453781588438e+01
-2.789554460866850771e+00 2.657808009474170063e+00 1.450715497350411098e+01
-2.886830513380007623e-01 1.479339974164824323e+00 1.943116881274924523e+01
-7.964856107119744344e+00 -5.684509305001889112e-02 2.081342917868849796e+01
4.415575126415573481e-01 -2.700326740693999916e+00 1.824713603738306134e+01
-6.047030499553423866e+00 1.537873735351661386e+00 2.095754464382333637e+01
-7.922272437417320567e+00 1.597014116495720337e+00 2.017255454735154885e+01
-3.966679058531982882e+00 3.853892591549273661e+00 1.965180458129968954e+01
-1.755358859908604519e+00 -2.703070792321556226e+00 1.640601551259408453e+01
-7.480350146065972261e+00 3.231169442568491146e+00 1.963025787618655116e+01
-5.858436077074649972e+00 1.270165448845965994e-01 1.764103857352712978e+01
-5.128322983520673617e+00 -5.609215449916935547e-01 2.117990850904743283e+01
-5.340807901905741950e+00 -3.475256087890716272e-01 2.118320609653457964e+01
-5.134996249197167906e-01 3.292295040867279088e+00 1.879966477315472062e+01
-8.536583498276517190e+00 1.242112911156680211e+00 1.897392395840632773e+01
-8.543076390146016053e+00 1.299423317749962115e+00 1.881968256089946223e+01
-1.128712412806311738e+00 -1.668181640032988300e+00 1.495595114671789005e+01
-2.122240619756059044e+00 -1.449093790625078926e+00 1.496490954142038632e+01
-5.133148082929664291e+00 1.127385438117080252e+00 1.625793268380529000e+01
-6.399419035082996032e+00 -3.286366829695902547e-02 2.137183500083973442e+01
-4.856159713306718473e+00 1.346308715965199410e+00 2.072200562123309098e+01
-4.906040637749192079e+00 1.058691786621988928e+00 2.082303824837479667e+01
-7.390509531006165922e+00 3.317766468681427661e+00 1.967438632679316513e+01
-7.441875710204462813e+00 -4.982000576649879275e-01 1.634066681341847627e+01
-6.157304801408068684e+00 4.269740809674561710e+00 1.989743259779219287e+01
-5.773128584600851099e+00 2.203675319477035877e-01 2.118187162929477907e+01
-2.668588877069691279e+00 3.657921809161601256e+00 1.947195166145771239e+01
-3.285768879139864929e+00 2.057831789193139915e+00 1.318093371668692626e+01
-5.944221231704255537e+00 1.051037358917730202e-01 1.759326471808504877e+01
-7.258304934426267785e+00 3.862653645689695825e+00 1.728627195784033077e+01
-1.396518528392111769e+00 4.923018265001521954e-03 1.999248868409710056e+01
-2.923300474365914337e+00 1.785519443422314723e+00 1.341887717354901710e+01
-8.487379876701091064e+00 2.020293010906477060e-01 1.699445800500742720e+01
-8.156204580172818908e+00 1.257020050380076581e+00 1.636324277645848113e+01
-7.960530204790248199e+00 1.452585082688278018e+00 1.618864532042142557e+01
-8.189688024551603718e+00 1.632263253240600509e+00 1.640005973080942780e+01
-3.630050991940805716e+00 5.788722809959770288e+00 1.799149435141228892e+01
-8.166023177224392526e+00 1.463054928480516770e+00 1.636269917039686916e+01
4.433456919551609365e-01 -8.679395933020173093e-01 1.867886226171297537e+01
-7.215487270474356229e+00 1.404673681310150135e+00 1.551693974506492779e+01
-7.980016088928547635e-01 1.638431876056959391e+00 1.610885909804227722e+01
-7.232387291138888230e+00 1.682033784521552722e+00 1.548749503389595716e+01
2.065867811790148556e-01 9.799012959473136775e-01 1.710775683277277537e+01
4.396586066853048758e-01 -2.464185530312832828e+00 1.905347556078620741e+01
4.587793658001756980e-01 -1.558677361468953082e+00 1.668632935018587560e+01
4.174743333435434467e-01 -1.181035288284791873e+00 1.646328758702320627e+01
4.601104113181774258e-01 -1.410474915549958741e+00 1.687561425339563570e+01
3.638905374519287861e-01 -2.688813636743128677e-01 1.909091665683193995e+01
3.781385464532736052e-01 -2.143586620114095731e-01 1.890059904912963518e+01
3.900021785922213047e-01 -2.195722908383836436e-01 1.872145420270222971e+01
-6.178995103159451219e+00 3.029838846373535954e+00 1.556852046965141412e+01
3.570987653105983650e-01 3.794420386022057112e-01 1.850257766691626315e+01
2.911917765029437000e-01 -4.235204087170718612e-02 1.648654641825796219e+01
1.492218930350159845e-01 2.000464085698137329e-01 1.609677158719237511e+01
2.304121711655484628e-01 2.459057141178630501e-01 1.650513422172131683e+01
-3.606757740556627567e+00 5.605590745279492637e+00 1.779829645496474555e+01
2.478566386866953297e-01 3.571626891909651658e-03 1.624698244270279091e+01
-6.100329123674585574e+00 6.079727434419520016e+00 1.831526006198970080e+01
-6.664388021614116475e+00 2.863994570511279480e+00 1.589407151938579332e+01
-9.750767396948303301e-01 3.608795541849485478e+00 1.835396778832814491e+01
-7.451041986310104726e+00 1.821413020381379866e+00 1.572360601920180656e+01
-6.620342607396538792e-01 3.327480400456065635e+00 1.856419878138025226e+01
-1.550144746937709428e+00 1.071682467901457381e+00 1.442755059002517370e+01
-6.351118704625185352e+00 2.381333632747875129e+00 1.518186337549510867e+01
-5.102084633226446897e+00 2.316249487971007159e+00 2.045052098919638084e+01
-1.983718685508698787e+00 1.480967099233528650e+00 1.428262741049717377e+01
-1.150965512557605264e+00 2.656111760815157208e+00 1.688910655296970376e+01
-1.184244893997637771e+00 2.224301542040251878e+00 1.630735806130206456e+01
-1.689679342292802033e+00 1.753384405981771588e+00 1.501210274274674461e+01
-5.208320756762917725e+00 4.412488745033801507e+00 1.597565204262026484e+01
-1.582312810068161824e+00 1.873847521744290701e+00 1.531220644329843239e+01
-1.891677982191081853e+00 1.810526790352247506e+00 1.478658673296668624e+01
-2.649718590037574373e+00 1.849510134798288741e+00 1.374022984724151897e+01
-2.138253035688586046e+00 1.684380828993958579e+00 1.428586421777993465e+01
-2.174268328495644109e+00 1.893154782414218751e+00 1.447518617577673794e+01
-2.828604717978784322e+00 5.751637754279617987e+00 1.862930845921102829e+01
-1.635517346716803821e+00 3.575931385646329730e+00 1.736912390025497999e+01
-2.994043655605146625e+00 5.787585965046852188e+00 1.854128724191181377e+01
-2.812312454141790319e+00 2.236355835922493540e+00 1.393670946063871341e+01
4.770054856590246195e-01 -2.023622553902063803e+00 1.745752401482519289e+01
-2.903136534198189178e+00 2.013983452018489384e+00 1.356400952506435331e+01
-2.756574559224059140e+00 2.123183661566148572e+00 1.389202381330951042e+01
-2.876332087626542577e+00 2.370269846445868467e+00 1.400348712141898844e+01
-3.003573217750575619e+00 5.617779482396898949e+00 1.833970312680138548e+01
-3.018185623483492730e+00 5.545183692825403909e+00 1.823502456748649436e+01
-3.175999476140354272e+00 5.603476355603303816e+00 1.813387046825942051e+01
-7.999486861601812215e+00 2.696763342900647675e+00 1.687794213354972683e+01
-8.133561646521602739e+00 2.722636103415124964e+00 1.702022828019996936e+01
-7.988985516256508213e+00 2.581273541560609619e+00 1.676626876095916785e+01
-8.173477938566460210e+00 2.360831158475664271e+00 1.674010234546419085e+01
-8.022408958822449421e+00 2.219045744483624460e+00 1.651463180838801392e+01
-1.366475336062756174e+00 2.080615531169989207e+00 1.587428264322383242e+01
-6.671481755008985104e+00 1.869780332189924232e+00 1.505990848577642893e+01
-6.844108092878255611e+00 2.044364063035966961e+00 1.532495141205695788e+01
-6.459735677503052997e+00 1.874986001903314659e+00 1.488355617512423024e+01
2.767928794826389760e-01 7.814270921362118649e-01 1.730952021148815945e+01
-6.497463886262012878e+00 2.118673109081600003e+00 1.508143390349551183e+01
-6.286740016818364474e+00 5.654086032955303764e+00 1.814322118323842759e+01
-6.693303151827074693e+00 5.055841875648988903e+00 1.790492643215651114e+01
-6.400799005143846365e+00 4.963519170269493408e+00 1.762075809885950761e+01
-6.245719122672570123e+00 5.212754160078944210e+00 1.772907721470089726e+01
-6.230795313612170538e+00 4.020787325561764547e+00 1.655193380503964207e+01
-6.372048416989622766e+00 3.935231493697641358e+00 1.661556383060375808e+01
-5.434286674568791220e+00 2.672507504571139503e+00 1.432868796335528216e+01
-5.962848978087984086e+00 5.360195963487679904e+00 1.762916319378110686e+01
-5.835389370120038777e+00 5.495852331346198660e+00 1.770284365944772631e+01
-5.876715443798686600e+00 4.702331568277699603e+00 1.690625031944423640e+01
-5.762686399765544643e+00 4.533792756827579318e+00 1.663314066068588559e+01
-4.411648847285779773e+00 2.568379749558518554e+00 1.327390109994379586e+01
-4.564951007939789918e+00 2.583401802994104823e+00 1.338366384171755286e+01
-4.858527263014183362e+00 2.694025035772481758e+00 1.371106962073455193e+01
-4.985140328003063281e+00 2.846813730776263984e+00 1.396912058846535487e+01
-4.929828731728588487e+00 2.973960084305164120e+00 1.401558711083061226e+01
-5.409115018227412364e+00 4.410367261117474236e+00 1.617617557902002901e+01
-2.959732123903045853e+00 3.127972283263015907e+00 1.491523003379746726e+01
3.343694164690298454e-01 -3.941595096675412635e-01 1.646858398793614597e+01
-4.690113489396868118e+00 2.937032205297128939e+00 1.373812361260710091e+01
-5.179099037197090638e+00 5.161550968364438496e+00 1.684446419974525710e+01
-5.169077976510636496e+00 4.966449472100055829e+00 1.660036406934242237e+01
-3.584626370792853400e+00 6.097190003090265265e+00 1.843712998667770719e+01
-3.158239049346632132e+00 2.908218847773421434e+00 1.431360054370736279e+01
-3.277011083126447399e+00 2.428369234272234500e+00 1.354504420529056929e+01
-3.197057538282162881e+00 2.461025685398853469e+00 1.368508780687286119e+01
-9.689560636204586075e-01 2.625054969934027316e+00 1.710436653956793052e+01
-3.092331079548638062e+00 2.595361891743427574e+00 1.398871358098356765e+01
-3.921581435054637410e+00 5.683606932915511223e+00 1.771083453152846587e+01
-2.225681027125828493e+00 4.975154997037756210e+00 1.835398155471654391e+01
-3.661267671396002399e+00 2.618941042970284183e+00 1.339309601049133036e+01
-3.809311232939243119e+00 2.647852999086734105e+00 1.335090630339794515e+01
-3.919611492031918942e+00 2.594769129101694549e+00 1.323022926769711560e+01
-3.837662692860765112e+00 2.838683550440594505e+00 1.355609074691732374e+01
-3.682325278465969909e+00 2.981059636758827569e+00 1.383163580848092877e+01
-3.619380644323866747e+00 3.831355715870831347e+00 1.517536063359263565e+01
-4.433148067432025385e+00 5.957133840745243880e+00 1.780969415211826501e+01
-4.845081474516852005e+00 3.507644364160643846e+00 1.452236395334076846e+01
-4.639041479522485467e+00 3.482283658100866042e+00 1.433479017887050233e+01
-4.056245251609184699e+00 5.170174750074101766e+00 1.679772210814551769e+01
-4.007194213751300360e+00 3.324847623078982295e+00 1.408131719045575991e+01
-4.019407365057126036e+00 3.005404347659762720e+00 1.361351796534251335e+01
-8.803563650377508321e-01 5.995075260592139799e-01 1.472524488188118497e+01
-4.819303135451836972e+00 5.767177573677808589e+00 1.742520587287364364e+01
-4.413452364423779528e+00 5.441034608828491770e+00 1.698030499455988362e+01
-4.429278179760564704e+00 4.740373754384246574e+00 1.606124543844077479e+01
-4.394435308541583929e+00 4.560724502639835976e+00 1.582740781845363998e+01
-6.155849306276715893e+00 1.642139030969222313e+00 1.458997016061617913e+01
-4.443241920497640329e+00 5.911513869321798786e+00 1.767096048705198186e+01
-4.591673363150153619e+00 5.870150144034594675e+00 1.753938937764685235e+01
-4.169198364804051593e+00 3.169326643639757357e+00 1.380540158493268521e+01
-7.065420811693717162e+00 8.651445896956926340e-01 1.544471663885252255e+01
-7.300538331416341897e+00 1.013840469625452156e+00 1.562594225527832847e+01
-6.430492374117281251e+00 1.257941096538084613e+00 1.487924333725427672e+01
4.807586431863064558e-01 -1.438401269537912697e+00 1.868232555767776759e+01
5.089850655535825830e-01 -1.439710608991274343e+00 1.788270966861704281e+01
4.651086108106443628e-01 -8.484584869484630421e-01 1.786232335084318734e+01
-5.992936144680438559e-03 1.974205303518918209e+00 1.793261741205148141e+01
-6.255492171476798369e+00 1.656514030265122672e+00 1.466860823638576861e+01
8.746745201137273718e-03 1.586640946510840422e+00 1.732928351640866893e+01
-3.063469193231027621e-02 1.375051605004391497e+00 1.692354395235585329e+01
-3.650672517750515045e-01 2.230204846959643827e+00 1.749757786752988764e+01
-2.629235180892895984e-01 1.561941917542978508e+00 1.676488791018899249e+01
-4.721400842646072959e-01 1.005092040259970121e+00 1.574511366011567404e+01
