-1.399420158945645420e+00 -1.789953975496724858e+00 1.459607638414203734e+01
-3.888586478825776904e+00 4.903149971773356874e+00 1.712437612710348134e+01
-2.115074526521787401e+00 3.734796479986774109e+00 1.616139317949956933e+01
-1.336672832664267618e+00 -2.997691408798714541e+00 1.822724765615959797e+01
-3.547132120669231004e+00 -1.493467480437145056e-01 1.491330800938610679e+01
-2.540788411169086380e+00 8.991257686531102244e-01 1.267772424392556729e+01
-1.217397074096835619e+00 -2.805990420806352859e+00 1.810211220809657107e+01
-8.416818094048432286e+00 2.440301179826726230e+00 1.755512284949623592e+01
-5.449082436472926894e+00 -2.660886635472854422e+00 1.918932260510956667e+01
-4.920433229072566306e+00 -3.814897915226891811e+00 1.872366859212842627e+01
-3.902094595015680234e+00 1.090040458978336346e-01 1.426765430783905941e+01
-8.073717658832684663e+00 1.742612907612887341e+00 1.806880118855370654e+01
-4.061960843324030179e+00 4.734589412606552195e+00 1.582350471896189958e+01
-1.289522051731367913e+00 -1.721309257171953710e+00 1.463388874004808571e+01
-2.924346593198984934e+00 1.503231813840284481e-01 1.314428081212574995e+01
-6.703209253009076107e+00 4.501434066130663325e+00 1.705813002286630820e+01
-4.959451162860492701e+00 3.733918842533680671e+00 1.763076236471741964e+01
-5.508709624637968538e+00 4.777508447516081169e-01 1.239083719941412198e+01
-2.242276799967124035e+00 1.784111784887083996e+00 1.374562664297810954e+01
-1.936890762822870649e+00 -3.335053196567110412e+00 1.711138768643004227e+01
-5.911956814852242559e+00 -3.536987015953929614e+00 1.904297279447035152e+01
-8.036183091196440031e+00 4.585145717698996037e+00 1.616777563556805575e+01
-3.654495372184792590e+00 4.777690578143980460e+00 1.716878550590129748e+01
-6.519140090966482504e+00 -3.314068753423208058e+00 1.816263599929870054e+01
-6.294724787070324012e+00 -3.427446880814080998e+00 1.911582328450217005e+01
-8.526113620629161005e+00 -2.043076390835753209e+00 1.550142187143267591e+01
-1.346536653263663563e+00 -1.191775406075598731e+00 1.849527483949180606e+01
-1.191847720056734339e+00 -3.318933423840573660e+00 1.645146154618875300e+01
-1.165050765196319116e+00 -8.170615404351915245e-01 1.832251799175689655e+01
-9.702996924708823911e+00 7.732314299309903660e-01 1.520298718096030655e+01
-1.357257966404747052e+00 -8.006717850644591294e-01 1.845558971591959363e+01
-7.563256969100677907e-01 -1.695781765868131785e-01 1.777577407295233058e+01
-7.757241843778747814e+00 4.612959120186316042e+00 1.646638787901789414e+01
-8.542479526456927541e-01 2.011351719181164732e+00 1.597650803198904157e+01
-8.706175607697002050e+00 -2.078906578287758045e+00 1.877980659684128284e+01
-8.161951137293691261e+00 -7.065655249770204094e-01 1.885074218769410948e+01
-6.770666666680721590e+00 3.179114807419851196e+00 1.770092573517469958e+01
-2.505340173427296424e+00 -2.937843415169659522e+00 1.711991710522858767e+01
-1.641327084343956910e+00 -1.598205282024899532e+00 1.867805549027113443e+01
-4.598239573203685149e-01 4.874199720722547369e-01 1.681243348569947216e+01
-9.027837879832805612e+00 -1.014120644862180676e+00 1.846548405738018062e+01
-5.290997033648855208e+00 4.779343715529250858e+00 1.709773447986633954e+01
-3.050890971453219525e+00 4.783356806654436966e+00 1.663964755198630741e+01
-7.228087226239129137e+00 1.435704750286655340e+00 1.841753102440298306e+01
-5.509652261030676179e+00 4.577599516669062396e+00 1.717408417977303259e+01
-4.460693732114962451e+00 -2.951121763540530019e+00 1.907636228926587307e+01
-2.240602984980038404e+00 -2.406162366370637962e+00 1.884426775241940533e+01
-1.501087773824623550e+00 -1.878720169894199543e+00 1.459043603266984235e+01
-6.923100235073405884e+00 -2.928097785816126120e-01 1.429010757923800412e+01
-7.037021789719053455e-01 -2.163290785443972908e+00 1.728980975631365169e+01
-1.641125093328174689e+00 -3.351874152085916769e+00 1.687545959506014981e+01
-9.221791081373822863e+00 -1.629820380983072248e+00 1.836116064439688245e+01
-3.474885742942896094e+00 4.734075359441526132e+00 1.717053621860362256e+01
-3.289815627701994760e+00 4.564936648282342802e+00 1.611962355057776364e+01
-1.034693047553625123e+00 1.560786707936642870e+00 1.530021734293411129e+01
-1.677993960262148532e+00 -2.995985569277216598e+00 1.864419643882965971e+01
-2.073569015915372127e+00 -3.038625146650568709e+00 1.880937446739996943e+01
-9.882896326165596435e+00 -1.445117142098230723e+00 1.690000940130729390e+01
-8.464600359258998452e+00 3.741874581914259146e+00 1.652778917097582223e+01
-2.077224565970404058e+00 -2.839038970978470466e+00 1.882665436025700245e+01
-4.596444375219626011e+00 2.800749214682938693e+00 1.267162523428651610e+01
-5.136463103475151115e+00 -3.558597958842597109e+00 1.778620819653271212e+01
-1.089972378400113184e+00 -1.831280159221853054e-01 1.819479438620554390e+01
-2.619090652338329495e+00 2.554838118254031620e+00 1.407010435108062296e+01
-4.215561080769840707e+00 -1.948044294297162082e-01 1.496510514915984658e+01
-5.857486690529583484e+00 4.584657656541287984e+00 1.510428331082818687e+01
-7.185150783305523703e+00 2.995599087028049112e+00 1.425202718123541246e+01
-1.606455907154325624e+00 3.705291057756086026e-01 1.833921901038967661e+01
-3.347155325584698637e+00 -1.107708372964962606e+00 1.880717429264553431e+01
-8.172522211862684571e+00 3.161837054852208340e+00 1.491071776164673679e+01
-4.153469184859160279e+00 6.119024260662353498e-03 1.456192900383647526e+01
-5.404706433937167986e+00 2.308335936373432595e+00 1.240693794992355947e+01
-1.741547556667557339e+00 -1.558620728543840706e+00 1.870139840803247466e+01
-2.543705187616887020e+00 -8.195521044548872425e-01 1.393340084188287875e+01
-4.344867759936843044e+00 4.431495938882636487e+00 1.739092714267447803e+01
-2.448862491405905395e+00 -9.311419298527354727e-01 1.396070440994413531e+01
-6.578832497840493509e+00 -2.803523597941559586e-03 1.433363984203666774e+01
-6.324182497114492207e+00 2.461663573773367197e-01 1.887043251773022234e+01
-2.495812212421898213e+00 -1.002997241921828042e+00 1.405007319197547844e+01
-2.852059071158541403e+00 -2.360194551956237063e+00 1.693644310416949850e+01
-5.907397169996104758e+00 8.719858952475192382e-01 1.164359043036319719e+01
-8.501169154615091372e+00 -5.206021765993451567e-01 1.371896199584752907e+01
-9.901712060137889182e+00 -9.036275878826431907e-01 1.694315080655544392e+01
-3.074672084586788756e+00 -2.157373041598255270e+00 1.687939329276911593e+01
-5.215475508653932835e+00 1.583193825195080784e+00 1.847544236100292636e+01
-8.762397672889047584e+00 -2.474672789067531298e-01 1.847675962852435561e+01
-5.597436262427115672e-01 -3.350087479267136459e-01 1.737057538181029059e+01
-7.221726332017090577e+00 3.942296750257535010e+00 1.726873723172190012e+01
-6.647825202878190343e-01 1.624914663465740094e+00 1.616290539884073496e+01
-7.561006672906152914e+00 -1.493901477064562222e+00 1.638001311029980656e+01
-4.291682434476300045e+00 -3.236524566084493237e+00 1.754724228118559637e+01
-2.256448503700561936e+00 3.824717247436276502e+00 1.611321795596645501e+01
-3.728214024368309953e+00 -1.498840293488470365e-01 1.879308318079982598e+01
-7.558693378273473762e+00 3.516876794910772652e+00 1.739962592660610596e+01
-1.356267079083437466e+00 -1.608547413454172847e+00 1.452775743148970378e+01
-5.944723488191058003e+00 3.785557120670735465e+00 1.429723245011044241e+01
-5.614456364497664165e-01 -1.666719986021371724e+00 1.682754107348702632e+01
-4.016793014810198237e+00 4.785057086263262427e-01 1.290153339276962896e+01
-3.339110130587816805e+00 6.446119689606528702e-01 1.250797460357321711e+01
-7.557014682990908838e+00 -1.295206080678150684e+00 1.500066625114487806e+01
-7.193434386593287044e+00 -6.873012780047309533e-01 1.483939645681841313e+01
-5.609586099392748215e-01 -1.900549923293108456e+00 1.693252920778252246e+01
-6.960109181890432595e+00 7.075108609834459550e-01 1.872735623601488442e+01
-6.855576367625319634e+00 -2.267796002008743983e+00 1.926682999686478581e+01
-6.075767875701196807e-01 -2.050900457463685989e+00 1.653165994144203665e+01
-5.609821282843826751e+00 -7.717014630262228891e-01 1.598420042946624875e+01
-5.259212389362939888e+00 -1.270951212855979229e+00 1.634437589076953401e+01
-4.510993214798460826e+00 -3.820998823905203068e+00 1.869439956914527556e+01
-4.115196840825289470e+00 -3.743173928021245267e+00 1.877529576257699517e+01
-3.172808011669149941e+00 -2.572747623834548136e-02 1.371594494448863344e+01
-3.640388182279380214e+00 -2.967649479548762237e+00 1.898057174888118936e+01
-3.350715635779445201e+00 -1.214986776728101070e+00 1.620379660922351661e+01
-2.374525610339753179e+00 -2.709314731885750227e+00 1.673859077296966547e+01
-4.881653454917098678e+00 6.671710275563005332e-01 1.198012817386403839e+01
-4.519740873703303130e+00 7.146250819613078065e-01 1.203645419421260243e+01
-9.011498070862519194e-01 -3.797311893073054279e-01 1.799905975582441187e+01
-1.941137419953537835e+00 3.327929890035097316e-02 1.844449900228495665e+01
-9.550724433664264268e+00 -1.826879553911424203e+00 1.558142640755885822e+01
-1.873547941523199256e+00 -2.622236723278429160e+00 1.545537487301196933e+01
-7.088782058446448708e+00 1.279613803653654625e+00 1.852457416785807709e+01
-5.290753113282652187e+00 7.192217019254587562e-01 1.182508034833417554e+01
-8.776234821186623236e+00 -1.364074971480376597e+00 1.443739093821187680e+01
-5.311455449829472819e+00 6.466303644129660633e-01 1.196914706302787579e+01
-2.349430649835500873e+00 -3.680040190169139080e+00 1.838316992735584421e+01
-5.490255173869782013e+00 7.203315390415734321e-01 1.184002206713514482e+01
-4.973329504683333013e+00 2.802180183261170576e+00 1.801533182707372305e+01
-2.482383198106463684e+00 -3.632531995589018514e+00 1.803006476474812558e+01
-8.029776617857069532e-01 -1.288107910399705958e+00 1.544858675396127268e+01
-8.891079045084847365e+00 -1.665119193441267242e+00 1.466643543205672984e+01
-2.444464631829631696e+00 3.816457022970027868e+00 1.589565620689280223e+01
-7.310923658984768814e+00 3.486440551262078635e+00 1.478369211066711131e+01
-5.431479191061313827e+00 1.733902485573191488e+00 1.177132263785584598e+01
-6.985423784139890735e+00 -1.049789808531726543e+00 1.624351202716268716e+01
-2.337878007005532055e+00 3.608647703456677291e+00 1.574339065478431365e+01
-4.955228561628158168e+00 1.829317467858668778e-01 1.314863579728478271e+01
-6.787805550399960808e+00 -8.164423153432291969e-01 1.607228544003753967e+01
-9.518739400987957566e+00 6.922352416534236497e-01 1.440364779571984855e+01
-1.615747500143335680e+00 3.304955978904219993e+00 1.620145725529762615e+01
-1.982412951698536929e+00 3.340223159351852100e+00 1.750953796843608501e+01
-7.359895627783196836e+00 -1.072099076480218294e+00 1.601043298778726864e+01
-7.346912467272729508e+00 -1.138648710355470328e+00 1.612720243833226164e+01
-3.927565076864231841e+00 4.431833957593699580e+00 1.736287283615565258e+01
-2.051803726110821735e+00 -2.136980701302818808e+00 1.488978723860254405e+01
-2.235248482105948398e+00 -2.684924735496475812e+00 1.606538571072159982e+01
-5.401599234676662142e+00 2.683784183827456538e+00 1.807609848537911290e+01
-7.586531666590646594e+00 3.403945919915817520e+00 1.483959958662870804e+01
-9.269662418098008061e+00 -2.384963602620615575e+00 1.665419927867694128e+01
-2.242308471622128430e+00 -2.720794453056771367e+00 1.626131818802545581e+01
-7.625839618777308537e+00 -1.759320598650463197e+00 1.913492309544140824e+01
-6.490508149524645276e+00 6.385014726604083535e-01 1.877383381520029104e+01
-6.864914308481152361e+00 -2.160314848886121908e+00 1.718400953642118623e+01
-4.664453688305927770e+00 4.606875199821825362e+00 1.540660840585193370e+01
-7.115433332426343682e+00 -3.441933991809483118e+00 1.852567466664012841e+01
-5.892769714440133644e-01 -1.906654624036725032e+00 1.715923396066271778e+01
-5.243095392416262435e+00 2.331091143734601800e+00 1.234565973162841601e+01
-9.174257878359689755e+00 2.711517102386961309e+00 1.585160380189627460e+01
-3.633920886929411509e+00 -2.326717795741425121e+00 1.707264787404373152e+01
-9.104998593998129053e+00 -2.486809759061472391e+00 1.689552411943743948e+01
-9.104971367854197695e+00 2.898386902163753387e+00 1.564059861243803340e+01
-4.114276532258219987e+00 -3.694966877944155570e+00 1.818381685312059659e+01
-9.901256581403703905e+00 -4.410312066778478979e-01 1.549368911271466942e+01
-3.745370776230658727e+00 6.048445309556655936e-01 1.260905120609142216e+01
-9.122907665538313893e+00 1.087766693668079654e-02 1.812628979113959105e+01
-3.298311900952317632e+00 -3.112199550927388536e+00 1.752794082758452276e+01
-2.725315404578503298e+00 -1.309554479776991798e+00 1.497953552885945783e+01
-9.018894262111327720e+00 -1.831487768008911665e+00 1.490675960663655530e+01
-1.802182764159175887e+00 -1.899283472715995735e+00 1.456930942862307177e+01
-1.633571824825747143e+00 -2.141555242497785727e+00 1.476514349689857397e+01
-6.934522546370216922e+00 -3.168296712853750918e-01 1.469524646032612480e+01
-9.070343400011768864e+00 -2.703708547989601030e+00 1.744894374269082249e+01
-6.367450261175799930e+00 2.990242555869652819e+00 1.370256780391474649e+01
-6.547804895715680473e+00 -4.629871115809676141e-01 1.569780117633286665e+01
-3.896957694061359501e+00 4.203462100505832133e+00 1.519654491876352864e+01
-8.744306935162018846e+00 2.947847020476237034e+00 1.684652495655893745e+01
-6.774759264080055132e+00 2.223874910799565008e+00 1.321792491718333196e+01
-5.893790601919835836e+00 2.117855459535036289e-01 1.886645087910084584e+01
-8.656646816928144972e+00 1.465693150494318253e+00 1.791469162259983250e+01
-2.445721287563769497e+00 2.074944528851288883e+00 1.804959852676430643e+01
-5.810457067752412996e+00 3.235236460797843883e+00 1.363293887466304710e+01
-8.540686975537310488e-01 -2.683635669384713651e+00 1.729418416017856686e+01
-8.238811916421622250e-01 -2.330291723274088511e+00 1.570599358043161686e+01
-4.493842819328313531e+00 4.891324298458439301e-01 1.259348677419777829e+01
-6.248144873521433773e+00 2.544653554245878357e+00 1.314540565547861917e+01
-8.379027420212340482e-01 -2.887876952353433779e+00 1.705580881602767107e+01
-9.541796505808832762e+00 -2.302877405758973595e+00 1.683212409883819305e+01
-8.272442239726114366e+00 1.412781381288599647e+00 1.814529800152665473e+01
-7.481544284920611521e-01 -2.654204457156274621e+00 1.699774261479100801e+01
-6.288675997903194759e-01 9.161243343186846744e-01 1.733539964798323041e+01
-6.062849742117604190e-01 6.930248468473187984e-01 1.735110083474509679e+01
-2.345737855261040394e+00 3.081438879416147358e+00 1.506613471769855295e+01
-2.160670792211042190e+00 -9.891758773836514251e-01 1.863299307098075275e+01
-5.360525732421987932e-01 1.165559017212755233e+00 1.706045871092587873e+01
-8.841775982154032931e+00 -1.177144688070965728e-01 1.838957573898467501e+01
-8.245712980095778022e+00 1.586189478637174410e+00 1.807978674303884503e+01
-8.308471231630317533e+00 1.434817003235187016e-01 1.858963041341091582e+01
-7.957221477073469273e+00 -2.935952499349632205e-01 1.327007118560352694e+01
-2.468113166954673421e+00 -2.411151278440756940e+00 1.886025234073711232e+01
-9.639470460308359634e+00 -1.950195141267246690e+00 1.609573229259242311e+01
-9.544618527389431506e+00 -2.210237960164725735e+00 1.773816049805812156e+01
-9.590863829981966404e+00 -2.090920977749946452e+00 1.631162947544572006e+01
-7.273075988876827047e-01 1.502898544980387552e+00 1.729386103305682099e+01
-6.808817135536143539e+00 -1.551096092826655060e+00 1.673414133762713618e+01
-2.751472463819759184e+00 -7.874052126555026732e-01 1.863274169969616878e+01
-6.769719062747301397e-01 1.295146874259418546e+00 1.728761686306221890e+01
-8.914895460427874951e+00 3.309689838569419784e+00 1.571765643216419761e+01
-3.006229878310422432e+00 1.212381070985493636e+00 1.220152015307680671e+01
-9.742803990838353911e+00 -2.099249775641788496e+00 1.708254282516663380e+01
-6.495221958354984615e+00 2.341367887505700462e+00 1.311613585288338157e+01
-8.006266549789863518e+00 -1.756030954900325902e+00 1.537362356692832321e+01
-1.450223697884203578e+00 1.278671480805128713e+00 1.448808336881366898e+01
-7.931946077052478561e-01 1.903655495740424364e+00 1.723342909945131396e+01
-6.817739777847237725e+00 1.434643010164382559e-01 1.317658432239948496e+01
-3.523087241551749571e+00 -9.836760300134095303e-02 1.475543029235146264e+01
-4.817254442660994229e+00 -2.133002972871882896e+00 1.685311089134035711e+01
-8.615770763719261538e+00 3.551025270704011749e+00 1.547778276863657965e+01
-5.039222829775948931e+00 -1.990891370261185678e+00 1.679064264923604810e+01
-2.782788778832046006e+00 -1.163889724237432866e+00 1.869792392854164831e+01
-2.525030277411279833e+00 -1.470180675484669131e+00 1.872948733781601049e+01
-6.510466365062214322e+00 -3.043783275950349143e+00 1.924828455564001928e+01
-3.133863855189140235e+00 8.243858232687584220e-02 1.339605096244414995e+01
-5.517051387785485872e+00 3.891095239922837123e-02 1.436962735883978581e+01
-6.400627390924072957e-01 -5.473878273109065162e-01 1.592425505178720613e+01
-6.963070613247858809e+00 4.468271024589620666e-01 1.879352748932778638e+01
-8.875300747802960188e+00 7.404537139206874841e-01 1.385838939610290765e+01
-3.638912017093692164e+00 -1.970087235986567542e+00 1.893610242582146697e+01
-9.465038461179418050e+00 -1.960123261434715936e+00 1.569469155254294890e+01
-1.722541244789905335e+00 2.598534519000896825e+00 1.773140399270951661e+01
-2.457323066821309521e+00 1.246918755543966473e+00 1.825073195810751514e+01
-9.393434671575921158e+00 -2.019525119241174949e+00 1.572535510317170804e+01
-9.609603523952138460e+00 -1.910923744124405133e+00 1.592426593017834335e+01
-6.085554273110365564e+00 8.297442257612668293e-01 1.181188539337982490e+01
-8.666394178007056581e+00 3.420972136228198845e+00 1.541424734979500499e+01
-7.715154143755722060e+00 4.301661591507800253e+00 1.682119247211255697e+01
-1.368168621246032668e+00 1.647573100710834293e+00 1.488271810988678112e+01
-1.026425361758724453e+00 -7.923099350377729166e-01 1.445308398824383289e+01
-5.379761472714536197e+00 -6.793950457552542233e-01 1.903526364939037308e+01
-8.663718204129114753e+00 -1.696034623176368328e+00 1.879598650233779011e+01
-3.569918764708589265e+00 -9.453694157994680936e-01 1.885411554478385199e+01
-1.898319854327748857e+00 2.216725850114669605e+00 1.464509230712032917e+01
-9.875788572045067326e+00 1.357350238681025445e-01 1.573067501660794676e+01
-6.144224428478856304e+00 -4.154793906629379308e-01 1.569453719692932481e+01
-3.436440460195536506e+00 1.055309326050428709e-01 1.382412187519597779e+01
-8.464629810382806596e+00 1.888341919764962906e+00 1.782644192060179478e+01
-9.931723862851196571e+00 -2.742780780577218636e-01 1.571559165250412349e+01
-6.738569352297853143e+00 -3.532368335318048835e+00 1.891621692840101332e+01
-7.974339135280247959e+00 4.031279121759230755e+00 1.685698809449701940e+01
-5.143441449733166415e+00 3.705091032082462377e+00 1.762019590742054476e+01
-8.393794109973047313e+00 -6.759519239570357385e-01 1.369599458195644104e+01
-7.255458224808598366e+00 1.316472772631534838e+00 1.289261757341485293e+01
-5.631316316314893822e-01 1.606104768974982999e+00 1.650415330659928514e+01
-8.863917890158227175e-01 -2.520745552672560841e+00 1.748509617467703947e+01
-7.629058410290205039e+00 -7.449316152181344464e-01 1.393120212394443769e+01
-8.400187755207785267e-01 -2.324634628826184546e+00 1.749200659414001535e+01
-1.828373689201101548e+00 -1.809601392035228962e+00 1.449786210069252235e+01
-5.151850327253020723e+00 -4.582403947314350745e-01 1.899027709958583188e+01
-7.887824072846533419e+00 -2.747203102501675431e+00 1.911519585893911710e+01
-6.003391022921250375e+00 -1.165788940335357182e+00 1.646603777907058230e+01
-7.839358509291711741e+00 2.423021807657748106e+00 1.414176048990989898e+01
-7.887082663232813928e+00 -2.981552640967002787e+00 1.906923997801951742e+01
-1.650491531486328212e+00 -2.065608206949613113e+00 1.872476078662695897e+01
-7.152267163407626249e+00 -8.397927124609338989e-02 1.336615475468112635e+01
-2.719745019835840605e+00 -3.652502161609677778e+00 1.814520074200874689e+01
-3.380470941370750992e+00 -9.417833535104724874e-01 1.880257158941675755e+01
-2.165176677370690861e+00 4.010242506676545027e+00 1.649014302867777104e+01
-2.967817580520610843e+00 -3.683968196961035169e+00 1.835748851675356264e+01
-7.860024619176793514e+00 4.564264269768719018e+00 1.641680884988479505e+01
-6.027967456735459528e+00 2.503482253922856060e+00 1.296773091177248460e+01
-6.131897545971281005e+00 3.996587078906717938e+00 1.742093671841766422e+01
-8.383103732784906725e+00 -1.105782061997842902e+00 1.402907173380884842e+01
-1.987313830750013777e+00 2.785769711153308847e+00 1.776168612481549758e+01
-8.067846655478213336e+00 2.140504332749250338e+00 1.789767436627791142e+01
-4.612148191812647902e+00 2.596292190621264595e+00 1.810216751296957938e+01
-3.288448803407181931e+00 -2.762778277056292531e+00 1.731801891353904921e+01
-6.712416923850959449e+00 4.859639938581789664e+00 1.581924231580099161e+01
-4.363194420132041174e+00 2.877910938970133614e+00 1.798214719850181353e+01
-6.169201034751742085e+00 2.657776472403423629e+00 1.322007782789646768e+01
-1.036062312981402833e+00 1.714534302352006101e+00 1.758880728490941436e+01
-5.492896027044420038e+00 4.774110002632871108e+00 1.707591775031690418e+01
-6.557322656543187911e+00 2.703907458476209058e+00 1.798427076298298033e+01
-9.227533726798888836e+00 -1.933944299345050410e+00 1.531437551007811493e+01
-4.895640086481331643e+00 1.219907331413246254e+00 1.107538130412334709e+01
-5.066377972108979222e+00 1.225953638421787950e+00 1.109980213661673076e+01
-2.424385652704212912e+00 1.273239842629962926e+00 1.305564376818658445e+01
-5.677075087604250836e-01 -8.113159963825182786e-01 1.645259308910778628e+01
-2.484063966328124984e+00 -2.048676002589288281e+00 1.553667106098878037e+01
-7.816675532679076888e+00 -7.346184765443535269e-01 1.381439729909919123e+01
-9.515997359599428052e+00 1.747653961870392791e+00 1.531607172386170390e+01
-5.283903984546563848e+00 4.635136478315560637e+00 1.717292335550932592e+01
-8.218761864529856354e+00 -1.047407172473351800e+00 1.890379275001598813e+01
-8.505811601022777779e+00 6.870793056281163658e-01 1.833005968136294683e+01
-7.905191959942206026e+00 -5.721846123294502817e-01 1.359319351674781728e+01
-2.385783323460405114e+00 -8.678729066473200859e-01 1.388085064502226373e+01
-7.686826537036940188e+00 -2.770636024077309578e+00 1.916694299887706876e+01
-8.122732695605176190e+00 -1.817903209722191882e+00 1.516948811566937394e+01
-8.654376966368658941e+00 1.856015885857645653e+00 1.428841318272261418e+01
-9.047867594305394334e-01 7.796119239738610318e-01 1.485630773958412476e+01
-2.681660536469673062e+00 -1.521900475737496983e+00 1.600951480260284399e+01
-9.217042303627916766e+00 -1.780811828390758578e+00 1.502258359424669010e+01
-2.598034274173979252e+00 -1.633745477674085400e+00 1.577630702939332252e+01
-8.402958645719548869e+00 -2.000889289912209712e+00 1.552495512732827621e+01
-2.016321627080681189e+00 2.808645984298731246e+00 1.509958897612679607e+01
-2.948743669871754403e+00 -7.796980341472901088e-01 1.525012422028488857e+01
-6.092242789154950211e-01 2.193135099484869066e+00 1.661183311686848185e+01
-9.174513736189563451e-01 -2.338536992441126117e+00 1.766289276915531303e+01
-8.498245370447971681e+00 -2.521357554992262884e+00 1.886614808836085189e+01
-5.472211051616367783e+00 -1.676189138864043748e+00 1.670931926263586575e+01
-5.612780013899956622e+00 1.058525110315507778e+00 1.131809911248406308e+01
-5.236932194364048776e+00 -1.598813301307414392e+00 1.658643104458725759e+01
-5.941354152175719605e+00 1.009630036812754650e+00 1.158411237434403063e+01
-2.508329421321656039e+00 3.837122430725844691e+00 1.743539283675573870e+01
-9.829284598043816601e+00 -1.535520465132260703e+00 1.596978972680435049e+01
-9.870010356107421501e+00 -1.294572490413138155e+00 1.579965263975637413e+01
-8.550365355547107082e-01 -8.697015552376736736e-01 1.507843601556641033e+01
-7.786032354234600383e+00 -9.652296314219359630e-01 1.898890410500381165e+01
-9.276690442003609149e+00 1.371843880659644466e+00 1.729615182158131148e+01
-9.430153405116779908e+00 -1.015968338957089934e+00 1.476633598959050175e+01
-6.866394820215901973e+00 -2.621510187026651728e+00 1.927167472066133769e+01
-4.800732928414103817e+00 2.639651864743766563e+00 1.245995534569397734e+01
-5.168822717008440648e+00 -7.009779844574568486e-01 1.572792090405088317e+01
-6.634241830801329343e+00 2.082683423359215524e+00 1.297220964520994357e+01
-1.146435235880786774e+00 -6.081411166285697334e-01 1.828690829197513779e+01
-6.896487174881527515e+00 8.460122040555102529e-01 1.870088641778847460e+01
-4.979907772076344052e+00 -4.969946957777677810e-01 1.898945343179365608e+01
-2.298443752974566046e+00 -3.012100466563992107e+00 1.885414742466786464e+01
-3.155180195261264142e+00 4.587922135249608679e+00 1.719545607636746354e+01
-1.015126161301582730e+00 -1.402977097011893548e+00 1.478673223334363485e+01
-7.256155268310146012e-01 1.078269575520718782e+00 1.744260561044668378e+01
-2.916231830932217939e+00 4.305306585273208420e+00 1.606937579302316266e+01
-8.843899409551798652e-01 8.864107924509996295e-01 1.772473793846831569e+01
-6.058388365136410769e+00 5.130819296239161886e+00 1.593157917483033970e+01
-1.650438252545181728e+00 1.091254560913370586e+00 1.405997483569159812e+01
-2.540984508956691812e+00 -6.866726205126996163e-01 1.859255897261133583e+01
-8.831624178914760925e-01 1.866133621029351541e+00 1.579685070035843353e+01
-4.427256408450668701e+00 2.206665985848391909e+00 1.824590857990640558e+01
-2.709336450562164433e+00 -5.208337989646194544e-01 1.858050191155358277e+01
-2.822285360237326124e+00 3.243798341803055596e+00 1.476032136700156627e+01
-9.802827937757943033e+00 -1.479955874495553658e+00 1.736947509060860284e+01
-7.523242024024982655e+00 4.245337972573781649e+00 1.698496093339429081e+01
-4.303250348120114310e+00 4.671335107248797414e-01 1.278996386674101160e+01
-5.807208753197040885e+00 3.187926539841821061e+00 1.777798652906588472e+01
-7.110657225331409315e+00 -5.500492246098183102e-01 1.466219692208144920e+01
-9.621654237954125222e+00 1.020759782593469556e+00 1.665783633763737726e+01
-5.705342959898641375e+00 9.912908899212413694e-01 1.865388311367978957e+01
-5.808138342025188194e+00 3.570354093437844600e+00 1.762098362475564528e+01
-6.122791781845320358e+00 3.561410888675761388e+00 1.760835954581934004e+01
-3.262765929795525377e+00 -2.347003479565639594e+00 1.705355064136360710e+01
-5.816486820839039673e-01 -2.092074301526200664e+00 1.696799171800106620e+01
-9.664829618767782904e+00 -1.490754919376999332e+00 1.534514047944713866e+01
-6.566641262455439332e+00 3.166648934118484249e+00 1.773438001796678520e+01
-6.758606527540116815e+00 1.180476024312809624e+00 1.238645472491994326e+01
-8.912163708864632383e+00 1.106047204659350580e+00 1.400841582896016035e+01
-3.079463062709629995e+00 4.214857950251664320e+00 1.581550428294784183e+01
-3.884013857230450562e+00 1.048235290437761424e+00 1.164249930907121922e+01
-3.312915686929852832e+00 3.657135490640635034e-01 1.300559830781876514e+01
-3.524148059074599271e+00 5.037092019388493824e-01 1.281390818588035074e+01
-5.082002797344234324e+00 1.441403815504236352e+00 1.129101929973889895e+01
-1.485017451788898102e+00 4.477564977976995486e-01 1.829267310179344719e+01
-7.469319859380052051e+00 -2.199518459823644356e+00 1.920561149442098525e+01
-2.660398462961726107e+00 -1.343251651006607261e+00 1.461310745986394721e+01
-3.815549042276268565e+00 -1.538786864737325288e+00 1.652709323963325261e+01
-2.644875900165342131e+00 -1.547767774973461741e+00 1.496636372466759468e+01
-2.721156095506853223e+00 -1.306598385224557290e+00 1.480418856749558643e+01
-3.523842660131621507e+00 -7.173316220779071273e-01 1.576275980258311193e+01
-7.110235731297803952e+00 -3.372049114130637903e+00 1.838121595895184157e+01
-2.883993341745232808e+00 -2.823607276269722632e+00 1.726649417833678513e+01
-2.959678429754998064e+00 -1.365156340845459226e+00 1.874964256391221085e+01
-2.969450696510626653e+00 -1.157849654867467493e+00 1.872419339771596469e+01
-3.951035547464333497e+00 -4.998876990389904407e-01 1.888323464894612869e+01
-9.823869201139252993e+00 -4.421028107457045664e-01 1.713559643152937184e+01
-7.501410957217784059e+00 5.026836208524439797e+00 1.627524808802929357e+01
-7.663307259835151264e+00 1.123971781206606568e+00 1.310052007914110561e+01
-8.691013494234722803e-01 -4.846012953992175909e-01 1.796884681212837620e+01
-1.243339634726919884e+00 -3.384638841778498275e+00 1.766271857325899930e+01
-3.084184368053081826e+00 4.447753189907657223e+00 1.725411402377124404e+01
-9.596825952783010649e+00 -2.314358429574861375e+00 1.730794691549555608e+01
-9.687878375292424238e+00 -1.336698255283819137e+00 1.768309109479723418e+01
-8.858519117705426993e+00 3.063541183877747542e+00 1.651291244257686230e+01
-9.630677291983769095e+00 -2.261682669898784859e+00 1.706616872028861565e+01
-5.732710916043127547e+00 -3.526786823586391506e+00 1.817031158996825013e+01
-9.352949418583452967e+00 -1.350846260408883559e+00 1.821244451108444906e+01
-8.742631116540280800e+00 6.141068418879562785e-01 1.822533800568889006e+01
-9.587406232098288683e+00 1.508710722160603535e+00 1.590403188500515341e+01
-2.555305094515003539e+00 -6.886354536155829820e-01 1.383295610114404184e+01
-2.630250237097961019e+00 -4.579330732809889781e-01 1.366491385901436217e+01
-6.629352083802524387e-01 2.823478331636701810e-01 1.561062025086719274e+01
-1.968353961567176347e+00 -6.480536502538996046e-01 1.371786810947757829e+01
-3.167408874523251594e+00 -3.675387224327917757e+00 1.871033179447944406e+01
-8.984368860021977099e+00 2.365567694456275127e+00 1.697119802009222411e+01
-6.904361152379927091e+00 -2.827955010977731831e-01 1.447449946408463006e+01
-2.330254564409712792e+00 -3.605091231705461752e-01 1.852313490178150346e+01
-7.979428955728322670e-01 2.586226327645478662e+00 1.686896821768957011e+01
-8.655366379985757419e+00 -2.033026583506283735e+00 1.531149882815431340e+01
-2.172045016656518612e+00 2.952526681125891006e+00 1.774384800444458676e+01
-8.869351956555373562e+00 -2.039274042066961279e+00 1.527948267667071747e+01
-4.692095130844902151e-01 5.792942268143366213e-01 1.664155081379078638e+01
-1.110157495639083836e+00 1.547902999239243904e+00 1.518069881185049042e+01
-9.342470608959100531e+00 -9.757916417310710244e-01 1.816618109971686579e+01
-3.181254459518971789e+00 2.837179396382033758e+00 1.383932999166379574e+01
-3.723945909226439976e+00 7.932040916495264327e-02 1.875006834172057069e+01
-3.727026004430689543e+00 6.829057190723544224e-01 1.243067783952760408e+01
-9.585336605151926648e+00 -2.236233035476145936e+00 1.761425290978732505e+01
-2.750970055818158677e+00 2.637502837166083580e+00 1.401767094432412364e+01
-8.198542662901356692e+00 2.647759411375600003e+00 1.758384360868538465e+01
-6.984562622810821075e+00 -7.053624926311439225e-01 1.580990855849762511e+01
-2.395529922480770235e+00 1.117405616138082536e+00 1.300456030361026194e+01
-6.146283429340415161e+00 3.732549149940723066e+00 1.435780816129769022e+01
-9.316325116849778709e+00 2.106991641802501647e+00 1.634885492121052408e+01
-9.489107714929549076e+00 -1.734156544141438161e+00 1.800643263995556964e+01
-1.540506927611267951e+00 -3.284165867261738647e+00 1.656511765355352139e+01
-9.167976293999802184e-01 -2.496753053590707871e+00 1.552776140401381610e+01
-5.477278406917508669e+00 1.031584230373860933e-01 1.888259630068672124e+01
-6.107926910971177570e+00 4.360111365717966869e-01 1.277071375292559452e+01
-9.638056819316968671e+00 -1.691475237889084049e+00 1.774405539271766941e+01
-6.035889832968087454e+00 9.880625585292248658e-01 1.166141940837832891e+01
-3.095750315505778616e+00 3.219064486900675703e-01 1.297793755105795555e+01
-3.140786803747459999e+00 2.065648059896214583e-01 1.317902358149533626e+01
-8.928156230729381804e+00 -2.832731829573615023e+00 1.824477638085823372e+01
-1.351311624156670055e+00 -1.869906592833442183e+00 1.466970702815054750e+01
-3.297049480476974992e+00 2.639492701783048290e-01 1.319106278580633074e+01
-2.127943583585673260e+00 -2.565368647355885656e-01 1.343562925397856844e+01
-6.579203585508727414e+00 3.901419533693051278e-03 1.412897907178499679e+01
-5.524779576557977911e+00 3.749886716140394594e+00 1.756269450303931023e+01
-6.837008277255336886e+00 1.925713822974405076e+00 1.834749759741892206e+01
-5.109662721033275901e+00 -2.951391712165319703e+00 1.915098865381916937e+01
-5.705400698223289879e+00 3.959305582402857127e+00 1.745853652814192003e+01
-6.387592948458627795e+00 -8.273539183884119907e-01 1.908840182107378780e+01
-2.886041749035860970e+00 -8.338124673534164089e-01 1.484843984399166317e+01
-3.342599807109073229e+00 -6.405918691405254606e-02 1.432109908103478801e+01
-3.522149493440318135e+00 5.752732930545523260e-02 1.415316706600036412e+01
-5.272230694024900188e+00 -2.751355821578172822e+00 1.916964300898565909e+01
-2.720380529678233739e+00 4.397440382302406192e+00 1.721439108724987221e+01
-2.699482183784564615e+00 4.265043734411126053e+00 1.727550655888816777e+01
-4.685116446533618806e+00 -2.721250006849636804e+00 1.910569581432697817e+01
-3.589655076831408387e+00 -1.663129365942557669e+00 1.661343393601850238e+01
-8.511560093745555999e-01 -4.465739360274234571e-02 1.494037217466895129e+01
-9.919051592425716990e+00 -1.184941076527943338e+00 1.680919214265618677e+01
-5.847285385608548047e+00 -2.841034374221281134e+00 1.751123174029468998e+01
-8.473717131610325026e+00 -3.046738817263453747e+00 1.858541236549508824e+01
-2.550750003768543994e+00 -1.664486612669587196e+00 1.481225975417693519e+01
-8.822233334541195404e+00 -2.830389814797485748e+00 1.841440120290049265e+01
-1.394326368571085162e+00 3.448109818859658393e+00 1.676752158636168843e+01
-6.256340156810326292e+00 2.328866208907502511e+00 1.292215429455563225e+01
-6.602834493443205055e+00 -1.340265791502868176e+00 1.658967734410379791e+01
-6.423709575608609335e+00 -9.076845413729683898e-01 1.624194007004022211e+01
-7.488604737092043884e+00 -1.212167165069831576e+00 1.494942050325877858e+01
-2.428221478733236793e+00 -1.761756939036050795e+00 1.475941584817481811e+01
-6.549501259208256876e+00 -8.007689201726559958e-01 1.613057880707980019e+01
-7.732730144883177559e+00 4.847828468266457413e+00 1.608919648924072732e+01
-4.370280569178303764e+00 2.484939223047963441e+00 1.813437422581050384e+01
-6.536625625638906811e+00 3.991503601710599369e+00 1.738342138922185853e+01
-9.560332523588666032e-01 -2.200622074304082076e+00 1.781820245675745440e+01
-6.947671268141926149e+00 2.365535335448174514e-01 1.884744364133194949e+01
-9.899000609853157329e+00 -1.401589305669434182e+00 1.635362176716155602e+01
-7.545308326770996388e+00 4.760017831803688537e+00 1.650937892743166913e+01
-6.422296243953040218e+00 -1.418111549263534776e+00 1.917822715083975993e+01
-8.849155549984249802e+00 -2.384461150107386018e+00 1.667772442524716325e+01
-3.115509105644356236e+00 2.794231912297409082e-01 1.854840340397907283e+01
-6.769899388000746754e+00 3.814730280161445108e+00 1.742845423437056240e+01
-8.115697137227067870e+00 -6.586098224061087691e-01 1.354277421848946972e+01
-5.104368281133337959e-01 1.078623008831027796e-01 1.719335920235787540e+01
-6.409831277377863401e+00 -1.112996370097202536e+00 1.642566974604383034e+01
-3.327027713750094318e+00 -3.649002493152184279e+00 1.815341949027948232e+01
-4.601799973022953516e+00 -7.157732790877684437e-01 1.569604634292421963e+01
-1.162819427349681689e+00 4.447851324437075426e-01 1.423239213906066425e+01
-5.006794455165389124e+00 5.172407469016395254e+00 1.603321019510600109e+01
-4.781046060894403205e+00 -6.925426024925629420e-01 1.567166691234844222e+01
-2.421480079975126820e+00 7.393866147369423381e-01 1.275386931517014233e+01
-5.064252004540199970e+00 7.631530426681272239e-01 1.870879801464560899e+01
-5.343089274948905620e-01 -1.065904429432117162e+00 1.684791440351366987e+01
-9.698254280145185646e+00 -1.701351585434744962e-01 1.489984868960988251e+01
-3.893720109597488044e+00 -3.331299110064787961e+00 1.898288170089281834e+01
-9.580671007407495665e+00 -2.318612443720355465e+00 1.747281390585195027e+01
-4.276889511867066673e+00 -3.158066521736370369e+00 1.904556802313593522e+01
-4.926858926707765818e+00 -3.252507083867987703e+00 1.747930982943134381e+01
-3.805289811746707329e+00 -1.196863390465306765e+00 1.623773562546179505e+01
-2.919678591804986123e+00 3.608153770644380920e+00 1.759530680712514794e+01
-6.337731321168291743e+00 3.747373413411873688e+00 1.751409025659265239e+01
-2.655962159361211938e+00 -1.462662289602513432e+00 1.578511538115549229e+01
-8.730940641517936029e+00 2.352211939439034616e+00 1.467917548946564210e+01
-6.123249533233356523e+00 4.173784441730705730e-01 1.881957859295690128e+01
-4.012146321486176781e+00 3.238119624169851551e+00 1.373427907239796752e+01
-9.754482925269780225e+00 1.561878068218103266e-02 1.714178053080853203e+01
-7.681562387662941305e+00 -2.323909700009128443e+00 1.714173434122616158e+01
-5.163611218538695091e+00 -7.208414669170615241e-02 1.434642557072049840e+01
-3.302011294716751699e+00 -3.261868561495937513e+00 1.762730819097298962e+01
-9.686331295172138312e+00 -1.712473174225832118e+00 1.573515712219396079e+01
-1.398690522815065673e+00 -2.411569183525671178e+00 1.854234582078299809e+01
-9.864051978888994654e+00 -1.236654852852073105e+00 1.715958525836334303e+01
-5.255114266611846663e-01 -2.492342094098090044e-01 1.655371933529693251e+01
-5.796788287618045210e+00 -1.385842776313883640e+00 1.658915071265172259e+01
-1.709075162382635682e+00 1.981677464402465727e+00 1.466512336931644711e+01
-5.390018488235089222e+00 -1.336342070944593452e+00 1.644163633173324968e+01
-2.644229410122461044e+00 -2.770464731078182474e+00 1.710061040085911799e+01
-4.113850813330332201e+00 4.905499110728214873e+00 1.602321229297391625e+01
-5.924545836700529478e+00 8.571018138621075977e-01 1.869514724457641108e+01
-6.590156043639484373e+00 2.964409355625567954e+00 1.782839231480144093e+01
-3.311285413050891524e+00 6.994050367245270294e-01 1.239501916430735662e+01
-8.870180873957849155e-01 1.479470184864330129e+00 1.752081638828151711e+01
-2.700814523707150805e+00 7.463797482854581666e-01 1.243372774488981491e+01
-8.887441190964835869e+00 8.465443529484675267e-01 1.802565056654581355e+01
-9.562001345404461006e+00 -3.270300697321761874e-01 1.771333497568845416e+01
-7.962631369904187295e-01 1.539527205923953090e+00 1.738195805060568944e+01
-5.450330419580227570e+00 -1.888626383192695712e+00 1.916620754695132689e+01
-4.502640720101791949e+00 -3.823935968551876563e+00 1.854896385988480034e+01
-1.047181931142884270e+00 -1.390052395748321068e+00 1.819542027748975954e+01
-4.287065107471260461e+00 -3.759312376283161505e+00 1.831886184790008798e+01
-9.247801219238560577e+00 2.019577343730730057e+00 1.491519664363260489e+01
-8.675350136640371801e+00 -2.128153866246424997e-01 1.376894951371360776e+01
-4.148148728746823721e+00 -3.754088335330214576e+00 1.835059680079741184e+01
-2.710562940907585094e+00 -1.322125713922452483e+00 1.524385646293715979e+01
-1.813489850242170798e+00 -8.847623679755516335e-01 1.390091826419185850e+01
-8.270848785540547254e+00 4.408180726168829722e+00 1.598079299456460944e+01
-7.706706551116599968e+00 -1.787929580775402982e+00 1.661878403451820674e+01
-2.464445089798322996e+00 -2.744550449822392046e+00 1.691611963158884890e+01
-3.901920332761208865e+00 3.842729086168403363e+00 1.761289445843916468e+01
-3.657858281877617745e+00 2.817784651206878266e+00 1.333510450729235686e+01
-5.300743571232625406e+00 4.190361704423543721e+00 1.738849171835919094e+01
-8.459562535419692608e+00 -1.408807577191772076e+00 1.429837105174099321e+01
-7.813740353478486611e+00 -1.584607456994036490e+00 1.535364559667877415e+01
-8.469377889028503859e+00 -2.832294866225089081e+00 1.760342139579933018e+01
-6.088854639795170165e+00 2.504694653183534570e-01 1.396383987415259043e+01
-3.124486857327257727e+00 1.351957909641221534e-02 1.353650879279628327e+01
-6.705200824514467861e-01 1.279804108328892021e+00 1.592870071198996129e+01
-5.386038382804439806e+00 -7.526029683283228522e-01 1.586212490795361418e+01
-3.495992373043429691e+00 -3.094678886248032335e+00 1.752504313166470951e+01
-9.077193970470119666e+00 9.058016774232866553e-01 1.404825620673985043e+01
-3.464267575170303815e+00 -3.263123958602633046e+00 1.764094210454936018e+01
-9.804739492925858002e+00 4.799887037757786246e-01 1.639395426216206175e+01
-1.085921853618242006e+00 -1.402321965709759866e+00 1.466504659948893163e+01
-3.302912376168729569e+00 -1.564763380717247188e+00 1.649323135922131911e+01
-9.738500927790951778e+00 6.434434943924358663e-01 1.659727793449735600e+01
-5.341340964597590002e+00 1.253074554297501919e-01 1.335101615446514955e+01
-2.118183400687864371e+00 1.913521077287825722e+00 1.404497308896183938e+01
-9.457095953088895612e+00 -2.177267451313428026e+00 1.627769787250900890e+01
-9.705749789420998752e+00 8.477359612997235061e-01 1.641737692972237284e+01
-4.030662084728573902e+00 5.070497066298363720e+00 1.629448745427341549e+01
-5.771581717565917202e+00 2.459449162024706759e+00 1.818836127143022452e+01
-9.677055058835218659e+00 1.074783374983998563e+00 1.606449355968664605e+01
-9.706213526830016036e+00 -3.571956833545524290e-01 1.491960627817373819e+01
-6.603438532109932702e+00 1.325847126766627859e+00 1.232443615819728677e+01
-1.410685247781376495e+00 2.710806130260563052e+00 1.748600641981393977e+01
-2.983434203081778424e+00 -2.157087750395091597e+00 1.886332975738675088e+01
-1.218250274471303740e+00 2.110724407054342500e+00 1.759132028067646303e+01
-1.254469081536259800e+00 8.700437204682978098e-01 1.443822240715716987e+01
-8.281462880790492420e+00 1.291330277519173730e+00 1.365505751370778142e+01
-3.167896483450022949e+00 -1.910213823032997915e+00 1.885051333362159198e+01
-1.233970325598724660e+00 2.517541981873292922e+00 1.743333038762197873e+01
-1.838794319896413398e+00 -2.028072304598668829e+00 1.877563721140765551e+01
-3.999563386437388068e+00 3.557333757084355064e+00 1.422533986174010323e+01
-3.524638728713414881e+00 6.987948321282853037e-01 1.241129695971384450e+01
-1.801344291118451846e+00 -1.797813534837018778e+00 1.875138767375265303e+01
-7.137574718986186895e+00 4.074876629167891728e-01 1.253345790051999131e+01
-4.190987333142835780e+00 -4.357573910392655847e-01 1.535487662753239846e+01
-2.203325925825566411e+00 9.202473687648775602e-01 1.315092746181771588e+01
-2.447852412353742846e+00 -1.551842550088191608e+00 1.454708415700694957e+01
-2.833889351267460555e+00 -2.196834082563904111e+00 1.885867869771741567e+01
-2.846482546469790265e+00 -2.581265234429890754e+00 1.889843543425468653e+01
-5.241140092534715578e+00 -1.488043664658606602e+00 1.912204525039017966e+01
-2.703050421117243474e+00 1.124209784875271900e-01 1.847444966005048173e+01
-8.820495334121535080e+00 2.999238495503946389e+00 1.666888965465174266e+01
-9.416702041371937781e+00 -2.503498738234103627e+00 1.764170518678740507e+01
-5.088757805230899045e+00 1.063279278241385128e+00 1.121167447692042884e+01
-7.488298140404539893e+00 9.306198904778710812e-01 1.287532579050610337e+01
-6.422273740497024264e+00 1.832027449274969300e+00 1.841455800063224757e+01
-4.036861136902595959e+00 2.264070300541682457e+00 1.220030817904072507e+01
-4.037341431044289664e+00 5.416374539337063254e+00 1.674630972631234016e+01
-6.219834180648417643e+00 -1.808537724167988081e+00 1.694048666461223007e+01
-6.436562555417615350e+00 -1.589618520423569770e+00 1.679172696798568154e+01
-9.588088147348631907e+00 1.209294469593590549e+00 1.494464348466935633e+01
-2.243714536987474695e+00 -1.525781832448487307e+00 1.437371770430745954e+01
-6.208544245688766061e+00 -1.566504919158695053e+00 1.677062319133803925e+01
-3.531519658540521966e+00 -4.494763806553665475e-01 1.544059433629736589e+01
-5.905161876895058448e+00 -3.588726229549583202e+00 1.894018305546814673e+01
-5.628717606740991641e+00 -1.423343635256795636e+00 1.657656708385323441e+01
-9.804900991951207345e+00 1.659735064373601965e-01 1.531368881735118492e+01
-9.596501766706158065e+00 1.141810318740029029e+00 1.659060772413371154e+01
-4.504599132270985073e+00 -1.326813379383855462e+00 1.630246451316816803e+01
-4.562179013707686970e+00 -1.110566306506626688e+00 1.611381153767966623e+01
-7.662980224546610764e+00 -3.094309963779037886e+00 1.911267951842915380e+01
-1.733002831782215258e+00 3.170912601382063656e+00 1.588017994967187008e+01
-1.335840483486593566e+00 4.177502397864816253e-01 1.823821384638479515e+01
-7.028636683857679479e+00 2.147891814259974108e+00 1.816176239439867146e+01
-6.986222245053844482e+00 -1.627507137480582067e+00 1.919040453090033793e+01
-1.153453563994229381e+00 2.956423325368718213e+00 1.712731475030498984e+01
-3.266302032706404290e+00 1.807479298131182244e+00 1.233370750303121355e+01
-2.930104262527713832e+00 -3.619904529978895447e+00 1.875301529326745964e+01
-2.919858020297848356e+00 -3.686383341495810484e+00 1.855600480236540761e+01
-3.878155264070111130e+00 1.477344489879024003e+00 1.844897185452793309e+01
-8.055448535797594900e+00 1.673172518028823497e+00 1.372841295824682106e+01
-8.679233949450917862e+00 1.696423576122793708e+00 1.777494463220509857e+01
-3.553678473228863322e+00 1.840544982793971496e+00 1.826688686037583409e+01
-9.355625724788104947e+00 2.209048034438997554e+00 1.596871859171782404e+01
-6.064535117193112335e+00 1.366436802071994805e+00 1.187333986331119462e+01
-8.272933767088465729e+00 -2.401645034750690577e+00 1.702211363760482499e+01
-5.623386021892772035e+00 -3.249626123120268772e+00 1.767682211301546147e+01
-6.522769861887511844e+00 3.131814326062161591e+00 1.395544025148039680e+01
-4.523414500242926906e+00 4.269100903273735703e+00 1.745962641331237108e+01
-1.453323593823620863e+00 1.651491084639731266e+00 1.794728537205413943e+01
-2.679092670763168815e+00 -1.402580027818860486e+00 1.539579263543851084e+01
-6.388149505002460593e+00 2.956790193093123520e+00 1.785949918579278517e+01
-7.342574249911913320e+00 4.279594101561072783e-01 1.871984318994837082e+01
-9.118661411108828219e+00 1.087412385575352580e+00 1.767908028676477272e+01
-7.178706491390099975e-01 3.252104515242866256e-01 1.539463894953532730e+01
-3.788473255435715892e+00 2.584350801185190782e+00 1.802533741514629639e+01
-3.670275133960023251e+00 -2.113323682361308187e+00 1.693399091184887340e+01
-6.100065577075670653e-01 -7.346769246792117514e-01 1.747956088304140110e+01
-4.861895983945793809e+00 5.422309520463535648e+00 1.639952659782477440e+01
-6.209838793502331811e+00 2.740405586884618216e+00 1.800762577354286975e+01
-4.122345632518904956e+00 3.405519894905837397e-01 1.333004074499161362e+01
-4.064789812646919742e+00 1.689878504335714293e+00 1.156368918405865998e+01
-3.947409480722482655e+00 3.853684410069515565e-01 1.320989768272017528e+01
-3.037349372045734519e+00 -2.294321072199654310e+00 1.696427283959866372e+01
-4.136487150157284631e+00 2.863310168250130516e-01 1.356863109555663272e+01
-2.773868147684351637e+00 -3.931918972033034976e-01 1.371248080531848501e+01
-9.346536682263309359e+00 1.611483323999407524e+00 1.692314091916889396e+01
-5.521722504480719884e+00 5.295741451383110032e+00 1.677216720261655070e+01
-9.113949116578503151e+00 2.232397312363532116e+00 1.685473657089287514e+01
-6.190146552288519288e+00 2.155587629374622338e-01 1.415507485680141286e+01
-5.117697428481922550e+00 3.706907051900709682e-01 1.257717483691283888e+01
-9.319264307354639953e+00 -3.595962165899262430e-01 1.805119211550569247e+01
-2.438461097969115698e+00 9.087198065767361221e-01 1.282110649433357707e+01
-9.609057996731163342e+00 -5.109222558669364034e-01 1.769207718040254917e+01
-2.503508533907625733e+00 4.445688521387607395e+00 1.709783613217441456e+01
-8.546375404765566230e+00 2.901145263224985449e+00 1.493682504080577189e+01
-5.588635911707443782e+00 -8.522699947772434115e-01 1.907126731434107114e+01
-4.702593909335638145e+00 3.161398469543212464e+00 1.788196366215630206e+01
-1.181847180113244189e+00 5.951621207117572254e-01 1.429524940626568963e+01
