-6.282331549483753719e+00 4.869824803504314126e+00 1.754438733082787039e+01
-2.013261832496453518e+00 1.463236256328787510e+00 1.340430879059539038e+01
-4.388277192997387388e+00 1.188398832617028195e-01 1.412515814949822968e+01
-7.771053682173373112e+00 1.559258246605281784e+00 1.474506160711132807e+01
-6.375894397045596129e+00 4.556652855616107445e+00 1.767032315653352370e+01
-7.840261633350284143e+00 -2.771714836393789572e+00 1.782515967475373131e+01
-5.938751510110551912e+00 1.463849079872627801e+00 1.221267056269806162e+01
-1.564088450484905080e+00 3.023813508378267123e+00 1.816326479650911452e+01
-5.511067400375319281e+00 2.130732368678125876e+00 1.240726644186768723e+01
-1.364796984659415457e+00 2.823566890786060490e+00 1.814574364704464315e+01
-2.505323692965148119e+00 1.536614252061374808e+00 1.270406465155472020e+01
-3.391887343240460595e+00 -1.725142387179607439e+00 1.665873114730434779e+01
-4.439129945983760983e+00 -3.427818179752053940e+00 1.893169546697094674e+01
-4.757958373431486088e+00 -1.842385034239008845e-01 1.497798097693671693e+01
-6.581862289525566290e+00 1.319942613679496279e+00 1.903294462623657424e+01
-4.217257164724652618e+00 -3.419160398937022727e+00 1.906233420446421079e+01
-7.967529963828790862e+00 -5.166947576781906193e-01 1.904653085332741469e+01
-7.677286558579066167e+00 -2.761290561310733582e-01 1.919127433650419690e+01
-3.935990332721612250e-01 -2.141891376608775932e+00 1.574467226884207705e+01
-3.738003138530911151e+00 4.085153804660483168e+00 1.798758153994586806e+01
-5.646388513775245421e+00 -3.439409441987717475e+00 1.852461821110427920e+01
-6.234159935953786480e+00 -2.031827812533710809e+00 1.735142509064131744e+01
-6.252926509591413939e+00 -2.296223401261663799e+00 1.750135777985701324e+01
-6.419282602749534661e+00 -2.273786318008485630e+00 1.748432303431532731e+01
-2.682745811949199144e+00 -2.412914331720590777e+00 1.681976151510399475e+01
-6.218026679088214159e+00 -3.391122877534822333e-01 1.951679201747816350e+01
-8.262720438803892620e+00 8.030816735736505674e-01 1.799512217991542329e+01
-6.212264671441331210e+00 2.642677643710626412e-01 1.936844321779650713e+01
-6.400720448081460567e+00 -1.605462638281905663e-02 1.943240221222037079e+01
-6.976666303686916315e+00 5.471636493743350371e-01 1.393926665200861592e+01
-1.995850804104454479e+00 -3.642490692746142011e-01 1.892533202947982929e+01
-5.448731318623333486e+00 -3.501475307653041380e+00 1.924997063780604734e+01
-5.788984473430326183e+00 7.101400964748085798e-01 1.924077398028817143e+01
-4.657105100979970658e+00 3.233745530717236499e-02 1.925974967056149367e+01
-1.801890022582788853e-02 4.215245972474960245e-01 1.779518848311175461e+01
-1.000671382250621244e+00 -5.028542850722435009e-01 1.481311695392586714e+01
-5.741127334273024019e+00 2.966025438760845567e+00 1.378483376760000212e+01
-5.890655604288697056e+00 2.888935731902209092e+00 1.381838859364775018e+01
-5.802192163493411492e+00 -3.440018435962218568e+00 1.855163124300021948e+01
-4.338202986229673819e+00 4.799960869811313591e-02 1.920449812077545815e+01
-2.384204746782667694e+00 -5.143256015746013876e-01 1.435616621333249654e+01
-2.156743213805766946e+00 -8.856926443463526422e-01 1.471817295489629984e+01
-7.622487655966971865e+00 3.365691519395599851e+00 1.720207808458103571e+01
-7.553110567070435266e+00 3.308668216432510523e+00 1.742997307110229244e+01
-1.278323476886754184e+00 -3.490241132807461177e+00 1.811963500236135971e+01
-6.894147608213149425e+00 4.482374263495958466e+00 1.737131180235683914e+01
-2.638407727040485984e+00 -1.352199375430179318e+00 1.594268133362004747e+01
-3.927364308273359583e+00 2.106684392166986886e+00 1.178747077457633097e+01
-2.380256700684606486e+00 -2.529819867329137217e+00 1.677193703474468478e+01
-3.512022241823612667e+00 4.405030118705898445e+00 1.792614338986836842e+01
-2.390710079406782596e-02 -2.191787119981668308e+00 1.791291571786677750e+01
-6.746001579346992294e+00 1.068958523145044248e+00 1.909112148822680766e+01
-6.558868740928343044e+00 2.377030833074058602e+00 1.865165637319622149e+01
-9.206524485001437164e-01 -4.852845859835400177e-01 1.487914865141589260e+01
-2.228477898820965919e+00 1.138553447681681652e+00 1.304169883747740144e+01
-1.850473501065308835e+00 1.668684681594107877e+00 1.405255340655861929e+01
-2.069935188454680386e+00 -3.538736536243109576e+00 1.850525821612469812e+01
-2.356431311138371676e+00 2.441373079100109589e+00 1.847401771404345183e+01
-1.605843757522345649e+00 -2.057949924090960447e+00 1.581594572920998232e+01
-6.004990359484097873e+00 -3.400957787982910929e+00 1.951991316194841275e+01
-2.387811407364924143e+00 -2.887831353204066698e+00 1.696781130065417997e+01
-5.759136583196987402e+00 -4.741293646677192941e-02 1.475308876313972561e+01
-1.797362770014615529e+00 -1.725286333775241987e+00 1.551952955340415841e+01
-3.801417185108647789e+00 5.300185723167454288e-01 1.336421238203386608e+01
-1.615209784248127001e+00 -1.951047111268536804e+00 1.570794312792083858e+01
-4.605773321923088304e+00 6.262992622876031312e-01 1.909992428608009973e+01
-6.435141236248020036e+00 1.356660001602865151e+00 1.268542931275481678e+01
-6.742079224791601710e+00 1.895678912104563407e+00 1.878967590760317208e+01
-7.272100186954742362e+00 -2.421601967353986584e+00 1.730017577248058913e+01
-4.810237380167410315e+00 8.299870149638337580e-01 1.907719653221375111e+01
-5.191268736876604173e+00 8.616743786829863527e-01 1.913339478546543759e+01
-6.367989284754229651e+00 2.280196825560703466e+00 1.872168983356239025e+01
-6.249498973424772785e+00 -1.604865422202513603e+00 1.976486969247165959e+01
-8.509356154504640557e+00 -1.439815879953457944e+00 1.769675431671032939e+01
-2.977962069545342594e+00 -3.428955178036085627e+00 1.897220252531642970e+01
-6.190382549699268822e+00 1.109152831518888549e+00 1.288167853270379837e+01
-3.749589378307496723e+00 3.922348696089379416e-01 1.357487015491487270e+01
-8.215182520750996531e+00 -2.262732982870275522e-01 1.574803357121709624e+01
-4.270276894843746618e+00 -3.007410706524262345e+00 1.760891115778867899e+01
-5.386082322201811046e+00 -6.816594462763569950e-01 1.612746201515399136e+01
-5.772401271249339771e+00 1.679447698361625552e+00 1.894132863138528577e+01
-4.044140792407628027e+00 -2.364592563528023828e+00 1.949450833932097638e+01
-2.455616140963865046e+00 -3.391488906283676386e+00 1.789468147453358782e+01
-4.582881066205753307e+00 -9.524812384809011601e-01 1.945965893652865120e+01
-5.006499703060000250e+00 -1.340825351887674266e+00 1.958897059047795963e+01
-4.513958020623441980e-01 1.203325913343513021e+00 1.815841611251130772e+01
-2.748002063837537534e+00 2.299939075629394925e+00 1.358685137489453965e+01
-1.413658538989860380e+00 -2.179550915027610891e+00 1.887708602076283526e+01
-7.581720176991820104e+00 -2.701469764880445101e+00 1.941042358686624070e+01
-1.659537898442484449e+00 2.371267440722807596e+00 1.574245766375556954e+01
-3.995123731259813127e+00 1.249429598194282010e+00 1.883212096978994410e+01
-3.581391672920814617e+00 -1.087203932926619432e+00 1.615587004080773070e+01
-4.811327585912774651e+00 -1.524327154310642030e+00 1.958660942928785786e+01
-4.732157882137525640e+00 1.597858390288426245e+00 1.176742945284062714e+01
-4.117880147574882521e+00 2.756547031988619167e+00 1.280135890160828538e+01
-4.778474899595379632e+00 1.443333742997145341e+00 1.195499622989582988e+01
-2.759886615908303309e+00 3.643554526471127097e+00 1.817913905410236808e+01
-1.608875946255776235e+00 7.771733986780637871e-01 1.870788456153130497e+01
-4.163896294516926666e+00 -4.310066540856962169e-01 1.536690894594501700e+01
-7.993338096689565297e+00 -2.996613245401904546e+00 1.866551944788168882e+01
-2.068355315326520838e+00 -1.374578647057795200e+00 1.898550575999917456e+01
-1.102616183862498989e-01 -2.286059243244443095e+00 1.826043160171397162e+01
-2.374786458211030293e+00 -3.203903255336077449e-01 1.414490163164714787e+01
-2.947252592672914950e+00 1.566651083097386321e+00 1.229378646641410811e+01
-4.860643745884170919e+00 -3.387872798360305193e+00 1.847135208830977504e+01
-8.067761191428758138e+00 2.311971481443523047e+00 1.609017553275592505e+01
-5.557875079637243587e+00 1.390889637583444749e+00 1.216941100043210255e+01
-7.227962699580824157e+00 -9.422437197873123615e-01 1.955867615371458257e+01
-5.705085634566826158e+00 6.246617050376859215e-01 1.352916758795941732e+01
-6.374809369548088966e+00 -1.129354574207548367e-01 1.475781557570183722e+01
-4.886730651863906871e+00 -3.040728094585747332e+00 1.777810289923149512e+01
-7.847339143739000100e+00 2.993541365112457164e+00 1.686727207101652581e+01
-8.208188042993526778e+00 1.700239656249676878e+00 1.617866255083721327e+01
-3.706728805664757931e-02 -2.391703240196060065e+00 1.736573809710202099e+01
-6.991859307936811874e+00 1.672049431736714498e+00 1.879727277713947231e+01
-5.960317037389311068e+00 1.392903827821553309e+00 1.230903026802111455e+01
-7.844052053470801589e+00 -2.702715594717974401e+00 1.766547709719633374e+01
-9.659181408037660344e-01 2.224446681236235790e+00 1.720321807629483502e+01
-3.762390527995448597e+00 7.919451101780978775e-01 1.295420211193781412e+01
-8.050546677838454457e+00 -2.718364488700435455e+00 1.767935470615511306e+01
-6.286389869622047932e+00 1.721524767666894329e+00 1.263430287987799616e+01
-1.620919906186536252e+00 -2.212364001049574314e-01 1.886733550510099278e+01
-4.124509051667018866e+00 4.804771171587857381e+00 1.774199370274498833e+01
-6.803287393195443400e+00 8.353301927285851358e-02 1.936102636626217688e+01
-3.009951190732768289e+00 -2.902079045811243763e+00 1.715661961405409741e+01
-2.175479330972210246e+00 -1.084963693389516370e+00 1.497501787334563872e+01
-7.252322286165828302e+00 -1.080515258756429509e+00 1.958235033428916338e+01
-3.412606513932987529e+00 -1.969377431473137818e+00 1.933382886126328160e+01
-2.119948818773090604e+00 -1.304599563281316321e+00 1.521744214249582328e+01
-5.756113000431171578e+00 7.375072400463631439e-01 1.334970902736661813e+01
-4.162956440027076876e-01 -1.399645643931082706e+00 1.870260691160151723e+01
-1.824990538707529586e+00 -3.497962858513110618e+00 1.870686686659974285e+01
-1.862285646060716227e-01 -1.558225720023676875e+00 1.852444457700996949e+01
-2.361975926850852781e-01 -8.233342597234620808e-01 1.852092395251998269e+01
-7.826765866085991785e-01 1.843529522054054182e+00 1.699643311850842409e+01
-8.038207838149045159e-01 -1.978762141908602779e+00 1.555771537163198204e+01
-4.788755748283202607e+00 1.440753817811442627e-01 1.415339809378454206e+01
-9.974637070181649467e-02 -4.538712144416779393e-01 1.828534664052276426e+01
-8.386473642535129613e+00 7.450086323774822716e-01 1.672850774438261467e+01
-5.851723355084017975e+00 -2.483625668653658192e+00 1.755763272630164451e+01
-2.577364710721546714e+00 -1.078469226110029267e+00 1.556584588187291374e+01
-8.455064575452500009e+00 -2.314500246097889402e+00 1.830603260973064650e+01
-3.767431212275074159e-02 -1.170562234740511576e+00 1.716430795386319730e+01
-5.417353980159937521e+00 -1.465932080794831727e-01 1.941352411704580661e+01
-7.002815961416733792e+00 2.527201177228979745e+00 1.843737496421713828e+01
-3.002424096545599053e+00 -2.933972838114619286e+00 1.913649162016166017e+01
-7.643251088993790354e+00 -2.157105761124361365e+00 1.943454410284933331e+01
-9.044006654566827397e-01 1.518273609612722286e+00 1.618059498020950215e+01
-6.734716708779003191e+00 2.604992965889387335e+00 1.850775096033144607e+01
-2.388815073120348575e+00 -1.319530394906758497e+00 1.571975299773393786e+01
-1.817451876031784375e+00 3.405465774421855052e+00 1.745789341613124535e+01
-6.809199432202029278e+00 -1.725807484512709822e+00 1.977113181905582806e+01
-6.787741720500286569e+00 -2.085923579419150631e+00 1.980390006809846781e+01
-7.193016521849642686e+00 1.008788805183663817e-01 1.928020756525389245e+01
-7.203850994291825849e+00 1.090631824895064605e+00 1.895600464657569617e+01
-8.124455820535494865e+00 -2.579897449041313795e+00 1.733223019913365093e+01
-4.377557528201418080e+00 3.880133124649312482e+00 1.802676714764413290e+01
-3.578666729550020520e+00 2.615469585566143174e+00 1.842659669366932107e+01
-4.189524386865994821e+00 1.464255748155340431e+00 1.879336347299440391e+01
-3.766445990741294825e+00 2.886335567471014496e+00 1.834701858149940179e+01
-7.613363325195366293e+00 -2.367048933458534066e+00 1.699263101152807209e+01
-5.227189860107581687e+00 -1.092460244179477957e+00 1.957951482893740902e+01
-4.156045764331273595e+00 2.861861842764358954e+00 1.299991186487253358e+01
-4.988203839270596518e+00 1.143126013850025213e+00 1.238223182692540192e+01
-7.293056442394624916e+00 4.052446103132821165e+00 1.713382958827649460e+01
-8.108640375808587208e+00 -2.583304301143065196e+00 1.898053729002752377e+01
-1.975637958491799573e+00 -1.325384855430897346e+00 1.516403595832054307e+01
-1.618837638809280888e+00 9.098884558703319581e-01 1.377894188389891994e+01
-6.811534603055156900e+00 -1.155883404646110835e+00 1.967120328206293678e+01
-3.926087013451187602e+00 1.325766627742038795e+00 1.213691246865987594e+01
-7.809019822494828844e+00 9.696327240821058790e-01 1.452708921605052339e+01
-8.120847770148656997e-01 -1.780907677327994598e+00 1.881390613838506809e+01
-4.935112879689333099e+00 3.251480900883820802e+00 1.832899305578868265e+01
-8.101153130652242851e+00 2.175343415383723666e+00 1.615900105398266007e+01
-3.361946033463233952e-01 2.670745541860370942e-01 1.617802278551085848e+01
-8.446098500125078345e+00 -3.812436736248329960e-02 1.634504840457231367e+01
-7.237790584371222913e+00 4.172976070283010763e+00 1.701574860235865927e+01
-2.598499888483131404e+00 -3.382407449929001886e-01 1.899703448810040030e+01
-4.031362900742134769e+00 -1.213772241630558302e+00 1.641110838019733009e+01
-1.014913813830885747e+00 -5.624505375818786845e-01 1.878496493281706492e+01
-8.457504022462469351e+00 -1.694014054764720667e+00 1.850587912984397221e+01
-1.576821343226219252e+00 1.249153628973315167e+00 1.860075195163771511e+01
-8.351346598614014738e+00 -1.098450300750321018e+00 1.866924257441784718e+01
-7.689165073714240961e+00 -2.980559991338732839e+00 1.821485716510202124e+01
-6.918705610668048678e+00 -1.344524753003619288e+00 1.563610110897728234e+01
-8.214272400536291485e+00 1.889531313376737742e+00 1.674846565442652135e+01
-8.017936104954372922e+00 1.973015518145116109e+00 1.552720813935416189e+01
-4.327370295247104259e+00 1.152355728638557952e+00 1.234185294594098892e+01
-4.199690674813083113e+00 1.027641005118559381e+00 1.254491971737742162e+01
-4.576198810642620352e+00 2.728985679205306436e+00 1.847706425528859242e+01
-7.003386148247992438e+00 -3.217760275388566793e+00 1.834619436679805560e+01
-6.069484489973782537e+00 -1.743196311378220342e-01 1.496245853338599474e+01
-8.341507677800855447e+00 9.521546987285081087e-01 1.633829718800975783e+01
-7.624430089105151964e+00 3.199026191789074769e+00 1.610319600223072101e+01
-2.174146571248724680e+00 2.190723437269718410e+00 1.851106230218155346e+01
-2.957886671491026132e+00 3.044027626474242965e+00 1.501362486902168669e+01
-3.781353587026278440e+00 1.739072006286574767e+00 1.169988371195676180e+01
-4.958225959063045529e+00 1.667643354526048838e-01 1.414914625459551800e+01
-8.247828578116433107e+00 3.144866391895735358e-01 1.832170491951979940e+01
-3.163293975550674819e+00 1.706782017118776695e-01 1.377038789800110052e+01
-7.231853347393699671e-01 2.086593296987767854e+00 1.753560244878191909e+01
-3.130929569999947759e+00 3.007147584235060900e-01 1.358363408951889184e+01
-3.773134971923003622e+00 -2.738104783281697152e+00 1.940061804584147254e+01
-1.300544442282466573e+00 9.228617628406599049e-01 1.434595541600375057e+01
-8.500923949419853187e+00 -1.642476759407052622e+00 1.807588270356557913e+01
-5.953136926615162139e+00 -1.208747750903964024e-01 1.489594297721960814e+01
-8.462508548233476091e+00 -8.726423801703380168e-01 1.807766769619891889e+01
-6.186769254363562176e+00 -6.652776327241557985e-02 1.473958619545665627e+01
-2.780801048356672522e-01 1.288374109752880164e-02 1.625847395312536392e+01
-5.603721629988811515e+00 -1.158941941258246677e+00 1.963301053758950232e+01
-4.609483611644379586e+00 -3.430000394013961618e+00 1.885042387854903367e+01
-5.794615205813106407e+00 -3.443917289748130717e-01 1.949514710689849650e+01
-7.674268980793656603e+00 -1.981194761929819359e+00 1.615908053833966207e+01
-8.486815089872560947e+00 -1.675920065162650463e-02 1.717328516006569927e+01
-9.164375406592746298e-01 4.774728813027098173e-01 1.475793720886060711e+01
-8.024037436013390590e+00 -2.650723420014929665e+00 1.748971633055309738e+01
-1.602359121349067106e+00 3.025270222104660123e-01 1.396858682308887367e+01
-2.211059318070677016e+00 -1.703396063519397430e+00 1.595598290132360475e+01
-1.533991362681089710e-01 -4.043965151283065995e-01 1.835938057514907840e+01
-6.195661261749452642e+00 1.855230471973243978e+00 1.888167442494137660e+01
-6.907644033698282726e+00 2.723572591480838412e+00 1.460199506459258956e+01
-1.021248957176518202e+00 -3.215806348285938476e+00 1.711814403615057856e+01
-4.937796397269384130e+00 2.794833384527866116e+00 1.850919175447789300e+01
-5.973154811871793868e+00 1.674565602718716795e+00 1.894644162158775558e+01
-6.395243485738826728e+00 -1.166367120459537610e+00 1.970090618024380191e+01
-2.394095802424484720e+00 2.234268333720288879e+00 1.401623644510488376e+01
-1.429175905139396630e+00 -1.596028242818408938e+00 1.890248238225359856e+01
-3.987080375607918725e+00 1.010273904024326486e+00 1.259192022751991757e+01
-1.916741542192991421e+00 3.485305370309250694e+00 1.739263600928343934e+01
-6.726638613401109135e-01 -1.312264641498767315e+00 1.522756722387502393e+01
-1.793901550336318262e+00 -1.388715165774622395e+00 1.894491069137909633e+01
-2.033274432182671454e+00 -1.762213539295603093e+00 1.570780666439785378e+01
-8.457014617290973035e+00 -1.855714772016820557e+00 1.690864152952980604e+01
-1.217155658971101895e+00 2.777776236845845403e+00 1.761859554302926867e+01
-8.666427530973542792e-01 -2.565086520979648760e-02 1.867010024381171363e+01
-8.354250577941563449e+00 -2.000360743346674575e+00 1.672624887791437587e+01
-5.578669084837503789e+00 1.217956809559791242e+00 1.907514720536952169e+01
-8.072531626431171503e+00 2.366333812707465789e+00 1.678864953175573405e+01
-1.749847629703914276e+00 4.863243725391377947e-01 1.375321837284364435e+01
-3.414248096742883209e+00 -2.948411909280398646e+00 1.730667484759589669e+01
-1.579014918880266460e+00 1.836046418338106667e+00 1.847267722564204107e+01
-5.742883238284322900e+00 4.280729966355195870e+00 1.792057877027236756e+01
-1.439467441081239585e+00 -1.984218090087774833e+00 1.889344705124181800e+01
-4.228797237965296496e+00 -8.143403277634315707e-01 1.600555322818200565e+01
-6.904127951507729399e+00 -2.010547604614005390e+00 1.676142434802423153e+01
-1.989857420612084038e+00 3.248358106643232990e+00 1.822654419762801936e+01
-7.454601070230120641e+00 -3.172350241130957649e+00 1.849795171610889000e+01
-7.432501816863606336e+00 -3.295463476353466703e+00 1.888692534807812606e+01
-1.759749479440515518e+00 -3.463818027952969558e+00 1.799408318088712022e+01
-3.597893971378535394e+00 -7.339017924398827386e-01 1.572855480670223827e+01
-3.624213823878080110e+00 -6.150907317921785467e-01 1.556704208562686986e+01
-6.087110636917826945e+00 -7.942576825137257490e-01 1.613913175034796765e+01
-6.950872647429079620e+00 1.160143257284255158e+00 1.334361410174990326e+01
-3.539431393923862412e+00 1.376300788020159871e+00 1.217154927065146452e+01
-1.061345437101671951e+00 -3.288944664096457693e+00 1.731230417417387102e+01
-6.612401256780957581e+00 -3.264353192657643010e+00 1.833349053672934659e+01
-8.002246303745170763e+00 3.241504702343317446e-01 1.871560560173903198e+01
-5.812109731662999046e+00 -1.548576854204511966e+00 1.971576854760966668e+01
-8.434253404852530167e+00 -2.548918023971919466e-01 1.630568314016316478e+01
-5.449046247501717843e+00 -1.214904794847231129e+00 1.962544073198320760e+01
-7.406893992262330251e+00 -4.803087764232399914e-01 1.493017092019270464e+01
-1.012612631130115126e+00 -2.401341299070310242e+00 1.880631116414874171e+01
-2.536271034835367200e+00 -1.898641360062251371e+00 1.641315775891873940e+01
-1.230054460774675285e+00 1.210079926022570307e+00 1.851290538297545751e+01
-3.249508344036318164e+00 -2.748529134267545526e+00 1.924464388899520273e+01
-3.024701338320957777e+00 -2.719041328379024680e+00 1.917780461977335094e+01
-1.624262489344645788e+00 -3.490419951448321179e+00 1.810666058211067408e+01
-7.703770071827495514e+00 1.153335185051270972e+00 1.438030637008488455e+01
-5.181538518924365455e+00 5.330517078343766091e-01 1.353711571552374338e+01
-7.198864693893479050e+00 -2.169941397224211532e-01 1.473412835095046702e+01
-4.651173428281208722e+00 -7.408503754197763858e-01 1.943199751593948932e+01
-1.591990128681321226e-02 -1.994702895354798500e+00 1.774036262552795407e+01
-4.881077099913724848e-02 -1.991151762824544758e+00 1.813144337010322360e+01
-2.161223366138230073e+00 -2.450061528631359398e+00 1.661510226698989712e+01
-5.390475899137582516e+00 4.107178378501517013e-01 1.927741735089357533e+01
-4.371658097867081594e+00 2.712215599659491438e+00 1.845147566791857585e+01
-5.593893329979414908e+00 2.645593350776645480e-01 1.933666604771321929e+01
-7.732858735109778614e+00 3.934241896908732827e-01 1.450000708047911147e+01
-2.084215776751735527e-01 -1.542680260431127159e+00 1.615471902944878124e+01
-2.039774344710059695e-01 -1.721605810038807860e+00 1.616353944331030945e+01
-5.411773348504713255e+00 6.326707709178445993e-02 1.936483568086141460e+01
-2.633947356306080678e+00 -7.875876523478730906e-01 1.511524782124377353e+01
-2.610649967950396944e-01 1.229796395729595870e+00 1.792160939993872049e+01
-3.403410883703675616e+00 -5.443969409343758503e-01 1.535980845692761321e+01
-7.618701611829751030e+00 -3.094910408021609882e+00 1.922806055868653985e+01
-3.726763945242435039e+00 -1.016783334441875519e+00 1.612020877229627658e+01
-3.150089552473661847e+00 1.330046738772211912e+00 1.236285977097944411e+01
-4.446697047023524973e+00 -7.886236823898389314e-01 1.605553536464288911e+01
-3.618251500334853876e+00 -3.406590675126742074e+00 1.912140291157534833e+01
-5.533998407388903473e+00 6.544046715370970269e-01 1.342627227642135423e+01
-8.482354500210856685e+00 -1.259580762392035869e+00 1.812586137090410077e+01
-6.792736409859266189e+00 1.191458618121223667e+00 1.317627087828963184e+01
-8.454197972408948658e+00 -1.509616450728518355e+00 1.848844499956043208e+01
-6.194168878371725029e+00 1.311729605264279952e+00 1.254416403809111458e+01
-3.997807427045122708e+00 -2.343670078125110329e-02 1.434376043108476395e+01
-8.357348183394051944e+00 9.225464526439555168e-01 1.551691260889188939e+01
-3.563469661155874935e+00 -1.379363255647661213e-01 1.456399338199735283e+01
-1.439732008215524273e+00 -1.791573257324307278e+00 1.890059084900942210e+01
-7.000515391979912572e+00 1.058468990859469383e-01 1.932133266388242632e+01
-3.397599576285435408e+00 1.323089789731650145e-01 1.393284943729065262e+01
-6.944341176753649592e+00 4.175072994466089704e-01 1.924702370494484782e+01
-2.058801359265264974e+00 -1.384109808033682665e+00 1.526779048681581585e+01
-5.398487878696411890e+00 -2.785195722916438577e+00 1.764139938080206704e+01
-5.201581005304718452e+00 -6.609648651554840271e-01 1.611760395283208069e+01
-5.239249740363619345e+00 -2.168828418338176967e+00 1.968913006088046203e+01
-6.008320146667223138e-01 5.290848437805142218e-02 1.511943606540404161e+01
-6.383313485267281706e+00 -1.290015458078072719e+00 1.648669616651428882e+01
-7.420059435561333849e+00 -2.166286650755254950e+00 1.663050668176218139e+01
-5.647920903853784758e-01 -1.348780609464587998e+00 1.529572840525088040e+01
-3.573003942974326996e+00 4.221717922891686570e+00 1.796787663763545950e+01
-4.337338474138515698e-01 1.194483428965688931e+00 1.681617249446533791e+01
-6.135548854265113761e+00 4.553705065851300304e+00 1.638454695661188154e+01
-3.443803571551812936e+00 -3.381531439639998915e+00 1.912302507339940050e+01
-5.202656492456848802e+00 1.644913636452623118e+00 1.889447485432245699e+01
-6.606077796025550342e+00 -1.772487709085242558e-01 1.475734020859404794e+01
-3.882881340565916606e+00 -2.906278401486586116e+00 1.940391905951542029e+01
-1.061223507312814007e+00 2.166819683624965798e+00 1.687480078965826991e+01
-6.461905356616252760e+00 -1.595523692794418580e-01 1.478809739415444469e+01
-5.764765813671358430e+00 3.960989502113816396e+00 1.518222572375500690e+01
-2.189074815516582451e+00 -2.200718273134716352e-01 1.402730530319631086e+01
-2.632017493149761744e+00 -3.493256608927426399e+00 1.884386166296099319e+01
-1.749570015750965268e+00 3.234889663690561079e+00 1.815951475538173909e+01
-7.922599083611547854e-02 -1.198705957390838295e+00 1.831790229005971682e+01
-6.966144167088346606e+00 3.394386110643388577e+00 1.552899295978101790e+01
-8.234839825350494635e+00 1.527689478394744116e+00 1.594960774740014742e+01
-3.032488286433706826e+00 -9.668597295445768847e-01 1.914906229951163041e+01
-5.119324057690712415e+00 1.445386886672977100e+00 1.199772137314583276e+01
-7.950956840411374849e+00 2.545504267546883082e+00 1.595679413338806896e+01
-2.204677207101081393e+00 1.352469573653193591e-02 1.891449510377278287e+01
-3.232444217766363259e+00 -3.484936502254793123e+00 1.867334002480583521e+01
-6.347642670062445980e+00 3.879109675480399755e+00 1.802860789812073605e+01
-4.150123584222702888e+00 3.854885827549866306e+00 1.541877924937113065e+01
-7.996412179309035473e+00 2.568374993537773321e+00 1.616708271087010118e+01
-6.733631707090037111e+00 3.576283705509855970e+00 1.555813942977986031e+01
-4.034610043544980540e-01 -1.344041407115344811e+00 1.553344739077239112e+01
-9.403696471158511372e-01 1.849087811729342334e+00 1.826803577123329703e+01
-2.840487458658188746e+00 -2.782032457615545074e+00 1.703310616605633143e+01
-3.376868405616898272e+00 -7.440098663687787217e-02 1.433276859470187858e+01
-6.507024503132083026e+00 4.285387964497913593e+00 1.776562551550597036e+01
-3.959743909054281197e+00 3.234933542079958979e+00 1.823748528387369916e+01
-2.819444405064029713e+00 9.694492133766332564e-01 1.284573439956628604e+01
-3.199434425045067254e+00 -4.559658458127177627e-02 1.415470374753574490e+01
-7.349599564321525946e+00 6.495596352344468194e-01 1.906442035732034057e+01
-3.389328560836731619e+00 -1.098061526576462610e+00 1.608408619805937789e+01
-7.374245083217145336e+00 -2.064875020885818813e-02 1.456901871364668821e+01
-6.425228642941670287e+00 -1.824579218202017961e+00 1.715248713112972823e+01
-7.331927912051463991e+00 1.104124162273909110e-01 1.445181427865398760e+01
-7.174066688321637741e+00 1.691835091864968055e+00 1.871734586825700219e+01
-1.058981932247745172e+00 -1.293625927440025469e+00 1.499754768265229998e+01
-4.263460288095789252e+00 -2.322990143339835889e+00 1.953603982024084118e+01
-3.384368902950510627e+00 3.842917540038660373e+00 1.628266601888607923e+01
-1.179165741956285984e+00 -1.160412598469168666e+00 1.489156687329217377e+01
-4.191876879731402106e+00 2.771845923771982245e-01 1.912730760364651061e+01
-3.208784108742365415e+00 -2.980200481382931255e+00 1.727985689641431222e+01
-2.563690864456899199e+00 9.347063312372536625e-01 1.296439322092958335e+01
-5.621197380158472257e+00 -3.102442102890726083e+00 1.962297509531965645e+01
-8.283021888261124843e+00 3.909214263463128280e-01 1.819895581864723866e+01
-5.540984935659182042e+00 2.969491480406255768e+00 1.360477602608678538e+01
-6.893638711934418239e+00 6.229142051930700585e-01 1.383555202708142318e+01
-5.109570056331879329e+00 2.156883256681453975e+00 1.212725599937251175e+01
-7.060985878533860394e+00 -2.185945328316111436e+00 1.698224470769764238e+01
-4.178654837741682115e+00 1.133458834916674318e+00 1.237836729530504343e+01
-3.581785553029070535e+00 2.047172175867196575e+00 1.857614457550445408e+01
-3.539539668096104652e+00 3.867178055842900086e+00 1.806806279075179944e+01
-7.618276030645756869e+00 9.332368664312238327e-01 1.880277577172585168e+01
-1.288945967905417378e+00 2.724402700213864659e+00 1.732384798440771689e+01
-7.135418784718485341e+00 3.057532198565898085e+00 1.811490185043141921e+01
-7.958497496623736289e+00 4.965143514598979735e-01 1.869255139291193402e+01
-5.397860951572790889e+00 1.275910279315088935e+00 1.227968428160113845e+01
-7.200944718486760543e+00 -3.244937387960789899e+00 1.848392284833897392e+01
-7.144427029750385350e-01 1.476932150784801889e+00 1.826925597470055962e+01
-1.628928229917260939e+00 1.826845530894485092e+00 1.485274334494808457e+01
-6.984505489745895801e+00 -2.770782038730933206e+00 1.782013351989818162e+01
-6.889193688304662722e+00 -2.329659371925681288e+00 1.977589839916397452e+01
-6.746685160112396495e+00 -2.250124465785623418e+00 1.980866985183469708e+01
-7.806745812862033951e+00 3.121765719286735408e+00 1.678153572441667407e+01
-6.214826691825903637e+00 -1.709900511958636127e+00 1.711957539068803058e+01
-5.578824949441441028e+00 -2.707382937023253833e-01 1.535174448957219440e+01
-5.362330961059761592e+00 3.483115318807127103e+00 1.826908513747995144e+01
-2.681752203407608559e-01 -3.070168965627523061e+00 1.714550177345431692e+01
-8.507266740042737752e+00 -1.095927928840033427e+00 1.751270775646225886e+01
-8.339663176368699027e+00 -2.363572846502976166e+00 1.691662173395087265e+01
-6.344541724502812841e+00 1.779239496227378758e+00 1.277472417721569187e+01
-3.412178927118425964e+00 -2.123829654873613304e+00 1.691459788619159710e+01
-6.606235257072930800e+00 1.757606607084770955e-01 1.431398372098142957e+01
-6.523903693723117847e+00 4.668783314630505998e+00 1.754021027663074150e+01
-8.501634738601648422e+00 -2.722466734026179336e-01 1.730640280784905016e+01
-5.380410758700802987e+00 7.133519033229411832e-01 1.920078859107935543e+01
-4.824535298047588405e+00 -3.257267962428003205e+00 1.809319585772999872e+01
-3.972210571460273343e+00 2.867650369012727296e+00 1.321201844057844355e+01
-5.138900834074478396e+00 4.687358363898718849e+00 1.776061350873303368e+01
-5.096419600732576605e+00 4.478669950470992589e+00 1.784042331118000035e+01
-8.513195981990378414e+00 -1.942819426628926482e+00 1.749238933534978813e+01
-1.128684973977567285e-01 -3.321570665602318062e-01 1.674943540202356829e+01
-6.439762771712340239e+00 2.441811873411554590e-01 1.936337736599905313e+01
-7.557984583708367232e+00 -6.607147147577026036e-01 1.508196327998981090e+01
-4.046730361350389660e-02 -2.388892702227948917e+00 1.772721526881078447e+01
-6.237553923108953846e+00 -3.118738920743186593e+00 1.809679114370053199e+01
-5.393736134186468689e+00 -1.116173709283359461e+00 1.664632924042517104e+01
-3.394469151838956478e+00 1.903121691553153916e+00 1.180492664156248495e+01
-8.051270964037898770e-02 -1.392566521260211632e+00 1.831517213509195940e+01
-2.545329173237353526e+00 3.049410197212333973e+00 1.560541676538607803e+01
-6.367204943086081315e+00 3.672744721864130035e+00 1.812598175543267942e+01
-3.409140110068271223e+00 2.735012432985234332e-01 1.371112364603708400e+01
-2.477102800265375215e+00 -2.586093415584660438e+00 1.683436566193154604e+01
-3.797889623168964945e+00 -1.146591591698215895e+00 1.628061437554545776e+01
-4.736607633685234298e+00 3.480645439258210239e+00 1.821111844474654262e+01
-3.794041582632476928e+00 -1.274142756982715730e+00 1.640724571820600985e+01
-4.022405491442979653e+00 -1.311388891208441043e+00 1.650446385239590441e+01
-3.423587599219307442e+00 -1.375175411046888341e-01 1.451020225857676493e+01
-7.157878436087585783e+00 2.086255992329763664e+00 1.855395922553779897e+01
-6.033163578899152668e+00 -3.517387462281923671e+00 1.905910021711048685e+01
-8.440163765314173672e-01 4.108071657051071135e-01 1.483464515699668951e+01
-3.194677037848249856e+00 2.487140465806803036e+00 1.847231623094200970e+01
-4.683681990739972711e+00 4.781957164133728178e+00 1.713921707270979411e+01
-6.645234628878024630e+00 -3.482314593354751242e+00 1.928299483677310278e+01
-7.607771080616852366e+00 1.020233272305030026e-01 1.911703561477038349e+01
-7.580803336174921192e+00 5.026752238205631773e-01 1.899917471215141873e+01
-7.365180174584627260e+00 -3.272578821662995296e-01 1.482720789272272910e+01
-5.716612936776766851e+00 4.364044167649351991e+00 1.580196371960898816e+01
-5.631626131273392843e+00 1.088614668868708613e+00 1.911943752378110517e+01
-5.971261922580924697e+00 5.270665132980614231e-01 1.376919651145310652e+01
-8.013655776010963905e+00 -2.770363284270660476e+00 1.780849805967795518e+01
-8.032212932364554803e+00 -2.808388765740256865e+00 1.791897058190135894e+01
-5.345098000230017909e+00 5.037357501496998680e+00 1.741376675080290326e+01
-6.582147536216961470e+00 -1.327860077318226140e-01 1.944548479926085705e+01
-4.460729690669785974e+00 -1.143128290333362163e+00 1.648217537749631489e+01
-4.267772261530225819e+00 -1.189811156013706794e+00 1.645458241727757454e+01
-8.171920739011628854e+00 1.961212647712946344e+00 1.718105005915221639e+01
-2.009779631277226031e+00 -3.455941769361257077e+00 1.801281351170238665e+01
-3.466673874426225321e+00 -9.622652342120028290e-01 1.923928809092952363e+01
-2.621923728874508086e+00 5.951555727169504095e-01 1.320917537101022177e+01
-2.613867672013364896e+00 -1.169619286660095847e+00 1.571614473212810381e+01
-1.440668144958004770e+00 -3.295587227956077836e+00 1.733257044828756577e+01
-7.768273844787565885e+00 -4.209826316341669372e-01 1.511675712522030679e+01
-1.196551136787885383e+00 2.840368175521788885e+00 1.800078837642083940e+01
-5.726565098902463014e+00 1.411178520799378333e+00 1.219210005011519016e+01
-7.239565020576317345e+00 -2.543910721616517545e+00 1.963472292850871881e+01
-9.496367868713238014e-01 -1.539220816978028150e+00 1.883777327332990481e+01
-5.964434493103155432e+00 6.854066937201768184e-01 1.350926026591291063e+01
-2.543488868693975502e-01 7.875143780957447603e-01 1.683791220672691580e+01
-1.502819706101179209e+00 2.522505602165459049e+00 1.829514519670814465e+01
-1.691259993062610656e+00 2.317646545076681885e+00 1.556773999340337511e+01
-8.080910050128114364e+00 -1.544326425301642658e+00 1.911149324652567216e+01
-8.047226310616771627e+00 -1.904585354885928172e+00 1.623221379460690983e+01
-6.652765466317845267e+00 -2.438581852351281665e+00 1.756884515773569078e+01
-4.200452023344232622e+00 -1.615629234939804093e-01 1.472600264425206618e+01
-5.589038847743064586e+00 7.140559670158872496e-01 1.922438681028015495e+01
-5.366497200116865152e+00 6.833932656532679673e-01 1.330745143408696762e+01
-7.529175426460665399e+00 4.290573607289935865e-01 1.418517651823012571e+01
-7.992514798351741057e+00 -2.035016308029393262e+00 1.628903410820384678e+01
-8.518693698153910532e+00 -1.836167285245777991e+00 1.767099490329813349e+01
-8.512419363251769511e+00 -1.839058121977041660e+00 1.786697982377505056e+01
-8.247187268276995553e+00 -1.288346652028711459e+00 1.889848228273151776e+01
-4.259732648871606964e-01 -2.314079070860997955e+00 1.592383767802279593e+01
-7.361096479548736582e+00 -2.384631267667375543e+00 1.717225363142000205e+01
-2.116494798163898849e+00 4.827477579453774426e-01 1.348612588783830901e+01
-8.487531276249871581e+00 -2.067057354440652084e+00 1.814113893222098639e+01
-2.784143356017624082e+00 -9.573372410143934363e-01 1.909579566633669501e+01
-7.785572740299206096e+00 1.136111323561016517e+00 1.856350237681627746e+01
-2.049673323327799057e+00 -3.223213788442990335e+00 1.728815625136159539e+01
-6.041983084736484599e+00 -3.878038170925763861e-01 1.540788344724782988e+01
-5.555563296491038194e+00 1.628980089257421993e+00 1.185945764212611309e+01
-5.800825373722324763e+00 -2.097735199802490957e-01 1.514279316759861516e+01
-8.217742958118453345e+00 -2.729178886526467007e+00 1.787704246228600269e+01
-3.251048022744433386e+00 2.414769411016604028e+00 1.310861518126393221e+01
-2.918462749365389630e+00 2.370689132164961244e+00 1.851308411596789583e+01
-3.642143395659476646e+00 -1.142068436828618028e+00 1.623155212265424652e+01
-2.558656345942984078e+00 -4.469902731582589550e-01 1.434959791740662993e+01
-2.199421338849876228e+00 1.691321097715346777e+00 1.338265248635297766e+01
-2.845150287528101618e+00 -3.511593079835396924e+00 1.870505305309819377e+01
-3.018769365181530162e+00 -1.141636618297050765e+00 1.916806982784929048e+01
-1.801015106544164412e+00 -1.018942166289079188e+00 1.478534277317290346e+01
-2.385743882495248158e-01 -1.356097691902170832e-01 1.633797637987273887e+01
-3.477707333623041741e+00 -1.536448254964659421e+00 1.931921160704135687e+01
-7.836862822531730721e+00 2.333364779445892268e+00 1.778791194105880535e+01
-4.752516852613901222e+00 2.267529610173817822e+00 1.864198554199156277e+01
-3.565834787978273690e-01 1.245592765315808537e+00 1.803388194427505553e+01
-4.988019240717060931e+00 2.084396997150533171e+00 1.873203642364483201e+01
-5.920753983143409727e+00 4.976290956765463847e+00 1.717447983284433022e+01
-5.058676266682852862e+00 1.587137125401631099e+00 1.889033960682219160e+01
-5.593334989963270942e+00 1.831650761737399158e+00 1.888333963740931765e+01
-2.941522681663018890e+00 2.514141099846520344e+00 1.379574945503149408e+01
-1.512789906862449518e+00 2.084839960916916368e+00 1.560292824831634917e+01
-4.224325047423028501e+00 -3.360302297695000995e+00 1.849438395336158791e+01
-6.567456715556933000e-01 1.808074153280377905e+00 1.812888961201998583e+01
-1.431525659466684530e+00 2.205366179640600333e+00 1.601922632513844391e+01
-6.764645739011164061e+00 3.698803432140291836e+00 1.796722205362638292e+01
-7.655007682616020936e+00 5.561810477751258919e-01 1.426332246606028420e+01
-2.393526001022868943e+00 2.242876881298444813e-01 1.890992429901742256e+01
-7.352333739615978025e+00 3.093099889229158794e+00 1.791731578852733620e+01
-3.588685578498258533e+00 3.248659093067319592e+00 1.460995489722710872e+01
-3.661413900469123739e+00 -3.001334831484602450e+00 1.743440551310645148e+01
-6.487709452691109213e+00 3.669522448985321095e+00 1.544906808301339041e+01
-7.582242465948393573e+00 -1.138212181585738225e+00 1.945275348432229023e+01
-7.455903113278949945e+00 2.992861209240821996e+00 1.786596730049288695e+01
-7.809532969420510895e+00 5.412385222030311471e-01 1.452267413727662770e+01
-7.194165264685591588e+00 1.480705596630224052e+00 1.880111855940413434e+01
-3.607695738076235781e+00 -2.895841418976926374e+00 1.730981627490497132e+01
-1.629401724039052590e+00 -3.151790063395826014e+00 1.879092968781858630e+01
-5.331755109471789211e+00 3.833227617085907646e+00 1.811569861372341350e+01
-2.272139246051685380e-02 -2.006034449636631134e+00 1.792868685627748349e+01
-2.413095118201678435e+00 -1.589931805092680062e+00 1.605701543637450968e+01
-4.993941952685970520e+00 1.260921125615961369e+00 1.898150817735348639e+01
-2.030012370932190002e+00 -3.266340472963829011e+00 1.736670948313149765e+01
-4.551762329436670029e+00 1.310252936503182308e+00 1.211102683615157005e+01
-4.123647477796258620e+00 4.041834176513297905e+00 1.797079820385905791e+01
-4.165677267375808235e+00 2.278068344232104359e+00 1.855560798812608780e+01
-3.938665900276066445e+00 4.235730015189215436e+00 1.792590175801323582e+01
-4.814650146261639563e+00 -3.136686325988294222e+00 1.789261720381947995e+01
-6.034756392162337058e+00 1.303047345508177024e+00 1.248236680980651769e+01
-6.259396420986121257e+00 -3.511557061073465213e+00 1.906535155916964541e+01
-2.269230283739415710e-01 6.524788192918975493e-01 1.677130293724354360e+01
-4.779443956175223107e+00 -1.726057113358588913e+00 1.959790476943856063e+01
-4.170977596242637198e+00 8.826542107575600926e-02 1.414824310954318420e+01
-1.848733089720686174e+00 -3.543544574017245541e+00 1.852207304762802309e+01
-2.261732453646211116e+00 -2.407986018815752249e+00 1.664672041527596136e+01
-4.143912338313114674e+00 4.468473101061747776e+00 1.682434051207266990e+01
-3.988051401419432374e+00 -1.666735112424387433e+00 1.679204927376629897e+01
-7.359909458700504281e+00 -1.885048347739573638e+00 1.613017293546535669e+01
-4.246163982714930896e+00 -3.399754007704840042e+00 1.869360392691208617e+01
-5.339653383722518853e+00 4.113429161105150444e-01 1.379241288763228468e+01
-3.365899655578366456e+00 6.819190726795125723e-01 1.312556737356738168e+01
-4.734579618790065503e+00 2.608559319798376963e-01 1.921741812337251432e+01
-3.555081907086147019e+00 2.900494920903604168e+00 1.382387583127080077e+01
-2.586217142828979743e+00 1.660398027315360459e+00 1.865964896835155074e+01
-5.255420580202037506e+00 2.477502998112111499e+00 1.266331577964894350e+01
-5.069186400310615959e+00 -1.817280635362084285e+00 1.718534117685261364e+01
-8.489997654635015323e+00 -8.828689414398867008e-01 1.643535868793538768e+01
-2.030319270148625677e+00 -3.425900988830654637e+00 1.879474184668532999e+01
-5.368386341995504019e+00 3.229495681142580676e-01 1.395476148251721682e+01
-6.775681038665803513e+00 -1.274397657675355733e+00 1.566162675567616347e+01
-5.033513968792723503e+00 -3.410728853334763500e+00 1.850512804187169635e+01
-7.241541002429634055e+00 -2.225011834067895489e+00 1.690127269148947065e+01
-2.885209607049312286e+00 2.200267885285263958e+00 1.316617436294254517e+01
-1.637858530097355159e+00 -2.336370267686227908e+00 1.611878159202885641e+01
-5.333229254835979205e+00 1.933977651401190379e+00 1.195448009122199906e+01
-4.799701307526421878e+00 -2.117230887384250693e+00 1.726978676430564619e+01
-5.622767725941203665e+00 1.312527467705534301e+00 1.229525260112978557e+01
-1.797198290279002242e+00 -2.096829044343589743e+00 1.591046996605346564e+01
-3.960754871579143632e+00 7.928966248692707885e-02 1.413573168760899890e+01
-3.368170919936523067e+00 -4.590671565692133749e-01 1.518874230907983858e+01
-7.709126235520209924e+00 1.703700134880286460e-03 1.476386180188337605e+01
-7.138271045921170677e-01 -6.110816695935987752e-01 1.507274236383767985e+01
-3.566347359431489394e+00 -4.074240892887356358e-01 1.518974121390835919e+01
-6.658309795224035987e+00 3.836371257893845588e+00 1.583859016527368269e+01
-6.026478176615638338e-01 -2.703771293521071595e+00 1.634560581598231366e+01
-7.235614180149166685e+00 -2.124622867825421313e+00 1.966648635264695955e+01
-3.828535782818687672e+00 -1.569641408043938036e+00 1.667414061172393147e+01
-6.198656051702855496e-01 2.296680929125531623e-01 1.512193986989609940e+01
-3.989375123716417448e+00 -1.744995280284456163e+00 1.684901223382729185e+01
-3.196844554499360669e+00 -2.443056310084790184e+00 1.698923840553799280e+01
-6.166222653367438689e+00 3.528572083011593197e+00 1.822244967567803897e+01
-1.076657894207540878e+00 -2.628732662360962369e+00 1.628946313164965787e+01
-6.606709131532221058e+00 -2.542212155672955554e+00 1.765531559253975402e+01
-7.303511562348528052e+00 -1.322446061127348305e+00 1.960359506341461255e+01
-8.245726394752910693e+00 9.479339779788036324e-01 1.529452308008610473e+01
-8.484586918383662635e+00 -1.697761422312538349e+00 1.832053160319565777e+01
-1.243347352029996022e+00 -3.373597826755602380e+00 1.865733082399885845e+01
-1.640616093875132186e+00 -3.380148205883177770e+00 1.874486847820734781e+01
-8.132978834052835282e+00 -1.309505556391978631e+00 1.903856806660155243e+01
-8.007115597986494748e+00 -2.312317911908045254e+00 1.665636481899283083e+01
-4.492611995950801518e-02 6.149724081033134393e-01 1.736616538137097265e+01
-2.027988089352970924e+00 -2.917567803523745784e+00 1.687939063091657843e+01
-8.506098165547498979e+00 -1.246180704378667459e+00 1.771534024261378804e+01
-4.361538596376828281e+00 1.774423130014041616e+00 1.156226158400348325e+01
-3.366785837100539691e+00 1.415013593512805645e+00 1.218645389415582869e+01
-8.478691738549947843e+00 -2.334438994477404106e-01 1.672373159148708410e+01
-2.821023866267838187e+00 -3.491407692395528617e+00 1.851210381091865642e+01
-4.570122526323595835e+00 -9.455005622452175018e-01 1.631024241043612122e+01
-3.584069812068410688e+00 -2.116524919571160512e-01 1.475819490809879042e+01
-7.303669654038314363e+00 -2.678152754602677099e+00 1.958192817668998131e+01
-2.351004173968803013e+00 4.042427586050752808e+00 1.798923871061481705e+01
-3.830226751249802941e+00 -3.396152206370022686e+00 1.850453634281272386e+01
-3.354258842029113730e+00 4.606220014708928723e+00 1.782293560846938973e+01
-3.379686935639095502e+00 -3.304292557465611790e-01 1.495132232271022232e+01
-2.019411872925986007e+00 2.966044693480422545e+00 1.831200811527759598e+01
-5.904340682574746424e+00 1.220465410704643539e+00 1.255745954686853239e+01
-7.583555085961408260e+00 3.740117067965039177e-01 1.431610843607348116e+01
-7.607607223911877270e+00 -3.221565956715396251e+00 1.888166000983549608e+01
-3.619545770243189242e+00 -2.177456415650802057e+00 1.939721406951413130e+01
-4.036126402497630217e+00 -2.157538764149268040e+00 1.949166037615252733e+01
-3.960780882554367111e+00 4.431577036643333578e+00 1.787220190633681582e+01
-4.432585756930027543e+00 -2.927036448914085986e-01 1.515572719432542570e+01
-3.042873996164910722e+00 -3.425726658957367832e+00 1.829249751493461318e+01
-2.948772312442679677e+00 1.255469890250185294e+00 1.252542663375314547e+01
-3.702520312559572369e-01 6.460304331790089893e-02 1.596440674766884271e+01
-6.144078204349190386e-01 2.429930716691306170e-01 1.537851488784459875e+01
-5.741235452084849200e+00 -2.669810213450045100e-01 1.529684143973129196e+01
-4.818040089240976265e+00 -2.329410732893484770e+00 1.734913117537432825e+01
-7.271997671375069139e+00 3.079618006625950422e+00 1.542725150626770514e+01
-7.055133451219791851e+00 -1.989589865620361220e+00 1.649852326666232116e+01
-2.235237844764982107e+00 2.404116881360474522e+00 1.465553731486410172e+01
-8.381839249689672755e+00 5.396741263689797119e-01 1.775779209999356212e+01
-8.281681044082333187e+00 1.140782829548936839e+00 1.539345784810218376e+01
-5.806352084133673763e+00 8.455217292212674485e-02 1.939701138164301497e+01
-4.205304867188320195e+00 -3.089806106854803947e+00 1.771040575606093981e+01
-4.634321399433726008e+00 -3.057490412229612708e+00 1.775185892218678774e+01
-7.442596221952561208e+00 1.465878998149471757e+00 1.407055281052268825e+01
-7.538409964586037404e+00 1.377167456063852047e+00 1.416560025905471676e+01
-3.940139992468377983e+00 3.018194778849892845e+00 1.830907893263147557e+01
-8.495105608552105281e+00 -1.225695654048071515e-01 1.704656055074054777e+01
-1.795219489246170919e-01 1.041619222589181604e+00 1.717697275560236037e+01
-1.108873598168465424e+00 -1.183987298760318607e+00 1.884989542047122413e+01
-8.479355751417521958e+00 -4.511254981409605624e-02 1.691651964027076005e+01
-8.422282446828631919e+00 7.636726958371296003e-01 1.614032689712424329e+01
-5.412786910473288415e+00 -2.912471398859404648e+00 1.774007244121466798e+01
-3.581017512974650874e+00 1.078802058318808266e+00 1.254607757187460848e+01
-7.892945704814998464e+00 1.568268080544107379e+00 1.498425278291454887e+01
-1.474117349321198089e+00 -4.968088857950311854e-01 1.444858196355690794e+01
-4.036674961583678112e+00 -3.162506595495522266e+00 1.935681836841063941e+01
-6.373239442825337164e+00 2.802661593162909082e+00 1.416230130129087073e+01
-4.410020679229509355e+00 5.915447568112901511e-01 1.908035905795929565e+01
-4.809719135210164254e+00 1.256536886130506847e+00 1.895034778526662578e+01
-5.186673682563134768e+00 -2.530956056446971858e-01 1.531858243186495727e+01
-3.137597042250747315e+00 1.522147944721961688e+00 1.216251830675520651e+01
-4.850683117858500815e-01 7.025778909237212488e-01 1.607789645600288608e+01
-8.026001754126703247e+00 2.300566038880993425e+00 1.733032511047464297e+01
-6.353911462572542135e+00 -2.787579494044519546e+00 1.779585229438555771e+01
-2.565103764436168721e+00 2.830099170155428112e+00 1.839785829807606277e+01
-2.736868316529527778e+00 2.644886480967589382e+00 1.844794005765917078e+01
-3.022926563761958008e+00 -1.120881127839658653e+00 1.590557858032324745e+01
-8.487583306950355677e+00 -1.644840745981207553e+00 1.692023656626599504e+01
-6.032010209171335013e+00 -3.140606340069763025e+00 1.809177374915755721e+01
-8.591538669136541961e-02 -2.398529772363324319e+00 1.813513126036728451e+01
-3.063720049505162191e+00 5.692391595829873752e-02 1.900656526600773688e+01
-1.078486559251887522e+00 -3.480613403103444359e+00 1.846806505152238387e+01
