-1.869311240538478636e+00 -1.723059236006164952e+00 1.553786655791931537e+01
-2.442224921063224308e+00 -2.848368836796958625e+00 1.766952025067804755e+01
-1.237769985644683324e+00 -3.195210456782660025e+00 1.691925130431749125e+01
-4.327003229446230392e+00 -8.064125210765991092e-01 1.464905447231185320e+01
-4.318499213318094831e+00 5.115468008817304124e+00 1.659650585757012209e+01
-2.139777272085626958e+00 8.048716938879401095e-01 1.966615379802259156e+01
-6.184731755290934885e+00 -1.337155210020599228e+00 1.423000919311488843e+01
-1.941246950770813662e+00 3.410466765252120336e-01 1.976348570915060066e+01
-7.493702740109888794e+00 -1.965707052206802086e-01 1.905652900332918875e+01
-3.111455892303248483e+00 3.401456809876627574e+00 1.879066137067874109e+01
6.315012079856725524e-01 -2.405994255993221476e+00 1.877185016143813812e+01
3.669364329146542758e-01 -3.512227532128839869e-01 1.711439088086093108e+01
-1.192092290110617014e+00 2.128831308005398437e+00 1.586269857433066477e+01
-2.614051510301064418e+00 -1.558166544722942248e+00 1.621746875168833668e+01
-1.219610616732084374e+00 3.535306729881982246e+00 1.814746029222151691e+01
-1.845017627369277768e+00 -2.342261191960584021e+00 1.716824612171750175e+01
-2.980493821013036282e+00 -1.097502599130638856e+00 1.449082724333949557e+01
-1.854230452997984280e+00 -2.576547741814997128e+00 1.735869015894319034e+01
-7.802663080697405107e+00 2.826933351909772796e-01 1.857910826117588954e+01
-6.229895693388408873e+00 -3.871246332272777479e+00 1.730748400435937384e+01
-4.103194338989402112e-02 -5.797367413853660167e-02 1.927053637485736459e+01
-6.191608865575545906e+00 -3.928831616866330201e+00 1.746113324304252501e+01
-4.321341405997662477e+00 5.087090943664409615e-01 1.967246039140495384e+01
-7.369801802669652346e+00 -3.413864820278230461e+00 1.614721958654340739e+01
-8.667323848239523176e-01 8.673795603100605822e-01 1.488497978603698613e+01
-5.014549049695887106e+00 -2.024556013960418621e+00 2.011354965776828152e+01
-5.041033559082102045e+00 -1.789375667514247148e+00 1.629157675565421215e+01
-2.548748411880153775e+00 1.872335021317066417e-01 1.979392303051625390e+01
-4.445031265397309639e+00 -3.084952679002108233e+00 2.032888398840297128e+01
-7.693317838112056606e+00 -3.517376379023813726e+00 1.668946960461622098e+01
-4.934328497529696378e+00 -4.039267717372884370e+00 1.804441413526548388e+01
-7.168291387896369216e+00 -4.603093844286642700e+00 1.779765122165863289e+01
-9.752274060707106784e-01 -4.650288048322277490e+00 1.869052782683743175e+01
-2.145554343128431629e+00 -8.598164653476878527e-01 1.994876544012974051e+01
-4.623043024935030942e+00 -1.613126301576222943e+00 1.646386857574650975e+01
-2.090477955536980126e-01 1.230027903721793159e+00 1.840354300309053315e+01
-4.395116157702886994e+00 9.818640305981682914e-01 1.124823063772112164e+01
-4.355186401873693214e+00 1.377154944891183952e+00 1.943470064823763011e+01
-4.396492470430759525e+00 -1.485400329852756496e+00 1.644721355933418749e+01
-7.244952393784028999e+00 -2.807675225936408836e+00 1.984747463089729536e+01
-6.047218997596432999e-01 -4.769459475389752789e+00 1.905151948408442308e+01
-6.369512533260657250e+00 -1.938501669268107186e+00 1.466305878995543566e+01
-6.319946647925535288e+00 3.663483901474399396e+00 1.808194496832837217e+01
-2.520073989881271181e+00 1.997234826841087330e+00 1.931129024282198969e+01
-2.989855202708817217e+00 -1.894080634391792195e+00 2.021258972685541977e+01
-2.375476077875966485e+00 -1.351837824236032937e-01 1.287277885636128616e+01
-5.390457609014312368e+00 -2.857882625536180221e+00 2.018463846843057752e+01
-2.767001546622094299e-01 1.245247482643689896e+00 1.860986039347319831e+01
3.957616789317268680e-01 -1.680746821364246912e+00 1.941500475364688327e+01
-7.128523024174507228e+00 3.772547681527447239e+00 1.615141644899595974e+01
-2.129295886424953377e-02 3.640118705068662308e-01 1.895407559496513272e+01
-2.110833938812953559e+00 2.888036034332455149e-01 1.251415585400557262e+01
-4.919922473236953309e+00 4.176189224286693147e+00 1.536397586442662089e+01
-2.183967718856405060e+00 3.640728632753080785e-01 1.238310034367933099e+01
-7.510402592322035886e+00 2.397785250236653454e+00 1.568566988921774907e+01
-6.053615646997716482e-01 -4.910010898415034575e+00 1.945934350331453544e+01
-2.766202562294481915e+00 -1.730531353184965315e+00 1.680393708325016178e+01
-2.767787504487486228e+00 -1.465986123942600639e+00 2.010782986467346234e+01
-5.005388010408837740e-01 -3.576434692206618138e-01 1.447861350938123337e+01
-1.825111140623799422e+00 3.855954001962661248e+00 1.722145894327169202e+01
-3.766192296604896850e+00 -1.935887761425897136e+00 1.696219057903839200e+01
-3.595582388879841940e+00 -1.844207881695188789e+00 1.687622919728217141e+01
-8.103428587944835115e+00 -2.667336679928731691e+00 1.687050826783006841e+01
-4.743068796681793486e+00 4.948820576204830957e+00 1.801844316963121173e+01
-1.913053112933117417e-01 -1.499534190333271066e+00 1.999212241505343002e+01
-5.218722287240661117e+00 -4.702770985866703946e+00 2.016696815738575310e+01
-7.508205346162631244e+00 2.701143699613313576e+00 1.768116507588242570e+01
-5.133128751723544880e+00 1.351360164888144588e+00 1.223081362874801670e+01
-7.516870414664712285e+00 2.478836843066868134e+00 1.783122820392454599e+01
-7.621721025804433225e-01 -1.091142211761835679e+00 2.003431881006363824e+01
-6.980262647069583437e+00 -4.071693651321067975e+00 1.689902445692889188e+01
-5.176688003940402183e+00 -4.228447899087084405e-01 1.968122228384703476e+01
-9.556279917960883719e-01 -1.064445770404009117e+00 2.003320580084255909e+01
-1.372123391392648273e+00 1.025948090142587699e+00 1.402497970453863019e+01
-5.437257929099590825e+00 -2.155047297309422571e+00 1.600617847189948861e+01
-1.926937639404843416e+00 6.277233606120247167e-02 1.288904690056406821e+01
-4.214551734091333657e+00 -3.537920635177272288e+00 1.789995931530376794e+01
-3.126473911750935919e+00 -1.217099603870405389e+00 1.606017761861326676e+01
-7.816081746692248089e+00 1.887308408919261105e+00 1.598752264531692191e+01
-4.171417798904915042e-01 -3.701365591887405770e+00 2.024723135042376043e+01
-2.159951149503662293e+00 -3.474200221276916523e+00 2.031381925899033547e+01
1.438393180065107857e-01 5.230207391505385939e-01 1.813994942643114427e+01
-6.363301122518674191e+00 1.648508047162879686e+00 1.888421007099064752e+01
-8.028696680555960086e+00 8.188008465473570752e-01 1.573601056493559724e+01
-8.095160201234863351e+00 7.766816995623992970e-01 1.587069012194406525e+01
-8.029220670634064305e+00 5.997636235484984368e-01 1.572199505652734075e+01
-4.174324389893740772e+00 -4.592748436330502670e-01 1.991805118433662614e+01
-8.014556535109932156e+00 9.983498664209725648e-01 1.573121011455087626e+01
-3.762800238271814646e+00 1.168325737621558780e+00 1.953242060463874452e+01
-5.566548464384572625e+00 9.800668393592649741e-01 1.923939320452441848e+01
-8.133134140950252444e+00 9.614600361433962572e-01 1.599387226356635949e+01
-8.301931350001144239e+00 1.988045253585182248e-01 1.656642572161236160e+01
5.251125762536896779e-01 -1.370778298554667263e+00 1.748162843717730652e+01
-8.236447303135616238e+00 1.869698387063281064e-01 1.635291432214619789e+01
-7.932088074736629579e+00 1.238568723293279605e+00 1.557066163639179024e+01
-8.180090876380477383e+00 4.176012495250658318e-01 1.613636752567754229e+01
-7.816071653071050562e+00 1.647508873712502986e+00 1.559324560578005503e+01
-7.849259430442895535e+00 1.686810212188566638e+00 1.575459447921090117e+01
-3.768234804944918803e+00 2.655999277207623965e+00 1.332153961181393953e+01
-7.611117667487279359e-01 -3.635248048881608796e+00 1.680196707026154712e+01
-6.941974194007334731e+00 2.652811088438249865e+00 1.827871813644074450e+01
-8.349087654545062520e+00 -4.896539288498049647e-01 1.749324072713169897e+01
-4.583699365172469342e+00 -4.143772548558156466e+00 1.811293223455568580e+01
-5.458095644927587031e+00 3.381753750274932635e+00 1.460339526396913357e+01
-8.362637534560935393e+00 -7.046760778348017951e-01 1.752757607098201476e+01
-2.413292639062549316e+00 -2.171767585990563632e+00 1.718258500986208759e+01
-2.382110559809815342e+00 -1.437146965732328141e+00 1.543211096662246717e+01
-1.298112557696682323e+00 3.286102497506320219e+00 1.728624857876358334e+01
-7.915049395527745446e+00 -3.581312636038583186e+00 1.929611541801048702e+01
-3.233501258008258272e+00 -3.476388120238427248e+00 1.782444139301797748e+01
-6.577054239638844280e+00 2.230589755149264608e+00 1.864376261673994861e+01
-5.922277958336925607e+00 3.602217564125647087e+00 1.513192711128363044e+01
-3.417546342926647718e+00 -3.590904342660227400e+00 1.785680637854316188e+01
-9.551175092728185767e-01 -3.110211064574297524e-01 1.385252619770459148e+01
-8.416705862747630995e-01 -3.277437919986549986e-01 1.397452367103052495e+01
-1.097394950194159779e+00 -1.441492797301269224e-01 1.364548758853462829e+01
4.570302395820336483e-01 -9.144540840606079080e-01 1.711539255566550821e+01
-4.293832474759163631e+00 -3.597425157363234316e-01 1.320736795315799128e+01
-1.466458767591593659e+00 2.412719209935109355e+00 1.578719670465579128e+01
-5.128427532464861827e+00 2.330789185059076729e-01 1.217270075525332373e+01
1.744615552298013905e-01 1.910693207403248994e-01 1.855760922129853441e+01
-1.404140087007351267e+00 1.283888242541026070e+00 1.951530804310441169e+01
2.847994593444058697e-02 -4.749696514067284880e+00 1.896971267798441119e+01
4.190529054805374187e-01 -1.231186735170042734e+00 1.908591843628967410e+01
-1.653075969304251380e+00 -2.087748276959643601e+00 1.557077095907239794e+01
-7.872472572805898849e+00 -3.179382171160123782e+00 1.942517943708534034e+01
9.422217380119829455e-02 -2.240677294227249039e+00 1.578883582528960261e+01
-7.115458729237367663e+00 7.951804878382804365e-01 1.889744124984635931e+01
-5.858751383751394926e+00 2.957410646066067628e+00 1.860243603293295678e+01
-6.768447202950871322e-01 2.453298516827209674e+00 1.832351573917671317e+01
-5.783632558007851809e-01 -4.472540639847069954e+00 2.019686960532171582e+01
-1.380513448235274110e+00 -1.867500933529798068e+00 1.498673398593105333e+01
4.388521898101619412e-01 -6.836434541034654977e-01 1.630692294240117235e+01
-2.750964546051774651e+00 2.970798319468420434e+00 1.896388211785514244e+01
-1.195065180987542997e+00 -1.994991034692842558e+00 1.503690907311995772e+01
-5.606115302491312846e+00 -4.361777721507159811e+00 1.811478929880588140e+01
2.751129626373167159e-01 -2.314140666053434714e-01 1.871454792035093107e+01
-4.220294354920214319e-01 1.963012959083765274e-01 1.516031305588168721e+01
-3.441330263190687688e+00 4.435821842287340999e+00 1.631083852831631731e+01
-3.994847011723913877e+00 -1.382942481070245311e+00 2.014444822451626749e+01
-5.810228309592353924e+00 -4.479504414434337889e+00 1.814249949050426380e+01
-8.843087253813011195e-01 2.436501039993178352e+00 1.872318039263179656e+01
-4.108018973378458227e+00 -6.226287541798543046e-01 1.431531345548663126e+01
-4.129943737596940778e+00 4.364320767536588264e+00 1.560614658524821863e+01
-6.978159999329072605e+00 4.051793064101813613e+00 1.627304776966807509e+01
-5.578388420044751328e+00 -1.445245741763823144e+00 1.987036176870013549e+01
-4.195909745873690255e+00 -7.044303437083372366e-01 1.448429680479060977e+01
-3.365907726083571472e+00 -2.071449063885244524e-01 1.272036189919953131e+01
-3.742020666975575782e+00 -2.844302183140146045e-01 1.292767737859296062e+01
5.487684505206434915e-01 -2.530882852188756083e+00 1.700033775963531468e+01
-4.321281169618963247e+00 -4.939189291556461470e+00 1.976852724331034494e+01
-3.455945011919902665e+00 -1.631154019772649288e-01 1.260583022612592430e+01
-6.579730243374447340e+00 -5.137202849227542778e+00 1.957765383437492801e+01
-6.604828180329976206e+00 -3.489551448725254801e+00 1.610634213909099088e+01
-7.928084338062360459e+00 -4.281608925306167990e+00 1.863622175926954583e+01
-8.285224552318371849e+00 -1.401706664988058293e+00 1.858452605102603883e+01
5.061519181474020135e-01 -3.308318171764439874e+00 1.681537832006230104e+01
-3.813834269385366849e+00 -1.742631616544338513e+00 1.678095204137970597e+01
-3.595559073978274345e+00 -4.364882311082381783e+00 1.813351676642210464e+01
-6.007963562114195355e+00 -5.212809524916517390e+00 1.947288693728916087e+01
-6.788291928675320719e+00 -2.024015051277685107e+00 1.981684838216515487e+01
2.439339551419829610e-01 -1.668829081097458200e+00 1.969654107330224235e+01
-1.376629491238818837e+00 -8.596611066524335598e-01 1.996099585207349492e+01
-1.559833637857874766e+00 2.967120893539505921e+00 1.884827418881415895e+01
-8.041208111747426557e+00 -2.747920695966032945e+00 1.921936845651798365e+01
-2.978098078034390195e+00 -1.619212802399704554e+00 1.670745815946604296e+01
-3.001634563943701650e+00 -4.738031694846548625e+00 1.867945681963013271e+01
-2.764131418504230719e+00 2.808311197374224744e+00 1.451305584118247793e+01
-4.346785323001613577e+00 3.673941532729313675e+00 1.471798785080562055e+01
5.767698029524102044e-01 -2.161151136432480691e+00 1.763052364572124020e+01
-5.501471798736506713e+00 4.877163480174147914e+00 1.779438792419544058e+01
-9.132125215782245231e-01 -4.291389678004113861e+00 1.816311997537412282e+01
-4.585849336149902200e+00 -1.829919892338168985e+00 2.016088436306471721e+01
-4.561397585952052580e+00 -2.101424626003537188e+00 2.021456140292826831e+01
-5.502501722458367439e+00 -9.711470772488244307e-01 1.403883734868261257e+01
-5.628808797658447105e+00 -8.866478821868337690e-01 1.393781478723295209e+01
-1.278451769729739507e+00 3.513378989678967557e+00 1.832242342168173366e+01
-1.090806703942818201e+00 3.024733154058163898e+00 1.855591263798048374e+01
-1.325906048448100893e+00 3.151751413366887355e+00 1.865642518319803145e+01
-3.558136328775132196e+00 -1.126104850650972544e+00 1.601736139803821146e+01
-3.384977226732134081e+00 -1.272464168143344398e+00 1.622906174322530859e+01
-3.532767529494410308e+00 -9.488906240940431225e-01 1.572228163571469395e+01
-4.213084475021313224e+00 -3.144670057787887885e+00 1.774739176785919881e+01
-4.370705866154754204e+00 -3.406929577235703555e+00 1.786408732162950486e+01
-6.054414248792552300e+00 4.913300765490843602e+00 1.750040154036241802e+01
-3.377625713217869308e+00 -1.531551852945947534e+00 1.658068803288455229e+01
-2.631029910480776390e+00 -2.889726490358641264e+00 1.766850385467977702e+01
-3.046119668155341742e+00 -1.297961561937917452e+00 1.549974557313637291e+01
-1.513191479343678481e+00 -2.638951738868845709e+00 1.658017939335596225e+01
-7.002072812774066790e+00 -2.442186668137915184e+00 1.987028293812075930e+01
-4.547643537011749615e+00 -1.957003787121744498e+00 1.696531860758445021e+01
-2.534912339880212695e+00 3.842502425464120019e+00 1.856564213096505256e+01
-4.215860005889902951e+00 -2.047156523174718412e+00 2.025056491194052910e+01
1.501558831373982494e-01 -1.846111935488190081e+00 1.570686775410859326e+01
-3.186234914800857521e+00 1.349520590304331691e-02 1.982893366727780915e+01
-2.219774845740699831e+00 8.881438234802562226e-01 1.241850695034067797e+01
-4.393526708371888745e+00 -2.699222606799564161e+00 2.031197744761960422e+01
-5.773347982767162989e+00 -3.523638914507109199e+00 1.753923257083136633e+01
-7.153362813470784953e-01 2.209982875826530524e-01 1.451278060558291827e+01
-4.002405263657164980e+00 -3.078332701180290343e+00 2.036686968035148482e+01
-4.005134928046164333e+00 -2.653200871423585738e+00 2.033954209088653897e+01
-2.827335026504432580e+00 -4.740124368015488088e+00 2.016380095088873503e+01
-1.642062870750947479e+00 4.121186260204456886e+00 1.788605200053007138e+01
-5.565776228156082084e+00 -1.203336575808086284e+00 1.420383541715302300e+01
-4.781742840547641649e+00 -3.971866070921350023e+00 1.804032132292651625e+01
-2.748722719367848288e+00 1.172378818860190464e+00 1.955661424602727294e+01
-1.595975104499637975e+00 -2.096903369867016753e+00 2.014639974094645680e+01
-8.239365065954688205e+00 -2.749716501521730194e+00 1.880620207475165273e+01
-7.177813755465159318e+00 -2.558619079949346453e+00 1.536114586336818633e+01
-6.597788898019606663e+00 1.090204963237427549e+00 1.379593668104361370e+01
-7.812321027560019004e+00 -2.385415545282237648e+00 1.941690938622240026e+01
-7.145251132506642122e+00 -2.728131991861153516e+00 1.544559720949961701e+01
-4.968316570019151612e+00 -2.474692011770680544e-01 1.310436145730233193e+01
-4.916936122176577939e+00 -1.647112477706669242e-01 1.274121528260286595e+01
-5.869350574451368541e-01 -3.552768041529518861e+00 1.655856666976160341e+01
-2.753957779604599754e+00 2.581024068577320918e+00 1.911719546269374348e+01
-6.631310963398668878e-01 2.662900072816663410e+00 1.797445787833801489e+01
-1.589546641607783251e+00 -4.851111875077946500e+00 1.925281108559226340e+01
-1.386516931702511446e+00 -3.485278974918190720e+00 2.027772652590598312e+01
-5.707810020320689404e+00 -2.696589548789756208e+00 1.659783892577745235e+01
-8.027811327197602154e+00 9.440467760990771673e-01 1.786645947580608862e+01
-3.966230591745233180e+00 9.786292161194354300e-01 1.957873402990126976e+01
-7.558250628756173484e+00 -9.723415476649832634e-01 1.930110990962655393e+01
-8.918859241919729897e-02 6.553706862314776505e-01 1.882377315889184644e+01
-8.159435997638905036e+00 -2.952546901968826631e+00 1.897038198150849553e+01
-8.106151459316746966e+00 -2.767937495946862114e+00 1.911311172835340244e+01
-4.717477881767447201e+00 3.577826004551611483e+00 1.865221067475840044e+01
-6.045520646331324244e+00 -2.968081717750295390e+00 1.577265677196838567e+01
-1.941403252253162126e+00 -1.623073966749324804e+00 1.562698384636068738e+01
-4.852970435835956664e+00 -1.784765718711654792e+00 1.649697454755735748e+01
-8.640894245630295067e-01 -1.461114654341608698e-01 1.396911527335765157e+01
-4.400349778883491325e+00 -4.276091143321900212e+00 2.030444240531802791e+01
-2.290675507895374441e-01 1.322981134921102697e+00 1.832799313150293585e+01
-6.252375067495468119e-01 -2.602940380345035720e+00 1.544820195410841990e+01
-3.592230014712844532e+00 -1.533350280197880000e+00 1.656670068109797711e+01
-6.163744794930849480e+00 -2.036806076280965883e+00 1.474414287845517180e+01
-3.348010673187723718e+00 3.240238370929278133e+00 1.450265106704074469e+01
-6.900228468949503480e+00 2.440476528667448797e+00 1.488792952151140980e+01
-4.394500069156061173e+00 1.070374313500072283e+00 1.133704471108821110e+01
4.705271758157545392e-01 -2.676407111785768400e+00 1.960273066278826093e+01
-7.895584432824088950e+00 2.344859712779803207e-01 1.848736485255367512e+01
5.221509831983481842e-01 -2.856622080354542348e+00 1.950137891008133550e+01
-6.637945394433628632e-01 -4.959049211976206628e+00 1.962457109874723216e+01
6.798683790678690109e-01 -3.744889505978486355e+00 1.776278686790016081e+01
-3.626284257893511498e+00 5.665916462210358606e-01 1.146320664034661974e+01
-2.142086664787609784e+00 2.591019648801275110e+00 1.910002999178497873e+01
-4.038583058618794297e-02 -3.719853194755987857e+00 2.015300823375611827e+01
-4.275563030285693955e+00 -1.356317760495144853e+00 1.631496191235861914e+01
-6.102184777982188280e+00 5.107248589921708160e+00 1.680703333299985758e+01
-8.073039913368660336e+00 -3.577523997619660445e-01 1.597284515736669164e+01
-2.227870111716812485e+00 -6.225759547319160703e-01 1.360297424813833089e+01
-2.404951380193157906e+00 -1.063989698308486442e+00 1.999988545250351990e+01
-7.479865299103437337e+00 -9.462001082911548622e-01 1.493724762115615334e+01
-7.432861479974535612e+00 -9.430264900923157612e-01 1.936199156014284739e+01
-1.015753326674124546e+00 -3.962181183489045466e+00 1.791667338233461493e+01
-6.129080233725826332e+00 1.432244222169994030e+00 1.899792242654257990e+01
-5.365724910946919834e+00 -2.043419014390434274e+00 2.005338565446171373e+01
-2.775250187472879659e+00 -1.305746297782575116e+00 1.488239837711486757e+01
-7.672290296805893917e+00 -1.809303209860850359e+00 1.559361706091322475e+01
-4.370981195225329685e+00 -6.565561685226004585e-01 1.993417197207784142e+01
-4.011057219547151220e+00 7.402816982013769032e-01 1.127647119903960515e+01
-2.364370067367560502e+00 -2.482886274195740484e+00 1.743783368141164658e+01
-2.385489814339225578e+00 1.433774126255074721e+00 1.948646574112714802e+01
1.606536584841760651e-01 -8.828576232150013858e-01 1.945756399132461212e+01
-8.156992150390443896e+00 7.303219834139854649e-01 1.758464330972241640e+01
-9.075242990501894980e-01 2.814562451010576005e+00 1.845700318559325126e+01
-8.080738314822196955e+00 5.812907999831782302e-01 1.582416761996330479e+01
-2.368239153338514313e+00 2.022069332510412654e+00 1.930293557564578322e+01
-7.024889143387866852e+00 1.492419600492692400e+00 1.869955080921426571e+01
-1.804613230282648972e-01 -3.494295834274698365e+00 2.021262655759240801e+01
-6.955167212561384815e+00 -4.752748199550121733e+00 1.978282207179612584e+01
-6.793182389888213990e+00 3.704567666139106485e+00 1.776234655092211767e+01
-5.556436633063396968e+00 4.756824662418994265e+00 1.784827396574544878e+01
-2.457432010057109650e+00 4.703993777620747885e+00 1.751626759157677782e+01
-8.291713446273689669e-01 -4.782956687329386725e+00 1.908573912200500899e+01
-2.799755471304044008e+00 -3.085099195915196546e+00 2.033949794135001810e+01
-7.728705071224917234e+00 -9.770455910024180568e-01 1.918165897674957421e+01
-1.323393475292250043e+00 2.642167197561367864e+00 1.894063881475601363e+01
-7.908558091256793432e+00 -2.368325426489195529e+00 1.932629558485740517e+01
-6.916281094078167158e+00 3.063695687619493402e+00 1.805962077763641815e+01
5.766917257432546684e-01 -1.843488743425853116e+00 1.882774530206268082e+01
-1.727005334607818465e-01 -1.702931904587185574e+00 2.003365630596250924e+01
-6.747658057189129366e+00 3.108360852072998171e+00 1.814631851864157142e+01
-2.150659559726967096e+00 2.789184551517582822e+00 1.526254284481340306e+01
-7.232932699515115971e+00 1.933248837994482106e+00 1.504330409017320136e+01
-4.582945717408251074e-01 -4.253587223752278490e+00 1.783813878608007286e+01
-7.561282301490100721e+00 3.171343117301469672e+00 1.650770744886052910e+01
-9.144591511185864441e-01 -4.110954358749468796e+00 1.796283096163427473e+01
-2.798984963186453623e+00 -5.010359367401807873e+00 1.989587525367989684e+01
-4.534810874052523033e+00 -1.049635217384261576e+00 1.510335519610322308e+01
-1.943420185501359754e+00 -4.226445514354988386e-01 1.338968678159809400e+01
-3.743242106691420101e+00 -1.185975833668882817e+00 1.610783586707125181e+01
-6.792586391195371220e+00 -2.431585941905818782e+00 1.991948026056993371e+01
-3.568427510406083858e+00 -1.287999052255167864e+00 1.625061325123127887e+01
-3.370903578707339143e+00 2.295708642739070715e+00 1.305918400639540522e+01
-6.574704526482054945e+00 -1.285479778329303713e+00 1.432031634914715568e+01
-5.988183720563807100e+00 -4.837363426824429880e+00 1.841071378032964390e+01
-2.395868358075690541e+00 4.774656232671737222e+00 1.767967943586555180e+01
-4.160497272555739201e+00 -1.661724944500758916e+00 2.018863222699765458e+01
-3.781163748224624310e+00 3.780764878547798080e+00 1.864300502792467995e+01
-3.955588623724223485e+00 3.885313798505945382e+00 1.859988688377865884e+01
-5.234455956246247155e+00 -1.755472061082545387e+00 1.546236323765275955e+01
-1.758929054938051184e+00 5.161508603866289402e-01 1.279182836343345997e+01
-2.687928922244228414e+00 1.806415668230233695e+00 1.302266479086712536e+01
-7.031310308617090499e+00 -4.820152329134696600e+00 1.826107775783162879e+01
-6.985087527205759983e-01 1.756019461643967716e+00 1.640838720709786003e+01
-1.667666765276293983e+00 -3.410315498822336977e+00 1.785536120120023895e+01
-4.393215348014933852e+00 -2.588216714558039477e+00 1.750938991713496762e+01
-1.680016074263679826e+00 5.099329102028098415e-01 1.289002681557347785e+01
-1.800789358982497479e+00 6.838459272278796242e-01 1.282496476119371209e+01
-9.696303297789441444e-01 -8.767517227317545014e-02 1.986065389663482250e+01
-1.035816192896345189e+00 9.463555048624400223e-01 1.462251456715592468e+01
-1.628445886229601403e+00 1.436440599755803404e+00 1.405901670902815681e+01
-5.964509023384176878e-01 -4.894348803401873393e-01 1.987680852409821597e+01
-5.311943667492335930e-01 5.254150362396181606e-03 1.472054113048572788e+01
-4.179828363980874428e+00 1.993909350477031772e+00 1.927402636270371517e+01
-7.768071651469378835e+00 8.581448691113758853e-01 1.835547150084913426e+01
-5.614721816521496933e+00 -4.042373597736992785e+00 2.023803119590834854e+01
-5.549449080873735340e+00 -8.187291385565016455e-01 1.970355097849725468e+01
-5.352137021904074032e+00 -1.059057744740512064e+00 1.980668915358740634e+01
-5.379417041297307023e+00 -6.295392431234145825e-01 1.968485169961967785e+01
-8.757320334622848979e-01 -4.951947034189118746e+00 1.959477661856060138e+01
-7.733820898658249732e+00 1.274875747826605510e+00 1.819611309867615034e+01
-3.210261974168572063e+00 1.306443133523803368e+00 1.185874508812310779e+01
-1.386318752960496115e+00 -2.255068870101980316e+00 1.543637631558667067e+01
-7.334730596234253497e+00 1.672580952873270244e+00 1.842549191059033831e+01
-6.163841355558318469e+00 1.812282781218527816e+00 1.888543357362807029e+01
-5.326832373970624701e+00 3.211846764124677733e+00 1.865446824357195510e+01
-5.548247439627303379e+00 -2.306143325782645803e-01 1.954533675134720738e+01
-1.968142181757741582e+00 -2.429562242598556576e+00 1.729399682066654265e+01
-7.792552458453739561e+00 -3.805854043853749147e-01 1.888578958186416656e+01
-1.980622431274374762e-01 -3.503354432674154140e+00 1.635886654823987385e+01
-7.617869777511481644e+00 2.604946606526261643e-01 1.877466780197422480e+01
-5.982587875967952940e+00 1.581686612654403579e+00 1.898953544809660343e+01
-2.070085237166225500e+00 4.518999141409199893e+00 1.778063831757166469e+01
-6.392854144541157524e+00 -1.818568195189079528e+00 1.983810487000529577e+01
-6.377772308332101403e+00 -2.243152230702557759e+00 1.995053450095703340e+01
-4.589173363882396828e+00 -2.479927076941856878e+00 2.026170769781872849e+01
-6.462267639907237182e+00 -1.426348548969691432e+00 1.435497327288203451e+01
-2.405418854383078564e+00 2.925506865254801525e+00 1.513255829582320189e+01
-7.701805386359229288e+00 2.766606851925591748e+00 1.688219475570929973e+01
-2.611851100869733155e+00 -4.960773810739063094e+00 1.947774318017390272e+01
-7.576644410607659808e+00 2.960376481104916024e+00 1.632138065152045669e+01
-3.981567954865510295e-01 -4.847059802005594165e+00 1.926937221020597235e+01
-5.407066906451168720e+00 -4.274396874988156014e+00 2.024606797516611323e+01
-7.712582356399330763e+00 6.611249263276177679e-01 1.851053721036544175e+01
-7.582880815413124864e+00 1.088055915480123037e+00 1.845626350694843865e+01
-2.778674811992830396e+00 -3.143531389630690676e+00 1.775026413409248249e+01
8.762347137119985696e-03 1.037804460696953868e+00 1.778303434205435707e+01
-3.991311253743895282e+00 -8.771831426145464405e-01 2.003254128300368819e+01
-2.941482207885066202e+00 4.148581030934995084e+00 1.846298021572036419e+01
-4.773399170432947258e+00 -1.421894156941110765e+00 1.585050790614524630e+01
-5.977757554190530342e+00 -1.226193772423269213e+00 1.974526481734146444e+01
-3.577800070968731649e+00 1.564641441418430645e-01 1.979726416332240291e+01
-4.957951428383287507e+00 -1.691940174809780206e+00 1.621280361880869236e+01
-6.558193922592375102e+00 1.844004762771026984e+00 1.877474339387747193e+01
-2.234711280281011625e+00 1.109565903327697445e+00 1.264591659498927356e+01
-7.426650469481748118e+00 8.946364573148771759e-01 1.866587021589962347e+01
-8.113489513047863255e+00 9.257659434401341869e-01 1.758149214014861172e+01
-4.445377347460560458e+00 -2.142241499999097964e-01 1.981717299514063768e+01
-1.411503533226126095e-01 3.213136890574255222e-01 1.593883989470205620e+01
6.119125496701888212e-02 8.132695410672126091e-01 1.797745182671359743e+01
-3.506173920445092573e-01 -1.030719312670251409e+00 1.993231929798937330e+01
-4.402769243727064463e+00 -4.743195838645064555e+00 1.849985575327596621e+01
-1.571472510403868927e+00 -1.706394111996913487e+00 2.007748960747110800e+01
-3.758091001798635755e+00 2.605219504662375396e+00 1.909911804748197994e+01
-5.663403724923923299e-01 -1.469183682466070451e+00 2.007756757724175856e+01
-5.379487160002597079e+00 1.811022291509160720e+00 1.908399720064188898e+01
-6.965238067421701373e+00 3.733186729213177735e+00 1.760001442470592536e+01
-2.544472044617959838e+00 4.118162594452155822e+00 1.843984796302144957e+01
-2.994640058775506208e+00 -1.698525966899637751e+00 2.017441168698406528e+01
-1.953069448997819091e+00 3.839487365795386076e+00 1.848464401240315880e+01
-2.141604793495517356e+00 3.566015700181417447e+00 1.865442863579465183e+01
-7.421387400795550704e+00 -9.611051351137631649e-01 1.484882833660066126e+01
-7.907491578035706681e+00 -3.752558197491605796e+00 1.925206478379143960e+01
-1.518436419765168743e+00 -2.408180424774952311e+00 1.580928628205414554e+01
-1.549327894937234662e-01 -1.275814951182479007e+00 1.991470322075952026e+01
-3.369937278869844732e+00 3.562642928781741603e+00 1.498153313081834170e+01
-6.356516181166128376e+00 -2.158139545870418896e+00 1.482232054638254226e+01
-7.555153923252248660e+00 -1.354092602211083740e+00 1.522270016862250941e+01
-3.914182056822996802e+00 4.076990631897475126e+00 1.529394449423087821e+01
-5.121189486602867547e+00 3.792535893350158283e+00 1.846459940606003869e+01
-6.259010499878030487e+00 5.060937657786208632e+00 1.685512383200775588e+01
-5.321837119708989761e+00 4.030965949687289829e+00 1.829899922258467626e+01
-5.849730882080308447e+00 -2.338111698525313642e+00 1.519660744065429725e+01
-7.380169809964096217e+00 -4.440479451237187014e+00 1.750893652507545539e+01
-2.145118861430221457e+00 4.629966943942541491e+00 1.780566866045776919e+01
-2.685079568278944340e+00 4.558964577420878683e+00 1.710277180467371494e+01
-3.581664266203452573e+00 -2.675772325494150117e+00 2.034379548056012510e+01
-5.793053068866946376e+00 -4.229762806139343745e+00 2.021424943324541346e+01
-3.388848242270873889e+00 -2.884590370975178786e+00 2.035522216236060444e+01
-3.757722541197362265e+00 -2.456727740320729936e-02 1.230339171457061553e+01
-6.476562908374837946e+00 2.630956523952229453e+00 1.453249431472328723e+01
-5.628736763554691436e-01 -1.907917279629233409e+00 2.015140404890853887e+01
-3.692313595413767580e-01 -2.283909350340106670e+00 2.018873502586999535e+01
-3.545534000473540726e+00 2.197833806116196165e+00 1.923580613436300979e+01
-7.049939874492922698e+00 3.829928002699193978e+00 1.745480442373573027e+01
-7.690180587363002473e+00 2.394080960027817895e+00 1.602923708269270975e+01
-2.672405427711348480e+00 5.130391059606493442e+00 1.778601418524485211e+01
-5.353911922398337353e+00 3.397544477685269904e+00 1.455620195538404715e+01
-3.147571396004900546e+00 2.204517747850219145e+00 1.924194917990742937e+01
-7.972811282070184191e+00 1.767789088688728416e+00 1.723739599581818283e+01
-7.233858489077153564e+00 -4.560717385177129657e+00 1.771473505393278458e+01
5.194255535273049063e-01 -1.121487886972141634e+00 1.818678653598821171e+01
-1.556234806747314181e+00 3.600658228946298944e+00 1.849336527181574041e+01
-8.555604860654053567e-02 1.053786953750664335e+00 1.818150692858827000e+01
-4.516674091394184742e+00 1.646552492327872930e+00 1.214018762035378529e+01
-1.212248066499913346e+00 2.098096164058877555e+00 1.915092219187311429e+01
-4.984768239378942312e+00 -3.846655789733206987e+00 2.028985687573242558e+01
-2.160949207311797959e+00 2.771045607034406277e+00 1.902993028852058188e+01
-7.359046858052531448e+00 -1.650001813021372055e+00 1.956367740021042323e+01
-2.416063037634242683e+00 -2.881523617386267944e+00 2.030794629752540459e+01
-7.697548587437498924e+00 1.631698814020301258e+00 1.543920871945974227e+01
-4.736982363324154122e+00 4.234642702459057162e+00 1.836596005507445994e+01
-4.751395298737351780e+00 7.909544943762385483e-01 1.951291435886141556e+01
-5.977837035122078646e+00 3.469331166853286241e+00 1.832875793625670724e+01
-8.214823651903289115e-01 2.158917065200897767e+00 1.882967126243124767e+01
-5.449018947676000479e+00 -1.101003299951898384e+00 1.416723822913193231e+01
-2.370997483746029921e+00 -2.477252780155836387e-01 1.986473577434519910e+01
-2.836153153365227997e+00 -3.515022351224410535e+00 2.034369471699978504e+01
-1.717694939683118260e+00 2.165981666403886230e+00 1.922702378379584331e+01
-1.683417990139775000e-01 -3.895560245868519011e-01 1.508776532234742973e+01
-1.532264528535244974e+00 -2.140011521007678663e+00 1.543865964414558789e+01
-7.178158125788945298e+00 4.209894485343730341e-01 1.900086625538367002e+01
-4.792173671063180151e+00 1.770159829455049127e-01 1.964456243818719372e+01
-2.780859135548807259e+00 -1.047817050464217026e+00 2.002524103395413135e+01
-7.352953908710849973e+00 -1.477324249789759847e-01 1.912404465975933476e+01
-5.598103853581468670e+00 -2.165046712130047624e+00 1.526436554382420496e+01
-9.584577747670166570e-01 -2.302247699403612291e+00 2.019027836787274310e+01
-5.786263445780516435e+00 -2.586013470128541769e+00 1.557944233942706092e+01
-8.355037495661621350e+00 -1.898901963508448087e+00 1.823486328592831285e+01
-3.165287456262705135e+00 3.378648645053917932e+00 1.492523567895895553e+01
-7.818494342923644425e+00 -2.575114832010588106e+00 1.943852081703629864e+01
-7.544228080295436456e+00 3.134641286130555038e+00 1.712060182261614472e+01
-2.185838699368557236e+00 -1.261777561070866138e+00 2.002223663193627345e+01
-2.405368233829337843e+00 -1.662926049749840374e+00 2.011644171361596989e+01
-5.102034285366366717e+00 1.788127846242024477e+00 1.916416635073751706e+01
-1.360556078046788242e+00 2.119845140182726517e+00 1.918070737761661348e+01
-4.516081952410539557e+00 5.411019526549770475e+00 1.696894780974037786e+01
-2.935989502072941182e+00 -1.324833407476782465e+00 1.505346331202575527e+01
-6.584020406081428689e+00 -3.913969989141346417e+00 1.692252872861246260e+01
-2.380801205630562301e+00 -2.752159097449029090e+00 2.029265691052067666e+01
-6.791134542773853866e+00 -3.673726837949828017e+00 1.630791238809329258e+01
-3.185742660548564142e+00 -3.306575764015861729e+00 2.036262615537471987e+01
5.800432230580108151e-01 -2.730154525603560423e+00 1.717882170511306583e+01
-5.119570793779583795e+00 4.871901869070692115e+00 1.794458220899242207e+01
-7.598290437051513635e+00 6.801668517826706672e-01 1.861479760302896835e+01
-2.765604747169609468e+00 -9.146978858147392089e-01 1.408948593837496333e+01
-7.468896301868013232e-01 -2.137211341185740743e+00 1.510028013650559586e+01
5.100640378405986164e-01 -1.924531545678388689e+00 1.679706987518829209e+01
-3.410547022424235575e+00 -4.953514055851640840e+00 1.953797133246360573e+01
-3.582367617251940306e+00 -1.858362210750106769e+00 2.024437565795356875e+01
-3.569779148302357985e+00 -8.707751680729773902e-01 2.003594581936687291e+01
-1.961612750117564197e+00 -1.037355840252510486e+00 1.996875754167118799e+01
-6.741663234934762272e+00 4.527901051134857191e-01 1.913702861322619952e+01
-2.944670398297466907e+00 4.245900580671859714e+00 1.842292343258593945e+01
-3.672439873518510201e+00 4.245387019059750244e+00 1.571789245527938306e+01
-1.380422233793511699e+00 4.605296303442074635e-01 1.338097317521464902e+01
-2.736743697803494690e+00 5.073184183047672491e+00 1.797164942039232471e+01
-7.192018826586252800e+00 8.651168638942735578e-01 1.882899734013230386e+01
-5.394515796745846359e+00 -3.646035715691811951e+00 2.025044589609680656e+01
-5.350442033947778953e+00 2.658585209451739040e+00 1.885652850495683452e+01
-2.739632089509782542e+00 1.555586441552477384e+00 1.258938352349711209e+01
-4.301724363653013583e+00 3.734726049050709040e+00 1.863927021022404773e+01
-8.347867644363203610e+00 -6.424579420686802322e-01 1.707767529717192190e+01
-2.096734293628625956e-01 -5.886531404169970116e-02 1.533277536825228538e+01
5.229910341548462682e-01 -1.545835977342448153e+00 1.725889333212614218e+01
-2.111004863321266356e+00 1.524558580109385053e+00 1.338244837779679841e+01
-4.002565293815373293e-01 -1.711025631430493466e+00 2.009534945064411460e+01
-5.399797484160961503e+00 -3.453771837908420572e+00 2.023809422769007682e+01
-4.539835959796622689e+00 3.825451222593117873e+00 1.857767744407285448e+01
-5.981820924814476470e+00 -1.469168433548373010e+00 1.430813606967024754e+01
-8.145061663225535042e+00 -1.404342533677219951e+00 1.647190613830871087e+01
6.154638860904486641e-01 -2.604033504159940726e+00 1.798991831435922251e+01
-4.783985543147547759e+00 1.037326740619050502e+00 1.157667076328791467e+01
-5.173668572972479396e+00 8.238836453197224685e-01 1.175408799915285130e+01
-2.291642281839763040e-01 6.853714636973834429e-01 1.620248135888625285e+01
5.690346099998405682e-01 -1.594152901783068899e+00 1.843157717515473593e+01
-2.206633702973291644e+00 -4.097979867069978965e+00 2.029628577495260089e+01
-3.528604875984057809e+00 -3.888169401456422758e-01 1.313112576298356515e+01
1.514794745754147742e-01 -5.171726512672440990e-01 1.925383385043868856e+01
-6.345147004838750604e+00 2.455849758875936928e+00 1.427370493273732421e+01
-6.517855922976455219e+00 1.903027995356900037e+00 1.405565713965122399e+01
-3.743007924824178989e+00 2.167722698439548346e+00 1.265538424140553531e+01
-8.268001367952171776e+00 4.323838240953045142e-01 1.640666664941506525e+01
-2.012265832341696203e+00 3.077091494534696992e+00 1.590083876003005514e+01
-7.932451908506232385e+00 1.104669691564126977e+00 1.797736937766687504e+01
-2.625386270825560420e+00 -4.726936391398376180e+00 1.870143325647195809e+01
-4.753494152091850555e-01 2.262874505366924804e+00 1.762553071352724743e+01
-7.344920277535551989e+00 8.337465627043526561e-01 1.874771763013469439e+01
-1.621301796336874101e+00 -3.887591062012135446e+00 2.028823595076880792e+01
-8.168075786917153636e+00 -1.883437339851576464e+00 1.677920246632768198e+01
-4.797465677590517785e+00 -4.951031643835402285e+00 1.885446288672172699e+01
-3.941305335530636444e+00 -3.043402355378584723e+00 1.765645858212715780e+01
-3.985501671523993483e+00 1.346869445556346800e+00 1.164614854814981015e+01
-5.978373053289406158e+00 6.152994426956225338e-01 1.924491419271000581e+01
-2.040187050669402424e+00 -1.455211985377145023e+00 1.546020357074212370e+01
-4.607362004986271131e+00 -4.852920939822524815e+00 1.865568481973337356e+01
-2.589971809375628986e+00 -8.602895028502377528e-01 1.997459414684537649e+01
-1.744351354263390386e-01 -2.790103922008024817e-01 1.954985247864062359e+01
-7.508292142288002236e-01 -1.414390058805219397e+00 1.461281325325814606e+01
-1.222915235687517477e+00 -4.847106690986207944e+00 1.926257417202644717e+01
4.011079935001998220e-01 -5.548813921127264681e-01 1.711064293251446600e+01
5.023286449404927856e-01 -1.024980500250254778e+00 1.830499230276238620e+01
5.724680982501032522e-01 -1.589722907628450699e+00 1.804659884283331905e+01
-1.551861985185190917e+00 -5.770324766294021579e-01 1.363182020824253726e+01
-7.898027049281926004e-01 7.944656548092668968e-01 1.497140885173074309e+01
-6.314289442088888649e+00 4.288309116041363112e+00 1.773946179941591339e+01
-7.154358849400324516e+00 3.283427244191269523e+00 1.771387546535132884e+01
-6.016870526974294364e+00 -1.913387211455706893e+00 1.467257226861371322e+01
-1.702872929753370457e+00 3.935453566810197312e+00 1.750592460527971639e+01
-5.188928357218713927e+00 3.041826118865219364e+00 1.876523232209238046e+01
-1.554133213183626072e+00 4.043133323985973249e+00 1.797984902510702909e+01
-3.564941178748568529e+00 -2.852896855125288678e-01 1.289597634044064733e+01
-5.000170593129228180e+00 -4.773274779780173560e+00 1.847384395146369940e+01
-8.308079642586958524e-01 -3.724218674721693212e+00 2.026915987568982302e+01
-7.886166892783156968e+00 -1.975998752071793430e+00 1.609052846533180769e+01
-2.423611846410983262e+00 1.912543994831201744e-01 1.239410149893637936e+01
-2.601110799977297106e+00 2.569907781036218530e+00 1.434350070244864384e+01
-6.972394205660423339e+00 -3.992444834769608875e+00 1.676168127289607668e+01
-5.544257417780647401e+00 1.819788942958897371e+00 1.903725118458597620e+01
-2.982819865836894735e+00 -1.172727260477041344e+00 1.466612619386657457e+01
3.145932773297422935e-01 1.571568982355020516e-02 1.792542435700332248e+01
-7.307828244237299486e+00 -1.154262528344159655e+00 1.475868275466378776e+01
-3.170067216127213872e+00 3.921874097729700193e+00 1.577868091291271213e+01
-7.325698181701620015e+00 3.183582148312323667e+00 1.591975851005852149e+01
-6.198520905752099353e+00 -2.330244467152960297e+00 1.499085262897063586e+01
-2.205997035771362746e+00 -2.679239819363727904e+00 2.027465538422132596e+01
-2.108936034270024518e+00 3.019381597725173005e+00 1.567383836019191534e+01
-2.937869052894802824e+00 3.988164233728149544e+00 1.612156164767426958e+01
-4.594523718675462831e+00 -2.201124208693101547e-01 1.978694181206795832e+01
-4.550447470790917492e+00 -1.081149341893115512e+00 2.000010851157754388e+01
-2.807282372802036630e+00 -1.737541728291112531e+00 2.016624539529479421e+01
-2.942681189803230790e+00 2.811658323469994780e+00 1.903099239999723125e+01
-1.393273247503710843e+00 -4.861146969466034307e+00 1.929505091180839571e+01
-5.919877296967863245e+00 4.047285576558873998e+00 1.807846150895892379e+01
-5.474635232601027468e+00 2.134490434218257349e+00 1.897142863305825244e+01
3.342186014929097171e-01 -3.143453441233345913e-02 1.758168374896187913e+01
-6.542971985013254610e+00 4.748688295956493555e+00 1.663714833368527479e+01
-6.729869159359562758e+00 4.560032232895954607e+00 1.658141613383502744e+01
2.034567739437737055e-01 -4.518690466614041501e-01 1.568137151106626703e+01
-7.136004435576651872e+00 9.818021899356521587e-02 1.417701302013786346e+01
-5.578824608344463698e+00 2.221915621868669533e+00 1.892024748043411364e+01
-3.010565585983016046e+00 1.220675427537750490e+00 1.183081139652233560e+01
-5.754356472490544050e+00 2.877838213761286568e+00 1.424442374895683372e+01
-5.951868838391973782e+00 3.066973393807318704e+00 1.852266914679362486e+01
-7.402770669472456433e+00 -2.203011151043103411e+00 1.966254268126385796e+01
-8.102196624910389389e+00 -1.332103547778040742e-02 1.596184378695612338e+01
-6.115267708975784089e+00 -5.142735058231306056e+00 1.976751398012214622e+01
-2.171511417695019208e+00 4.057151377142956150e+00 1.701909767125837902e+01
-6.201568213358154225e+00 -1.862266158483095513e+00 1.988174473021121003e+01
-5.394108503286547673e-01 -1.824142158734736174e-01 1.451962338037590428e+01
-1.198482433735720276e+00 -2.884006592851919848e+00 2.024638074856178349e+01
-2.415952584356136690e+00 1.996920123562309080e+00 1.368440228177829709e+01
-5.978036503865205020e+00 -1.234791487167799406e+00 1.414051456796546091e+01
-2.997624575255567692e+00 -6.502241927902026042e-01 1.995885374921579114e+01
-4.359714624934188265e+00 2.009697935444629380e+00 1.925225690196761974e+01
-2.797516634178353723e+00 -1.618983730092626416e+00 2.014169031062523629e+01
-3.375179398117387652e+00 -3.475908805183387074e+00 2.036799895290802453e+01
-1.641481801704874677e+00 3.535033555365203028e+00 1.705755765737295349e+01
-4.123543214469400198e+00 5.282562447597708655e+00 1.702269784203680558e+01
-1.937694347016561291e+00 3.536851816384562586e+00 1.863853942260097796e+01
1.193408330887514301e-01 7.002808811156852054e-01 1.737711863494478592e+01
-8.090915595366848123e+00 -1.904751511495466065e-01 1.596067358951218296e+01
-4.526473839023692491e+00 5.709536185971434641e+00 1.724675973665968343e+01
-7.291648537717120959e+00 2.602648053323966426e+00 1.551970018831824660e+01
5.838698694085675545e-02 6.156019639937185817e-01 1.836785938977720178e+01
-7.611667168163796404e+00 -2.410809009066718911e+00 1.957498206325111312e+01
6.036146931798040960e-01 -2.965848851543936959e+00 1.737330203743278645e+01
-1.788009727088912371e+00 -2.910783785430809623e+00 2.027308961264499487e+01
-2.358307690244526800e+00 -2.652804153664252595e+00 2.028071377604304359e+01
-5.304125259351861743e+00 1.878591838876791709e+00 1.288085370431915777e+01
-7.336027810387419024e+00 4.129648223395394613e-01 1.891793918073626202e+01
-5.190166099067358374e+00 -2.861506631985187177e+00 2.021126891825816330e+01
-4.532446301834086810e+00 1.577721659289365030e+00 1.935198629081569521e+01
-7.995809188941684909e+00 -1.388035732340782147e-01 1.852759486825666357e+01
-3.022270739343180246e+00 -5.001133694010658992e+00 1.967235996114361996e+01
-7.415724155817763119e+00 -4.692841108778629255e+00 1.807779364820527235e+01
-1.008941146867424310e+00 1.354109608016135002e+00 1.521968955778888954e+01
-9.921879132541635560e-01 2.858377514292188337e+00 1.729822672263796335e+01
-1.712985215925458160e+00 3.493299709332204017e+00 1.861278601429653179e+01
-6.411686367497990702e+00 4.996111930417257874e+00 1.703131120963893608e+01
-6.151070095953272698e-01 9.578386687384549125e-01 1.934342623207862744e+01
-6.959987677243182347e+00 8.440021874654336509e-01 1.894576545077671881e+01
-6.216876524052823427e+00 3.545807603278864573e+00 1.819074000284067694e+01
-3.376908402772931694e+00 1.134508641518068073e+00 1.955380351798696381e+01
-6.786509568806224024e+00 6.831014978799531123e-01 1.905485983293712593e+01
4.622726781327382017e-01 -1.288420594209776393e+00 1.626481599786183807e+01
4.068324983934310524e-01 -5.111046831821328684e-01 1.629263475780383885e+01
-6.492927023572757861e+00 9.136111120429073473e-01 1.363267248535581189e+01
-1.934470321762002065e+00 4.052283976332073934e+00 1.836321247032083193e+01
-5.792984455919702569e+00 -6.784473107255579727e-01 1.962583049364964438e+01
-2.189061826367603825e+00 -3.291938268491426456e+00 2.031488862329128864e+01
-1.744810303007911845e+00 2.598028860347873614e+00 1.905356604807167997e+01
-2.989576873614970154e+00 -3.048270420380753798e+00 2.034668959440690372e+01
6.179203711881562366e-01 -2.423059242449662420e+00 1.818318716438442806e+01
-5.804719872293331306e+00 5.384249692110236296e+00 1.729790296708264208e+01
-7.400126781708637580e+00 1.861866062246902764e+00 1.520771490526159653e+01
4.920597275617609179e-01 -1.312061471033263871e+00 1.686414365157639139e+01
-5.679299528959058208e+00 2.244422336409334306e+00 1.352739887809490682e+01
-1.385565935434022844e+00 6.581359274711959806e-01 1.356142676327493746e+01
-3.723050231674500221e+00 2.420631947086093749e+00 1.297658599850130656e+01
-6.707256651854445195e+00 -1.240076005364147083e+00 1.435280675052236887e+01
-4.762017848758405947e+00 1.383698266907719354e+00 1.202665170087372815e+01
-2.494203924309009057e+00 1.177664777888708603e+00 1.237293272025070223e+01
-4.716685413096620039e+00 5.745543020223914610e+00 1.724278975682700832e+01
-2.360466603823356380e+00 1.516945134112199556e+00 1.301184446092035074e+01
-2.609069612222362888e+00 1.358370164513746037e+00 1.246175413616804661e+01
6.551560100677578102e-02 -2.896207015099120596e+00 1.594047487144442954e+01
-2.566666948358926614e+00 1.699846518150328611e+00 1.301763933952479846e+01
-8.334014547300016673e+00 -9.088456704815670584e-01 1.809911979385585568e+01
-3.531171313586721094e+00 5.242803834091575688e+00 1.796105803820051960e+01
-5.921544471157432099e+00 3.821146228939648726e+00 1.536708187506954459e+01
-2.818794326915381454e+00 1.685736508831657599e+00 1.268870242089246858e+01
-3.926313463277699700e+00 4.576430757124436255e+00 1.597058230144254765e+01
-3.569782865476010425e+00 3.265444721796439964e-02 1.982637437855467510e+01
-4.156840188526899738e+00 4.871689194463381334e+00 1.626294844473991930e+01
-4.343354658736110707e+00 4.729879032726852728e+00 1.601868967540532651e+01
-4.495677786495498651e+00 4.820848138790941206e+00 1.613442477590830748e+01
-5.363208884188221504e+00 4.699590705243249289e+00 1.619651963535758199e+01
-5.920277780000583689e+00 4.207634429343480420e+00 1.578646938677992750e+01
-1.580359177719857566e+00 -1.094236897193797908e+00 1.415395204952532282e+01
-4.821985553267770896e+00 1.951073342019201018e+00 1.260515407292217560e+01
-4.360851146088226216e+00 1.759709419555766319e+00 1.220181105421409029e+01
-3.950799137130593497e+00 1.910125775455169927e+00 1.231277712620253340e+01
-4.356851863707058570e+00 2.128235060828906455e+00 1.264896228367086195e+01
-7.637063330958596907e+00 1.035191153979943657e+00 1.514089768593562013e+01
