-5.691861255576993628e+00 2.920685557042279612e+00 1.458116716198129836e+01
-7.014295541617860952e-01 -1.525028260316867446e-01 1.261951218704491851e+01
-3.955320638915111875e+00 4.086544594794816021e+00 1.645636273517224879e+01
-3.293219196402963345e+00 -6.608996709971348693e-02 1.750722564400589931e+01
-6.430825220927619768e+00 2.587449876306295860e-01 1.302405695703361488e+01
-2.694922630596683799e+00 -2.816348522655101938e+00 1.748862537124195882e+01
-4.092834222221696905e+00 -4.038480450542178524e+00 1.740349913346517496e+01
-2.248080411056171179e+00 -4.544343046841707867e+00 1.621232818067597492e+01
-1.733110051248124339e+00 1.929635189851390820e-01 1.218890339444495652e+01
-1.909377789562686445e+00 -1.026792178079460882e-02 1.235781870541930516e+01
-4.290655773170584553e+00 -2.024969812528486734e+00 1.439543107478418449e+01
-4.453159823868521272e+00 -3.606309948395646003e+00 1.746999715753702276e+01
-1.710424262320251021e+00 1.113540118230682552e-02 1.233137015046317231e+01
-8.283994122326239218e-01 -4.228731582525425026e+00 1.725658228545302819e+01
-5.306054232200651199e+00 -3.746181102988721534e-02 1.221600939951869691e+01
-5.153609603408538575e+00 4.106543623021430278e-02 1.211740662892149345e+01
-3.121542660543444647e+00 7.337996603124514738e-01 1.153686325020148473e+01
-3.356409410359803225e+00 6.320527797102153400e-01 1.162031441330711345e+01
-5.426812002496930631e+00 3.741202491165361632e+00 1.598671102642146025e+01
-2.604828836632629985e-01 -4.337735101463177756e+00 1.606714187207125377e+01
4.394342417791968214e-01 -3.283896225836402394e-01 1.409535449926947592e+01
2.382148910421419408e-01 -2.385875565239548024e+00 1.748221463605845827e+01
-4.520302909195699215e+00 -1.874639485304296915e+00 1.754976805882079560e+01
-5.638972922273600474e+00 1.746312342546500140e+00 1.701808348352477651e+01
-6.821524315850894027e+00 -2.380299779917915082e+00 1.652739582140912944e+01
-2.072429462034146574e+00 -4.315459463177784727e+00 1.584107168988593628e+01
-1.108460366736187197e+00 3.746648190416701496e+00 1.668539830055480877e+01
-6.383530888022564298e+00 -4.274770339883875891e+00 1.604056028139862633e+01
-4.468900247010083149e+00 -2.832214757788965365e+00 1.752923949782177715e+01
-6.632289816466625965e+00 -3.648465517565142591e+00 1.493980190113119733e+01
-3.148290312260192625e+00 -9.696837137523628414e-01 1.751574775558535890e+01
-6.582350866608905449e+00 1.079321608528941656e+00 1.562409841313114356e+01
-3.945812677587575035e+00 -9.718152938078987724e-01 1.343744563205846987e+01
-4.127851823709098866e+00 -1.212469691676602235e+00 1.364948463492159902e+01
-1.151336967700723690e+00 3.397252704098738363e+00 1.690830981339538397e+01
-5.663675290888690483e+00 1.168372059234396687e+00 1.716296755669036855e+01
-4.878834352446654421e+00 4.450319863563918510e+00 1.560785624712384134e+01
-5.902574156420614671e+00 1.173209185702709600e+00 1.700687628641071569e+01
-2.907179927654572449e+00 1.646913923602535412e-01 1.216687084979104583e+01
-5.412953046588981465e+00 3.223251202565805329e+00 1.449713479637317448e+01
-5.864304937463918677e+00 7.659630021943386602e-01 1.713383016755621924e+01
-6.511428195475579273e+00 -1.708726947970484744e-02 1.675618072356667199e+01
-1.974959613733642261e+00 2.617556189639767883e+00 1.360798099827260899e+01
-4.648659498472820673e+00 -4.184356256561870602e+00 1.737303974547611318e+01
-4.263888801506579895e+00 -3.471555257520294369e+00 1.748195880528577106e+01
-4.841240133845511551e+00 -4.049546265432034886e+00 1.739837678862533465e+01
-4.332740579552456950e+00 1.705575291930961246e+00 1.738675826109862754e+01
6.484937642817969472e-01 -2.346918884608482081e+00 1.475477643033408270e+01
5.718724713412018934e-01 -2.637979103688183891e+00 1.467460735279357920e+01
-2.834156901992160638e+00 -4.478004086960617691e+00 1.607019356588858727e+01
-5.803732889208742307e+00 2.046311455237318278e+00 1.675368101198216664e+01
-2.914230366350832213e+00 -4.392739555312045852e+00 1.594085791588629064e+01
-2.058090786198485400e+00 -4.449372775929128387e+00 1.603223424704751210e+01
-5.881161517892453006e+00 -3.257956854782159795e+00 1.452079235277440006e+01
-8.141737180000543361e-01 2.738705193720394337e+00 1.497030881209147424e+01
-8.884387600876286761e-02 1.866312529053392621e+00 1.668744828457199958e+01
-6.910340327106888836e+00 -4.385338136099647954e-02 1.496189074999934832e+01
-4.508320693829208636e+00 3.386547006407003568e+00 1.682813104640596436e+01
-4.783917662559904471e+00 3.226503431865032745e+00 1.682610015362936906e+01
-2.150899698208215582e+00 4.507229077732322509e+00 1.654919304119116674e+01
-8.414390832763269934e-01 3.023099317103891792e+00 1.687208545192287090e+01
-6.566527761893643955e+00 2.047009546717766248e-01 1.659478464702966249e+01
-2.344059026641269305e+00 2.849037260208401534e+00 1.374668291619782678e+01
-6.405120920363325254e+00 1.517013129368981472e+00 1.461616195232939930e+01
-2.364378759489966786e+00 4.211710113444100401e+00 1.668658851965119538e+01
-5.053666982319484191e+00 -4.233449678234270763e+00 1.731139147366103970e+01
-2.287273783447553832e+00 -1.367880750519913313e+00 1.403874547343636436e+01
4.354406979328300231e-01 -1.684502329577838964e+00 1.409966605424421004e+01
-6.240752354020017378e+00 -1.924154911034245963e+00 1.350533152000166126e+01
-5.002287625870553978e-01 -6.888311892742815523e-01 1.305146107737124339e+01
-4.335870508686520353e+00 1.199605684541189765e+00 1.161852410603093233e+01
-7.200912754004220595e-01 -9.560461542628768683e-01 1.320027683547304065e+01
-2.468786962790694872e+00 -3.966251790798089871e+00 1.736401772601480076e+01
-5.222174222631974061e+00 3.946376062832431586e+00 1.608431413352618478e+01
-5.413055671823107318e+00 3.506580352317564042e+00 1.627325417529293361e+01
-6.654442665164998161e+00 1.789902716757829637e-04 1.652994207690267814e+01
-5.676206198967758354e+00 -3.672868810317680754e+00 1.734461044444326916e+01
-1.736956102592206452e+00 2.228449089692519980e+00 1.743111822377573361e+01
-5.658570464748413187e+00 -1.048805317292080819e+00 1.294303007620820978e+01
-4.069333397895373849e+00 -4.700911747668217622e+00 1.664699908117358262e+01
3.856766181598428322e-01 -5.351639961689258485e-01 1.381279897173700277e+01
-6.290697075335165422e+00 -1.353655489781278476e+00 1.328300887800393326e+01
-5.780259332983247234e+00 -3.809869054740340211e-01 1.263448359942591992e+01
-3.680834572472107435e+00 -3.838536169553383282e+00 1.552366511427673856e+01
-1.526486878692031812e+00 5.549046060963869209e-01 1.765291014061497066e+01
-2.368736792314123818e+00 4.181908798797333127e+00 1.521879659568931231e+01
-8.543714630765766316e-01 2.424741842850443696e+00 1.716662904192106964e+01
-6.425923237071316407e+00 1.561776434900861155e+00 1.547989302150459423e+01
-4.724946409833579608e+00 3.781689410178124877e+00 1.653106062849007429e+01
-6.804001541058196878e+00 -3.047150551117796979e+00 1.462578415017077305e+01
5.339385904975402219e-01 -1.569076769131551696e+00 1.416629905912147791e+01
-1.652354864116650113e+00 -4.201777701655075248e+00 1.572671015449964216e+01
-6.802382176352908871e+00 -2.840235985786180528e+00 1.443780628170588898e+01
-6.530697721908827802e+00 -2.236151482051515593e+00 1.702880826669630210e+01
-2.741393716938178571e+00 3.170024381439774608e+00 1.710264655045597948e+01
-6.067938198496673152e+00 1.222240981302060714e-01 1.261405641545274392e+01
-2.479935648544753679e+00 1.194897033253805585e+00 1.752597054174849234e+01
-5.490760076117109367e-01 -2.474220676107834471e+00 1.431439508265927429e+01
-5.386470932906842535e+00 -3.762824966881182398e+00 1.519458315220269640e+01
3.949033238608871121e-01 6.041127656797413703e-01 1.654159337166822041e+01
-6.729271495706740325e+00 -1.015190151236985194e+00 1.669527651288887427e+01
-4.478172491264334809e+00 -8.641278416896502890e-01 1.306341402787304418e+01
-7.995414980813340122e-01 3.446318116771021067e+00 1.655987774733390694e+01
-5.610000667483026504e+00 1.881126763000316782e+00 1.342518320907947071e+01
-6.405131050403548798e+00 -4.128823348509889080e+00 1.643527810540004452e+01
-4.518605181275116678e+00 -5.747428038589368349e-01 1.266368283044371168e+01
-3.481244289646023393e+00 -3.133356224834605186e+00 1.524984934533954117e+01
-5.708504537780545007e+00 -4.464765876117744448e+00 1.615582831042356560e+01
6.827997809167658527e-01 -1.965971756169176743e+00 1.478380803161921619e+01
-6.487644466613437189e+00 1.315646704185428728e+00 1.505050300044462830e+01
-4.475960318993475795e+00 -3.861987862694098439e+00 1.744069698691430403e+01
-5.375524005861711530e-01 1.639894499627061242e+00 1.425561250667798419e+01
-6.548205330953141612e+00 1.106071542648792150e+00 1.500923607220757106e+01
-5.352074471729409311e+00 -1.057010739392276744e+00 1.294532506001507954e+01
-3.311118651488422326e+00 5.486495825744366339e-01 1.749337876509862610e+01
-3.082446426904840830e+00 -3.030929547396683965e+00 1.748853496518827910e+01
4.189041259082645352e-01 -9.813187933444300626e-01 1.718598331974088467e+01
-5.232458090978081344e+00 -2.704746470072601383e+00 1.430258947516399815e+01
-6.057980119165762289e+00 -4.085989336554964879e+00 1.546022061131351677e+01
7.197003991138646306e-01 -1.610161220769329660e+00 1.500382233291421130e+01
-2.856573565208781584e+00 -4.695688832812644264e+00 1.656551594670087013e+01
-6.681703719536084662e+00 -3.844287285011223076e-01 1.392451349829246965e+01
-5.302461257559695440e+00 -1.473192667736443084e+00 1.755763556605192122e+01
-1.749787907440425450e+00 1.390178023633197313e+00 1.760088028400064530e+01
-5.705324947226397825e+00 -6.832415666658349096e-01 1.276160296098104396e+01
-7.776735295540599946e-01 2.211286795035035890e+00 1.722397544742796782e+01
-6.473669242771395105e+00 -3.561775463628403138e+00 1.479537063860190926e+01
2.239240488072258284e-02 4.491437770850454925e-01 1.398640698608941335e+01
-1.718541193995969607e+00 3.672799693973287649e-01 1.763523242938299518e+01
-4.525821076811734400e+00 7.839159897365191032e-01 1.747294602534211094e+01
-1.546977287621146946e+00 4.500120798445927051e+00 1.624640156220885956e+01
-6.653041719420071942e+00 8.509175126413917045e-01 1.560341458781480384e+01
-1.146718702657705036e+00 9.237628680387823810e-01 1.241257516525335092e+01
-6.130144544028320652e+00 -1.239808627558050880e+00 1.732418973986457189e+01
-1.868049757976266267e+00 -2.827920019496085402e+00 1.749521103336711292e+01
-2.515441365840837218e+00 -8.945442798860754330e-01 1.353683794585768396e+01
-4.959092818311713557e+00 -3.845805268591080406e-01 1.238213477891007130e+01
-3.905235846549355738e+00 -1.320607144135913735e+00 1.386830631915598389e+01
-4.151220675019898110e+00 4.622779973201692982e+00 1.599415430995129128e+01
-3.946631738674722722e+00 4.526623739559009429e+00 1.610719423599824296e+01
-5.409994404060082474e+00 2.820809451345317242e+00 1.407804413012283362e+01
-3.599123790756163732e+00 4.549436701551330842e+00 1.615345629917828774e+01
-6.941586964140480376e+00 -2.636016020773070956e-01 1.535439988259741284e+01
-5.087564085940099901e+00 1.950723091594043002e+00 1.721684322561117853e+01
-4.709344416361860297e+00 1.981700162968508039e+00 1.728955415752609071e+01
-6.823045210439618202e+00 2.555866112216189645e-01 1.554750334759193464e+01
-2.976212063110037942e+00 4.443683385515590167e+00 1.646990936515516069e+01
-8.494553097529087271e-01 -4.373353170913191867e+00 1.601153956806354017e+01
-3.491266161508532750e+00 -6.500570549420316979e-01 1.315973818874945067e+01
-6.597699265028558191e-01 -4.261066133471799411e+00 1.582425207553722402e+01
-5.256318946843911988e+00 -3.726647042663721265e+00 1.523725576509477264e+01
-6.374424241777003175e+00 -1.200722851616512266e+00 1.714130305726698111e+01
-5.706815778838842945e+00 3.023977676402331838e+00 1.618667272403086344e+01
1.565098976865350044e-01 4.773539626213327836e-01 1.434297466472052918e+01
-6.262626901081810971e+00 -9.002813087125862701e-01 1.720335105849244428e+01
-6.864566838959273554e+00 -2.609346126628764750e+00 1.635218932749292975e+01
-4.589861559559095028e+00 4.610671277754045505e+00 1.588604842628360103e+01
-1.743259961553364157e+00 3.238684785913862996e+00 1.710276572348423230e+01
-6.963744842631083287e+00 -3.120862331549122182e+00 1.534165751395185850e+01
-5.852351273684078592e+00 -3.658875801942277128e+00 1.729612433514222403e+01
-3.940500147322091085e+00 3.632339338889626568e+00 1.435147497489595025e+01
-1.402769554684936359e+00 -2.563939926025539329e+00 1.479812168265283390e+01
-6.459895818902868569e+00 -3.565004507572644421e-01 1.333428908284440695e+01
-1.336465581221279786e+00 -2.496953763762812528e+00 1.472212317995310826e+01
-1.431925334077795764e+00 4.216541071473328017e+00 1.654683389280518924e+01
-3.784184950156750826e+00 9.959516417727845017e-01 1.131096221623387521e+01
-1.840648576691809701e+00 -4.403480716144072993e+00 1.594722698640450886e+01
-4.890056829600782251e+00 -1.418500926537604290e+00 1.755959113730884980e+01
-5.350127048843242861e+00 -1.281402444992500111e+00 1.311267074374250541e+01
-6.366994031266033360e+00 -1.941377408203881494e-01 1.698639844268655708e+01
-6.303761775279166812e+00 -4.399879035160427776e-01 1.709748338072940754e+01
-5.615142824641671027e+00 3.215149927222797466e+00 1.477067462032839273e+01
1.651889700025016006e-01 -3.391594647035708121e+00 1.512265649020211100e+01
-1.560745855669858351e+00 3.697658460018530491e+00 1.688520471268503798e+01
-6.674870465699541455e+00 2.015048094574558579e-01 1.638083197610298924e+01
3.678603376902095934e-01 -3.479062954904616589e+00 1.523631795058180671e+01
-2.182477084122518729e+00 1.355651698667326599e+00 1.188614489850848344e+01
-2.525516218458736528e+00 -7.791838876277537018e-01 1.338391122350142837e+01
2.186321780130858206e-01 6.288169498961027060e-01 1.692288788065525296e+01
6.824872433451176779e-01 -2.342248711953254237e+00 1.673186392568195657e+01
-7.050893881629287652e-01 -2.642179651667458273e+00 1.452322882321480790e+01
-1.710955125802733345e+00 -4.284575961902037378e-01 1.763167327241932725e+01
-5.624758797818159906e+00 3.539899975517367459e+00 1.519681339063828318e+01
-6.069431801303945662e+00 -3.259126600176911026e+00 1.449961809366144649e+01
3.535620487210787699e-01 1.159781955921458607e+00 1.580820357322032521e+01
-7.885462996189358531e-01 -1.785055103673176546e-01 1.259424298043153101e+01
-5.124755310883696069e+00 4.270985423897912803e+00 1.563084687127217620e+01
-6.253782531080917195e+00 3.573021200923327534e-01 1.694055460013457548e+01
-4.471229174164022879e+00 -1.379142579733501961e+00 1.754581729909461529e+01
-3.556495080089966176e+00 4.002218176387467352e+00 1.480197955091473005e+01
-9.908525251718109939e-01 6.786845323746071301e-03 1.240484005842212412e+01
-2.814367563808252370e+00 -2.622888567411351346e+00 1.749620813347623027e+01
-6.722753163423041300e+00 5.084196869506778516e-01 1.478065573974418356e+01
-5.171400270891485462e+00 -2.119638398166535431e+00 1.383806882283946749e+01
-4.149367559313386522e+00 3.029880252573226684e+00 1.703278196319870119e+01
-5.165450316069010839e+00 -2.319583484352943259e+00 1.400092989002040156e+01
-4.222979192895415235e-01 -3.098890920171633034e+00 1.486247266934496025e+01
-4.856929698589608435e+00 -3.657751587325971165e+00 1.531541818239482922e+01
-3.324742601891652161e+00 1.164450773019538143e+00 1.747417563797947082e+01
-2.844180255500488030e-01 -1.965628277754389863e-01 1.757524587503942826e+01
-6.277459467347869193e+00 1.852274436908166511e+00 1.608817874529459857e+01
-6.113556355870137793e+00 2.235075180773570924e+00 1.609232104894458359e+01
-6.000920902548617875e+00 2.672339935386891518e+00 1.573970326514982787e+01
-6.403542151082417533e+00 1.505734586321539226e+00 1.612336781007454078e+01
-1.806383064775686220e-01 -2.493511226116422286e+00 1.765396097689632171e+01
-3.443481518684297082e-01 -2.883424912725021549e+00 1.464116182783729414e+01
-2.122128957277010564e+00 2.406150741318506370e+00 1.736859674594980874e+01
-6.053641990139839280e+00 2.590893002416879032e+00 1.553340193484923759e+01
-2.936039098881121134e+00 4.662386106518092710e-01 1.184970685513962962e+01
-2.130513413022765423e-01 -1.824096783707099600e+00 1.770127685789045557e+01
-3.679524586753994075e+00 -1.828304684018865256e+00 1.440614663406574891e+01
-5.196289252809899395e+00 1.208343265606606209e+00 1.233248440963087944e+01
-6.078846442991975962e+00 2.300604396370141469e+00 1.472846854937741057e+01
-2.693575151480970042e+00 -4.023429241549127511e+00 1.734822655789029255e+01
-2.449509893092691737e+00 -4.081336319227546028e+00 1.734122234203537971e+01
-2.482341453782458629e+00 -2.431414592610972925e+00 1.492643457087516623e+01
-6.792494132884305813e+00 -3.263853682510330145e+00 1.478435099572219258e+01
-6.840733807858866200e+00 -1.233792118560852469e+00 1.425188320188703273e+01
-1.173234403750135213e+00 3.008625001252982933e+00 1.707975956508411741e+01
-1.915942274168234594e+00 -8.423613366497599841e-01 1.335896984801431842e+01
-6.483217139954467356e+00 -1.423710766187009646e-01 1.335259162556886992e+01
-5.694317174331652964e+00 1.638250390617626229e+00 1.327850591592331142e+01
-2.082077038026913129e+00 -8.826465196566233296e-01 1.345334400367523386e+01
-1.236984169908913467e+00 -4.668652535902694467e+00 1.667867031610297346e+01
-1.773859382930239814e+00 2.736549795594114709e+00 1.726693599220647712e+01
-4.848818534795420021e+00 -2.257073623542408036e+00 1.755672627943448560e+01
-1.513564258045653421e+00 -1.452031513223520864e+00 1.762303594367033099e+01
-1.547987883911626561e+00 2.585771912627720770e+00 1.729731395330518495e+01
-1.544787795510391692e+00 2.732646893865791515e+00 1.724788863203756506e+01
-5.346984222434127076e+00 1.111713862855795654e+00 1.238019052382082918e+01
-6.264540432720561824e+00 -3.457142503440785219e+00 1.467898926456239650e+01
-4.511092830851584523e+00 1.339327933786566227e+00 1.187947178243285151e+01
-5.758999970199063512e+00 5.398602130224534612e-01 1.724566018904845066e+01
-5.508906991439415535e+00 1.942813232435596227e+00 1.702259361597752729e+01
-5.745257891652350679e+00 1.794748681466827644e+00 1.692166577888981038e+01
-2.554565829597283066e+00 -4.690166476051686573e+00 1.709602352346692555e+01
-2.697812136834358832e+00 -9.973308871707202705e-01 1.365052780286966794e+01
-2.703879706199298294e+00 -4.680072867963703587e+00 1.708297313273351392e+01
-1.127115819541651298e+00 -4.208724975213047337e-01 1.770579857695574333e+01
-4.717958870895082590e-01 -3.211309426775144082e-01 1.286149754723295047e+01
4.074009048383859799e-01 -4.188708038006574874e+00 1.641961647289144111e+01
-2.295320286404636700e+00 -3.712658651217903838e-02 1.754666660747098916e+01
-2.894682804624830741e+00 -1.020599586259525626e+00 1.751665847291965861e+01
-5.958558382184605762e+00 -8.440559569695036402e-01 1.737964115429554113e+01
-5.430773400107078430e+00 -4.565236271598792861e+00 1.695166981688057461e+01
-6.006701759114969619e+00 2.460938992158444805e+00 1.610803084836400956e+01
-6.069694749291667080e+00 2.464363468374032529e+00 1.497273188984934933e+01
-3.454605029893250911e+00 -3.941284188709843761e+00 1.737298010473792687e+01
-1.160346821735914746e+00 1.532038291025292764e+00 1.757355422765148489e+01
-3.084545640144462197e+00 -3.126534955773960789e+00 1.526266094667087714e+01
-2.728416081874894150e+00 -3.120565760609943062e+00 1.526437931572993989e+01
-2.970603546997544475e-01 8.524284054969655244e-01 1.376985778708887409e+01
5.777785267868127406e-01 -1.409324614060285974e+00 1.416264591211578505e+01
2.982906949940930530e-01 -3.215718017543188978e+00 1.499646239381676338e+01
-5.218651733320294639e+00 3.983347001125604692e+00 1.514400506443874406e+01
-6.664625221696793389e+00 5.647373468297842702e-01 1.437860310765999827e+01
-5.375560722939813019e+00 1.810973960063081645e+00 1.714672677925249644e+01
-1.835542854057025330e+00 -3.973479679929745600e+00 1.735308043877803641e+01
-4.531646769215324611e+00 -1.771065826482445260e+00 1.404521485375951784e+01
-2.466103921535073518e+00 -3.652665194035028762e+00 1.740743577953088561e+01
-1.062568256705079150e+00 -4.386436445583698607e+00 1.600724049912731317e+01
-4.725970495872580557e+00 -4.277800797123498810e-02 1.210871085908272704e+01
-5.491805887582129841e+00 3.885601373086312371e+00 1.560282780545388448e+01
-6.740803176198779667e+00 -1.629497919815344975e+00 1.401531718661331638e+01
-4.170323895660184021e+00 -1.105746476246248111e+00 1.350454300954067577e+01
-5.873968923044360579e+00 -3.052842165019904463e+00 1.738776023249902636e+01
-5.878697299590383452e+00 -2.871791399889363383e+00 1.741075011907084757e+01
-7.016512624946287247e+00 -2.204482341640724208e+00 1.487999548629764490e+01
-3.045236044385574381e+00 -4.470290473997684977e+00 1.605619746822824112e+01
-1.278195133393063676e+00 -6.309390034345367937e-01 1.290723036741545116e+01
-5.875522915465703377e+00 -2.065081436673384729e+00 1.746625480725648316e+01
-2.068075042038279854e+00 -3.412090798877290609e+00 1.742632837863938278e+01
-3.346534482861275972e+00 2.026532536594922274e+00 1.242969267975375658e+01
-3.302188987601537562e+00 1.279349670612256462e+00 1.139030987153842034e+01
-5.744218927498268012e-02 1.251090269015960432e+00 1.704690617879163028e+01
-6.299083517274091548e+00 -2.625512596879786109e+00 1.394679050009170140e+01
-3.487103416952090473e+00 -3.068516971759528644e+00 1.749492707352884224e+01
-3.520626315747247492e+00 -2.050243251821184387e+00 1.460643887572951627e+01
-6.735721311990014115e+00 -3.403275365163555222e+00 1.635589290913002714e+01
-6.922460652177949925e+00 -2.469609268945619718e+00 1.455334778498149717e+01
-2.708481151761449546e+00 3.864800446231586584e-01 1.750971740233987362e+01
-6.460321000317188478e+00 -8.684048876136829520e-02 1.684883592304764477e+01
-3.110625468449543352e+00 -2.247624809751300745e+00 1.478963150864285581e+01
-4.166450856086528987e+00 1.556332701524403284e+00 1.741840760128636845e+01
-1.144223751653574706e+00 -1.376092871486447322e+00 1.363341223893902310e+01
-1.149175683152217520e+00 -8.649745679892748562e-01 1.313603422370352547e+01
-1.277704973089095697e+00 -7.539562651387865522e-01 1.303880105733570360e+01
-5.057206293041080158e+00 -3.549023934108572753e+00 1.519295228618096161e+01
-5.024987050024650515e+00 -3.364203988763998510e+00 1.508869721629807970e+01
-3.470932673759909104e+00 -1.441694348616274990e+00 1.752004757014854874e+01
-6.619149342345549414e-01 -3.998040254293401041e+00 1.552654727506288168e+01
-4.834141757407936169e+00 -3.156104223770435091e+00 1.504329737003162393e+01
-6.994190877095599390e+00 -2.504981079048149262e+00 1.483665978410372333e+01
-5.457482595332868058e+00 -4.330425383279558282e+00 1.581965483692566465e+01
-5.879326507126927837e+00 -4.323101450773138232e+00 1.583573540460176332e+01
-4.312863479306727754e+00 -1.150129961894960307e+00 1.349080278190477600e+01
-6.069039753248549829e+00 -4.196238187965272814e+00 1.561564774172783387e+01
-6.929929982165978330e+00 -3.713783936898518157e-01 1.572478883172168196e+01
-7.075613343209781192e+00 -1.726121531961411382e+00 1.543072642377508430e+01
-5.439745381014034820e+00 -1.523082924417968442e+00 1.755104908600610969e+01
-1.492147909264422090e+00 -2.391647215381067504e-01 1.766928786417729924e+01
-1.653280552657928837e+00 -3.438821891576937517e-02 1.764816230364286298e+01
-3.654945190298372726e+00 -2.255448205207478019e+00 1.474052598473688391e+01
-5.616066022258545232e+00 -3.265933111978944758e+00 1.743384718305706826e+01
-3.293093243135864601e+00 -1.831261377058734929e+00 1.445781834074968231e+01
-1.068039260752336128e+00 -3.999401798503072314e+00 1.734226165872328806e+01
-8.562347681993052184e-01 -3.933444940559644110e+00 1.736546120954691474e+01
-6.124735797338848542e+00 -3.656672781634510372e+00 1.714898761655545911e+01
-6.820341568662875886e+00 1.800533251469982332e-01 1.581425171537917151e+01
-2.903150623044687073e+00 3.420999274689637382e+00 1.699129348817149321e+01
-1.449525076318906258e+00 -1.677346878656315265e+00 1.405012702590721574e+01
-6.803895841519384646e+00 3.695879364880001461e-01 1.528832817483132800e+01
-2.722962167268953237e+00 3.391353421560002079e+00 1.703154207796607977e+01
-5.690315868131168742e+00 -2.874318465743470163e+00 1.746986959159657715e+01
-5.107694964288185702e+00 3.529809075597003520e+00 1.651721139771684221e+01
-4.182074634715036154e-01 2.495562796602886824e+00 1.554749884584063579e+01
6.994277649002901276e-01 -1.501024376288368156e+00 1.619872698055659299e+01
-5.161433263058992083e+00 3.640847845359769686e+00 1.640114093510871385e+01
-2.269097236890445402e+00 -4.773836499431005187e+00 1.682960823324567201e+01
-5.083032706963445335e+00 -3.440842997092763866e+00 1.749005123496350933e+01
-2.104525534031078671e+00 -2.858463259641936816e+00 1.513036494846162583e+01
-4.543680719446825389e-01 7.344796727555555904e-01 1.332835170534431768e+01
5.902992743949275756e-02 -1.463434899172503023e+00 1.370497546156703095e+01
-1.963299529864603876e-01 1.761013559001811002e+00 1.508495348703414862e+01
-2.883237312533227570e+00 3.979471743837776909e-01 1.750412522393817483e+01
5.730451262785549726e-01 -3.879987371045745981e+00 1.605478018133453588e+01
6.227811167372413470e-01 -4.672743803825682996e-01 1.644319716106725338e+01
-4.302206089714552206e+00 -1.421160254822757096e+00 1.380207330020230216e+01
-4.710523019811358125e+00 -9.484343837920272691e-01 1.306642083581831315e+01
-4.637202165438726098e+00 -1.193370554687649410e+00 1.337732580345071653e+01
-2.458649176766295685e+00 -4.641663731588375086e+00 1.643156362454273989e+01
-3.749407690485263789e+00 -1.729748759934886859e+00 1.431180608263260012e+01
-5.174842332073703588e+00 -1.471720893858960100e+00 1.331719319368912124e+01
-4.722361246035601923e+00 -1.138760993874940564e+00 1.327623039946139727e+01
2.128193017758942540e-01 3.908033007779749823e-01 1.439092401937885057e+01
7.025615357058901944e-01 -3.033433270252878344e+00 1.529679583621786776e+01
5.878428114526451642e-01 -1.348342713607809440e+00 1.688821309280259442e+01
-2.722438961579902728e+00 1.311026559360539467e+00 1.749961717224717006e+01
-2.617211146739135685e+00 1.068500344468058971e+00 1.751625858375354738e+01
-4.926165641924635352e+00 5.591117024474698827e-01 1.746350644998177160e+01
3.412645195056321912e-01 7.947636004785829655e-02 1.695672600744015313e+01
-6.470691196381264110e-01 2.495331618547698582e+00 1.698266391997538705e+01
-6.000374755647188252e+00 -1.095241571057092411e+00 1.738534098016616269e+01
6.909437519204366662e-01 -2.877965340455286736e+00 1.509076039419749549e+01
-3.765260737687785575e+00 4.816645141229088267e+00 1.584417295702946404e+01
1.583854218371184008e-01 6.466919710580107949e-01 1.455236401531024626e+01
-6.627684443768210087e+00 -3.789011606955074996e-01 1.374542081860063547e+01
-5.701581563447042811e+00 -6.737842695079563349e-01 1.746489650763822254e+01
-8.802718770232043077e-02 -1.602715107092091085e+00 1.765500798599951082e+01
6.509382588114004387e-01 -1.933553756182000427e+00 1.677945659032052816e+01
-4.500974198614884347e-01 1.792637920991382305e-01 1.271546494770133506e+01
-6.789420241868874939e+00 -2.400520840847494952e+00 1.422414725609759500e+01
-3.872372736491085821e+00 -1.959681458490162953e+00 1.447108166205788393e+01
-4.048184053072054311e+00 -4.748814482609739152e+00 1.694965811816417300e+01
-1.778993060381319324e+00 3.992285696576842291e+00 1.676741516363360063e+01
-4.946826889584633236e+00 -6.035466157481566007e-01 1.258226629032414934e+01
-3.954850510424364085e+00 3.193396379076321345e+00 1.698945769598322642e+01
-2.661918579199365364e+00 -3.237961121400297237e+00 1.746264702109385070e+01
-1.340958336280006158e+00 1.162520934764077030e+00 1.240783743669392436e+01
-2.060596677823860468e+00 -4.028493528192207407e-01 1.279216677298604310e+01
-5.718579617680135119e-01 2.873532847871922868e+00 1.667458236939840788e+01
-5.538111282972556282e+00 -4.801021226505697292e-01 1.749190790010317187e+01
-3.648521538813781273e+00 -4.750581547767479762e+00 1.681317390081743213e+01
-5.387178971224349411e+00 1.105879000911508259e+00 1.730858865176132610e+01
-2.332560289053677405e+00 1.819230530475975938e+00 1.241249615056369038e+01
5.801125049133991629e-01 -3.533262733543501177e+00 1.543349714139178985e+01
-3.735524980864986855e+00 -4.289727529677787032e-01 1.274756066365117135e+01
-1.249895800871933860e+00 -4.389654455133316091e+00 1.598838704400692023e+01
-2.891182342642363068e+00 -3.255113804556786228e-01 1.270158587232012337e+01
-1.631423290485631838e+00 -3.176560624132291011e+00 1.520313986969491538e+01
-1.480152735984729073e+00 -1.506309396015386604e+00 1.390197673681990409e+01
7.039970130746020516e-01 -1.107891351793812706e+00 1.608697557736937966e+01
-3.002225095831997370e-01 1.072687670775029023e+00 1.402095842286575333e+01
6.135701519773673063e-01 -3.033215584331297343e+00 1.501107440574910612e+01
-3.870103158093826767e+00 -3.969866414817448508e+00 1.558616779128325192e+01
-1.965235766399198614e+00 4.492792056352591601e+00 1.652661597237521818e+01
-1.997598006601135623e-01 1.424922695283579621e+00 1.465607514205510142e+01
-1.929119498225019491e+00 4.766555378409083943e+00 1.629198838804533978e+01
-6.455108737738477487e+00 6.204446074332066186e-01 1.337898268327037243e+01
-5.414971671955942867e+00 -3.816192108978349040e+00 1.738183267434714452e+01
-6.979850453992872517e+00 -3.096838190937583057e+00 1.552423840637023744e+01
-7.053364668437650309e+00 -2.342740602636565583e+00 1.540871943637036168e+01
-7.034634672695975866e+00 -1.966766918150056220e+00 1.578969546081544451e+01
-3.256779480307968377e+00 -1.887130769175123568e+00 1.450545617136937437e+01
-4.961165507659053731e+00 3.021242796024952604e+00 1.684667270913393367e+01
-5.199918016508371821e+00 2.858229686901545552e+00 1.681058768005756576e+01
4.382367895789037737e-01 -2.742455316790657349e+00 1.460200232402910103e+01
-2.494329058236148811e+00 -2.115401225257964590e-01 1.258306323172083552e+01
-4.351900462126153002e+00 3.999815476860849817e+00 1.477851130370044785e+01
2.437628753661598702e-01 -2.881973262787624890e+00 1.464019850884930207e+01
-3.526298513257705158e-01 -1.644671245681001981e+00 1.772235182766053185e+01
-3.656420999735366717e+00 -3.414818763251824763e+00 1.747670298587241433e+01
-6.312059399231617629e-01 -2.404522528553267868e+00 1.765763457750669119e+01
-6.800338406121364088e+00 2.770934763806580658e-01 1.576291297625441956e+01
-6.442170300731302035e+00 9.681134653254508393e-01 1.406861528209000767e+01
6.331848621328683979e-01 -2.653549364188250159e-01 1.593316512092145132e+01
6.508432739504217412e-01 -3.329934123670856394e+00 1.662974509704778114e+01
-1.321666778648675100e+00 3.247388602294210003e+00 1.703627365974479346e+01
-2.514644851013798643e+00 -3.107554713856817585e+00 1.525810786477356373e+01
6.504412016755232173e-01 -3.138602154365121244e+00 1.667958851270988418e+01
-6.987849418095244403e+00 -5.198261610541980993e-01 1.527375743698974020e+01
-3.061317296588792480e-01 -3.065252189203464539e+00 1.483546843291284034e+01
-6.459018265301766704e+00 -2.732978981019470233e+00 1.403006882564279323e+01
1.476232618593874002e-01 1.300069997889989670e+00 1.665243332199554516e+01
-2.910910425323487871e+00 1.934906963293893334e+00 1.739790509252048878e+01
-1.076565542577397228e+00 -4.349412960629326363e+00 1.719622548186168132e+01
-1.253493925740627013e+00 -4.686632597022842184e+00 1.683123388587221569e+01
-4.138090200173905941e+00 6.185031362773025787e-01 1.748578501563710574e+01
-4.326477882010708598e+00 9.539343508397288840e-01 1.746972996310418580e+01
6.577676563734337067e-01 -3.197239642033324003e+00 1.529205304382436026e+01
-6.427857561042660706e+00 -2.635766464849621293e+00 1.709234602069020781e+01
-6.940568727531914561e+00 -2.052825523679994824e+00 1.460279532919218326e+01
-5.002261436832142749e+00 4.134382073256008816e+00 1.611236733042887437e+01
-2.803810066730037409e+00 4.316196253875871136e+00 1.527115401389244909e+01
-6.453474905406844542e+00 -3.194029710732615435e+00 1.693053362010215324e+01
-3.136737988002964439e-01 -1.111862277032273916e-01 1.293316920684936377e+01
-4.461283538431501938e+00 -1.669118003407819906e+00 1.397966729145697684e+01
-7.086266505641528823e+00 -1.887800073195478046e+00 1.526088912896004501e+01
-7.063305574366248507e+00 -1.727854937723133588e+00 1.559411622332847713e+01
-7.067520264680226205e+00 -1.537150309617651089e+00 1.545651713668203087e+01
-5.243428958449557697e+00 -3.959469914481900332e+00 1.542707467277054434e+01
-3.910906618321591477e+00 1.379917305270089045e+00 1.744813285721146912e+01
-3.868532238137748491e-01 1.396070228855060158e+00 1.424895609228791216e+01
-1.480760901133566065e+00 1.737646400011914505e+00 1.281603138846575263e+01
-1.079502363358508576e+00 -2.217826448551170948e+00 1.435753873355852051e+01
-1.138392730834733246e+00 3.349925710937885714e+00 1.518265112392269600e+01
-9.185962840231909343e-01 -2.456511885203598311e+00 1.447550906834511864e+01
-6.988887187075723872e+00 -2.656197099438958986e+00 1.492083763191870105e+01
-6.733086348533683818e+00 -7.933751925078613709e-03 1.635006216334487306e+01
-5.857303860990569433e+00 3.066103781829831565e+00 1.538102432058691704e+01
-5.762200161578920898e+00 3.301832235732827137e+00 1.538387397071540619e+01
-2.709246795902148008e+00 -4.062204249313032811e-01 1.751882754323010261e+01
-2.320119771836882450e+00 7.044404160696604578e-02 1.229078418463009115e+01
-2.285272385828319486e+00 -1.247761311068846801e-01 1.248186461745193299e+01
1.862679846433080155e-01 -4.398046140029460815e+00 1.637358343414554440e+01
-4.716382585743492228e+00 4.398234698481191529e+00 1.537437331798609819e+01
4.759756266990791684e-01 -3.124103581162001042e+00 1.497017492342021683e+01
-5.516671323707516450e+00 -1.052945018129102017e+00 1.753037752152756212e+01
3.951156821459922419e-01 1.075627335492534753e+00 1.584783361473461838e+01
4.570950232960802051e-01 -2.939745016969399494e+00 1.478227067701522657e+01
-3.479528384025281529e+00 7.624181819347681799e-01 1.748480338073293439e+01
5.969991690772860071e-01 -3.717208544498447509e+00 1.647215576764411082e+01
-1.358498014069789317e+00 3.383435142135734264e+00 1.496934063825849393e+01
-1.543921601908726959e+00 7.771295409135716703e-01 1.181419741748003815e+01
-1.802554960617488433e+00 -5.028523591225595446e-01 1.761629725001696301e+01
-1.211155659498790671e+00 6.400165249894813613e-01 1.205416252970380953e+01
-3.944063294337703862e+00 -1.577781360273608602e+00 1.411129189072396883e+01
-3.861164400479917713e+00 -1.724346559457750949e+00 1.427056503876547566e+01
-6.629822157216681333e+00 -1.801385437338319129e+00 1.381816614792900566e+01
-6.591580799607919872e+00 4.104006314705777037e-01 1.646453229306509058e+01
-6.554732092264119458e+00 -1.606363463142313819e+00 1.361428658444953754e+01
-1.273461237344452268e+00 -3.223654618501846869e+00 1.515969104327167827e+01
2.843312284840785464e-01 -1.553835815655602026e-01 1.713216318730424348e+01
-4.146649172941431871e+00 -9.239457881408075224e-01 1.329128601286411993e+01
-4.061588896622946976e+00 -8.150384075002441442e-01 1.319062862211156784e+01
-3.942654514389859255e+00 -7.196289349902174060e-01 1.310318001540711208e+01
-6.293761967911473576e+00 -2.142648646215596031e+00 1.363089268411700061e+01
-2.523264604363429253e+00 3.210120413191564381e+00 1.711555359416769306e+01
-4.912098878744226127e+00 2.964877548166728438e+00 1.688804407810314245e+01
-6.321962234265503966e+00 -1.184637067188052395e+00 1.323396580818181434e+01
-3.781489008352753256e+00 3.079943379861139974e+00 1.704470332509652053e+01
-4.989047600743289124e+00 3.225476099685077092e+00 1.675575460355284463e+01
-5.078261912035706871e+00 1.948450972687214566e-01 1.748580784127899079e+01
-5.794789111491175149e+00 -2.602952614258241759e+00 1.746773233264791969e+01
-4.896225693465336093e+00 -3.259532979513621420e+00 1.751279542635118958e+01
-2.507169163047254568e+00 -1.334341807521091106e-01 1.249078322855687873e+01
-2.502005542375302038e+00 -2.748344000280322774e-02 1.238446325800245518e+01
7.216548546844100409e-01 -3.033588821582459794e+00 1.558531314119213107e+01
-6.371915552206090183e+00 1.212389661686818165e+00 1.644526525245956350e+01
-1.305982130527001628e+00 2.105394603040306123e+00 1.345280264323264419e+01
-5.572421996683198486e+00 8.755579860520690261e-02 1.230558799543673132e+01
-4.980177856196874586e+00 3.981520653662169451e+00 1.500508361586241080e+01
-3.156904503508364268e+00 3.899991294671961928e+00 1.670203521298447669e+01
-2.107763298008647368e+00 1.569379279512677305e+00 1.754176794973422204e+01
-4.415476228449555229e-02 -7.904099507931308111e-01 1.754285881781448353e+01
-4.290971664269322972e+00 -3.878867252970136903e+00 1.551530521734942880e+01
-8.116913327868786610e-01 1.431018328352078761e+00 1.351428562112548803e+01
3.999792702934062416e-01 -2.675146468178788872e+00 1.451270074551054279e+01
-4.184054106274221141e+00 4.505009943694226138e+00 1.609354576197548425e+01
-3.969734034322206728e+00 4.413581988048863813e+00 1.620638651059907431e+01
-4.206523965897979167e+00 -8.361334869339933640e-01 1.315256364590191396e+01
-7.015667578941922500e+00 -6.793728602298951813e-01 1.495482776561379978e+01
-5.452618439896285807e+00 -2.887090892922099528e+00 1.428582781457810569e+01
-2.711137589240401047e-01 -4.505588289484096620e+00 1.696692789477432228e+01
-3.864424617215880264e+00 -4.140088634348579433e+00 1.568832148034493912e+01
-2.859061230370559592e+00 -8.101244184887614885e-01 1.342435245448776016e+01
-5.332720751838211370e+00 1.638166860167382666e-01 1.745055849822046667e+01
-1.276357394525991173e+00 -1.010894073676859239e+00 1.767168711638071699e+01
-3.981859702504606080e+00 -3.555969920843442544e+00 1.539699086964247954e+01
-2.255322070604017348e+00 -4.299111690398149221e+00 1.582565455501082852e+01
-4.265935569164755137e+00 -3.508793364159138228e+00 1.534795318247660134e+01
-2.136279397316842132e+00 1.814364208424104064e-01 1.756756370258041500e+01
6.592781708335626600e-01 -1.186312493348342656e+00 1.440480086741669652e+01
-9.997710610856112012e-01 4.427577111521319164e-01 1.220336308627829425e+01
-2.464521248873627890e+00 -4.305036971344317287e+00 1.583743817224041095e+01
-7.996665527154516173e-01 3.722353655860362043e-01 1.238272960747911355e+01
-6.806292543096848391e+00 -1.136908543335727106e+00 1.414754625343727668e+01
5.538414032103524676e-01 -1.594186319828737375e+00 1.702403827045766604e+01
-2.563371172166394096e+00 2.093151395754481392e+00 1.271088174887681532e+01
-4.989270088785490387e+00 -1.911879965513302082e+00 1.385043286272038188e+01
-5.027050627526298499e+00 -1.872383570263670194e+00 1.377209952709408469e+01
-1.942911786303029409e+00 3.022280841091116166e+00 1.718814044468228275e+01
-1.750832547258944771e+00 2.872591221801832795e+00 1.722159877894500823e+01
-1.742793499421469772e+00 3.058346228395335764e+00 1.716376906447732154e+01
-1.946736478518877433e+00 1.716909351053241606e+00 1.246509900747713573e+01
-6.591209010441234639e+00 -1.075453892417376434e+00 1.690435970682277400e+01
-6.569017780074492663e+00 -8.094035446846978843e-01 1.688657264049074769e+01
-6.223134924708048743e+00 -2.189541708832353883e+00 1.729776582054864775e+01
-1.069403957336605870e+00 -3.211129908588088000e+00 1.749367668051338853e+01
-3.489947726829677688e+00 -3.841547547834634813e+00 1.740428476053285323e+01
-6.679798464450096063e+00 -2.230557816405780436e+00 1.399422770407265659e+01
-1.498033090562497893e+00 -2.011292088894657937e+00 1.437927353971147681e+01
-6.612601838422804690e+00 -2.172527906459871261e+00 1.386828200747319073e+01
7.203977141427676534e-01 -3.137011591856839310e+00 1.631871410089158303e+01
-4.078816098067491680e+00 -4.325525022054067747e+00 1.584298394686206279e+01
-2.109172989929973152e+00 -3.566894361750591713e+00 1.540388309703898528e+01
-8.916231612224476688e-01 1.207457207534249122e+00 1.757172323953287929e+01
-5.110894263067702337e-01 -2.459310361265631961e+00 1.765719168843398279e+01
-1.230207128556151330e+00 -4.575840535034989998e+00 1.641270811550629105e+01
-5.687562536109906475e+00 -2.580994165182586286e+00 1.396531385300366424e+01
-3.899509086805330593e-01 8.815895497662959990e-01 1.362445066145167516e+01
-2.907090489896241525e+00 2.667837356940123694e+00 1.722179079827725445e+01
-6.782642839762274889e+00 -3.866556619831529318e+00 1.565080674913156855e+01
-6.376833557412595610e-01 -2.738053115203458177e+00 1.457526368256137772e+01
-1.505805115057602617e+00 -1.227370121027981043e+00 1.763496197744635907e+01
6.582002219616142069e-01 -6.796528449114958015e-01 1.627624000585610275e+01
-4.662075083173878198e+00 -1.758815068726216069e-01 1.221801559196982367e+01
-4.900637104563697832e+00 -3.057260538626840329e-01 1.231976272057300292e+01
-8.391548786804741145e-01 -3.506980933646455689e+00 1.522043132894317097e+01
-1.273077624668028429e+00 1.147728946047201770e-01 1.227948127288318858e+01
-5.291542776640163481e+00 -2.253271379320538337e+00 1.755783241992237009e+01
-3.304571790545758336e+00 5.394173938137023505e-01 1.172627190915564199e+01
-4.290005703909653079e+00 -3.205595524941154295e+00 1.520059076693607381e+01
-4.181179573429600893e+00 4.005138577305540792e+00 1.478232966993880382e+01
-1.877186104586088256e+00 -3.847531280203549287e+00 1.551140176992777242e+01
-4.356462552052919435e+00 4.460001490513647582e+00 1.533364218355441722e+01
-2.260607612861080806e+00 -3.864147237511222244e+00 1.552554785305367346e+01
-2.061042565665284876e+00 -3.846025113124757588e+00 1.551358642036751689e+01
-6.711701844445137510e+00 -1.001078032771764104e+00 1.386423146321172339e+01
-6.516578726177783665e+00 -3.437678013906683816e+00 1.675136152832570957e+01
-6.816218785916547063e+00 -2.990921014198471006e+00 1.636025998522717373e+01
-5.646090463823231431e+00 -3.119830281796488691e+00 1.443982444129026987e+01
2.272712388913444292e-01 -2.236894645506350976e+00 1.749861241671804635e+01
-2.438606517988746170e+00 -3.522373370068707210e+00 1.539988464602799212e+01
6.050089585555460392e-01 -2.848799584249671391e+00 1.486446667501141405e+01
-1.882793884538738638e+00 -3.031632395537222635e+00 1.747417336376435770e+01
-1.471645739749808612e+00 -1.815245034958228310e+00 1.418789312397244373e+01
-6.745217302947338567e+00 -2.795297025846837258e+00 1.660116281987038178e+01
-6.762104441508524744e+00 -2.617202136175667881e+00 1.661414878905868164e+01
-8.955453113861873149e-01 4.531482492060669998e-01 1.765337200540296436e+01
-4.723896460746669135e+00 1.600869319460940465e+00 1.737982996549624204e+01
-2.318195701010189680e+00 2.861245147203765882e+00 1.723243242645400386e+01
-2.155128235249308855e+00 4.857788609694811299e+00 1.608891837034347816e+01
-4.561356210199605243e+00 2.840118195659169675e+00 1.703193868076704831e+01
-6.613863530189563633e+00 -4.106025384039127424e+00 1.584755460011868422e+01
-3.247197180422365381e+00 -2.714346608452570031e+00 1.506944395302878092e+01
-3.521915122213489457e+00 2.194494445581671727e+00 1.263235040207811011e+01
-5.660639512278820007e+00 -5.392153534018673255e-02 1.241757564766379573e+01
-3.291942966860526898e+00 -1.394904943466821923e+00 1.406684473669438518e+01
-5.663653329635307543e+00 -4.210104842480389742e+00 1.716924756153150611e+01
-9.534093769477045566e-01 -2.686389077298348305e+00 1.468817715646436994e+01
-6.698121780891893806e+00 -1.402948582234142094e+00 1.387034801232370995e+01
-1.228741819189380413e+00 -2.975404640322330430e+00 1.501120890037827138e+01
-1.462822439501122451e-01 1.567578277534958708e+00 1.699566577842871595e+01
-6.936233063129687793e+00 -2.167198256499064613e+00 1.620835948438546836e+01
-2.121555576147529543e+00 1.240711778183091862e+00 1.179643732668938583e+01
-6.997442728297569303e+00 -2.178369050063896140e+00 1.594473671229678047e+01
-6.938833871074216120e+00 -2.398364604060987837e+00 1.615284863334215260e+01
-4.868355091990355987e+00 -1.593176870707939674e+00 1.364603909935388515e+01
-5.772353926306994509e+00 2.944095055372131675e+00 1.476330799762759938e+01
-8.824536117592205464e-01 -7.627555922589350779e-01 1.301658052614435235e+01
2.625780525162715873e-01 5.998005719105325984e-01 1.477923861485341206e+01
-1.113008433117268492e+00 -3.076117374971854446e+00 1.503728133691788571e+01
3.817825204337462197e-01 -7.989797582447759616e-01 1.380937254581294127e+01
-6.855262174182950474e+00 -6.634749648288083002e-01 1.433845663391722525e+01
-7.838109029628648194e-01 -4.697536801249904137e-01 1.279001856143950988e+01
-2.354902270509246165e+00 1.409804544688767702e+00 1.753642902654132740e+01
2.046679550370952283e-01 -4.716681690640696090e-01 1.354835952164728496e+01
-8.584013056246597717e-01 1.456884254578131532e+00 1.752279440228974039e+01
-4.669552511994357058e-01 2.219517316270822604e+00 1.507056020077954628e+01
-5.081287774978703098e+00 -2.471469880333072133e+00 1.755572763355399246e+01
-3.867469559396108369e+00 -2.681713729974562810e+00 1.499272022271630789e+01
6.486089313723940597e-01 -2.941836843315097205e+00 1.676115276613540317e+01
-6.772721466749613839e+00 -2.018442520972424603e+00 1.668890994755665957e+01
-3.754401539150867162e+00 1.922818133456663636e+00 1.227176451431265747e+01
-4.096912350835072658e+00 -5.837118925523210322e-01 1.283501622556265431e+01
-9.137148597996014310e-01 -2.833238684516247829e+00 1.756522029089543935e+01
-4.606709777792149296e+00 4.588501301709534630e+00 1.564823811243703489e+01
-2.757214263584212510e+00 3.855328269953631537e+00 1.680772833182108883e+01
-3.728931153874954330e+00 1.771197906904716568e+00 1.739891786409518204e+01
-4.549245672397150386e+00 4.618195607172647321e+00 1.570878070120601677e+01
-4.102892943995550823e+00 -4.888925462873978667e-01 1.270328266131246409e+01
-5.856977751799163912e+00 -3.636229708252418646e+00 1.490455811855665047e+01
-6.146157723964080777e-01 1.986845030876453810e+00 1.450209589245762487e+01
-7.042023617576059991e+00 -2.523224325288246916e+00 1.538851132034506008e+01
-4.911512035881139937e+00 1.509974219863628564e+00 1.737599716712784925e+01
-6.260907564324179830e+00 2.061656650003643509e+00 1.552703612958479340e+01
-5.520516037792996045e+00 3.357042363591586920e+00 1.477664536512886428e+01
-7.053779165470933421e+00 -1.116650500033803173e+00 1.526019049030172425e+01
1.851618973268255308e-01 -1.473543093400531134e-02 1.382278175625734917e+01
-6.069706511667192217e+00 -2.751116613974273761e-01 1.724526240403578470e+01
-6.188975924388643080e+00 -4.104527760791558677e-01 1.718759407595953803e+01
-6.959290658197772927e+00 -2.767537127755042015e+00 1.488414392389310592e+01
6.039052589147229089e-01 -4.128671470185572012e-01 1.485197383547703964e+01
-6.962340219195594315e+00 -2.936832713917987725e+00 1.509488477309613330e+01
6.012495080721149687e-01 -1.692587719049150508e+00 1.687500494697221143e+01
-4.783008998213421847e+00 -2.877244379305204269e+00 1.488426756645031190e+01
-5.284256865475176923e+00 -1.833090248429438684e+00 1.352658336406412332e+01
-4.622626179716503358e+00 -1.372189864332286735e+00 1.755064938647672079e+01
-4.108678749350637815e+00 1.383231667975826973e+00 1.744354445128200837e+01
-2.702638280915587998e+00 3.999340317286263602e+00 1.674668497933416234e+01
-4.678649603548157287e+00 -2.763907783561561970e+00 1.485236228813594295e+01
-4.594532388627414754e-01 -2.026766987607326875e+00 1.769857289962970270e+01
-1.764698569915811310e-01 1.855991682528079778e-01 1.747204056672692474e+01
-2.169918468906179676e+00 3.431196472409207221e+00 1.706131731158561138e+01
-3.096008120026016996e+00 -4.587896017578700913e-01 1.287943567540388301e+01
-6.211852101302541840e+00 1.063232691052149237e+00 1.354549841983690328e+01
-5.486363172667610755e+00 1.975585846712075710e+00 1.337625674691778954e+01
-1.113725292954105273e+00 5.996808713361592158e-01 1.765947313540997499e+01
-9.240084804200567881e-01 7.678138320555825125e-01 1.762411322582234163e+01
-1.752146474006265109e+00 2.477044396980985219e+00 1.353107745332088996e+01
-3.852116825027680047e+00 -2.494939691417192407e+00 1.487756198053861567e+01
-6.202069606444268857e+00 1.207703483300975655e+00 1.670629382753018888e+01
-2.082748662831342301e+00 -4.063390958687532972e+00 1.734330085484050699e+01
3.102369144240753052e-01 -2.008871021855261674e+00 1.742150344863308931e+01
-5.130976234682780301e+00 -1.540423435855662326e-01 1.223813069401025899e+01
-3.453985958452697513e+00 -8.419163994626455150e-01 1.343575778694274447e+01
