-7.637433139785152925e+00 1.095280203426400867e+00 1.374522644221301704e+01
-4.370780142340896290e+00 -2.315436822054787402e+00 1.531356403355464124e+01
-7.251730759492560630e-01 -7.082671820681807340e-02 1.490257782622460780e+01
-4.557436214616533476e+00 -2.480634838280308507e+00 1.525101020445139710e+01
-3.908144443790424916e+00 2.572094357867626080e+00 1.019117511039487667e+01
-4.569732130928378488e+00 -2.242151816423158639e+00 1.534405448007062489e+01
-8.014871272911559430e+00 -2.996720095172593634e+00 1.412010969069192612e+01
-7.158521245410224942e+00 -2.330217188539475348e+00 1.243585429170213530e+01
-6.155273221649224524e+00 2.304378385937385865e+00 1.281682802878336958e+01
-5.336572626740433201e+00 -1.554761233862013370e+00 1.298264007804664999e+01
-2.131941644283654735e+00 -3.861391188872249636e+00 1.456725648128443140e+01
-1.736910944453274208e+00 -4.646023436214728797e+00 1.407378761902887021e+01
-7.615055789003845277e+00 -3.681422384290696570e+00 1.417000905130654331e+01
-4.319973088481841472e+00 1.684884101748165719e+00 1.092346456189745751e+01
-2.588610223672163535e+00 -1.195730531294123100e+00 1.257917224573628090e+01
-5.781285829416148658e+00 -1.301158822231826218e+00 1.567056004452047091e+01
-8.013384765652885378e+00 -5.427282401297883752e-01 1.259632248968287627e+01
-5.576983450983715507e+00 -1.496972756944266347e+00 1.560365392322100320e+01
-6.765154432817554131e+00 -5.115866197610287047e-01 1.574664762023839160e+01
-5.917017012498845929e+00 2.439558715582638815e+00 1.244039067598893666e+01
-6.125578587779167528e+00 -3.961821461643848075e+00 1.441153274160486575e+01
-2.216888746466481486e+00 1.680917809043108058e+00 1.124719416119472726e+01
-2.375571191469680432e+00 -3.460343139390610556e+00 1.474754611923196990e+01
-2.518070178285247707e+00 1.690076632013382429e+00 1.098122967652061277e+01
-6.096337537371480764e+00 -2.996708440578274679e+00 1.299788371421629307e+01
-6.964223095392649832e+00 -8.848568283212933094e-01 1.564059340500138262e+01
-2.341313287547087896e+00 1.846625122245006079e+00 1.615177058700052726e+01
-1.163829375880044648e+00 9.990770167119805700e-02 1.554749040492700374e+01
-2.951740482091964601e+00 2.961540516466728556e-01 1.187404189656314202e+01
-9.206403115180044061e-01 -3.843071932240305077e-01 1.272551263498551322e+01
-2.728304764322729170e+00 2.502436854562437141e+00 1.205291334644822854e+01
-4.930599944299380866e+00 -3.162613465760227838e-01 1.590773814780132511e+01
-4.946015851236310823e+00 -4.621851160668484226e+00 1.412297238031438695e+01
-5.385413449702570077e+00 -1.234544473195816616e-01 1.595067341581599862e+01
-4.948775670433763096e+00 -1.042623935232723786e-01 1.593901552256127019e+01
-8.213952872798758742e-01 -2.413486020730557069e+00 1.455863245262882089e+01
-1.912325467570088700e+00 -4.611733484280936546e-01 1.203716479144352292e+01
-4.018005758711756137e+00 -3.855607876518554633e+00 1.458940976663810574e+01
-7.609273963576036470e-01 -1.050442329158852939e+00 1.484487910691142787e+01
-4.335323198740030470e+00 -8.093945576459523616e-01 1.260176907651226230e+01
-4.181436885645853252e+00 3.195927507688510083e+00 1.188119839091371688e+01
-2.321305515123725183e+00 7.302979098874281538e-01 1.151579492580669495e+01
-2.533814258847520318e+00 1.156042669717759486e-01 1.188432256583306668e+01
-7.683502087640843303e-01 -2.612468619415929449e+00 1.357399685892836061e+01
-5.340861137961412375e-01 -1.990993134769917239e-01 1.428850006751539325e+01
-4.963843380126302662e+00 -9.843984286480659263e-01 1.575427357252350902e+01
-2.747554259976250801e+00 1.109675414256486303e-01 1.193762637896080747e+01
-2.506385461004283499e+00 3.222585172174337598e-01 1.177564400418066271e+01
-1.952127233527826800e+00 -3.868739923680607262e+00 1.278893780137340741e+01
-3.324536530687701941e+00 8.560401357460944993e-01 1.599625107914471300e+01
-6.946743026529098586e+00 -1.483889860819084916e+00 1.553419828801202129e+01
-3.756585590368393124e+00 -4.623699979470947241e+00 1.410479616764665423e+01
-2.333631380128677879e+00 3.140350799416146144e-01 1.175528461428888960e+01
-1.095129420952450694e+00 4.549662764182456631e-01 1.272748505245711215e+01
-6.425024886469238972e+00 2.282068199408215925e+00 1.394635212645027877e+01
-2.973316815173010053e+00 -9.470161309743626576e-01 1.574104963082478292e+01
-6.141446096458016868e+00 2.102476739166656117e+00 1.588364496605126419e+01
-2.309436961743061456e+00 -2.349897944881643941e+00 1.284702328003908889e+01
-7.327129889626990966e+00 -4.723698140411181079e-01 1.544461314687791287e+01
-7.051540609266975235e-01 -1.543680751493935466e-01 1.347424143550305331e+01
-7.886648350241493688e+00 -9.431563028675492566e-01 1.240262362491233006e+01
-3.344551700701795305e+00 -2.543059024855136574e+00 1.302728358090475069e+01
-2.581150505939784789e+00 -4.188536722726167838e+00 1.288573622321689527e+01
-8.275139889226277301e-01 -1.360895408803964646e+00 1.310079446842465245e+01
-3.304262781850611841e+00 -9.118610248194020107e-01 1.262977292630640136e+01
-8.242198151069533907e+00 -1.940806986349725705e+00 1.295204064393315946e+01
-8.022525212686119289e+00 -1.067754739202817493e+00 1.469490591260530721e+01
-6.549462231170251947e+00 -4.973797964376095448e-01 1.207402005046256477e+01
-2.972338616988286830e+00 -1.744550790359310710e+00 1.288888000083125718e+01
-2.192443174041670773e+00 -2.167414969278204762e+00 1.276026207997385598e+01
-8.164925321207517683e+00 -3.497988280819495088e-01 1.387195003052215014e+01
-2.553085859902865629e+00 -1.922152357787003218e+00 1.283908890047990070e+01
-7.939346969137850429e+00 3.686419256035931014e-01 1.449357487780756770e+01
-1.960260580113219353e+00 -4.420195529161272674e+00 1.304214000965784948e+01
-6.158969157709599962e+00 1.084770738822413705e+00 1.591513055705136992e+01
-4.751229334735973531e+00 -1.142839515133767136e+00 1.281401599168533778e+01
-4.499657679141085609e+00 2.946547792627771667e-01 1.201126879564898076e+01
-2.128565965758823619e+00 2.523583723169266602e+00 1.529962735151103459e+01
-2.696931369182425264e+00 3.012403814013141279e+00 1.447567847783426487e+01
-2.538315276988083458e+00 -3.176278001155377062e-01 1.590324343893679071e+01
-6.117281677411101626e+00 1.471210956745872878e+00 1.591364665250646482e+01
-1.735171215910698450e+00 8.718726701542285351e-01 1.597603522189607617e+01
-6.210104558990132695e+00 -2.736512773613001270e-01 1.215864058981524209e+01
-1.919931078523222645e+00 4.650701340837529729e-01 1.166810863843753765e+01
-4.344993032994358906e+00 -4.515029546896770718e+00 1.312923722604756449e+01
-7.284123703449780329e+00 6.914749555940955528e-01 1.533377839176879576e+01
-6.348980546670619063e+00 -1.299902612076354380e+00 1.565243778100797556e+01
-1.945930342022164528e+00 -4.211070521056351268e+00 1.287004143768643871e+01
-8.028272038087461482e+00 -1.427834009427000783e+00 1.252536087890665328e+01
-7.432132586730234358e+00 5.293871990557255103e-01 1.520676452332240558e+01
-5.298262049021379205e+00 3.196492609848904376e+00 1.596488586699074830e+01
-6.550750275628015373e+00 -3.957024400543628140e+00 1.286500083129802618e+01
-8.266369044007234379e+00 -2.174484007811353425e+00 1.338791825044049233e+01
-7.356497248546894241e+00 -1.134142952875048405e+00 1.207470949121464088e+01
-6.707333636313395964e+00 -9.158865431049122430e-01 1.218983833642396775e+01
-6.439607038586644627e+00 -3.152852430655229465e+00 1.481863555092834872e+01
-9.639560948087293468e-01 -4.219503517683445004e+00 1.347497518124573901e+01
-6.364452753884059177e+00 4.692810762929157664e-01 1.587967892399324654e+01
-6.473650949958160261e+00 -9.439087787619894199e-01 1.240881094602695356e+01
-7.776384511351133177e+00 -3.232681729309662355e+00 1.433079749751821907e+01
-6.576074241055227532e+00 2.397536483602842328e+00 1.542389194626723992e+01
-4.363781620864288335e+00 -1.189895315237899265e+00 1.277722815159007297e+01
-4.534014674820968871e+00 7.460563092403083019e-02 1.214703465507762559e+01
-6.369137735801138511e+00 -4.061219185442410229e+00 1.432533033725092508e+01
-6.567919671039293306e+00 -3.660279388587716731e+00 1.452827182057553301e+01
-5.749000453037043989e+00 -1.119524155033345458e+00 1.573003544927176733e+01
-4.569317901119865688e+00 -8.567821789452301218e-02 1.593184959832852599e+01
-8.166875436561653601e+00 -1.467816761290492877e+00 1.425194568949586937e+01
-3.363450286991787053e+00 3.253837283422039484e+00 1.628153552461161979e+01
-3.691054539301850568e+00 2.861337840590948201e+00 1.621777937467633990e+01
-3.340887585601651555e+00 2.874324698724641358e+00 1.623344760123313080e+01
-3.376779232237227646e+00 2.733605957618260085e+00 1.067569938325876677e+01
-5.726413493072247007e+00 -1.678616260049265563e+00 1.553304903918861157e+01
-4.733687883316272327e+00 -2.769063062953508458e-01 1.590864360440193082e+01
-8.323951653093559777e-01 -2.381102059193292764e+00 1.322069502556630027e+01
-4.745377209139079788e+00 -3.353383337333546876e+00 1.296599861485344007e+01
-6.943259434191725532e+00 9.116161622241256701e-01 1.557752919972020322e+01
-3.930879992806685319e+00 2.461472165991043681e+00 1.615859605691619549e+01
-1.551145526664735153e+00 1.260362584629596494e+00 1.318849316588449483e+01
-6.355245565067238367e+00 -1.935702557892553521e+00 1.286170349832342907e+01
-5.748073709094184025e+00 -4.402137532543754617e+00 1.304620350216764280e+01
-5.542985251642055466e+00 -4.286326578176885782e+00 1.295236974556475218e+01
-4.863091171029114257e+00 3.223342045163392733e+00 1.537636995801781126e+01
-7.655958429179552382e+00 9.688390835865247075e-01 1.317438806989420641e+01
-7.839957878436092820e+00 -3.651524323135291183e+00 1.394877293901141968e+01
-6.296099050503298322e+00 7.126727690471417187e-01 1.147950730261455021e+01
-6.537623688418353396e+00 3.901927626376655023e-01 1.160151391279099897e+01
-2.872868956240008931e+00 -2.190600065573116595e+00 1.531537033561387062e+01
-8.166243793618162883e+00 -1.316199034103159082e+00 1.281970207168946985e+01
-6.528405980762236993e+00 7.330857387111832102e-01 1.149041635547100526e+01
-7.703106073857865610e+00 -3.622289998831654145e+00 1.413229627149089396e+01
-5.752411017633222379e+00 -4.232746897513898432e+00 1.429515460878190680e+01
-5.555662695213450242e+00 2.968481462712566077e-01 1.600101150473319933e+01
-2.770606208239924761e+00 1.122697523575281853e+00 1.130309710478868368e+01
-7.538733701261145725e+00 1.175857248114394071e+00 1.317654134184397918e+01
-1.941247535518257683e+00 1.102989617637261777e+00 1.605370094251622248e+01
-8.949261272729297501e-01 -1.981031751054968648e+00 1.299725588739881488e+01
-3.562191061792012281e+00 2.475460694201964795e+00 1.616232865481094194e+01
-7.554640268537498926e+00 -1.279616217069775352e+00 1.524906716564832010e+01
-5.129484429597399142e+00 2.868470469258394218e+00 1.187166977103730403e+01
-8.034420850288167770e+00 -2.376266951631508029e+00 1.247319160204350652e+01
-7.383459069880392356e+00 7.264394803096564379e-01 1.189187928232043134e+01
-1.522774792498304386e+00 -3.807026155606652473e+00 1.464309964416121090e+01
-3.737991702830251839e+00 1.309730998574600402e+00 1.603971013251882738e+01
-7.529365388357402544e+00 6.773864781921075107e-01 1.196596538120796538e+01
-2.169204094677991357e+00 -4.450813902976559433e+00 1.421860609730740066e+01
-3.518447671907810825e+00 6.658559480492165505e-01 1.169283307650047732e+01
-6.539582014757988837e+00 1.559454592084067226e+00 1.138035265255824413e+01
-3.916556038381425520e+00 -1.539309596730135343e+00 1.288297471250989901e+01
-2.130704386603649247e+00 -2.766164086343611217e+00 1.280812253831434333e+01
-6.309432490045334241e+00 2.217819390546771352e+00 1.302311124020344124e+01
-2.924827948787644960e+00 2.026297672230950919e+00 1.068282286107186607e+01
-7.762340377203075903e+00 -1.640019395470094565e+00 1.501733656485852464e+01
-3.754433263251362174e+00 3.116804402402620244e+00 1.129163402935843408e+01
-7.658073719880378327e+00 -3.213546797059373183e+00 1.446684367036955621e+01
-7.528885810904544229e+00 -1.852057259696298086e+00 1.518218537595141271e+01
-4.132584361323537792e+00 -4.968385199740172453e+00 1.382936507517695190e+01
-1.342626949704230910e+00 -3.063822743507327306e+00 1.497367428389748767e+01
-8.337760020912742931e+00 -1.809214099456658342e+00 1.336295044468738524e+01
-8.949608460169053981e-01 -2.948999415334027097e-01 1.516598647069717032e+01
-4.350876825238763068e+00 1.056984450391991404e+00 1.603187597231842432e+01
-6.766975369343890101e+00 -1.672908936012841519e+00 1.241357289140078990e+01
-6.785827891298776393e+00 -1.913006272091029469e+00 1.246052522839382704e+01
-5.961068628525543645e+00 -1.511188131514247690e+00 1.290804995884746376e+01
-7.547168776383643696e+00 -1.076916875219388281e+00 1.526709809476527369e+01
-7.956735968832496120e+00 -2.306886117071317077e+00 1.244800889733849658e+01
-4.557249563689519611e+00 1.293683827115139184e+00 1.606009102955613344e+01
-8.239828421603911934e-01 -1.864279817154507857e+00 1.479951798971813304e+01
-7.764035427296561487e+00 -2.708606997847193387e+00 1.255190849808069942e+01
-7.984862568239520009e+00 -2.706829318671467366e+00 1.257905988145573417e+01
-3.133856628383631104e+00 -2.825649667743475479e+00 1.302492291337613040e+01
-2.103260896572872518e+00 2.373800648813648273e+00 1.465119951453759484e+01
-8.276470741833765743e+00 -7.996893861247039714e-01 1.345001348835781840e+01
-5.725874350914364364e+00 -3.388590154979525870e+00 1.296738177392889213e+01
-1.154547919203670947e+00 -3.716936442322542611e+00 1.275444891336898223e+01
-5.336512823923004412e+00 2.759890878922552471e+00 1.167023354843799865e+01
-7.159141092448145116e+00 -4.079380220480873120e+00 1.414825200951928963e+01
-6.584113362898444954e+00 1.343439850488750587e+00 1.133431018576415283e+01
-6.699564486707999755e+00 1.132861118119349975e+00 1.140504806920926484e+01
-1.732292552832714438e+00 -2.959186537540360318e-01 1.586605380999015580e+01
-7.104699800963402367e+00 -1.122029087523070956e+00 1.555165330560243575e+01
-3.360307603629074436e+00 2.945652154212158980e+00 1.167860938502668944e+01
-7.533420887607719330e+00 -1.872883707290255551e+00 1.227531391623173818e+01
-7.363917472951363230e+00 -2.139093959031280523e+00 1.236820529024174675e+01
-7.246215926059431212e+00 -1.951078126939234991e+00 1.231327571995450398e+01
-5.949199905624058538e+00 1.270230441607975491e+00 1.597042281801447672e+01
-5.545869887705770829e+00 -2.658654783161132684e+00 1.512424032524365458e+01
-5.359008668602004199e+00 2.181497452454551844e+00 1.044481034475691317e+01
-3.141010254905553190e+00 -2.579548352444195558e+00 1.302120449061762031e+01
-8.134630017044232053e-01 3.215225599122740752e-01 1.476751743149932139e+01
-8.115378924907201252e+00 -1.664079285999124913e-01 1.287711323831397436e+01
-2.358969148203375887e+00 -6.948195764252439455e-01 1.584403500098611772e+01
-4.189010337267174755e+00 3.242073253604179639e-01 1.196043411554103386e+01
-1.288134954763693329e+00 1.176370893608080559e+00 1.459775237851764729e+01
-7.566729664318232906e+00 -7.140866018847115138e-01 1.207052235496416870e+01
-4.391512596547307190e+00 1.173929935924384882e-01 1.210053197229157007e+01
-7.576693829267696856e+00 -3.296354481862578956e-02 1.516231598784874990e+01
-4.508018571703246380e+00 4.819458333862011168e-01 1.189312094777886841e+01
-4.202533137580189759e+00 3.095180572684549158e+00 1.055022836224808458e+01
-6.736687226464170841e+00 -7.027806531875829821e-01 1.574320265281055953e+01
-4.309091705387862348e+00 5.853769707303299041e-01 1.180308540877921075e+01
-6.180241722581065744e+00 -3.074277529450645918e+00 1.487727169035324692e+01
-5.507493586759750315e+00 3.109567657470007074e+00 1.600111158952218915e+01
-7.346847730001845100e+00 1.450792876732905690e+00 1.341377025909570619e+01
-4.741205747506121781e+00 -1.494434805485332696e+00 1.292466599455259768e+01
-4.551939625417532831e+00 -1.740126399535391055e+00 1.295847112954536584e+01
-3.132125155757101265e+00 8.920624437285773478e-01 1.149413654046957589e+01
-7.940269844659002096e+00 3.930663859536946969e-01 1.351440252551386578e+01
-1.966602502175635703e+00 -2.940242629958246035e+00 1.273477417657603183e+01
-4.340663167440475867e+00 1.254619253346255014e+00 1.604857201826850144e+01
-6.354490669446160922e+00 -1.019900182646957809e-01 1.588519470702136260e+01
-1.909275645215352313e+00 -3.356546884344670634e+00 1.274137404506459603e+01
-5.738525245296123067e+00 2.627533444753820557e+00 1.345649370923568000e+01
-4.528688574268397105e+00 9.538562892682450611e-01 1.153657866927699160e+01
-4.146995219535379640e+00 3.233053608772197496e+00 1.467779287667575971e+01
-1.932064352684929265e+00 1.316833594113805628e+00 1.607480253609573850e+01
-5.671117826667896544e+00 2.477778069273150585e+00 1.107794936262131813e+01
-8.232699549482331847e+00 -2.189906279623460517e+00 1.294345788243560946e+01
-2.136441275481968383e+00 1.480183458440802458e+00 1.611074901389186920e+01
-2.999127767413511947e+00 2.658774391487131794e+00 1.167627155962181718e+01
-5.376855391396913930e+00 2.772629743914230005e-01 1.599932988349593899e+01
-8.261028600960358403e+00 -9.831821404593322766e-01 1.304802049518966101e+01
-4.944759055501679157e+00 2.837086140239901244e+00 1.003293017296398659e+01
-5.188527730991968845e+00 2.543917599921464712e-01 1.599108565500646506e+01
-7.408712477084201886e+00 -4.251734901596367244e+00 1.388571781477753575e+01
-8.065596827767768318e+00 -2.078508792031553476e+00 1.247623965742860719e+01
-1.739798643858373461e+00 1.451659076987569907e+00 1.280464242992965040e+01
-7.049760464554322148e+00 -1.436849253860534859e+00 1.552116224242884357e+01
-1.552812430710927893e+00 -2.350964218270275907e+00 1.251235465397110858e+01
-6.540383272386076641e+00 9.031938736293392278e-01 1.578824046391793701e+01
-3.946909604358061152e+00 -2.395881900758367600e+00 1.302617504286727268e+01
-1.951187520863520763e+00 -2.272732850730488252e+00 1.532555257102761459e+01
-3.923728361706103840e+00 -2.959598404347604017e+00 1.503216671849055075e+01
-5.692374180824510965e+00 -2.826157208709034308e+00 1.305210533179693044e+01
-4.145676483735953433e+00 -2.184388109389753474e+00 1.300913677943827196e+01
-3.553253430070518526e+00 -1.276197660622888641e+00 1.563329415956015112e+01
-8.791561382457901974e-01 -1.779689091751356145e+00 1.302237149013131301e+01
-2.960520857348436952e+00 -1.954816432092645773e+00 1.293554383062006963e+01
-6.793647158524500629e-01 -1.434877442852462881e+00 1.425344918926258941e+01
-1.009611594711578686e+00 -1.264798198026638065e+00 1.526574648866417760e+01
-8.179628715051794785e+00 -2.041699098731600603e+00 1.420320846449417473e+01
-7.640981374740113408e-01 -1.203783838777770399e+00 1.326069018673343436e+01
-3.159583379869700170e+00 -1.819083809257211470e+00 1.293543074536538029e+01
-8.119157943301676283e+00 -3.552453363994831914e+00 1.333666726901392252e+01
-6.387925868361593373e+00 -1.033370088113062302e+00 1.253869783971806839e+01
-4.144904684338827749e+00 1.799493501208387691e+00 1.082774660867516303e+01
-1.735286148494279201e+00 1.622057981586066511e+00 1.362028948347651891e+01
-5.556562652196613605e+00 -4.590131474416597079e+00 1.322905467932689305e+01
-6.335219907281906870e+00 2.283554159801916672e+00 1.581080332115355702e+01
-2.155352828902751483e+00 -1.344980761634646083e+00 1.244985616579862153e+01
-3.568273687520813198e+00 2.891913515057762396e+00 1.073401625955223082e+01
-8.171174889545635978e+00 -2.798596854989458649e+00 1.376464325198460870e+01
-4.920056217763945305e+00 2.628698915815074866e+00 1.006486217714704523e+01
-4.337530763574481973e+00 -3.558404415444142543e+00 1.290994345897729545e+01
-5.136868654327645167e+00 2.410737391345038727e+00 1.023500717749728750e+01
-8.253628763307009564e+00 -2.357813124120232473e+00 1.373008260150046311e+01
-5.523121945616622064e+00 -9.625257549948301738e-01 1.278152249088409320e+01
-5.100130674618851501e+00 2.742696282941102570e+00 1.006706560739603162e+01
-6.527175125894144614e+00 -2.630309015503994319e-01 1.193493202087154970e+01
-2.120861403737851258e+00 -4.319607163672258388e+00 1.293260498558265681e+01
-6.376576324497224668e+00 -2.787230419872751552e-01 1.204596418191019325e+01
-4.557454753455862928e+00 -3.674004083190268055e+00 1.469887733139928798e+01
-3.140601639320681038e+00 1.660212556524207184e+00 1.608166148705572596e+01
-1.898620643890250870e+00 1.466177112177306174e+00 1.198405734395502265e+01
-1.199599755129728607e+00 -3.089232649264658459e+00 1.489116376136167474e+01
-6.363223994390921234e+00 -4.764590982430329191e+00 1.344503944561416375e+01
-8.451152622447550833e-01 -1.727631366980446614e+00 1.311188694570491009e+01
-7.947862881704502946e+00 -3.346340345562893503e+00 1.275486850474947431e+01
-6.608001119009950797e-01 -1.413339483030826127e+00 1.407327015704507289e+01
-6.438311104893060799e-01 -1.347055668992367838e+00 1.396423437653112387e+01
-2.911093888379773453e+00 1.937496317125916967e+00 1.075399500944616804e+01
-2.695986624897702466e+00 1.796842161709644170e+00 1.087138118171927559e+01
-4.983986490907541089e+00 -3.334590237962716586e+00 1.297895532966222021e+01
-3.112024582328400513e+00 1.705462069772629707e+00 1.092172009186340276e+01
-8.236310673890532286e+00 -2.436947286993818018e+00 1.375086232006403009e+01
-8.294836809619038576e+00 -2.157941306860211572e+00 1.358730929533161458e+01
-8.085593613580936534e+00 -4.502966267905692543e-01 1.448054242066434938e+01
-4.846241753877100322e+00 2.920683090183975317e+00 1.011841393522265875e+01
-2.718980869655637900e+00 -2.142191952113625231e+00 1.292756310734171166e+01
-8.784856222435039053e-01 -8.743855184109871059e-01 1.512127611200192234e+01
-7.731917591391218814e+00 -3.025485962200470613e+00 1.264878939985690209e+01
-2.514470141890641663e+00 1.342812015941417414e+00 1.116739134599663430e+01
-8.178711568256174402e+00 -5.569512807739845917e-01 1.286562963308163177e+01
-2.348397480585460606e+00 -4.738971116775418935e-01 1.210848876365619020e+01
-8.177116908377890070e+00 -7.570999393573912828e-01 1.281506108711609215e+01
-4.331905443368653685e+00 3.152341803097720607e+00 1.209811168969275741e+01
-6.522096714982861698e+00 6.833144693053821994e-02 1.584090069362900977e+01
-1.814235521503280379e+00 5.750547553536767831e-01 1.163885949422556365e+01
-7.822199657598470246e+00 6.690823991302579099e-01 1.351366503932067076e+01
-8.259590449815942037e+00 -7.941579527374383884e-01 1.324772816667299224e+01
-3.531647551505863625e+00 -4.248565315033532741e+00 1.432597421457969489e+01
-5.782202269907116055e+00 2.971923428366293862e+00 1.586963273179883771e+01
-6.755259129312086941e+00 1.496321428522082275e+00 1.177478597819663264e+01
-1.973433534226710195e+00 -1.055926295796402181e-01 1.593547299586067822e+01
-5.129526071041804691e+00 2.890329995508157168e+00 1.326495922416913942e+01
-4.956462365797887237e+00 -4.805824650321280700e+00 1.346741032786695058e+01
-2.558644368084342258e+00 -4.624776261946264455e+00 1.323914637322035759e+01
-7.755606212135091937e+00 -7.104182223964999876e-02 1.493039527659355059e+01
-6.493288182104206108e+00 -1.293671971319787506e+00 1.255798374519283556e+01
-3.178241247562925142e+00 1.127976997660415481e+00 1.133453632813949952e+01
-6.152395310130945205e+00 -3.769395652317946599e+00 1.286532736938224986e+01
-1.697614805508034008e+00 -3.407396512790430432e+00 1.485197969362253900e+01
-3.969986209304738001e+00 -1.518396088167774494e+00 1.557259135998340582e+01
-3.187694038293820142e+00 3.432127039385676870e+00 1.526697163454928585e+01
-5.311757980189490524e+00 -2.329560573645558907e+00 1.528197252435655429e+01
-3.156702326689043048e+00 6.800824129409848151e-01 1.598326927133985720e+01
-3.726615369191109028e+00 -1.906734160881748519e+00 1.543008689283705337e+01
-6.779907071539636121e+00 -4.697591966604776736e+00 1.331903268085533654e+01
-3.539781789154101244e+00 -1.901482678712415719e+00 1.542331894266939685e+01
-5.569680213907608923e+00 -1.896196516638886553e+00 1.545076186076105529e+01
-8.002809987703054517e+00 -2.247816569046102497e+00 1.460287502670114890e+01
-4.187121934932928724e+00 -4.704186645219487595e+00 1.332355677820397233e+01
-2.127822382313223404e+00 3.208389951505199456e-01 1.173577990029778562e+01
-2.350787334994775435e+00 2.882910505236716325e+00 1.606999749324632631e+01
-4.950676905983427467e+00 3.136215835697502285e+00 1.509040570772832268e+01
-7.543971442605680089e+00 -2.919215563947419323e-01 1.206906869559548312e+01
-5.552869357808992490e+00 -4.424612397756535032e+00 1.419973478656537225e+01
-6.941192165564411098e+00 9.221463830835421316e-01 1.158915914885334075e+01
-2.559047872413033442e+00 -4.562038857246102364e-01 1.217721917609091520e+01
-6.929476091440033514e+00 4.738970030413361401e-01 1.167960891473386198e+01
-7.083908502227417969e+00 1.288612577571482953e-01 1.177694360065333257e+01
-3.004733154084164859e+00 -2.660357548728687238e+00 1.511776290563436476e+01
-1.287349255056333241e+00 -1.309508347255028404e+00 1.551791370869592868e+01
-7.936296108560622065e-01 -1.463790698789539935e+00 1.485554236592404465e+01
-2.555711038391451861e+00 -1.501073553703561103e+00 1.559078983601820312e+01
-6.977445113094758788e+00 -3.623165590187714891e+00 1.449013074766456555e+01
-7.346920474201983353e+00 -3.804225921286765733e+00 1.426029639900887958e+01
-7.354339307185722596e+00 -3.457058257512737764e+00 1.448518540869047655e+01
-5.749091348325107376e+00 2.179866073936792326e+00 1.061443738561649042e+01
-3.949364168495643757e+00 1.462038272935766159e+00 1.605739790427662683e+01
-7.559186963544506810e+00 1.509643481204680504e-01 1.514103451587570248e+01
-5.552901873028056379e+00 2.865494915402445830e+00 1.600855996909294277e+01
-7.884810612889066483e+00 2.625462737294238513e-01 1.251862523214749245e+01
-6.018573953554322564e+00 3.957588468579638086e-01 1.175684974111671721e+01
-4.525153878636708704e+00 -7.022998637699527924e-01 1.581465566124985855e+01
-1.690210300928145060e+00 1.636972379521524967e+00 1.400204590884146683e+01
-7.499851918240257653e+00 9.028248808554757421e-01 1.236356996819699816e+01
-2.499748408989453274e+00 -7.982407677019665027e-02 1.196829453585158376e+01
-7.129279911768642286e+00 -1.843351719081382623e+00 1.229080969311635130e+01
-6.919097481064579114e+00 1.494973353706563479e+00 1.554040927914464731e+01
-6.143909537296845080e+00 1.762635504275323672e+00 1.095216181272193978e+01
-8.770166774444703162e-01 -3.222674070120719936e+00 1.413459252234201102e+01
-3.154044901840507897e+00 -4.889498237477906351e+00 1.355704548177055102e+01
-7.721341955114570332e+00 -4.089874298482791382e+00 1.294899340684649758e+01
-1.563406600209989117e+00 -3.660571300310365039e+00 1.472632128981609867e+01
-6.156999663486610430e+00 9.462290485494916359e-01 1.137693688309908424e+01
-4.554709268435264136e+00 -4.392877341852737594e+00 1.302756048542725154e+01
-7.864464934809844543e+00 -2.730250119566789424e-01 1.483972751926543765e+01
-6.135373386303744958e+00 1.121405638297842788e+00 1.128925872817514886e+01
-2.153770224106990483e+00 1.676911859970568575e+00 1.613377150865531462e+01
-8.688219698735023533e-01 -1.871860132040963354e+00 1.489234464449136652e+01
-2.772504244018840325e+00 -4.869082560437115070e+00 1.389588044319754090e+01
-9.808513619866361388e-01 -5.480536687015757913e-02 1.530268818775387274e+01
-2.968247813379408129e+00 -7.129338873292497825e-01 1.579842837363096919e+01
-7.627460595716342162e+00 -4.208480059117534200e-01 1.516787447809170430e+01
-3.718053932011034401e+00 3.106854678198205932e-01 1.594689229372143302e+01
-3.174939368949431628e+00 -9.204418330157392303e-01 1.573740436797692155e+01
-4.556817799858995599e+00 -4.145601682551331990e+00 1.286838635102242279e+01
-1.206034486775101833e+00 -2.597193702951380079e+00 1.510681026312121134e+01
-1.011157663070550106e+00 7.107801887332165780e-01 1.518171834822292254e+01
-1.324446197303380979e+00 -3.167783419321267280e-01 1.212344214465209546e+01
-4.749113859543768967e+00 3.160278003967403215e+00 1.488568055731749951e+01
-8.184309529253237514e+00 -1.521115723861937052e+00 1.281701903157581057e+01
-6.368067690862956987e+00 -2.556058463098974887e+00 1.292957933811711513e+01
-2.261263866379432663e+00 2.735394948068020415e+00 1.568655329598498582e+01
-3.534056933758713992e+00 1.354291740095769025e+00 1.118419857976306275e+01
-1.708340362873583373e+00 1.788265789746041001e+00 1.461477483075719164e+01
-2.907053116582148267e+00 2.886807838882396116e+00 1.308004524510121769e+01
-8.135793193538624068e-01 -1.144425687902386635e+00 1.310464050106523359e+01
-7.400081675720761254e+00 -4.491085520371551176e+00 1.368292347372400997e+01
-5.932704158562154717e+00 9.422464818526629093e-01 1.140393253502775650e+01
-5.730142322064367022e+00 -4.164482020764815218e+00 1.289866346998146440e+01
-5.945768911306076987e+00 -4.367376274387980928e+00 1.302144385342769084e+01
-4.167525995542625594e+00 2.470395706045819928e+00 1.616104020431411215e+01
-5.937562075156463059e+00 -9.038483589557216868e-01 1.269792404638118910e+01
-7.941633485402226356e+00 -3.985903081082878607e+00 1.346822101699738283e+01
-1.572426659158881357e+00 2.831834901323597165e-01 1.586288992056804403e+01
-4.929411759575544671e+00 -3.558300919831314690e+00 1.292554430821267886e+01
-5.727292099662806280e+00 -8.965135123991493371e-01 1.273078354745458540e+01
-4.929641321782971097e+00 -1.691772917901400497e+00 1.553806161934615204e+01
-4.337474441813009562e+00 -3.148201994670469794e-01 1.588976963925557584e+01
-3.717980770479936137e+00 1.457446426820552254e+00 1.605320757105534568e+01
-4.336285730383584003e+00 -4.955143025908803622e-01 1.243704714448204385e+01
-5.869633474129233974e+00 2.291472891158242042e+00 1.105312374646825191e+01
-3.733644991756882803e+00 3.290491675688528961e+00 1.308956213933259249e+01
-4.967714957007040688e+00 -2.949857098068334960e+00 1.305031346604990716e+01
-7.893840882646752988e+00 4.755661568348670265e-01 1.329064823911539150e+01
-7.482185007577432323e+00 1.364532188260667578e+00 1.358404846006431654e+01
-2.715265971677165435e+00 -2.926290077721566130e-01 1.214355585172439334e+01
-2.530727942451742152e+00 -5.874903138283767978e-01 1.223666788719811649e+01
-5.196579827333662749e+00 2.826719311216501218e+00 1.145045537239501243e+01
-2.740648892183438434e+00 -4.082249070123555867e-01 1.221851759885876731e+01
-2.040576027503357537e+00 -2.410077294064724374e+00 1.271429323557219249e+01
-3.307950558530148744e+00 2.819907339153174153e+00 1.124129732729064557e+01
-4.533495329050881040e+00 -2.553841830058446227e+00 1.304026126393207363e+01
-4.680141104012932374e+00 -6.417583721096465910e-01 1.256928292895869959e+01
-3.725633311190478025e+00 2.690558900330807024e+00 1.619078490522350933e+01
-4.111454959717443458e+00 -4.503577874490414246e+00 1.311368085125831584e+01
-3.717999987673812790e+00 9.066091030829281916e-01 1.152423115434365997e+01
-5.741228477173280886e+00 2.515844125313235757e+00 1.184094899410919766e+01
-7.365358446464910891e+00 -8.731944332196320824e-01 1.542133254644910068e+01
-1.067865919887495796e+00 -4.262543284744854333e+00 1.393175677042366090e+01
-6.101922255265339601e+00 -1.728704962508663456e+00 1.292811605725928104e+01
-3.743001798592859863e+00 -9.695717000567892763e-01 1.266283109445357269e+01
-5.984594372453729605e+00 -1.741999396758332264e+00 1.295617201073227420e+01
-4.713901955366479157e+00 1.977939009395596859e+00 1.062387276072145781e+01
-4.334434754310475313e+00 -1.133325516486335394e-01 1.592127271568996605e+01
-3.016194418897612639e+00 3.281875833690240718e+00 1.437331476953115583e+01
-4.872456611574386365e+00 3.084086951558713263e+00 1.619050470652911855e+01
-6.470669329038324591e+00 1.866358614476407940e+00 1.182593180510472308e+01
-3.552088560734549372e+00 2.348203263051875211e+00 1.039672095872359847e+01
-8.108965856699684949e+00 -6.546478305106918638e-01 1.446868755803988194e+01
-6.921211736894311350e+00 -2.964501128041695743e+00 1.487089303263057616e+01
-2.387716232210389311e+00 2.541125942807710647e+00 1.387178867757917544e+01
-8.007330236119035050e+00 -4.438366144545908831e-01 1.468234149429252255e+01
-1.535777340056767581e+00 7.510022457917281402e-02 1.190815388185498591e+01
-8.076982878089157936e+00 -3.572592358265863854e+00 1.350408682158497697e+01
-7.999805894110620486e+00 -3.786908011751482839e+00 1.353219308346027816e+01
-2.738163016179702591e+00 -3.792386817848980129e+00 1.291318779883778234e+01
-3.901165704447500548e+00 2.110883973088476306e+00 1.056870985171254063e+01
-1.253349839949843947e+00 -2.919414830635931768e+00 1.499920375616128609e+01
-4.129449525900554363e+00 2.021970554131481190e+00 1.063220620263302152e+01
-4.732545405479826606e+00 -2.942794083867849686e+00 1.303878621823216122e+01
-2.922798664384722578e+00 -9.819077386586355649e-01 1.259361368987379137e+01
-4.831172264471724098e+00 2.939200930207122031e+00 1.023442784791649984e+01
-3.128663158416012280e+00 -9.452026480533449737e-01 1.262208672817121169e+01
-1.215197834374954100e+00 3.053004285183270605e-01 1.221964325989225131e+01
-6.135907799656552086e+00 -4.167563422526186834e+00 1.291673920027805877e+01
-6.951124069345342882e+00 -3.737423505764917664e+00 1.281869831638501012e+01
-4.953772446569998600e+00 -4.420643634824158674e+00 1.425491821993874453e+01
-5.351940521786971772e+00 -4.619980725068849381e+00 1.326542955302734583e+01
-5.369141513173325997e+00 -4.494594954767501704e+00 1.312873905927435914e+01
-3.897204828291342071e+00 2.327122868234273945e+00 1.038752050449593867e+01
-3.956358051997618475e+00 -1.093472816437147888e+00 1.271798474611054530e+01
-8.020886830350514307e-01 2.849534355490318527e-02 1.333535422050036345e+01
-5.739400760147957747e+00 -1.457181749738739818e+00 1.561673094413965401e+01
-4.324430966844547086e+00 3.067727557093005597e+00 1.026549917181385396e+01
-6.531563642074653231e+00 -4.406914929951899040e+00 1.407792755451731637e+01
-7.371000929800680446e+00 9.257181636106414091e-01 1.518225953468306244e+01
-7.356031900227179676e+00 1.129580593399967636e+00 1.516651023915068208e+01
-3.747215877568320419e+00 5.437378678318089964e-01 1.179499733731207556e+01
-3.552852473184958448e+00 -8.130446127398310852e-01 1.258882268705236385e+01
-1.788359968425159208e+00 -4.317300280680273161e+00 1.295361986163990053e+01
-7.477416435329168110e+00 7.144320409203817057e-01 1.510144106706606948e+01
-6.546004372132967930e+00 2.319291585218232310e+00 1.445300953419832979e+01
-8.190264942476783716e+00 -1.124870076846474998e+00 1.287979887381634114e+01
-8.274672735770202792e+00 -1.542949460201893164e+00 1.303484449823805846e+01
-1.108583485170974381e+00 -3.664423011302269551e+00 1.451660705205684110e+01
-1.168411763524443536e+00 -1.717123255403991244e+00 1.246052810865933935e+01
-6.635588969160060913e+00 1.703842650916153723e+00 1.570058203321796242e+01
-7.127393430726812085e+00 -2.476950178147533599e+00 1.510563144391430512e+01
-2.528496360907825036e+00 1.549243873898585644e+00 1.106070223702650424e+01
-2.162975278894505138e+00 -4.174082437667849810e+00 1.285951425592178765e+01
-3.143168932921776904e+00 -4.635313110260515401e+00 1.407338526972780102e+01
-4.159061595922374011e+00 -4.180189839494512505e+00 1.288305419046971423e+01
-2.546459809795530216e+00 -4.321615084546061247e+00 1.293658354924060205e+01
-5.943169666600558898e+00 9.065075279103922412e-01 1.598033012222624905e+01
-1.921649107213255325e+00 1.480376376876430644e+00 1.608732334948549436e+01
-1.962117418383722889e+00 -7.161564418388034481e-01 1.212726217230767389e+01
-3.978306059625477786e+00 -2.714545799772374757e+00 1.513731273825018775e+01
-4.156620385419234509e+00 -2.690437201468051320e+00 1.515586171777234625e+01
-5.893246196287432070e+00 2.309168582931483638e+00 1.123871581964421296e+01
-6.742465732607538342e+00 -2.699825999153055989e-01 1.185759713047760755e+01
-8.996885367077889217e-01 -2.371730415435925998e+00 1.301288373122019948e+01
-3.926818638985397403e+00 -3.094616772093867763e+00 1.497245298303147365e+01
-7.761277865725296543e+00 -1.853350317868871500e+00 1.497898846905653159e+01
-7.154718143173237621e+00 -1.479144834351709736e+00 1.546691444925158976e+01
-3.911628960541521760e+00 -9.058022780499840332e-01 1.574658531235463244e+01
-8.036871108251197882e+00 -3.831450978032786558e+00 1.338791265637823358e+01
-7.889926350896413254e+00 -3.368079528340001350e+00 1.408520787205236502e+01
-1.756519666169743088e+00 5.768438638587225498e-02 1.591166362186783800e+01
-2.965385098162874211e+00 -3.534741943748850979e+00 1.295693102342863767e+01
-1.957058097535678165e+00 7.154852537705491677e-02 1.595099430472139801e+01
-1.931896450457101455e+00 -3.299072419276795065e-01 1.590203886945447920e+01
-8.231256070675801340e+00 -2.587143818601460588e+00 1.318586896374732476e+01
-9.608924905907563208e-01 -7.213873167672130160e-01 1.526421499966518525e+01
-2.378139927647293650e+00 1.080141658246739356e-01 1.596592540769960067e+01
-6.268408612842528704e+00 2.330768969779688060e+00 1.368511114287505848e+01
-4.151927356124236468e+00 -1.476436322163058534e+00 1.559191601685004258e+01
-1.297819082607065466e+00 4.932116950487777651e-01 1.214087441982601234e+01
-6.349092954079085693e+00 -4.391626972047300015e+00 1.412059855518091211e+01
-4.307077664884898738e+00 3.112494423683813682e+00 1.071154385659988861e+01
-9.512260622472843430e-01 -8.853306663885128769e-01 1.524203871244687747e+01
-5.724494522503282390e+00 1.019997080195890859e+00 1.138961128637173914e+01
-5.187323143142044124e+00 -2.566635802320384574e+00 1.307924087892262577e+01
-4.522762578343761497e+00 1.156129094178869998e+00 1.137105382117561447e+01
-6.538577703984471690e+00 -5.138465899724408148e-01 1.581298966696237329e+01
-4.326977434558052060e+00 1.334656278798428630e+00 1.121728702015014534e+01
-1.187170091281293693e+00 9.806553038903297326e-01 1.437009462775209556e+01
-7.331326330022756022e-01 -2.844519096284870985e-01 1.490340260246112081e+01
-5.574877053181622522e+00 -8.910931017687998557e-01 1.274686821406292125e+01
-7.582626803697406714e+00 7.553984327758328510e-01 1.495785825683879722e+01
-4.948004411901215427e+00 2.947677513770154079e+00 1.186926759611969828e+01
-7.553172167107623736e+00 9.280349731134314162e-01 1.495925197171431620e+01
-6.998105846145271869e+00 -1.535866067606109775e-01 1.180027433462412745e+01
-5.539197375887744634e+00 2.784327478530207678e+00 1.407492424566490286e+01
-5.925699960050827109e+00 -4.692731466737622981e+00 1.332653129783260937e+01
-7.894540655095082293e+00 5.847214192800013199e-01 1.433623075383647461e+01
-6.579851818789667739e+00 -1.098287055299643988e+00 1.569480755574360131e+01
-6.877861330377954552e+00 1.457874428246537679e+00 1.200214719053330015e+01
-3.952268300180719507e+00 -3.269450304576174027e+00 1.489172194038781072e+01
-6.353347556606240509e+00 -8.704262522950104719e-01 1.577513402128408870e+01
-7.570770235072255439e+00 1.168473118680132039e+00 1.437042497968960220e+01
-4.520978655458132600e+00 3.301601237491942342e+00 1.624974816116253606e+01
-7.735003300310408392e+00 -2.776928520111061616e+00 1.465889011407463016e+01
-9.445556957754338567e-01 5.383490309661036477e-01 1.435165676828754044e+01
-2.734340051761091850e+00 -7.029486084856463313e-01 1.581461322799935232e+01
-4.512379509150456158e+00 3.431231990216873751e+00 1.624558198712928458e+01
-5.383470259426228033e+00 2.084116391946419622e+00 1.610245747973933561e+01
-5.357389651774347783e+00 8.675575613732960933e-02 1.597818210249198501e+01
-8.526366265860062521e-01 -3.247861822163967904e+00 1.351007626297298714e+01
-5.134017241074855242e+00 -3.076158788438847047e+00 1.496756367594046111e+01
-5.923687604073985646e+00 2.907282479252039753e+00 1.584281934171367112e+01
-3.942523363904622880e+00 9.539356205447107051e-01 1.150040225438669239e+01
-1.664615298413360867e+00 1.144102554410701078e+00 1.218276774283189212e+01
-3.542923246843889373e+00 -4.243224917100824056e-02 1.216588021660010810e+01
-8.208970300955735766e-01 -2.889392317665990806e-01 1.504707201186180754e+01
-4.149764705502283491e+00 9.408199922895785772e-01 1.152095191693396004e+01
-1.062209827442034626e+00 -2.923052969934203826e+00 1.481489210953728275e+01
-5.703217862482403255e+00 1.233420202041844771e+00 1.123824041204095181e+01
-3.948497763882512945e+00 -5.794937500309466083e-02 1.217676165290956902e+01
-7.479203994169954406e+00 -2.229286813291954772e+00 1.510627137840227618e+01
-5.530453587050343067e+00 2.892484760785312581e+00 1.488667895569058430e+01
-5.944408969817933652e+00 1.338752393090732351e+00 1.116394353039694920e+01
-3.910363769534096701e+00 3.003191083088701863e+00 1.047315796436482671e+01
-6.149833878905827333e+00 1.372815751369550252e+00 1.115412714724514842e+01
-1.007497571570342476e+00 7.271755323250120862e-01 1.479894565194408074e+01
-2.163454319680530258e+00 -3.555794080667608048e-01 1.590866808704541313e+01
-6.148871471042010484e+00 -4.381924514242768964e+00 1.303727988055028675e+01
-5.562399940272044319e+00 -1.119162524097119249e+00 1.573019790078576108e+01
-6.947967897271454696e+00 -2.055160144676130951e+00 1.532415811835588215e+01
-6.945727211236000009e+00 -2.936027707967303613e-01 1.566774784366710094e+01
-4.362779505011201486e+00 -1.341135753392875163e+00 1.283148881591908008e+01
-5.740607863720303072e+00 -7.262090547597778167e-01 1.264899314111264061e+01
-4.544116875473088513e+00 -1.361044549961297090e+00 1.285741915057847962e+01
-2.642347764907880592e+00 2.002571826969095081e+00 1.070840341665461537e+01
-3.532996672763287549e+00 -4.319159522281038832e+00 1.295197031508677554e+01
-4.731044306517886433e+00 -1.329890172159525097e+00 1.287401142067196957e+01
-3.123929867310030861e+00 -1.542725257690039875e+00 1.285500116794272429e+01
-2.324569947363003042e+00 2.262277731505528688e+00 1.619828502180747876e+01
-2.340403181561445223e+00 2.484883581060884694e+00 1.622300781182730844e+01
-2.382822706454656547e+00 2.857693519086083711e+00 1.621753726323240841e+01
-6.945492713599438872e+00 -1.895238809003445990e+00 1.538888590481120389e+01
-3.379602881664325320e+00 1.068205158708534164e+00 1.601669971482876775e+01
-7.066116303436696278e+00 1.866266449785775716e+00 1.495530050084546048e+01
-7.284801226691867804e+00 1.212386204345767826e-01 1.542715267099950438e+01
-1.364377453582199307e+00 -1.463451366487223293e+00 1.231877239923233702e+01
-3.541918238918634110e+00 6.936791445050042304e-01 1.598020037477327548e+01
-3.163219582927659701e+00 -2.883531287737295390e+00 1.502531468640170687e+01
-2.942588788141385248e+00 -2.508586788109496091e+00 1.518065361667587609e+01
-3.120055303849821549e+00 -4.707253906225863815e+00 1.331386079686070190e+01
-4.133254410975626847e+00 2.672299550806875867e+00 1.008798862409956598e+01
-5.488894299096488183e+00 1.013109352541680330e+00 1.143912184016090094e+01
-3.967944139774066237e+00 -2.002557570677565124e+00 1.298467572675921389e+01
-5.385570082260779046e+00 2.243414204331575235e+00 1.610041594689156597e+01
-8.949970629645138676e-01 -9.489487352273920928e-01 1.285226764896093243e+01
-2.545397381658883518e+00 1.108019329195313762e+00 1.130062745715808603e+01
-7.122102035394188846e+00 -4.716633014091327958e+00 1.359839156063510046e+01
-5.695189466624028363e+00 2.056157341450390419e+00 1.603162785543039348e+01
-8.241646224671686838e+00 -2.400260063022978674e+00 1.320965321989554297e+01
-6.300516750228166707e+00 2.334794749505315181e+00 1.383587799688012865e+01
-6.779529471102903493e+00 -2.979380244868321093e+00 1.487892048356304997e+01
-6.476469108417694187e+00 1.368222430448741811e+00 1.124051611589392508e+01
-5.545994817546318068e+00 8.152233595559693624e-02 1.598187824188335782e+01
-3.125383653806586892e+00 -4.001873579878418852e+00 1.286048285073678699e+01
-5.305673807620648219e+00 3.056205247529962143e+00 1.529811506248250907e+01
-4.135059163812965011e+00 -1.185756599839262737e+00 1.275966425497930601e+01
-7.402553084489294832e+00 1.336420208666706744e+00 1.316940159203983285e+01
-5.955246143860229324e+00 2.350979083746418841e+00 1.181319653347500065e+01
-1.170394469731743659e+00 -3.347126312674781889e-01 1.230465791521852026e+01
-8.163364334553335766e+00 -8.271492386201629854e-01 1.422178847524113365e+01
-5.358185078563917791e+00 9.022790740849869762e-01 1.154547024753744466e+01
-5.507776455598620835e+00 1.323166076368916144e+00 1.119040355892285277e+01
-7.627773195172959042e+00 1.038511569956814373e+00 1.459335261448875087e+01
-2.546225485871518313e+00 7.259961593938791813e-01 1.153778834962170663e+01
-2.334772952252266442e+00 1.918318463382937544e+00 1.120728996238069897e+01
-2.922731977479827936e+00 7.338337507433703166e-01 1.157930097015113091e+01
-2.624078659531849933e+00 8.309088397625126188e-01 1.147676917647876138e+01
-5.570192742166159228e+00 1.300487015741274455e+00 1.605161023656688002e+01
-5.753823711010792152e+00 1.271717331905176884e+00 1.601741632975740970e+01
-5.387561837894081940e+00 1.690948655423634595e+00 1.609198602242221909e+01
-3.715467994779530159e+00 -4.786980046868458238e+00 1.398751643920351739e+01
-3.562336246745671176e+00 2.671407925645435721e+00 1.619355822723564842e+01
-7.744011527605472622e+00 -4.901259393745909243e-01 1.226588471849466089e+01
-6.738119561791688916e-01 -4.575406592832303998e-01 1.476146530487032749e+01
-7.221778536219904954e-01 -5.975640782035896992e-01 1.328349618567759194e+01
-5.763254469763699817e+00 2.629941911798130860e+00 1.364447242154734141e+01
-5.254478994057014241e+00 2.810735944210573489e+00 1.206788888158511241e+01
-7.157003178914876251e+00 -3.804337191365767978e+00 1.433461788656865110e+01
-9.999692845318154388e-01 -2.345239688396704381e+00 1.276565248831510502e+01
-6.932800391852899757e+00 -4.030382493103779495e+00 1.425503282542411654e+01
-5.386307551550102879e+00 -1.279111929268896830e+00 1.290538468780768255e+01
-5.941183728178391910e+00 1.971653896866644384e+00 1.077931073353905589e+01
-6.156079303082550247e+00 2.730523673785142158e+00 1.581065927394485726e+01
-6.177376024656053843e+00 -3.275056759382955374e+00 1.477568266280546538e+01
-8.704891172864893667e-01 -5.365277028377412050e-01 1.285495195873872376e+01
-1.360355782543238856e+00 -3.244812815436151965e+00 1.489745680920775328e+01
-5.936892098814495533e+00 2.575353251429707946e+00 1.405026151545348512e+01
-4.124315154888723356e+00 7.257596530763421594e-02 1.210440726912862175e+01
-4.760332901699658947e+00 -4.296358801254729798e+00 1.295160960607087475e+01
-5.939648738357019120e+00 -4.276489763199092131e+00 1.295729046874738799e+01
-5.780594962520590130e+00 -3.621883039336252885e+00 1.463132793678102672e+01
-2.974223408984598027e+00 -1.499003349111406536e+00 1.556835014868746470e+01
-1.958576017004324932e+00 -5.496166109855727955e-01 1.587040908683142248e+01
-4.370369133011366536e+00 -4.827957117144080712e+00 1.347018485529860499e+01
-2.170094674983452876e+00 -9.326692266608583859e-01 1.578731345297531163e+01
-2.141462647529025709e+00 -1.915548054905698017e+00 1.266285869230914329e+01
-3.091533837024011522e+00 -3.757407567206513477e+00 1.290382993549187063e+01
-2.153999015982379639e+00 -1.732050772134643424e+00 1.260406695893289708e+01
-1.595541921617167347e+00 -4.549339597590916107e+00 1.327360116271192680e+01
-8.215399173178848713e+00 -2.748290223996370685e+00 1.295436083621556378e+01
-6.369833844224864094e+00 2.118803579663099512e+00 1.262206213515189290e+01
-3.765317326575245982e+00 -4.438772872811787451e+00 1.422374981990448362e+01
-5.156628557919793465e+00 1.073830127682841584e-01 1.218390510158788942e+01
-1.701073327506340549e+00 -4.447317423838260453e+00 1.422712992335000592e+01
-2.351479540777714483e+00 1.280860414440221362e+00 1.608340908224953125e+01
-1.949241076645618742e+00 -3.900970331880377451e+00 1.456863174987591236e+01
-3.248784471780990390e+00 3.299751372063190580e+00 1.385849679325941963e+01
-7.139555652257974394e+00 -4.135114026526452768e+00 1.293258899660823147e+01
-4.330413986481707944e+00 2.401967424318314670e+00 1.028136035665496806e+01
-4.302116755358238009e+00 2.541151889704025280e+00 1.017259016719291864e+01
-2.301756428279930766e+00 1.372283701725955929e+00 1.120193390109615450e+01
-5.512373285450201443e+00 -1.018586785404552719e-01 1.595765307708239789e+01
-2.542053049747351690e+00 -1.895308909892841065e+00 1.544499210861406624e+01
-1.097130152672820547e+00 -3.073543964417185137e+00 1.479269135343218267e+01
-2.925080173693014984e+00 -1.757488996614415377e+00 1.547969141901808854e+01
