-7.634364792694896984e+00 -9.081389302970928057e-01 1.861109730666192519e+01
-6.308047985576933137e+00 6.827821307316872534e-02 1.593337136535244980e+01
-8.916715736644811319e-01 -7.939432959588137440e-01 1.384471482534846132e+01
-4.333901106665681624e+00 -4.183198912278903947e+00 1.663803491517676036e+01
-5.769409289963672194e+00 -3.012512072627899329e+00 1.920398181390896752e+01
-3.311368225437887780e+00 2.984513402142103367e+00 1.410060564459851662e+01
-4.447482867675106810e+00 -4.281997470677197271e+00 1.684622981913604178e+01
-4.453605001170982902e+00 -4.110746047607195308e+00 1.664508633950961070e+01
-6.625776129440670292e-01 -2.452507847004975261e+00 1.534718109332075642e+01
-4.070624439092635605e+00 -3.762681793060257629e+00 1.807622847666227983e+01
-7.826829732462145195e+00 2.108022289844001307e+00 1.526358142361506509e+01
-5.863445151015125312e+00 -2.688331415422767989e+00 1.716554914832464362e+01
-6.072785323396978185e+00 -2.163113594035143361e+00 1.715309947643735455e+01
-3.625856181285607160e+00 -4.254799965410036577e+00 1.631880685534522968e+01
-3.167771519792678792e+00 -3.374280159069612761e+00 1.557707126558046440e+01
-7.208566887748961705e+00 2.359202283995098792e-02 1.896821761600383383e+01
-1.573154049557245360e+00 1.319428686841242593e+00 1.349295603108825503e+01
-1.076113147864681707e+00 -1.798010467427391124e+00 1.399604977027171060e+01
-7.552829428069591344e+00 -1.843656970312258725e+00 1.865848166541287867e+01
-3.551696526071730808e+00 2.256528517942425704e+00 1.829896793137803002e+01
-2.085706079990320205e+00 -3.884610818830927403e+00 1.691288496118278317e+01
-6.277268691905767639e+00 4.162733253434336866e+00 1.704581066107878229e+01
-7.561095590501322405e+00 2.335460006673589994e+00 1.687153853911102175e+01
-4.650966383812562555e+00 -5.119888246783461661e-01 1.560548922200889166e+01
-4.409450163418111579e+00 1.822546349840110436e+00 1.268705855797382753e+01
-4.699879654778733595e+00 -3.409697017595602286e+00 1.853058747034911136e+01
-8.006869960009389331e+00 6.338216158161125158e-01 1.654448484815365106e+01
-7.849383514009336871e+00 2.809034853262514897e+00 1.600145828723771046e+01
-5.422412498961682203e+00 4.277196034701024274e+00 1.797456544469520878e+01
-5.825025365759831431e+00 3.922720422485052705e+00 1.793315985165563831e+01
-5.860985779405956109e+00 3.990358863257112976e+00 1.637824460127005466e+01
-4.277711591149878423e+00 5.361470816589090305e+00 1.761709409798600490e+01
-8.028139487963161791e-01 4.436047603751478441e-01 1.363347707093091543e+01
-3.446716466581932536e+00 -4.438218490194051569e+00 1.649132552068030577e+01
-1.388150980789450983e+00 -1.658525235059376879e+00 1.687367193789901876e+01
-8.103916374483677743e+00 2.243158231002211789e+00 1.599637594608990554e+01
-6.391520928998892792e+00 5.556192669478483559e-01 1.931202649147162020e+01
-3.690626600216881936e+00 7.722138473778890067e-01 1.341749076267448260e+01
-2.434260422679593638e+00 -4.361956738580733628e+00 1.664309997313916512e+01
-3.542401132514521489e+00 3.666856266787551721e+00 1.815136565863038243e+01
-3.034903287836197450e+00 -2.441352513297070814e+00 1.517038239733981442e+01
-8.020853738787931064e+00 1.276498083171799358e+00 1.639113543659128425e+01
-2.292332612642435041e+00 6.392584513560588544e-01 1.263342828587445155e+01
-5.350920821979367581e+00 4.212756070849001055e+00 1.806196691914654195e+01
-5.763581833780543562e+00 3.803992531927850695e+00 1.808176571630099261e+01
-7.956173612936674466e+00 2.427550165050819775e+00 1.606787682337583334e+01
-7.071114785768744859e+00 -1.904830087992922749e+00 1.770317257596507687e+01
-3.014654600066342116e+00 -4.232542631276347223e+00 1.591743213360005171e+01
-2.435009634449594618e+00 4.043233688659920944e+00 1.747146074088809797e+01
-4.438542590691652912e+00 -1.218162034614172384e+00 1.580229786417995541e+01
-2.085048090744551441e+00 2.480880363223142648e+00 1.733414416879119813e+01
-3.262823162514287390e+00 -6.189748138354844720e-02 1.380057782235617481e+01
-6.894787625558683075e+00 3.178755397691128248e+00 1.718574375493869866e+01
-6.311272449261164930e+00 -2.434947018125057205e+00 1.954281861539605814e+01
-5.520121719571512209e+00 9.917125646394631122e-02 1.577322374631972934e+01
-4.369296199566036876e+00 -9.885497499651014763e-01 1.889826746777511346e+01
-5.135999640647399112e+00 3.056133812677863215e+00 1.451719168753785283e+01
-3.943762069027047623e+00 -2.577534710658753614e+00 1.844738764997487124e+01
-3.504672083300595542e+00 -1.484169784922717117e+00 1.520155795599796278e+01
-3.989589422882159120e+00 -4.244354941062880471e+00 1.650400242343221180e+01
-6.353807845118638831e+00 -3.653212009604765331e+00 1.885927686981398921e+01
-2.620540947336564397e+00 -3.012595004100432128e+00 1.753967679194857254e+01
-7.713840472863665809e+00 -1.199385368742437619e+00 1.829942190525301271e+01
-4.102608091158042036e+00 1.572157114750752926e-01 1.474144181366665407e+01
-6.040335813516500174e+00 -2.886012660245977912e+00 1.733925070381642541e+01
-5.146234585044640930e+00 -1.207455037664416198e+00 1.936695736154040759e+01
-2.617990903123246227e+00 -3.688906565657692038e+00 1.530066035087902065e+01
-4.382322297950026702e+00 2.618331000925567587e+00 1.873225844866162504e+01
-2.478747628670699754e+00 -3.730097954855736919e+00 1.525990542763598512e+01
-4.704751732869781655e+00 4.221120548246631188e+00 1.617027537300906204e+01
-4.281624584665304489e+00 2.090035384669372220e+00 1.257841099649205319e+01
-3.971488690121022458e+00 2.659464182252568865e+00 1.852380179425612994e+01
-7.118982792983073793e+00 -1.380280688231608988e+00 1.724999976277594271e+01
-6.310437040376069895e+00 2.509593176991330665e+00 1.421537537831236619e+01
-2.661959794501071563e+00 -4.357384341693869345e+00 1.604976483459510206e+01
-7.314648261558450493e+00 -1.367715397132592825e+00 1.728504168725787338e+01
-2.865898277892958923e+00 -2.851878118459627576e+00 1.514794155569713041e+01
-1.301638003886533834e+00 -1.100336335605714755e+00 1.681059556845610814e+01
-1.476637440829008607e+00 5.110282335784972485e-01 1.690144703992093156e+01
-5.310380920276174699e+00 -2.115492002717303421e+00 1.674883067345530918e+01
-1.391032469432242680e+00 -1.400152443767815225e+00 1.688373490007055722e+01
-7.903458499604302467e+00 6.902379626840524640e-01 1.595403331483579024e+01
-7.080126718829609089e+00 -2.151930228974683335e+00 1.788981533271326185e+01
-3.369265637639396349e+00 4.092901804502057317e+00 1.798330542447232006e+01
-7.159622144983724290e+00 -2.648967535353392577e+00 1.909633259873436373e+01
-1.273929881860900615e+00 -1.300778819299867717e+00 1.678834837739763231e+01
-8.896145037189164828e-01 -1.272667367403068406e+00 1.641120323939733083e+01
-6.120079288378905247e+00 3.530213590097642573e+00 1.797080676538358546e+01
-8.900191451814096766e-01 -1.668641939743831681e+00 1.638816634136790640e+01
-5.262055743576082634e+00 8.439204681025813670e-02 1.945065271307613131e+01
-1.510536199441520511e+00 -1.106057593656774696e+00 1.695740114380630104e+01
-2.631742408270946409e+00 -4.386786004683720819e+00 1.615686218478731462e+01
-4.890224901974419502e+00 2.013251363797876614e+00 1.286132938866776243e+01
-7.894740367542227411e+00 -5.970043984258415204e-01 1.750547265799751528e+01
-6.053402544715458689e+00 -3.528213470975963606e+00 1.769055938817503204e+01
-3.389291210770200902e+00 -3.416579760877234140e-01 1.435468873972330073e+01
-5.856126649103363668e+00 -3.509751635876084297e+00 1.748807776316812124e+01
-5.672849319505445465e+00 -3.704522012971262601e+00 1.746950136523341257e+01
-4.747969306470395168e+00 -3.118866854162606339e-01 1.556523805911783853e+01
-4.943739173288015820e+00 3.719065824679887111e+00 1.548109689739124661e+01
-5.546591594290728899e+00 -3.580940443960993758e+00 1.724479101629098210e+01
-4.042389833642425323e+00 3.399190819944200026e+00 1.842254615401233053e+01
-6.237366833204675665e+00 -3.312353511106763015e+00 1.772447043087680640e+01
-6.332179621944689529e+00 -1.827483815720894800e+00 1.964034940744318902e+01
-5.942010212708409789e+00 3.146925890724860508e+00 1.503538517474402880e+01
-2.042968320001502303e+00 2.964705775823595069e-02 1.286056597626469511e+01
-2.581191122378860392e+00 -3.525100269979228873e-01 1.308213976775520848e+01
-6.964954081192454849e-01 -5.771006172643193821e-01 1.403345505868463761e+01
-3.296943307257626188e+00 1.214922869625613799e+00 1.812538531131437480e+01
-8.411040396965556720e-01 1.626551656958387326e+00 1.486932070067510381e+01
-6.285909283054751384e+00 -2.170092397357444192e+00 1.959899306775974992e+01
-2.124993197343423290e+00 2.838183693737770241e+00 1.485269945114529122e+01
-5.920357142070264977e+00 9.551272351239843417e-01 1.499114413846159977e+01
-7.671029601837362044e+00 -1.222420022525409378e+00 1.848271423400630908e+01
-4.551373353336621186e+00 2.021302708268376769e+00 1.888105015432544320e+01
-5.876428506256983653e+00 1.598491731655341752e+00 1.404940253316348020e+01
-6.003702975414845433e+00 1.605128521863978364e+00 1.408881511626533012e+01
-6.109004640461006552e+00 -3.749833847301271117e+00 1.878412649037291970e+01
-7.601204011543799766e+00 -1.404820553791780835e+00 1.870712253048029794e+01
-6.281320028307587400e+00 -2.352719301498039872e+00 1.731231057994887124e+01
-5.072720192928659166e+00 2.146923501519515831e+00 1.308437642569565895e+01
-7.220834185812283756e+00 -2.737813667636651349e+00 1.847812182073176501e+01
-5.751447806044106770e+00 -3.022314285052752680e+00 1.718408425802275730e+01
-2.467855929765826239e+00 -2.700409115123850956e+00 1.750407344555606670e+01
-6.496328609284493183e+00 5.212705106358273000e-01 1.927947824521048403e+01
-5.281584216249523678e+00 -4.104218250890751207e+00 1.802702485453846748e+01
-5.294292619921174392e+00 2.367334181615707411e+00 1.346960276494323949e+01
-6.838364023159267946e-01 2.126107306691509269e+00 1.631210627964821924e+01
-7.362872413662419291e+00 -2.410783507372945778e+00 1.847666930547881492e+01
-7.786290478810140137e+00 2.493576176910369036e+00 1.536561857744337090e+01
-1.620863200617046251e+00 -7.593266974236205780e-01 1.324984403071005801e+01
-8.263623070579402707e+00 1.407953181579573609e+00 1.610745050788953847e+01
-6.001216488756233147e+00 3.019508604905301041e+00 1.848008050355396392e+01
-2.045626482042206984e+00 8.780688441854387349e-01 1.263509317069831184e+01
-2.611742003314157401e+00 6.084703939041480325e-02 1.288025539386847385e+01
-7.283365002973621216e+00 -1.431348651248400383e+00 1.927424338684566152e+01
-4.995834925704798479e+00 -4.053512429117848370e+00 1.813472206046896673e+01
-1.654889793945638621e+00 -3.211713803418424718e+00 1.474935828723062770e+01
-5.384453123304627553e+00 4.432179794113064730e+00 1.788581888500276307e+01
-7.189950228714382163e+00 -1.471840082650146986e+00 1.934697370705566044e+01
-7.281212492245446199e+00 -2.390393360689434754e+00 1.828101646984168838e+01
-7.665675471502028770e+00 -4.102123800709291945e-01 1.846084896886645765e+01
-5.100083027805103697e+00 -1.961689895547859219e+00 1.657501250744006427e+01
-6.391133272428531242e+00 2.654657451931226042e+00 1.841086069060363428e+01
-5.732415029025524689e+00 2.420871285631896352e+00 1.377479295292383910e+01
-5.518305980663297250e-01 1.940528799368970159e+00 1.606457162799546268e+01
-6.472543233935671658e+00 1.392232350595279833e+00 1.442927005597560708e+01
-2.941793677118245132e+00 2.880608954776874953e+00 1.791824459450596407e+01
-3.150285034901258552e+00 -1.551248552106155643e+00 1.810979774633764094e+01
-5.598629379069357093e+00 -1.725292984856306333e+00 1.681230022350447229e+01
-2.928491178195624212e+00 -1.244664481600775918e+00 1.431670057219287884e+01
-5.926033773953376382e+00 -2.437321250518940552e+00 1.946807874042956854e+01
-3.272148969001003938e+00 4.004020117698294357e+00 1.583266320323995302e+01
-2.472615510333719513e+00 -1.830336964796631882e+00 1.389428871228258799e+01
-3.719929867154523340e+00 2.314743659945331711e+00 1.291208592622727025e+01
-5.634439194427860897e+00 3.266849144879321543e+00 1.853140078407380287e+01
-1.123276958428986783e+00 -2.481638569364209790e+00 1.655847746384792885e+01
-6.895438298246548747e+00 1.149778602760668900e+00 1.481825428024285429e+01
-1.698158620190274748e+00 2.406011642919041904e+00 1.467481143629687068e+01
-3.551509982292825551e+00 3.235869901399613724e+00 1.823043668485393454e+01
-6.509994167477219484e+00 -2.739685727178762686e+00 1.767666402454890573e+01
-6.751766357315264422e+00 -2.027949589851723022e+00 1.953044607538398481e+01
-3.245473028587022135e+00 8.169742587912182108e-01 1.281613120500480107e+01
-7.636612414754715417e+00 -1.542136637459611936e+00 1.788899740143398986e+01
-5.920897408767685555e+00 1.927665878534303268e+00 1.356035035721048132e+01
-7.248573363857459206e+00 -2.211618835185047871e+00 1.809720096743805584e+01
-3.395597808692305541e+00 8.617663769733427959e-01 1.291205800105198875e+01
-6.152136462385745297e+00 3.388369023920382972e+00 1.806804718195436266e+01
-5.383748691728023061e+00 -2.738568589917735441e+00 1.690041094689402001e+01
-4.584520261677137221e+00 1.062378978321785405e+00 1.396566122996066639e+01
-2.315393772579821263e+00 1.282312875250551043e+00 1.742898687356876763e+01
-2.628899048220205703e+00 2.651447493162691682e+00 1.402828371565757948e+01
-2.933517143118168136e+00 -4.587610271044177956e-01 1.355208018383165580e+01
-8.176816022408421869e-01 -2.270453369258989884e+00 1.618750595338976694e+01
-6.350842627424761133e+00 1.396377181076886131e+00 1.444936406436332987e+01
-7.648194367654092218e+00 -1.338334826254987675e+00 1.756493478987954404e+01
-3.474631048878862316e+00 1.120227806143794691e+00 1.274130955856946201e+01
-5.659898236674383298e+00 -8.314150652003926556e-01 1.962933709674263838e+01
-7.274520323268938604e+00 1.215613150098349582e+00 1.832282732727401253e+01
-4.600250609636765908e+00 4.714557416433400761e+00 1.798607663482683705e+01
-8.873389769141599714e-01 2.513903780121388709e-01 1.349320850276684070e+01
-3.881764013657806878e+00 -1.498665108238001586e+00 1.549763734815145000e+01
-2.797137886928664496e+00 -1.425278218852129353e+00 1.416414861682034854e+01
-6.289211689169863284e+00 -2.723384751766039447e+00 1.746950992553955473e+01
-6.683720301971029620e+00 3.068581348726585389e+00 1.525669703687033518e+01
-6.473005352410627466e+00 -2.363500890739298477e+00 1.746323706768497885e+01
-5.986023431112310611e+00 1.667935475053376360e+00 1.398499522338077838e+01
-6.399514688464465806e+00 3.935914960167683496e+00 1.658885548336509430e+01
-5.493978637395838582e+00 -4.021372792388401507e+00 1.825060739792626663e+01
-3.598094986111100013e-01 -4.584230799303694592e-01 1.500457544771930429e+01
-9.062683455300390989e-01 -3.058981433061324307e+00 1.511862689276659921e+01
-5.669720687186809549e+00 1.801331185845034266e+00 1.361337095562625876e+01
-1.460327150756336234e+00 -1.879267894379774706e-01 1.319341016955038270e+01
-4.442094761310285911e+00 -3.733272240982858481e+00 1.635047912541845250e+01
-4.242490523930588786e+00 1.051228634882984014e+00 1.876652727482156280e+01
-4.196164582101300056e+00 6.224758602174204070e-01 1.875871852410691787e+01
-7.762922866590396431e+00 3.910496225850509378e-01 1.795447508120163604e+01
-6.711313684481548414e+00 1.473663284635660986e+00 1.436733103208779028e+01
-3.991266812461998548e+00 4.411986952890437408e+00 1.806626828727885226e+01
-7.507427931522112630e+00 2.120022387989654589e-01 1.853878210365346035e+01
-5.106979650473851606e+00 1.108154920581880809e-01 1.555744767796193173e+01
-6.433552946994447908e+00 -3.544565011393276510e+00 1.810115530826912789e+01
-5.947625302482607346e+00 -2.052172587992374897e+00 1.957226217145046832e+01
-7.388169233286226323e+00 1.629875091062316095e-02 1.877789629126918669e+01
-6.488680746433217017e+00 -1.991286061328312762e+00 1.733164135241172943e+01
-1.752437194093863448e+00 -2.344188141442516304e+00 1.708585589427269724e+01
-3.390284364157037267e+00 4.705050220807844852e+00 1.780111159551600508e+01
-4.167841641206851300e+00 3.459229817216112224e+00 1.844888016073275594e+01
-1.921022456354654295e+00 -7.077433739970029336e-01 1.719651462947854981e+01
-4.430451484823777264e+00 -3.598301380629723045e+00 1.832407981308015366e+01
-2.517921510234275573e+00 1.795140963548123025e+00 1.284951861888830393e+01
-3.249560650182252708e+00 5.857304306497216340e-01 1.301356205658638743e+01
-7.206599279075179609e+00 1.853519090213781251e+00 1.801335333299034858e+01
-4.840259877055667737e+00 -3.089539862280758609e+00 1.649661004923183327e+01
-6.609655583192659556e+00 1.000768327521014411e+00 1.904486570203215479e+01
-7.669864944800429463e+00 -6.169430605827979086e-01 1.848975535784837376e+01
-2.731940221981041805e+00 -2.458496262344076477e+00 1.473917698033106660e+01
-3.949761561907490837e+00 3.450683112433790889e+00 1.837292976259028165e+01
-4.922286018072204783e+00 -2.118641121149866358e+00 1.647799048837585900e+01
-1.249456690491609123e+00 -2.626450857086244817e+00 1.435578357536972050e+01
-2.904564683321132268e+00 -1.836696102488256876e+00 1.468720575174687326e+01
-7.935352191882365069e+00 8.633486892419418579e-01 1.714505185415878685e+01
-2.923581275212865371e+00 -1.059101049573432984e+00 1.414251348013510778e+01
-5.264329467291673836e+00 -4.058865987581858903e+00 1.744809398105383025e+01
-5.286009661816019722e+00 1.535700675495835998e+00 1.382557487282504383e+01
-3.302619274384212211e+00 -2.553894908736663361e+00 1.814510038977586248e+01
-2.854953989571914708e+00 -2.430259458873709200e+00 1.492652940062910716e+01
-3.771179291933400179e+00 2.619719543371347381e+00 1.841210750375186933e+01
-5.990018331985973443e-01 2.391745191362959044e+00 1.607768963035904619e+01
-6.808902412482598088e+00 2.887614102391697912e+00 1.770870796299247019e+01
-3.809523228109592097e+00 1.017445680261945373e+00 1.322793901090361146e+01
-2.947465535213221521e+00 -2.446990320703948285e+00 1.506729404186854282e+01
-3.661351624090993795e+00 -4.449009699847135124e+00 1.664347304350774692e+01
-5.288153792915526452e+00 -1.090605672000880544e+00 1.637921530454950414e+01
-5.700610999486856123e+00 -4.023400841593769428e+00 1.800247257121565525e+01
-4.762794250900132198e+00 2.248792412521952944e+00 1.891998495491492349e+01
-2.241091992758878604e+00 -1.180921666074683962e+00 1.342778891124840612e+01
-6.974414947617090021e+00 2.895298241977231957e+00 1.743174445839387232e+01
-3.345867893272275406e+00 -8.860016549379876594e-01 1.473000539319337321e+01
-4.242692930111979344e+00 3.448818119740769683e-01 1.466032429430784845e+01
-4.838150135920807671e+00 1.722372750660519758e+00 1.319061332011757770e+01
-4.271582955164416440e+00 1.652513652538931122e-01 1.484489515058776021e+01
-1.567502467603413274e+00 1.727123944093215124e+00 1.393608398124916903e+01
-1.337803458856880789e+00 3.116175678585867193e+00 1.614632885024308706e+01
-1.337038197756508451e+00 3.338196516617892851e+00 1.672178161018543108e+01
-3.209405130376143500e+00 3.829578619991673705e+00 1.558857606651007899e+01
-3.509741077449506808e+00 4.369823642469479630e+00 1.626377774129434073e+01
-1.660401018543689933e+00 -5.931876179850010811e-01 1.317954132538282153e+01
-3.323135121931284797e+00 4.178126792763428909e+00 1.608509155064447071e+01
-5.150600943200553949e-01 1.720785183833125842e+00 1.588056804742983275e+01
-2.200364666412160997e+00 -2.752305095071711172e+00 1.439490782150475212e+01
-7.377663105943239152e+00 -1.829880375044468543e+00 1.783463337200889498e+01
-2.186747143912485480e+00 3.482042872030203906e+00 1.735162146974421660e+01
-9.580478642738461392e-01 1.323096771711165687e+00 1.434237767694762766e+01
-4.987388068071231473e+00 -1.417419168054823597e+00 1.925823273971516869e+01
-2.368230590678712666e+00 -2.528298102785274448e+00 1.746622173463045868e+01
-2.494843984891788491e+00 -2.517051397421751879e+00 1.755441414301540703e+01
-2.871174675363978857e+00 -2.020236396663439571e+00 1.473334313041661403e+01
-4.674110414770002997e-01 -2.199855982940996935e-01 1.424027384397613361e+01
-6.342202167750861541e+00 -2.267743405310977511e+00 1.957565825566621243e+01
-7.473911479558454474e+00 1.490907387269524431e+00 1.497432520447598137e+01
-1.940283545728237691e+00 7.804207928195583399e-02 1.716881045572356612e+01
-6.143781341209330726e+00 1.183688875233365412e+00 1.918692801860252928e+01
-5.145661826061315836e+00 -1.432147255965447563e+00 1.934392893230020860e+01
-5.019197567134299653e+00 9.905952712657417614e-01 1.446743914699064248e+01
-6.351361482525834212e+00 1.466730420589822614e+00 1.434404623710054949e+01
-4.352206110189537291e+00 -1.102516502915215080e+00 1.567461750469403370e+01
-4.971042602133520560e+00 5.012455133720578715e+00 1.754276929424673170e+01
-1.647957368580486692e+00 -2.779044445158611154e+00 1.437395369595730443e+01
-1.087849334693141268e+00 -7.622361788964360230e-03 1.341873763878546555e+01
-3.362599446148458071e+00 8.455813898833959286e-01 1.817094637980466842e+01
-1.091625978396807861e+00 -1.820248455555353306e-01 1.345675964316512108e+01
-5.888728567251128254e+00 1.069490746731322162e+00 1.483777457460922022e+01
-1.230342702557383205e+00 -2.834358437746648640e+00 1.454070283305900091e+01
-1.730358064503763060e+00 2.790523276182285128e-01 1.704420667638351716e+01
-7.082002087535978596e+00 1.731207320108703041e+00 1.440377180571450566e+01
-7.702772786679888739e+00 -5.258711604223607061e-01 1.653732055475390439e+01
-5.897800014469549268e+00 -1.963748694338699696e+00 1.703262158673998528e+01
-3.162142751459692924e+00 2.058700442365887895e+00 1.807274333877338535e+01
-7.214135564793370037e+00 -2.617514932780763193e+00 1.835652381368834085e+01
-6.125840143999794485e+00 7.838843346824561076e-01 1.522853005906339519e+01
-1.651233212267659178e+00 -1.320958034692222505e+00 1.347259802948381235e+01
-6.291446075091003287e+00 -2.703243062199633950e-01 1.622461532233118930e+01
-3.149460692748715651e+00 2.485880818521594371e+00 1.806183998444069516e+01
-7.687494236550179494e+00 3.018168468280931105e+00 1.604460410183995833e+01
-2.471417123780201397e+00 -4.326652269204911860e+00 1.606798859597797247e+01
-1.348021717869810621e+00 -2.944975654480517235e+00 1.458152862523854765e+01
-1.305045972066327664e+00 -1.806736896862390473e+00 1.379057554232734617e+01
-5.839096945470243494e-01 -2.134674606389113549e+00 1.533649428554598870e+01
-4.679115187382022478e-01 3.712296681870730919e-01 1.443245513253226875e+01
-6.530359319715978828e+00 3.715135473574936675e+00 1.626690051339768672e+01
-6.757664550764855838e-01 2.357552665967799221e-02 1.381012476121212273e+01
-8.146569706938084909e-01 -2.844044206652367457e+00 1.515197869432637390e+01
-1.355680618236569712e+00 1.928700514583312042e+00 1.683964467989319047e+01
-4.703814496993290462e+00 -3.899400998602075230e+00 1.665310965608950511e+01
-5.520860725925301971e+00 5.292751246490523531e-01 1.537906116993548977e+01
-6.999998951274920778e+00 1.233202736064841432e+00 1.863208725929639797e+01
-1.900586877837489475e+00 2.104686541309780945e-01 1.284990148077519478e+01
-7.044451532808460925e+00 -1.192224972517916592e+00 1.941663488047029773e+01
-6.756614103771256374e+00 5.295076350463507886e-01 1.913615917495533125e+01
-4.996073687509733574e+00 5.003622132232290909e+00 1.766925135583186091e+01
-1.717141558048717487e+00 9.068807242048795292e-01 1.702865720579849551e+01
-6.499326860548380935e+00 -5.830597548612115322e-01 1.647973844615418670e+01
-4.990053705292502251e+00 3.209969706725413374e+00 1.867194997765835751e+01
-8.113512180975416044e+00 1.505991118342127955e+00 1.571071409637079341e+01
-6.746925492317942030e+00 -3.657369399991750036e-02 1.933298223541373773e+01
-5.047851034106258794e-01 2.993032033536580094e-02 1.406032062097759194e+01
-7.529808197783435020e+00 -4.198304973196980150e-01 1.872106822202077581e+01
-5.686099396494484814e+00 4.560278609629889068e+00 1.743188287181757090e+01
-4.306937062927729265e+00 3.816511542816610758e-01 1.885337365964065981e+01
-1.128461251350060035e+00 -2.887623848900044976e+00 1.650309550661980040e+01
-3.075141020896578148e+00 -1.205542342348334461e+00 1.456197828478572376e+01
-5.804016751018712839e+00 -1.447422361974658678e+00 1.962635216424500584e+01
-6.753313723145177860e+00 -2.423804379301409684e-01 1.938558093300216001e+01
-4.883076465675624256e+00 -1.064605628317396580e-01 1.554154415639498410e+01
-4.665976864678583524e+00 -2.796715320868773169e+00 1.635105397156849705e+01
-1.151563040143403827e+00 -3.251652145484340561e+00 1.646467912181861948e+01
-3.666332228293097462e+00 -3.304936032107281374e+00 1.583987082142785141e+01
-1.985761517929056197e+00 -2.282358090831763775e+00 1.724641798990720787e+01
-1.287945997147921684e+00 -1.475151018264779346e+00 1.679754471089152901e+01
-1.912667487584968740e+00 2.977717323871150512e+00 1.528151250255536553e+01
-2.665043427952303201e+00 3.855084316436419467e+00 1.765132820195031371e+01
-4.276295988850620233e+00 -1.905256042189713561e+00 1.594519915896935913e+01
-2.879126940899425335e+00 -4.472886112587563190e+00 1.665116484100158800e+01
-2.100582994019000616e+00 -2.120234416761696217e+00 1.733343907282499430e+01
-3.449351650749622689e+00 2.419494147317919897e+00 1.823684893071056479e+01
-1.459343134223225924e+00 9.225831428431052750e-02 1.689938382357068747e+01
-7.120071580220715290e+00 1.924182795026361026e+00 1.437906250847067469e+01
-3.951882374163531608e+00 2.114630037505615956e-01 1.859742003604899452e+01
-2.746081316627004387e+00 -1.251371010773842052e+00 1.389875442468724742e+01
-4.184529691504901727e+00 4.149984177775029037e-01 1.875983062752563058e+01
-1.678356091561590935e+00 -2.324751358269402157e+00 1.401250247634197876e+01
-7.315917526131286763e+00 -1.761403873575880130e+00 1.771206717609923231e+01
-3.290419314023678599e+00 -1.761725396457599846e+00 1.821022957036428380e+01
-6.796929725783502185e+00 1.626116161164663509e+00 1.862687390797161413e+01
-7.322593802377869165e-01 -1.013679401422871829e+00 1.417561009747994660e+01
-3.794542225480181052e+00 -1.427930919754840655e+00 1.851726285324761534e+01
-7.112716348130525112e+00 -1.622181668142112621e+00 1.747461768382091662e+01
-1.302055371226634728e+00 -2.467549260705772518e+00 1.673794069998535861e+01
-7.769712791663930140e+00 2.048444025697011561e+00 1.657842426959462045e+01
-6.239087899695974215e+00 2.675725975635601994e+00 1.852108171231832756e+01
-7.144310403302370993e+00 1.399275673015452304e+00 1.837753412677695053e+01
-5.024060936957812196e+00 2.847450234247820067e+00 1.881112753685448524e+01
-6.748471517892963512e+00 2.845056353264511451e+00 1.783959455203194722e+01
-4.176776828769940941e+00 2.617392664179670092e+00 1.863858944029311004e+01
-1.815294281218358119e+00 3.842166028766517361e+00 1.679957005517891844e+01
-7.809464804695095630e+00 1.424417161727749903e+00 1.717849982625175898e+01
-7.694503702837038439e+00 1.829429803923602993e+00 1.713376283134822131e+01
-5.072491841950499847e+00 -2.744097672700256840e+00 1.665515399035083988e+01
-7.840767446731018886e+00 -7.618604819148808716e-01 1.731330713975771118e+01
-3.687007886877267104e+00 3.219005050540920010e+00 1.426173890789141296e+01
-7.724480548415271208e+00 2.016100470059342342e+00 1.680386455337350782e+01
-6.375247054726487228e+00 2.218129720289036655e+00 1.866277833609211001e+01
-2.830498915511019398e+00 1.466437454769321080e+00 1.228011906145587062e+01
-6.764375793707976925e+00 3.528798009510701661e+00 1.607616801111946359e+01
-3.542346090399798086e+00 1.247342055226116964e+00 1.828796761518461977e+01
-7.324031573904027148e+00 -8.763924062822652239e-01 1.677552845453898556e+01
-2.523144676677040898e+00 -1.088983827540534577e+00 1.347621873286057337e+01
-6.723350413720170060e+00 3.223944249926217420e+00 1.744001711805228894e+01
-5.691300536575234048e+00 -1.088427939407461409e+00 1.658227670904156525e+01
-6.597572529252623497e+00 2.817097843249213085e+00 1.806115994934767599e+01
-4.323220496874014884e+00 -2.791410804427771009e+00 1.855984163200878356e+01
-4.132399469353540411e+00 3.051437673375300808e+00 1.854367281764539399e+01
-1.449299876559109412e+00 -2.781062984719142595e+00 1.441019897091187119e+01
-3.350413145972178874e+00 -4.567804021928461022e-01 1.439735886359675732e+01
-2.268800800621947111e+00 -1.987291973445647342e-01 1.293724013799339190e+01
-4.458669089795622931e+00 -3.025076797647351157e+00 1.855672372423438787e+01
-6.433352108936742475e+00 -8.201216527338348605e-01 1.960930464494725101e+01
-1.874051639674326530e+00 -3.840372137040013900e+00 1.531257192770041797e+01
-5.217200264827249967e+00 1.822914933015871375e+00 1.331386651717304659e+01
-4.322066290461902049e+00 -3.178213308103570611e+00 1.844761229726722007e+01
-5.306778117366690140e+00 -3.821909646289057161e+00 1.852099063745540519e+01
-3.277630013634511119e+00 -4.459055841039441859e+00 1.645292762504358564e+01
-7.486755476129080655e+00 -1.412624206178047626e+00 1.902111357617739174e+01
-5.139534400266748904e+00 2.473838107039993517e+00 1.893172597512905497e+01
-6.095753453199142413e+00 2.315375083994178240e+00 1.381426190268026488e+01
-7.376139722658075826e+00 -2.027075687222021916e+00 1.806642723532061012e+01
-2.334473951604710162e+00 2.879324039645491662e-01 1.741755895311331415e+01
-4.577804227792545255e+00 4.887421165469055140e+00 1.789151232976017525e+01
-3.259667492591346694e+00 2.182108282921034981e+00 1.284592275700309472e+01
-4.546494967555841704e+00 -1.552138401283688740e+00 1.603407137089828893e+01
-6.008187134699464416e+00 4.326415706245352766e+00 1.708690694786176323e+01
-6.585688171268109237e+00 3.668646398660746488e+00 1.710509586192887355e+01
-7.446399724634349404e+00 -2.208376356929876660e+00 1.847980682077496795e+01
-4.482759718614994782e+00 -2.100340777137680082e+00 1.614295609046296676e+01
-3.295021982951039430e+00 2.424540690956441757e+00 1.814830297432881423e+01
-7.302910138903745185e+00 2.000758046594282469e+00 1.774867626688717337e+01
-5.094337613921767094e+00 -4.177898099477134863e+00 1.743838496247129655e+01
-4.786954109990844586e+00 1.420651778334924842e+00 1.905910768322097226e+01
-5.083695286025368354e+00 -4.215626514700113958e+00 1.766431165723640362e+01
-3.022512826376617667e+00 -4.394053701041931603e+00 1.708667577046325192e+01
-4.472107232492685824e+00 -1.930696606816022065e+00 1.609706466119300217e+01
-5.121996168148355011e+00 -2.789029405877631262e+00 1.901535346020023098e+01
-7.341644951509899819e+00 1.795646453862513869e-01 1.876601846328718892e+01
-2.188509643651804559e+00 4.101539918898719606e+00 1.728039863799588716e+01
-6.940958809735888302e+00 -4.525136498253539141e-01 1.933949517179684108e+01
-3.143086003016701380e+00 -1.297703982805824552e+00 1.473114980665051377e+01
-5.935919656126314337e+00 -3.212307434214244584e+00 1.739349820219533882e+01
-3.702618486128411046e+00 -2.753523844957411537e+00 1.830708695934414720e+01
-5.680422666038994706e+00 -4.017443374859018590e+00 1.822275895861640294e+01
-5.119552706724551427e+00 -3.546790016388096323e+00 1.681714362156191100e+01
-5.083570284746801171e+00 2.415965234052618538e+00 1.345530549942370868e+01
-5.896619916301554909e+00 -3.215810889404509432e+00 1.913174588852617575e+01
-7.767122462620439372e+00 2.657532060181826417e+00 1.623102646057984799e+01
-6.698140133911181238e+00 -1.135685974763285477e+00 1.695255300997531833e+01
-1.242767560723748943e+00 -3.010975075953535196e+00 1.468553396476723094e+01
-3.284031437486523153e+00 -4.359072408924362207e+00 1.624898165374048631e+01
-5.405584355453726175e+00 2.211982949224646333e+00 1.901119345675860473e+01
-1.875377701606216085e+00 -1.502060743107756391e+00 1.719274731943067991e+01
-3.957415042722804976e+00 3.832712103468606912e+00 1.826672598627019539e+01
-5.069123861882853799e-01 5.516587376290127409e-01 1.566836473765223303e+01
-7.857323552259328103e+00 -3.899733925866006867e-01 1.790444892012094158e+01
-2.386156172810818710e+00 -2.795103455857514518e+00 1.452580472240964582e+01
-5.913118787085553052e+00 5.102827317760461057e-02 1.593641046995851696e+01
-5.734539189970763395e+00 -2.768276054168434808e+00 1.711607724341067893e+01
-2.654367233395401371e+00 -1.036212118704923357e-01 1.767469553530303017e+01
-4.367614829991413039e+00 3.625893406646006678e+00 1.844288573731734004e+01
-5.113110330520452607e+00 -3.782559425765966932e+00 1.847659216515550895e+01
-5.892852025728533505e+00 -2.950339738008236345e+00 1.725861635966749219e+01
-2.683869114171320014e+00 2.245355025071390509e-01 1.282864814804642606e+01
-3.125629156752376403e+00 -2.390578948074421284e+00 1.805896607893505035e+01
-6.744735114667014031e+00 2.998757658646143742e+00 1.517368059063672092e+01
-7.219411647273837218e+00 2.941932321558687669e+00 1.687137165077979262e+01
-5.719980314488456230e+00 -1.349955091588118661e+00 1.672259061087669352e+01
-5.920148722774844607e+00 -2.801955847602940253e+00 1.722780740461799098e+01
-5.566154571159088960e+00 4.655144456021639954e+00 1.747383167712496288e+01
-1.272730405018487332e+00 -1.015978038016421170e+00 1.353560350114320698e+01
-5.052997543228501254e-01 -8.147406967600976380e-01 1.583275411911638741e+01
-4.741619139553937323e+00 -1.559346243965202383e+00 1.909975822804364753e+01
-5.391065750963421443e+00 -2.102670782407914940e-01 1.951452893167503078e+01
-6.189489448752155454e+00 -3.227978205374212983e+00 1.763183201329555772e+01
-2.979770916034737649e+00 3.467689215271734238e+00 1.515749234894160224e+01
-6.139739009331716346e+00 -1.744090659251743780e+00 1.707807109963400194e+01
-7.303771242235197469e+00 -5.990097060047316901e-01 1.644918426321881810e+01
-5.943912116630493792e+00 -3.526670086508180813e+00 1.895413089740248580e+01
-4.706850066971110635e+00 1.761543838589211042e+00 1.301741288769130733e+01
-1.851282877752914668e+00 4.290519568359231761e-01 1.282023423734766254e+01
-2.469821121367602679e+00 3.046269707696967366e+00 1.759219002927935094e+01
-5.953812686049896996e+00 -1.793192584316790406e+00 1.701006331486784973e+01
-9.622253899445205594e-01 -3.565613084506552344e+00 1.590729103842735981e+01
-6.307983719477105566e+00 -7.128627141692032154e-01 1.656234450565236926e+01
-2.053852846720513714e+00 -1.001017082277853465e+00 1.331130992559899795e+01
-4.643009086831389354e+00 -3.135941691730854242e+00 1.635690677028888018e+01
-6.221504644271108608e-01 -4.557595252363344507e-02 1.606410323386258909e+01
-7.139027462571949201e+00 -2.393319065026283443e+00 1.809187772935597849e+01
-3.467405521639922217e+00 -4.304631189664197777e+00 1.628364905165723542e+01
-6.132939172624316093e+00 -1.219465405173080441e+00 1.968276643590223074e+01
-4.618717914491009324e+00 4.191859278558322188e+00 1.608497541599384562e+01
-5.670943592836255931e+00 -3.806832573035932921e+00 1.758086612924151382e+01
-9.504827276393210678e-01 -3.555663465591144767e+00 1.569591971732382518e+01
-3.126181447747485187e+00 -6.531954028254554068e-01 1.418114220219168686e+01
-6.321938941165771375e+00 -1.271019131722543882e+00 1.966284661207361495e+01
-5.751717249121905517e+00 1.806713154647783037e+00 1.908428063664253926e+01
-6.568980721028842673e+00 -1.235310431673261267e+00 1.960687778642793688e+01
-5.545430248357805070e+00 1.851282447133326237e+00 1.910391266562388779e+01
-4.637055667371090095e+00 2.787858733493853158e+00 1.877286237861513030e+01
-3.775488870450192991e+00 4.952834901918722110e+00 1.724632092320099730e+01
-5.906829352381278930e+00 -3.635735211223063867e+00 1.887116500794310525e+01
-2.488148828668090839e+00 -2.653337865550891461e+00 1.449886902464019300e+01
-2.475838667646680591e+00 -1.217742547610678239e+00 1.352714898723919390e+01
-3.509920680669716297e+00 -1.593654820254331028e+00 1.834704966451570840e+01
-2.687772087214408856e+00 -2.811169386577393237e+00 1.488157859191088050e+01
-3.098132822454831459e+00 3.768865810035045283e-01 1.302240273515364777e+01
-4.940411199085421146e+00 -8.997073801665333992e-01 1.606833050098070004e+01
-3.327385608410343476e+00 -6.568412845658921917e-01 1.453636498370435248e+01
-5.730410076978947664e+00 5.107596616983767213e-02 1.588960555953066489e+01
-8.628030022416446343e-01 1.443251070481710086e+00 1.462193671460234867e+01
-5.459757013453856445e+00 -2.122293979582623891e+00 1.684682000777891631e+01
-3.551015601960356705e+00 -2.564724388621436590e-01 1.452353081027271031e+01
-3.117245281274495294e+00 -4.675508278125160011e-01 1.397204399139086206e+01
-6.512959101133524165e+00 -3.369164104337099896e+00 1.803777211889974552e+01
-5.084732151227555619e+00 9.534586700648617352e-01 1.458152434710371637e+01
-5.359316822861458496e-01 1.554689460800379841e+00 1.606579641869276998e+01
-5.880454708226038996e+00 -2.876617462617521159e-01 1.618325739150840548e+01
-6.896209458910464107e+00 -1.753723407080136631e+00 1.749145683284523756e+01
-6.993097356021438227e-01 1.689215169950231799e+00 1.634357989362705865e+01
-2.872595639354570629e+00 7.834499525550914223e-01 1.262748316895529399e+01
-1.993228233353349310e+00 4.050171254839272983e+00 1.694911384498963258e+01
-5.668588595019905974e+00 -2.553297318538920280e+00 1.703868124043448518e+01
-9.363275656790350787e-01 1.768710550170395690e+00 1.487914462628599921e+01
-1.795987818237657407e+00 3.870990860592347982e+00 1.694692470975474663e+01
-1.868807561964024977e+00 3.593177567180175558e+00 1.624310560973616191e+01
-5.055075714588254776e+00 -4.188146600560374466e+00 1.784452304611053819e+01
-7.998776303948214483e+00 3.985659931301864800e-01 1.677107864110992352e+01
-3.058188616133092452e+00 -2.465544112300063206e-01 1.359051392096708355e+01
-1.696077202404618234e+00 1.802583422579905781e+00 1.385649132184990151e+01
-5.741701825334008191e+00 2.611672912198073071e+00 1.880968466860830546e+01
-7.298975388323063918e+00 -2.607806342560758939e-02 1.889590006471804884e+01
-7.546237149004224598e+00 2.854305348809274889e+00 1.641625178152249021e+01
-2.196589400052457286e+00 3.461203203041323562e+00 1.578095099054198158e+01
-7.663189906880091939e+00 1.209098094274177804e+00 1.769430598023626544e+01
-2.911445399103916198e+00 2.071033710558618068e+00 1.791986799384356033e+01
-7.360133209813599642e+00 2.623731583171140080e+00 1.701487250605703849e+01
-4.101350759797796286e+00 2.544765930888000405e+00 1.326727168851319050e+01
-7.543318905349342351e+00 -5.815417672551332906e-01 1.646630783794367403e+01
-5.387888379573390729e+00 1.974967283277853758e+00 1.907827070286460724e+01
-7.135146449338872543e+00 2.838042812216429844e+00 1.722189900089595938e+01
-7.468603016568004627e+00 2.395464748582020853e+00 1.704797565137939586e+01
-2.785059090285142425e+00 1.906331879014929731e+00 1.782857503699604962e+01
-8.472807306396354932e-01 -2.231376471235153591e+00 1.456465700693896537e+01
-6.849773070831920441e-01 -2.214855491697270473e+00 1.493939730213350714e+01
-3.597264160670364586e+00 3.047519978255700313e+00 1.827785621004482408e+01
-3.747155802890331788e-01 -2.276833429499249828e-01 1.516124176341512708e+01
-7.627763175900923898e+00 -5.540994438534174726e-03 1.842918164323701546e+01
-5.573541919904640984e+00 2.016834780115325465e+00 1.905209547104733758e+01
-7.142932442625155254e+00 -8.057122259215208082e-01 1.929363414574755353e+01
-1.132971470278732351e+00 1.523664314512003903e+00 1.669450162213028932e+01
-6.999735803939366896e+00 -8.270541936826276697e-01 1.939278812249083472e+01
-6.934407828416184749e+00 3.436545602714608627e+00 1.682869150210616738e+01
-5.055245686521468329e+00 -4.100311942185404845e+00 1.722959531017703938e+01
-2.490947470688959609e+00 -2.307196594674647105e+00 1.758559938623633201e+01
-4.160173392244321811e+00 -2.899008534319225561e+00 1.603712336398450589e+01
-5.295711786744735861e+00 -1.950823326868194041e+00 1.670505771946920248e+01
-4.720277520206365374e+00 5.114160344830088745e-01 1.483811792661263951e+01
-5.676384676939281171e+00 -3.897703714941871400e+00 1.769546112475415356e+01
-7.940690657863801682e+00 1.006902821635966561e+00 1.700676416301060812e+01
-7.203047775050797519e+00 6.168447357604531778e-01 1.872880749452806270e+01
-5.956245098621471890e+00 1.201263286647554995e+00 1.923072872795544441e+01
-1.306325409519287550e+00 -1.933101538116942741e+00 1.385115561438438192e+01
-6.882976001150233003e+00 1.724210340274637820e+00 1.419881848611846209e+01
-3.262832532715267853e+00 -8.645861693429097716e-01 1.460052583631419054e+01
-6.358866389637086947e+00 3.888605321324439590e+00 1.647015421129929535e+01
-1.239211515372968142e+00 1.787153480448906873e+00 1.676390650612705002e+01
-9.873419226714654773e-01 -2.221070162770123257e+00 1.431251087114615927e+01
-4.822288901264527361e+00 -1.960278297570153594e+00 1.636761030169900266e+01
-3.263138681697866250e+00 -4.316628898558844796e+00 1.728662611098964419e+01
-5.459308538480282635e+00 1.607856460139013732e+00 1.381996749109303124e+01
-7.392547592842288573e+00 6.059493046743364975e-01 1.850605088095546336e+01
-4.727705559289801407e+00 2.904239119714965511e+00 1.406718539883082286e+01
-2.056391590851093909e+00 6.612638728969923996e-01 1.268467384949305199e+01
-5.646938882435343920e+00 1.188491616579761878e+00 1.458556935200225979e+01
-2.107133022174539239e+00 2.586829870609402171e+00 1.447051334320731542e+01
-4.919407383919353727e+00 2.969048167398736116e+00 1.427527138889908542e+01
-7.316476186545810556e+00 3.354247162624795497e-01 1.873072348742540072e+01
-5.621585486171989388e+00 4.464048218663649870e+00 1.766444619064726851e+01
-7.143013425379751702e+00 -2.218120996595205785e+00 1.928685359452469328e+01
-7.740150004426291641e-01 -2.920066260040392603e+00 1.548474054872175287e+01
-5.179319320314830222e+00 2.613142713663918926e+00 1.889244705455092088e+01
-3.392336182155966551e+00 1.480824577178442958e+00 1.819505716386805716e+01
-6.031372016888720822e+00 3.475156000528801137e+00 1.811923115404461271e+01
-3.627736542774318007e+00 -4.056855697942779670e+00 1.614123367613679250e+01
-4.568157284485860892e+00 6.347734887854111774e-01 1.902385974996503393e+01
-3.863207231347185022e+00 -4.072782956034203039e+00 1.627527327141546465e+01
-7.286857435592248855e+00 3.233411065666196738e+00 1.657081900179178291e+01
-5.345083021431338288e+00 1.981795382009481354e-01 1.946105085183494765e+01
-7.207749411573252551e+00 3.082208217359957647e+00 1.670299240798245677e+01
-7.160042776880599646e+00 3.418052681494028633e+00 1.663772202888972629e+01
-5.663227350833100360e+00 -3.118725812382398654e+00 1.715079102499057484e+01
-1.443177412020329120e+00 -3.800884286531155620e+00 1.531649639087797254e+01
-5.663773804783116539e+00 -2.943368828477490595e+00 1.711170329951755775e+01
-6.117587130053879108e+00 -3.619964217259904249e+00 1.889853627151543236e+01
-6.503290557075299461e+00 2.473879815799488568e+00 1.426517077090886687e+01
-5.497824174364689398e+00 -3.163513345779896735e+00 1.703463869682431664e+01
-2.847277644018912923e+00 -3.241916194960604791e+00 1.528203988071815189e+01
-1.024957645380986992e+00 -1.996884092096436802e+00 1.414498133401311009e+01
-8.037366111682362479e-01 -2.417896497290508595e+00 1.478051155744002898e+01
-3.336985511989504438e+00 3.128471703707965013e+00 1.432265769627093022e+01
-6.500480352128356287e+00 -7.897130429563143927e-01 1.664775219386574179e+01
-7.931586200787204000e-01 1.958902102966827208e+00 1.641822825852464263e+01
-7.889173838949344209e+00 -5.437732576774914062e-01 1.772572235323778500e+01
-2.687496875802245277e+00 -3.478177353444017239e+00 1.524197155176314311e+01
-3.383056869060537153e+00 4.565675190035311637e+00 1.785260534790669595e+01
-3.519935460581585129e+00 1.415934681767805792e+00 1.827413630831747327e+01
-4.486588788732995603e+00 -4.082236118405909053e+00 1.797970224987341936e+01
-4.874930330273906876e+00 -4.107298363803812080e+00 1.803218573311428230e+01
-2.106556155016070075e+00 2.191264942258614568e+00 1.386833219961663133e+01
-5.692471168012549931e+00 2.457306526462008645e-01 1.571336271495028569e+01
-4.477438878053923155e+00 -4.172198039023307103e+00 1.787088895298374069e+01
-6.758958013958035416e+00 3.677227469688792549e+00 1.689198707158183765e+01
-1.968205709258100011e+00 -1.307406619099970690e+00 1.346112714703977531e+01
-4.976620372863362896e+00 4.277290850824487123e+00 1.816819246824670842e+01
-5.997647511278198174e+00 5.957506465123159067e-01 1.544092662751651091e+01
-4.572591391584166942e+00 1.715496752523783863e+00 1.296886031294611996e+01
-2.058243282984705047e+00 -2.883188933308873381e+00 1.447171301370984509e+01
-8.072235900945536002e+00 2.266617282428915026e+00 1.561483750667905213e+01
-8.097360450056516612e+00 2.062194576155155445e+00 1.557422314536451324e+01
-8.153369480438847461e+00 2.285644937753239070e+00 1.581473926825832166e+01
-6.796826955633028078e+00 3.265707845410408261e+00 1.724270579914622914e+01
-5.739447105383266301e-01 2.128521313189425612e+00 1.587787843287889444e+01
-2.361922969547105566e+00 -3.423931024529731193e+00 1.499326037449992555e+01
-4.452374317058244380e+00 -1.671553095670847977e+00 1.600025979072497506e+01
-3.176288675387993976e+00 1.859267103170165081e+00 1.807724386303164721e+01
-3.121851052802098625e+00 2.181223496697173303e+00 1.290864278700674816e+01
-5.482651494473788745e+00 -2.541341340803100479e+00 1.693435953531047744e+01
-5.778556836604478164e-01 2.137698055427409649e+00 1.609484586731476696e+01
-9.751173766290357481e-01 -1.692932515802625826e+00 1.407485795432067022e+01
-1.454581315395291785e+00 -1.006157532873211524e+00 1.341221884836609490e+01
-4.686899446112789747e+00 -1.000630570225795601e-01 1.536279480436243716e+01
-5.266489326917855429e+00 1.732851830611195632e-01 1.561113961501610703e+01
-2.466896750833684759e+00 9.788307586386461034e-01 1.250133284854044291e+01
-2.208146847014596403e+00 9.967660014618748843e-01 1.254831137294783616e+01
-7.362689168314902943e+00 1.717444394475990066e+00 1.473039642275244177e+01
-6.291760825831349990e+00 -3.208582996796199183e+00 1.917681157774376288e+01
-4.072960466832566517e+00 -3.526917097676117496e+00 1.609129163866757040e+01
-7.466295501330397322e+00 3.712969549633578503e-01 1.852713557192442551e+01
-6.939360836997518156e+00 1.251903500345456610e+00 1.473460242487616512e+01
-7.974979893705863354e+00 1.014164222231716206e+00 1.675912546809590253e+01
-6.105078111336071700e+00 -3.008521451020337967e+00 1.927123822824289334e+01
-2.238603843239001634e+00 -4.014098505923653804e+00 1.549476210590353276e+01
-2.932011420337643948e+00 -2.937908526205205373e+00 1.525831698192413910e+01
-1.102155326257664658e+00 2.524490651281894316e+00 1.664506764568752573e+01
-2.134535386710968208e+00 2.359906508568232475e+00 1.408591532444027195e+01
-4.504910135713543262e+00 -2.766209995668958310e+00 1.623749112879561807e+01
-7.606201527532886253e+00 -3.760526347234230959e-01 1.857136193251802325e+01
-6.241818547319201826e+00 -2.887367272339463664e+00 1.935450013641379030e+01
-3.571642936767429166e+00 -2.915806797341770729e+00 1.820845837407753010e+01
-5.149187786613277140e+00 3.630855031024791124e+00 1.846833009263676217e+01
-4.792992568387851371e+00 -7.264915788874282132e-01 1.585427371160713506e+01
-3.331318433378280375e+00 -2.956376129583139889e+00 1.806045038083195919e+01
-5.905628714587656702e+00 -3.986677634192758557e+00 1.822579278525511626e+01
-2.750062558425415027e+00 2.270205256293217566e+00 1.781605693430401516e+01
-4.896352217169502197e+00 -1.401260893157436183e+00 1.920758370708185936e+01
-7.756934974832815577e+00 2.132365773025588496e+00 1.517656507488154460e+01
-6.359869784072972543e+00 -1.996776134504530287e+00 1.725442212752599147e+01
-2.552970166092696225e+00 2.469111880435967521e+00 1.767564858555702045e+01
-3.060324293867143108e+00 2.667858843678513114e+00 1.799958064820362580e+01
-4.701026222239306662e+00 -4.206281199390184966e+00 1.786210922763137887e+01
-6.536057069446220780e+00 3.865978289442737470e+00 1.701356061361767047e+01
-6.955415911036804566e+00 -1.032210565602966312e+00 1.944307694601756253e+01
-4.965304698632660774e+00 4.115178273237985351e+00 1.611903235899611531e+01
-6.753856616107616340e+00 -7.923091580971302061e-01 1.949490811552511360e+01
-6.160517718807203558e+00 4.235805207694682828e+00 1.708462792200395342e+01
-7.389005212600608274e+00 3.292296192960012302e+00 1.644554491706770705e+01
-4.928135481711608534e+00 -4.209767034619542159e+00 1.723785356823488257e+01
-7.294264422710930340e+00 2.702981437443123802e+00 1.504153040460809621e+01
-3.826422391592637418e+00 -2.708456376397375465e+00 1.582601452937192477e+01
-3.936307737222651149e+00 1.115880986455064061e+00 1.324217844484523710e+01
