-6.643644066482420563e+00 2.722514559439731308e+00 1.106544821119453204e+01
-8.881239335827576298e+00 -2.456342505783832841e+00 1.246623965751578922e+01
-1.000553336771994317e+01 3.931667957493387711e-01 1.122551153152346970e+01
-4.942628694883881124e+00 -3.848923572226391698e+00 1.537871005784335310e+01
-8.668553838228094222e+00 -3.143821441823805962e+00 1.299941239898970835e+01
-3.242822313735407302e+00 -2.818472024887577199e-01 1.566256435375769129e+01
-3.099166619495104413e+00 -4.068191348136558361e-01 1.561364695344617459e+01
-3.052940557468815985e+00 1.695279844953349047e+00 1.171572991484426396e+01
-3.172158140753555955e+00 -1.231858074882378418e+00 1.571811185801424315e+01
-3.181756050229564536e+00 -8.654060095586846302e-01 1.569690168710644329e+01
-5.148495826699586608e+00 2.810912607203960079e+00 1.521753925170912325e+01
-2.751438169664767841e+00 2.235193668955626212e+00 1.437174611455479223e+01
-8.149421646473948400e+00 -3.889140841423436967e+00 1.425101142378560226e+01
-7.701230772970773408e+00 -2.592801156307340982e+00 1.280439402341035660e+01
-4.936280978450711565e+00 -3.486301131445362245e+00 1.354869525994027057e+01
-7.940681714238565725e+00 -3.992498061000972598e+00 1.445797849628306508e+01
-6.902612350325209256e+00 -1.291016831364484752e+00 1.220017587094168121e+01
-9.798333336292296636e+00 1.601310609154118492e+00 1.191183515375866264e+01
-7.371023693412627864e+00 3.976974781774273549e+00 1.417470464004294328e+01
-9.591917343613651781e+00 1.103064336433142723e+00 1.410224777064309265e+01
-1.021109809673727042e+01 -8.921973229179833709e-01 1.387612677186124799e+01
-4.106869769760649547e+00 3.511371704849502784e+00 1.441977792795894331e+01
-3.582781581200863208e+00 1.002621529795149513e+00 9.967028403412893311e+00
-9.888062264043865568e+00 7.150858796727508349e-01 1.380278238944047686e+01
-1.025523505015969938e+01 6.029012811850362752e-01 1.278721917705020772e+01
-4.777411501157065032e+00 3.516914955475107796e-01 1.561187653491185401e+01
-1.951958105123348108e+00 3.201505461466949143e-01 1.383729468729745449e+01
-1.022803711668534099e+01 5.747136799475147662e-01 1.300188579314332671e+01
-5.864879202411671599e+00 -2.207100245002826533e+00 1.283818091000835793e+01
-6.187383671696835563e+00 -3.015007409305446195e+00 1.539491419592448906e+01
-5.502933781234442101e+00 -2.211051727209172313e+00 1.287866739842487007e+01
-3.043343141956844189e+00 2.248665028129512855e+00 1.331824359020418669e+01
-3.838829972202158825e+00 2.271221306185160493e-01 1.076101145876885212e+01
-6.499543678496990218e+00 3.807654435665769110e+00 1.340449362247163023e+01
-6.791120166253294954e+00 1.075241808263696308e+00 9.272367824911473377e+00
-8.663547145215810374e+00 2.330438380227707107e+00 1.178862546897802233e+01
-4.222002982294924323e+00 2.234120664687289093e-01 1.072317090630059155e+01
-6.207983914426069560e+00 1.463321909469792459e-01 1.063441122698555930e+01
-6.043498291890117891e+00 1.649285399852695733e-02 1.082738112175402634e+01
-4.631532452572908909e+00 3.800479198689346028e-01 1.053491323829021908e+01
-6.614619177225717017e+00 -1.019354003810737375e-01 1.098353807470330068e+01
-6.406526445387049407e+00 -4.845594738784875233e-03 1.085232935202982318e+01
-1.002750995986368743e+01 9.115696328352163036e-01 1.337087641472530564e+01
-5.721480263182661119e+00 3.593824467782023468e+00 1.491984633183556852e+01
-1.876610625948904598e+00 -3.932752985415430835e-01 1.314004812182381343e+01
-4.098899074881996896e+00 2.663536651784190301e+00 1.197813566706295418e+01
-1.879001864728921722e+00 -2.256545729285486246e-01 1.315561379038339496e+01
-3.727282131696338929e+00 -3.612028313470028174e+00 1.369296995765319380e+01
-3.928245222905624612e+00 -3.476935044105550432e+00 1.360803060790991381e+01
-3.992521048011945073e+00 1.717735913046533058e+00 9.854581720176927462e+00
-1.956344988219808512e+00 -6.536030468666678139e-01 1.374033655426530842e+01
-8.341605172936555235e+00 1.411706176252683909e+00 1.491063145750107921e+01
-1.895468948672922815e+00 -4.654776415603043560e-01 1.337401369437082721e+01
-5.299952811898319460e+00 -1.335132740388230488e+00 1.241999711236665505e+01
-8.086823090071124653e+00 3.016897003136336686e+00 1.461108646331426897e+01
-1.017180503268978242e+01 -1.311161199248373599e+00 1.405009600431798233e+01
-1.022040565381005095e+01 -4.978322823636909256e-01 1.170231991176726538e+01
-6.182020716366575463e+00 -3.846712344980726783e+00 1.527341997716340316e+01
-4.784898207548633486e+00 3.445074871354685264e+00 1.507625921683878900e+01
-4.735414468544318467e+00 3.626284053362844872e+00 1.501854485799067973e+01
-2.980854019430779100e+00 1.177054775336252579e+00 1.527143173201642057e+01
-4.383316110642269336e+00 7.438589396703330081e-01 1.566651756635698334e+01
-4.202223959111131002e+00 7.778786588585262507e-01 1.568276065652025508e+01
-2.325319063039305689e+00 1.371290004645701499e+00 1.271227333190639897e+01
-5.147112682885248702e+00 3.983506793464147044e+00 1.463400047954443650e+01
-4.740804093099114880e+00 3.870627735259934532e+00 1.467342471327524933e+01
-5.325707939900449439e+00 4.024763184054260812e+00 1.445244613192716443e+01
-3.554941406115780467e+00 -1.264386902341213315e+00 1.579294021894250832e+01
-5.849511197035318411e+00 4.028627485324369317e+00 1.409009920564241369e+01
-6.166183494432641687e+00 1.390014864152586238e+00 1.531766723587466217e+01
-5.325461901572053236e+00 3.965958479480260923e+00 1.425233609582747718e+01
-2.055087888250972661e+00 1.357599739342329137e+00 1.353956737976735170e+01
-5.029450051879552852e+00 4.706280295818920933e-02 1.095670392334718812e+01
-4.370740642620384087e+00 2.826326830513693711e+00 1.530855181254563391e+01
-8.097427663633277817e+00 -2.365482401985894434e+00 1.260407552505641959e+01
-8.141549072732384928e+00 2.028368841091251262e+00 1.486120273778198353e+01
-6.376797114346551609e+00 -2.864291289349228720e+00 1.538810227213730641e+01
-6.606020477692005954e+00 1.223126675532210550e+00 1.526090214846763260e+01
-7.367026682902645618e+00 -2.192003189107263772e+00 1.528871950829263326e+01
-9.589493022572344927e+00 -1.828371224390273220e+00 1.188495914693816857e+01
-9.167696053432674574e+00 -1.791110494898942029e-01 1.476962100726606408e+01
-8.120506131050639453e+00 -2.239819269934275603e-01 1.511440634189628796e+01
-9.204124976919878520e+00 -7.538143553419471843e-01 1.479551495754764190e+01
-5.646515825429144542e+00 2.870969985413664105e+00 1.133379331814518665e+01
-8.786024824728841054e+00 -4.001988634418474078e-01 1.493310430367434449e+01
-6.757900206545274457e+00 -2.039624909712904888e-01 1.536797062071506659e+01
-7.097860913229331103e+00 -2.630608199716424345e-01 1.531850317761777447e+01
-3.818744679771686190e+00 -3.492878336134834782e-01 1.140444783133552065e+01
-6.323374075724096599e+00 -3.520014862062878613e+00 1.347318385461695200e+01
-6.537623221178090027e+00 -3.433335210432726825e+00 1.337969914745174904e+01
-6.977535516929108006e+00 2.400503813373450424e+00 1.503461099344530894e+01
-7.738962578059436659e+00 3.232115525671220624e+00 1.465916868961768316e+01
-7.953740588973452041e+00 2.856838423586246289e+00 1.471282423312377929e+01
-2.986354368440101048e+00 1.752424780077664224e+00 1.205191215252947146e+01
-7.924787844222340283e+00 3.051015016280375303e+00 1.466344615034212850e+01
-2.875431982467673730e+00 2.330967820208379226e+00 1.412980896198563485e+01
-7.193255518991051645e+00 1.069806758413648362e+00 9.306130536340464943e+00
-7.033528075774657218e+00 8.005130051988382789e-01 9.661705421263061311e+00
-5.588336161150134096e+00 -4.441785599358367698e-01 1.552899812918863987e+01
-2.104508958105908434e+00 -1.694963359623708143e+00 1.422837485058372309e+01
-2.523946269083021221e+00 1.898195230704214698e+00 1.375608654205789705e+01
-1.973354431333628423e+00 -1.204265063938480651e+00 1.311219944625672085e+01
-4.242173206844693567e+00 9.277269435483850302e-01 9.840227123894859318e+00
-7.043196300205231353e+00 2.944452925510014918e+00 1.168457162004034799e+01
-6.571030261667633710e+00 3.033691197574738041e+00 1.494964081080021501e+01
-9.356708162751045776e+00 -5.782304199426326896e-01 1.470833386103864981e+01
-4.508748871712386475e+00 -2.045069607501686093e+00 1.287222754081047427e+01
-5.768011643991933113e+00 1.806743448394385165e+00 8.991418840028618575e+00
-5.965706028716351028e+00 1.796444898024737169e+00 9.013676930668164999e+00
-5.931329922056440829e+00 1.992636536188854057e+00 1.526767370863904816e+01
-3.091302950137489791e+00 -1.958730169296556411e-01 1.142009665111910621e+01
-5.662543826317573803e+00 -6.741133904623803907e-01 1.180976716299771923e+01
-9.890288312397910175e+00 -3.844932366090372255e-01 1.423383331958050846e+01
-5.269744675993032423e+00 -6.859255281836422746e-01 1.184242888710846486e+01
-2.289202358445984409e+00 -7.549879320971055741e-01 1.232617606028771107e+01
-4.909175952222504691e+00 -2.729225660420842914e+00 1.316719137442795429e+01
-4.144475435253741402e+00 -3.064716547121832058e+00 1.339166407512674439e+01
-8.568979540413968365e+00 -5.581020955489948143e-01 1.501405397870173530e+01
-4.352801371401736397e+00 -2.692826957320856529e+00 1.320063455067988301e+01
-2.333913961509919144e+00 7.006723334552664717e-01 1.144269819760569717e+01
-3.574950615658352593e+00 -1.700013862858923197e+00 1.579252995447237495e+01
-9.509576554858538699e+00 5.231123003315607534e-02 1.451848129792614728e+01
-4.586852339312780025e+00 2.405154202284911946e+00 1.541023781912550206e+01
-3.370638052276550223e+00 1.989807204218184022e+00 1.531977604744744426e+01
-5.968473516263949286e+00 -2.047419872669931529e+00 1.552555261695142619e+01
-5.975198527486259792e+00 -2.437432844493095274e+00 1.548245929512473751e+01
-7.981462393815305312e+00 -3.044831113086606145e+00 1.514448462151591812e+01
-7.910925483433120853e+00 -3.241515569373435213e+00 1.314582853323465983e+01
-4.961750964585793788e+00 3.184994972310199568e+00 1.227651046043134286e+01
-5.758154854691448499e+00 1.572516840272037530e+00 8.661024454476748957e+00
-7.559304199312029127e+00 -2.647084762493708610e+00 1.524113224814407275e+01
-4.779466454089741134e+00 -2.050913253972657557e+00 1.558800963135887585e+01
-9.703137359340088253e+00 8.841537799681855603e-01 1.403853077105144465e+01
-4.966231889062700411e+00 -8.636986627121938653e-01 1.560877915858942444e+01
-3.187052981555558162e+00 2.634467484182350994e+00 1.414506221697010702e+01
-9.406900107857669724e+00 1.505817757707016646e+00 1.417797762646606330e+01
-9.473246345962246906e+00 1.914864427561914217e+00 1.387725856944026859e+01
-9.282532126434675845e+00 6.435266711280602792e-01 1.457593084538462236e+01
-9.192639773117983637e+00 -2.388303360030354483e+00 1.484120576131408953e+01
-9.583800800832610989e+00 -2.764700786457480852e+00 1.456964521580774985e+01
-7.540165983404498284e+00 2.985707884762636155e+00 1.199777606054356127e+01
-9.352470206176359824e+00 -2.181952032255085605e+00 1.475923235184989224e+01
-9.499111893548183971e+00 -2.360654356334032755e+00 1.466100643275003890e+01
-3.998995650508315958e+00 9.463167207056164543e-01 9.869973208357560424e+00
-7.601396963409464469e+00 -7.751197340473989783e-01 1.524920287446747480e+01
-7.960260440625031464e+00 -3.874264527786195345e-01 1.515973552441839800e+01
-9.478406348083836974e+00 1.246919776522737777e+00 1.063177889159525691e+01
-7.854567467282674187e+00 -1.039429328440027334e+00 1.520888181029449626e+01
-8.371133352748355350e+00 -1.412795511060855880e+00 1.511917472278284791e+01
-1.946316682529816378e+00 9.515497848763168065e-01 1.349117528577003711e+01
-8.155529308690987023e+00 -8.391176816026075791e-01 1.513889970711251820e+01
-7.893192240215530120e+00 -1.248499047852937416e+00 1.521079525182205927e+01
-6.769993284670376532e+00 -3.067440366770409099e+00 1.531736196632192204e+01
-7.716282050152589278e+00 2.604060497475676250e+00 1.144596544044478392e+01
-4.518311558924724913e+00 -3.261317065775167556e+00 1.345235668099003234e+01
-2.094806630308174711e+00 8.438572725432802457e-02 1.200171564557934900e+01
-4.736022030785898451e+00 -3.092409281562196632e+00 1.334697764402580944e+01
-8.223527790274061999e+00 3.637849075737220161e+00 1.376077617927633057e+01
-8.537579493442414957e+00 -8.333571669224952849e-01 1.504130335278650321e+01
-8.379929554443709350e+00 -8.330736608483952921e-01 1.508474683008433814e+01
-3.382004263069361638e+00 -8.482098367077091083e-01 1.575010234040707857e+01
-5.926345518602055940e+00 -3.058720899785854819e+00 1.320249583762240420e+01
-5.921291520041989997e+00 -3.196095977012746836e+00 1.327953514204819285e+01
-5.925242043031543560e+00 -3.407097394650901556e+00 1.341683613657956542e+01
-5.925544362250535713e+00 -3.297342404509473468e+00 1.334128125561782596e+01
-6.511396374502106177e+00 -3.313386147832248163e+00 1.329092746430573513e+01
-4.352104823179757886e+00 -1.682839533708970770e-01 1.118657040341625120e+01
-6.322896745913486605e+00 -3.312227778695068459e+00 1.330994465850955422e+01
-2.381686830858322779e+00 6.105504071179987946e-01 1.478699137536861130e+01
-6.982743440503035082e+00 1.387979795482481293e-01 1.059560094288731946e+01
-2.397296566003824125e+00 -1.802307144298984198e+00 1.502526128295736285e+01
-2.303064122142848280e+00 -1.778249133272543858e+00 1.482846352374894039e+01
-5.095562947977375856e+00 -1.776106464639828353e+00 1.269676599213100943e+01
-2.309421215065734057e+00 -2.000957256358718794e+00 1.480805286041466573e+01
-4.513369552275552365e+00 -4.027636900632606043e+00 1.402074208985926518e+01
-2.442558398130570296e+00 -2.401961854299230481e+00 1.508314861235298210e+01
-4.546415032678781998e+00 3.210778515262693755e+00 1.517386209595772684e+01
-3.323949632618538264e+00 2.029326374591088555e+00 1.196098876701101332e+01
-8.239266977545112169e+00 1.707402543456583155e+00 1.028069829747941455e+01
-4.580347935308171969e+00 3.803002843534478483e+00 1.443481627381812515e+01
-2.594554745440248666e+00 6.155146202563126501e-01 1.502505375174957791e+01
-6.303477131845936832e+00 -2.821499420904161504e+00 1.305615825762562920e+01
-3.591929784731485498e+00 2.693411910682485644e+00 1.320691340104788836e+01
-5.173525928259902429e+00 3.388445442693964527e+00 1.505131910172088894e+01
-4.330291490101540575e+00 -3.621494630403526926e+00 1.367142702645466201e+01
-9.449434182210723066e+00 -1.632007316676222786e+00 1.169598284240356278e+01
-2.478027489509248227e+00 6.183258630951233847e-01 1.488940768457296215e+01
-5.705567874295212505e+00 -2.666891764061030123e+00 1.304709471168115797e+01
-5.689931171730903792e+00 -2.482451742135427075e+00 1.297434572426635313e+01
-5.068013184091114454e+00 -1.559120401608496742e+00 1.257507508886763858e+01
-6.215163948899043334e+00 3.795699298630341723e-01 1.029583414548786990e+01
-5.465680647697120698e+00 3.216123800019384582e+00 1.218487326619776567e+01
-8.922220356794735352e+00 -1.596775768534271833e+00 1.495947903065448870e+01
-8.264057629328142696e+00 1.746957909943107623e+00 1.488178828871792447e+01
-4.967728714213483165e+00 2.583904179410922541e+00 1.530214414356203534e+01
-5.130715866481886600e+00 9.061089044452894647e-01 1.548868315408789798e+01
-3.103505634981627015e+00 -2.788043752707252132e+00 1.317152854837890530e+01
-5.779911057066361657e+00 1.736114275550537656e-01 1.546378621926988828e+01
-4.588737077153707489e+00 5.501460272420133357e-01 1.564315867132244264e+01
-7.899576330206306451e+00 -2.981912966740964954e+00 1.297085642569046016e+01
-6.434019734276981595e+00 3.905167779771892000e-01 1.027331005172470313e+01
-4.605703395271363298e+00 -6.188068994575006698e-01 1.173234393845798351e+01
-5.055875926366546480e+00 -1.991370065184057125e-01 1.127935660364787296e+01
-4.872718997663403329e+00 -3.396832874996893459e-01 1.144688670423225929e+01
-3.990564718319359550e+00 -1.869949884854781530e+00 1.575305843974646436e+01
-4.195843490384903340e+00 -1.668597674813065090e+00 1.573325162316632841e+01
-4.189196809779185848e+00 -1.848031405472874589e+00 1.572439752738337049e+01
-1.047196893785763550e+01 -1.228141800878865375e+00 1.299746242854934408e+01
-2.378308593744063337e+00 7.673915128306258993e-01 1.138686572503813110e+01
-8.852949760183312478e+00 3.263396473504023287e+00 1.387105101232453208e+01
-7.403043031052027878e+00 1.893027394268305352e+00 9.964916978399042335e+00
-5.396739516652984570e+00 2.310248537771212085e+00 1.005078846609048426e+01
-3.988248977328877398e+00 -3.051412604808112050e+00 1.563267721640558605e+01
-5.841835105699800579e+00 2.950277499505359557e+00 1.150743701832410792e+01
-6.984236326597106803e+00 -1.806362443859433675e+00 1.537021209265182264e+01
-9.463593427852185158e+00 1.239585308501732763e+00 1.421316878210835100e+01
-7.462412400206185126e+00 -1.101775886554116290e+00 1.192901048117378693e+01
-2.003005000328559770e+00 -1.590050159141434882e+00 1.326205399800814533e+01
-2.021323308153080145e+00 -1.259490042198573967e+00 1.301500495342526520e+01
-8.803440576519317773e+00 1.560023175961970932e+00 1.051269389590889958e+01
-6.029938697415463622e+00 2.774765004536893453e+00 1.108701476202774572e+01
-3.403209391849972398e+00 5.365701490256959971e-01 1.561996220856417850e+01
-2.535467433220093270e+00 1.721470099096389150e+00 1.315845075690534927e+01
-4.241064257266860871e+00 -5.493664514070157878e-01 1.161257807782523699e+01
-6.765603963804751153e+00 3.322708780716341792e+00 1.483873617755169150e+01
-3.550340927960332404e+00 9.442247115708464200e-01 1.560704240903638507e+01
-3.576711824424135155e+00 1.138537838381516787e+00 1.558631356666649381e+01
-4.991075170028768326e+00 1.993658465780060673e+00 1.540701466363841732e+01
-7.371393073324532530e+00 -3.016586591871074141e+00 1.524115038406064215e+01
-1.992097139780824255e+00 -1.640696716833661917e+00 1.344126829947842694e+01
-2.015645726539519789e+00 -1.903623517523755027e+00 1.378416491894357776e+01
-2.316494958046622976e+00 5.243541226347909756e-01 1.146684512771743769e+01
-2.270483965812807092e+00 9.153313677283625438e-02 1.175966016439901907e+01
-7.352022768685094967e+00 1.197239976015303853e+00 1.513946274274402626e+01
-5.372366542676307866e+00 5.506437169586280156e-01 1.013483629831516808e+01
-6.775201601954035091e+00 1.386904830374000586e+00 1.521432942759197360e+01
-7.142084741094910427e+00 1.396800330263237022e+00 1.515341888206651433e+01
-2.015215139976181291e+00 -2.060501564368804495e+00 1.377501534831300845e+01
-2.261226356292372230e+00 -2.113089187057025420e+00 1.468915851576045739e+01
-4.770903714516683713e+00 2.981480292769877138e+00 1.522504273242995154e+01
-4.577589310923045218e+00 2.778073328567250311e+00 1.530945327168118908e+01
-4.358173143963074203e+00 -6.350809747613430645e-01 1.572319411234245123e+01
-4.598506121385319112e+00 -4.730517886596881105e-01 1.567775356176369073e+01
-6.002087394515545071e+00 2.951227913913061496e+00 1.505696536446730605e+01
-3.151099803781248099e+00 2.694215562307681111e+00 1.457076934844828386e+01
-4.972971483970819229e+00 1.841455070563130736e+00 9.298092344745501947e+00
-4.022159402282166951e+00 -2.971690484493913154e+00 1.334982234461749684e+01
-5.351162947873748799e+00 -2.868052705523961521e+00 1.547288013646368299e+01
-5.761590825045045605e+00 -3.024786915249580765e+00 1.543233779616911150e+01
-5.751242223458076452e+00 -3.252049147711788990e+00 1.541211639148211887e+01
-5.969398966911031224e+00 8.946636608146292247e-01 9.552073479279730606e+00
-5.364543819023387172e+00 -3.075302836011616137e+00 1.545352894088321349e+01
-3.656790984002059375e+00 2.806570759872209386e+00 1.337344567574380605e+01
-8.742733961572776380e+00 1.035834156475585743e+00 1.482297132694698760e+01
-7.941798627154832424e+00 3.610152271726185802e+00 1.349035842433706378e+01
-9.416974853774213727e+00 4.945469359186440705e-01 1.449813512020119433e+01
-9.535646815233439710e+00 4.531745487998497524e-01 1.439397105884790662e+01
-2.002675726776656617e+00 -8.780190849145150800e-01 1.391569417734102743e+01
-9.375420661336654859e+00 1.293626581376092766e+00 1.429553294740690106e+01
-5.139664626948210469e+00 -1.957255323848913875e+00 1.279021216035978270e+01
-4.472574656401063109e+00 -1.793891196239548513e+00 1.272667013740801067e+01
-4.759951981941614285e+00 -5.928838237626576912e-02 1.563410582105496971e+01
-4.968583280189688978e+00 1.518807854861510265e-01 1.557444960243808296e+01
-4.071517948461620406e+00 -1.690951849949615671e+00 1.265043557833538657e+01
-5.575194634512785186e+00 3.904161333101252573e-01 1.545699533829340666e+01
-5.569020062019103712e+00 -5.695919968698381908e-02 1.549410605165963872e+01
-7.630372509764729472e+00 3.437432927515660097e-02 1.061666409326773319e+01
-4.172715925284560257e+00 -4.467264490320950188e-01 1.574408012157864434e+01
-4.358198698362262036e+00 -4.901534557464337638e-02 1.571118815963859916e+01
-7.771587001707899844e+00 6.272987632510660383e-01 1.512482878129350539e+01
-7.398129980356326740e+00 3.696374457049698137e-01 1.020491601658151026e+01
-7.218516397934863882e+00 2.374611214905977263e-01 1.041972067776118038e+01
-9.715777720896715763e+00 1.547914676564725367e+00 1.166513888727672210e+01
-7.432133301464487474e+00 2.985370380464260620e-01 1.029569334541669079e+01
-5.570460153659168689e+00 5.654623545492296621e-01 1.544563755825239681e+01
-9.601095643031717586e+00 6.597444516579686891e-02 1.442932725703303376e+01
-4.020089575116206682e+00 -8.326689004326848220e-02 1.108787105495436620e+01
-4.049515230528871967e+00 -2.550446831555004401e-01 1.128292461828931081e+01
-9.117670114813913429e+00 -3.644524024123676043e+00 1.386763014120665005e+01
-5.162548210019810568e+00 -3.439153904001681639e+00 1.542999968371346498e+01
-5.198499600464814741e+00 1.183506260758836914e+00 9.215365127045952676e+00
-4.330373609927458567e+00 -2.069260072736998524e+00 1.288950764550036254e+01
-9.228268593191065960e+00 2.193617878620775841e+00 1.214968812615471805e+01
-5.793363112896787293e+00 1.189134656576409377e+00 9.129930523337026926e+00
-6.002503474324059063e+00 1.174993907095352563e+00 9.138491179220945781e+00
-1.011191851453135016e+01 3.040216476649115762e-02 1.146844098596890760e+01
-5.584012763408523483e+00 9.218921526836543201e-01 9.538236672688196194e+00
-3.954523193859195818e+00 7.383591149840276202e-01 1.569153095758729322e+01
-6.787045719342057026e+00 1.182872286184480037e+00 9.122640495371964420e+00
-6.360179095740628341e+00 1.286045878592597447e+00 8.976955613782752863e+00
-2.205208022316140770e+00 -2.566721356457274617e+00 1.454154176264740883e+01
-6.785019152219004646e+00 9.086234444825880274e-01 9.509469796050037615e+00
-8.258445065487620695e+00 -1.135040909992302005e-01 1.061749214657086426e+01
-6.352328637679430123e+00 9.984050470522354281e-01 9.383387760607053707e+00
-9.849384965468937381e+00 -6.778956913052303079e-02 1.113537812458358545e+01
-8.761709141660723787e+00 2.697491574279022419e+00 1.254597337119745859e+01
-2.800604974351196041e+00 1.363628495629233939e+00 1.144571808952859371e+01
-9.667963565721604979e+00 3.734668020284237500e-01 1.077389814091941744e+01
-9.910538987318098236e+00 3.096765289575977853e-01 1.112748064836855733e+01
-2.481852448545399881e+00 -4.922206371468966779e-01 1.198225441843986161e+01
-3.628926803889059638e+00 1.764746961765255140e+00 1.051002968237190416e+01
-6.759437786365079859e+00 2.387089663418861196e+00 1.507265800157323454e+01
-6.756393311780695576e+00 2.204994001436195283e+00 1.510889006753645347e+01
-9.640617636694729597e+00 1.461226569920389906e+00 1.384147793584176966e+01
-9.574536813013217795e+00 1.789919606371644933e+00 1.377306008663784453e+01
-2.045692562729024111e+00 -7.130044196744056428e-01 1.413397816992801737e+01
-2.054207221834521313e+00 -9.336482141764430587e-01 1.413275230593406562e+01
-2.019875939097400597e+00 -1.705392764606903810e+00 1.382198218544264634e+01
-7.544233667854014946e+00 2.131839265294313002e+00 1.048901644764984198e+01
-6.576233924796822450e+00 -3.637079577517655871e+00 1.526872570362577974e+01
-6.555425278495139452e+00 -3.421534909735067131e+00 1.530480590647385597e+01
-7.524698833460871761e+00 3.640725134907081717e+00 1.331631520092379262e+01
-6.382316552470492788e+00 -2.669278968735048885e+00 1.540874531042087980e+01
-6.602192903418928616e+00 -2.666075684176967719e+00 1.537449449453641748e+01
-9.225480394547268759e+00 2.649073932736283332e-01 1.468342556383261766e+01
-6.756094942864500297e+00 -2.833681262548122248e+00 1.533802736833193237e+01
-5.550893271454572009e+00 2.814896031437629453e+00 1.515623078148493263e+01
-5.990357099397743745e+00 -4.481289160364245738e-01 1.550744281096689647e+01
-3.033163361940459879e+00 1.830447339948100272e-01 1.550405924197407259e+01
-2.961378837617941517e+00 -4.215454849072512999e-01 1.554181249577729673e+01
-5.980722749048263509e+00 1.604150397184223920e+00 8.711515940208325759e+00
-7.366842794261053484e+00 2.004987357077212096e+00 1.504085473802809858e+01
-7.559635534987631189e+00 2.037816653686836510e+00 1.500229514671218212e+01
-9.171170508181672787e+00 1.503638233963844106e+00 1.075721105420548795e+01
-4.931510619586879862e+00 2.862603718405333009e+00 1.523937533177738501e+01
-6.502576966128231106e+00 -2.844399975690079962e+00 1.304779305032925052e+01
-3.945079301097133229e+00 2.933977930429150227e+00 1.301289765543313948e+01
-8.500721221471392752e+00 6.088527737186741895e-01 1.495299582192139454e+01
-8.773319113962095628e+00 1.386266508256239760e-02 1.490867589543881522e+01
-2.576144193124795478e+00 1.192790629456197626e+00 1.157852492958121715e+01
-8.601543076026350931e+00 6.226992923784626655e-01 1.492121712574278192e+01
-6.571064207826566417e+00 3.726067303076612269e-01 1.533262141302359183e+01
-7.382539371024764208e+00 4.035169584797460018e-01 1.520866468245575831e+01
-7.136460995095000648e+00 5.925017152109846030e-01 1.522676211238298194e+01
-7.127199371605774658e+00 7.249671384969933463e-01 1.521721113963330296e+01
-1.992124525586303152e+00 -3.754535309116899811e-01 1.245979880973598952e+01
-9.574977671713931215e+00 -2.548282015894799635e+00 1.459727673578705875e+01
-6.772239418600947580e+00 7.372332325800345920e-01 9.752293936883258851e+00
-6.385344871714383252e+00 8.142569186434718276e-01 9.654621906247516705e+00
-6.633480739566172346e+00 6.471695023489556498e-01 9.891592197889966798e+00
-3.751403720785269069e+00 -6.217509986578075853e-01 1.577586189100907532e+01
-4.190425159153136292e+00 5.313193068820387666e-01 1.570025007380225546e+01
-1.992465356062631310e+00 -1.146771125366200295e+00 1.296785760773493124e+01
-3.992185178237614096e+00 -3.396011029762258104e-02 1.574284348845730719e+01
-8.841391290479730714e+00 1.743327315312616310e+00 1.463136378727844900e+01
-4.948486658229244384e+00 8.083957583542948910e-01 9.855994436931229785e+00
-5.759092384193261971e+00 -3.841697464870114764e+00 1.531635625784274524e+01
-4.015624725510161142e+00 2.586701899571167029e+00 1.190809431714255240e+01
-6.183317846882845359e+00 7.645035982574444056e-01 1.536368328731329669e+01
-5.988188850717182987e+00 3.639103618011958474e-01 1.542766406218386877e+01
-5.976777513747447479e+00 8.019836176110928250e-01 1.539254432879294043e+01
-8.134569467563640188e+00 -3.536822927917706139e+00 1.350658187587566417e+01
-8.309900974123431538e+00 -3.614951372693364640e+00 1.367738293768252689e+01
-8.977111549908784127e+00 -1.397341674230417219e+00 1.492648387056861381e+01
-5.391744234814566106e+00 2.150265106148854244e+00 9.771791559913435066e+00
-9.163515691288154130e+00 -9.720249761707995262e-01 1.482630145487116735e+01
-6.728606131110471900e+00 3.886818062428501364e+00 1.466021789256464913e+01
-4.473370716978626760e+00 3.582861476076502960e+00 1.383592926194281247e+01
-6.943144678337824338e+00 3.871403970357670588e+00 1.460905257255826584e+01
-2.269766143460421493e+00 1.615983094186320246e+00 1.349379248174944124e+01
-7.151917516394260765e+00 3.965178628022937524e+00 1.443310562357958915e+01
-7.187855855201477517e+00 -3.624254076701918237e+00 1.517365537334367431e+01
-1.027972076403295887e+01 -3.655224147803748380e-02 1.331887202673209813e+01
-6.773973642036854592e+00 1.817199463239328683e+00 1.516586977770480971e+01
-6.969471890944265446e+00 2.005864373831593106e+00 1.510624726493940173e+01
-6.513427533268406400e+00 -3.059069969453513949e+00 1.314769200018255546e+01
-7.020157948719345953e+00 -5.534621331078737327e-01 1.151486424873058567e+01
-5.779149523328340976e+00 3.030950047899893196e+00 1.506899019558626307e+01
-2.782733645790230970e+00 1.169793838492093840e+00 1.509090085253164304e+01
-2.679606267205449477e+00 1.201973393117113709e+00 1.495952218194895877e+01
-4.108756684377905088e+00 -2.614372944722185288e+00 1.317087007701531931e+01
-4.759524897386239850e+00 2.380252603373604003e+00 1.538614662079338657e+01
-3.929038406125214156e+00 -4.281648543958770148e+00 1.474852467515954757e+01
-6.860758357518366601e+00 -6.310303816522808695e-01 1.163298602452993080e+01
-2.150930350408458480e+00 9.921471962732142380e-01 1.215429509818373432e+01
-6.636134086694321255e+00 2.317993804159300453e+00 1.019486451176002006e+01
-8.350128798601968327e+00 -1.984886819316087347e-01 1.505414389479648563e+01
-7.396086261572109244e+00 -3.221413620006638112e+00 1.521249506155131215e+01
-7.391680388194238560e+00 -3.625765301168716981e+00 1.513715317854709852e+01
-6.753454644162591336e+00 3.046422966092810825e+00 1.491910778090592871e+01
-2.149898280088964331e+00 -2.181101253151427777e+00 1.436995340839126456e+01
-8.003573929460230829e+00 1.969090322371255919e+00 1.056720279209655544e+01
-4.921251303997754789e+00 3.767511697655621994e+00 1.380653205923355742e+01
-7.621838457125193145e+00 -5.242505253247120578e-01 1.134141968074873930e+01
-7.621184404010808322e+00 -6.110269191084856111e-01 1.143910985346418485e+01
-3.674605309882401194e+00 3.138988159338293116e+00 1.436215903683782003e+01
-3.334440757804074451e+00 -1.012667728739105932e+00 1.574998388412286587e+01
-4.621944078766594188e+00 6.606677264822189422e-01 1.015525503925364248e+01
-5.003180117771085733e+00 2.064040119002873652e+00 9.675024217141153571e+00
-8.611854651665868943e+00 1.507914136690087226e-01 1.032452665907655742e+01
-5.773380762738982597e+00 6.184356590302706458e-01 1.542640352140944415e+01
-4.159713740273463856e+00 3.588909651036686910e+00 1.487568944005853311e+01
-7.262065954070388685e+00 2.890597001005901223e+00 1.167374158390234484e+01
-3.947390537393858700e+00 -3.943981212215293297e+00 1.397525881886324228e+01
-3.975377123732263485e+00 2.740305246143439621e+00 1.531623592356782737e+01
-3.582919492752691504e+00 -3.046711926665608416e+00 1.567977494898723378e+01
-4.943149638020126524e+00 -3.019117673699777349e+00 1.328654698048211102e+01
-4.888530889806467883e+00 -3.127607831365972757e+00 1.334376064052189648e+01
-5.107119334144664791e+00 -2.871346304303694197e+00 1.320219671925334737e+01
-6.746135914290916524e+00 -4.016956237471348778e+00 1.425016034385906849e+01
-7.762133272471690937e+00 2.425138451055138145e+00 1.488120216046052136e+01
-5.348218041286130209e+00 -2.646781021590388860e+00 1.549468300737698812e+01
-5.557303234984586560e+00 -2.633444134013882554e+00 1.548614998137781029e+01
-5.130980037836246233e+00 1.958945323652584003e+00 1.538596277397750001e+01
-8.107696253830784627e+00 1.880405598612269413e+00 1.048712647082448157e+01
-7.512005348031748575e+00 -3.537410516859866405e+00 1.346766262399539826e+01
-7.707401756911266943e+00 -3.596296374132776918e+00 1.356690987229028522e+01
-4.876532534078552139e+00 -1.563521857847262275e+00 1.258328870618948159e+01
-6.930054688787341099e+00 2.825114274602216646e+00 1.495166609364096999e+01
-9.624725267300046738e+00 -8.899985842632238686e-01 1.456923437529596654e+01
-9.538871240450088607e+00 -1.577388148070431484e+00 1.465669946372977606e+01
-7.386366009582279624e+00 3.104066407839777497e+00 1.479465099730046873e+01
-7.511560910924683476e+00 -3.240592395255593949e+00 1.317032995380186478e+01
-7.521650920098539750e+00 -3.334519462606427176e+00 1.324149217205847506e+01
-7.092112786155007953e+00 -3.214069215076049701e+00 1.318153338931060503e+01
-6.476522266911850068e+00 3.241401324319882704e+00 1.213688511316342655e+01
-8.809580449301394722e+00 2.989793031747729479e-01 1.026722179914802169e+01
-7.164342903465427348e+00 1.855665749902843942e-01 1.526230379995636710e+01
-6.778473524868680045e+00 1.601521728406063438e-01 1.532347604587699053e+01
-6.995755911245152170e+00 -2.844196303640522672e-02 1.531100763337463988e+01
-7.152413578824232232e+00 3.919961776713853929e-01 1.524378522886975773e+01
-3.409440773257280455e+00 2.179400027489188929e+00 1.528639039960250656e+01
-7.531385680924247872e+00 -2.337368539879281393e+00 1.269318926062629416e+01
-1.047810577902788864e+01 -1.607812328621259113e+00 1.280031505355627175e+01
-2.361421652820975936e+00 9.941175202935403910e-01 1.158475694272723544e+01
-2.474296641759106130e+00 -3.003764231970995624e-02 1.163681929874532628e+01
-4.386801752744995397e+00 1.719713949397106978e+00 9.446331227322833257e+00
-4.060686176341576470e+00 1.466529226185572243e+00 9.483262120699261999e+00
-7.899247491026765822e+00 3.536819237891451806e+00 1.330995690235256390e+01
-3.757650808106002494e+00 1.541110438744002664e+00 9.851565692967771071e+00
-1.004932276438075966e+01 5.478538073498127048e-01 1.356548431841885716e+01
-2.382351183919055870e+00 -1.927133198748323117e-01 1.494267784164887658e+01
-9.067302910280989892e+00 1.223357224045064751e+00 1.460689041877277461e+01
-1.911848532829868885e+00 5.464442523592278889e-01 1.302239613065797741e+01
-4.434578241655059649e+00 3.600765356033731379e+00 1.397420325571824762e+01
-5.218590777435800909e+00 2.088373695578884526e+00 9.666632928513532619e+00
-4.403913060728322115e+00 -1.047136342126584019e+00 1.571614739145311646e+01
-5.699500051357057728e+00 3.973618798192042778e+00 1.399818640885129284e+01
-1.991686647491817341e+00 -6.564725509734343767e-01 1.390519338262530269e+01
-8.489413781723776253e+00 -3.580738120912345224e+00 1.362299052085375806e+01
-2.007185191343016761e+00 -1.105298361912920413e+00 1.389080772826244825e+01
-9.400742257474835384e+00 1.899034425443270280e+00 1.399816857740709608e+01
-6.581252864367405309e+00 -1.109871897418400088e+00 1.546547994471244536e+01
-7.925784560798694756e+00 3.758551341229187326e+00 1.379652290212198196e+01
-8.792903261739050791e+00 2.407370126931808407e+00 1.205588882420809327e+01
-9.026120784368385941e+00 1.901998515805138235e+00 1.443583463935179267e+01
-9.678319155901624171e+00 1.387988616094664396e+00 1.124966482912041599e+01
-8.976539700242629038e+00 2.075423159063825906e+00 1.441672506234221274e+01
-8.812251317265330286e+00 2.275800243132178657e+00 1.447028663103519719e+01
-4.400135170002888785e+00 5.696223731743930152e-01 1.029518168134582012e+01
-7.325741947764218054e+00 3.930980041460196084e+00 1.440643219237027850e+01
-7.330486316570189231e+00 3.852827281720297314e+00 1.452779758160198398e+01
-9.059028783762693493e+00 2.952851834906559336e+00 1.342525174531860088e+01
-3.937641724521441677e+00 -2.866346265134498417e+00 1.329743602428355942e+01
-2.709558740962295431e+00 -6.232536172026303944e-01 1.537099786707048921e+01
-2.593264042202748865e+00 -7.960635757994936057e-01 1.526052331920992700e+01
-5.992851008323015094e+00 3.448140945755929110e+00 1.492396973974571850e+01
-5.715521478966832269e+00 3.413795377827780975e+00 1.497412128076929960e+01
-5.781407695468926633e+00 3.233736281582818783e+00 1.501574884464180926e+01
-8.175898269784905636e+00 1.197034600976337959e+00 1.498463244782589854e+01
-8.345561329853708799e+00 1.225972664847811755e+00 1.493620027087254343e+01
-3.755570261326940162e+00 -4.571622997951241274e-01 1.576924716837602247e+01
-5.956742210356584799e+00 -2.663065662280809320e+00 1.545915015090505662e+01
-5.802687659968632339e+00 -2.457076224224130634e+00 1.549288345923173082e+01
-5.573038050247770769e+00 -2.818311100867436636e+00 1.546705647509041270e+01
-1.994668408903497392e+00 -1.051899929731012762e-01 1.400253131190621403e+01
-2.640666514986321101e+00 1.540339256115896838e-01 1.136163395115714891e+01
-9.308502922460307971e+00 -1.238308097893925819e+00 1.477125277811359538e+01
-9.415339754368353908e+00 -1.356687664913413194e+00 1.472209134784421636e+01
-3.190616674701125977e+00 1.234846614463305681e+00 1.025549077525270647e+01
-2.997770501336747273e+00 1.223881503541898841e+00 1.064462781054880836e+01
-6.284963595232355260e+00 3.610084244731140757e+00 1.297287582458620747e+01
-3.600509998369389120e+00 1.536684916330345763e+00 1.001737412623033308e+01
-2.710125449048311985e+00 9.800948572100232070e-03 1.142447507202771462e+01
-2.720812266523417122e+00 -2.874853658984315885e+00 1.324783699989914609e+01
-2.626241359004361620e+00 1.852567113118881004e+00 1.328835033415200328e+01
-2.683672116115023432e+00 -2.766981349939586998e+00 1.318351950218783131e+01
-3.451268712556644136e+00 1.420256526557717836e+00 1.007737130056079522e+01
-3.264424615665793894e+00 1.363847305241985941e+00 1.032067050875241065e+01
-3.124484027677217224e+00 2.183906219379028180e+00 1.293015883299795732e+01
-9.547871298769393889e+00 -1.772205393910412319e+00 1.465200574048599336e+01
-4.792539969506800723e+00 1.776362728756950560e+00 1.548658261311497952e+01
-6.378408181773906449e+00 -3.628522064123965940e+00 1.529774643807902734e+01
-5.976200990816549208e+00 -3.621461172060219447e+00 1.534209652749516906e+01
-9.026997632468347632e+00 3.055172203588849111e+00 1.360106882413235141e+01
-1.964566601353842756e+00 3.152123440140530697e-01 1.405051922586718760e+01
-2.030202553246352792e+00 1.393689241767915199e+00 1.362480955587041009e+01
-2.169313785109254766e+00 1.351225100991815253e+00 1.313297258597067341e+01
-2.612277515702433384e+00 1.169994546729189455e+00 1.143918108642293774e+01
-2.396257354097993009e+00 1.118242145304580326e+00 1.182014690568521686e+01
-9.733391586057567935e+00 1.737059075348695636e+00 1.206612812735980000e+01
-9.641810203844748628e+00 2.042043051764367512e+00 1.254408617452265773e+01
-9.500565883386727251e+00 2.371124759621664246e+00 1.297565619797633829e+01
-9.344484153458440190e+00 2.602498695730311340e+00 1.318834495273300789e+01
-9.023151083476019352e+00 1.440894849771447772e+00 1.047393381623117747e+01
-9.093419292144639954e+00 2.816919079126587899e+00 1.319708447883887104e+01
-9.041227191712071232e+00 2.897810848559319474e+00 1.327388681612735510e+01
-9.257387475530794774e+00 2.567653949092965515e+00 1.294743244073805144e+01
-8.538408698745994840e+00 3.450795436173236475e+00 1.373963457489221796e+01
-8.504601650794853640e+00 3.339268416067246559e+00 1.348491026991975517e+01
-3.521922738967718125e+00 3.094760100495415056e+00 1.462117532841564227e+01
-3.709639196970339725e+00 3.273652610300541443e+00 1.462833261213573266e+01
-7.176800579399094993e+00 -3.754901683281839375e-01 1.127467593478161589e+01
-3.894854377568277126e+00 3.337060072425457768e+00 1.440682750774656640e+01
-3.251488196044483914e+00 2.435414304047126333e+00 1.332028150907602182e+01
-3.688633460904437555e+00 2.972630309620116318e+00 1.378061822216464449e+01
-6.859951348923251757e+00 1.628784558113804515e+00 9.081682564559979909e+00
-6.587365879702691274e+00 1.677980218943031065e+00 9.016515806426074420e+00
-5.395172769417817094e+00 2.363750078336491089e+00 1.016717692643441140e+01
-7.216970878838580461e+00 1.597719140499467283e+00 9.290874309763612615e+00
-8.128248210748081348e+00 2.590457513985018334e+00 1.176569328953532434e+01
-8.467800235370440021e+00 2.450595742374261476e+00 1.182022557147669417e+01
-8.492081315003115805e+00 2.678509410760376408e+00 1.224115960570036421e+01
-8.261681859781131010e+00 2.679696177890685593e+00 1.203323840211995233e+01
-8.103521875826885434e+00 3.244638614979975966e+00 1.287527174054367052e+01
-3.923613807009509902e+00 3.307909198082524149e+00 1.422383637162075232e+01
-4.361426313752157391e+00 3.630973690488990435e+00 1.422624352165451356e+01
-3.706778646683177580e+00 3.077188493984707840e+00 1.403192193035702573e+01
-4.212795792897265912e+00 3.436932892909449588e+00 1.389502040956308448e+01
-8.115136571527498788e+00 3.485012228149839686e+00 1.335004409860851027e+01
-8.053420228439485129e+00 3.186656462053918837e+00 1.272774320002922721e+01
-3.914652354819237345e+00 3.113721930816253813e+00 1.361613549004298918e+01
-3.634370829483780430e+00 2.004963317510007226e+00 1.110921605119770916e+01
-3.822521412301683963e+00 2.156073266636250541e+00 1.110295674541443489e+01
-7.275462686743997764e+00 3.473832855594418678e+00 1.287577269448658157e+01
-6.906702021483486220e+00 3.655369772109906989e+00 1.313832648678853943e+01
-7.837910923447382494e+00 2.043100875367140468e+00 1.056697123079529987e+01
-8.684574038418636732e+00 2.662394208267259366e+00 1.240287261601433855e+01
-6.607557187511249985e+00 2.117311257746467668e+00 9.810129432791203641e+00
-6.190102533633756288e+00 2.087876622318080244e+00 9.639931601923823479e+00
-7.723639862483426377e+00 3.469387088535015540e+00 1.305887508954202403e+01
-5.170248214325018132e+00 -2.625585160803842300e+00 1.550400796914504653e+01
-6.197423916143126377e+00 2.289263396273089057e+00 1.002973238210028839e+01
-6.934016810995956348e+00 -1.892715333191890004e+00 1.255617432090057051e+01
-6.251163498549171749e+00 2.398399211761704120e+00 1.027315155299711691e+01
-5.981772767593877660e+00 2.311809863828829137e+00 1.007777708420543306e+01
-3.979042533228350553e+00 1.908051995041713855e+00 1.026556631566463906e+01
-6.718515649382717392e+00 3.494341199576205703e+00 1.272597603936629795e+01
-6.751245843986414918e+00 3.662908652633242390e+00 1.309885696017693490e+01
-6.002251108039137861e+00 2.406030102451074626e+00 1.028371222730276813e+01
-6.467018409373260113e+00 3.428419254634717639e+00 1.254905788508821374e+01
-5.605180808926982117e+00 2.419259307528286662e+00 1.028568031381697168e+01
-6.538711065566602976e+00 3.972131225523420461e+00 1.380109033190527512e+01
-5.899708491446312486e+00 3.915981599779076117e+00 1.379956979451889154e+01
-6.126650692508781582e+00 3.609185984838005901e+00 1.299627615459661101e+01
-5.866708231916105909e+00 3.568903147905303275e+00 1.297091353759936894e+01
-5.390108314565062564e+00 2.416211120966358372e+00 1.028705648223709446e+01
-5.718806989794947171e+00 3.563411193391995191e+00 1.298550387738558598e+01
-6.512262120822770228e+00 3.890573860924847693e+00 1.360545552731323582e+01
-5.522593959473973690e+00 3.805023792987917375e+00 1.361591675869664542e+01
-5.667006254464122428e+00 3.686853915704122464e+00 1.328967002298421463e+01
-4.133964367807371865e+00 3.480173521670683279e+00 1.424013943778112790e+01
-4.338788478576937280e+00 3.498373156581153332e+00 1.383192688792520286e+01
-4.521446201033016088e+00 2.492581103077236016e+00 1.100310526159190871e+01
-3.859067941601292073e+00 2.107179840210516186e+00 1.090792203391041326e+01
-3.931802352061541495e+00 2.264366807992820529e+00 1.120519976345771695e+01
-7.944161255459746940e+00 2.273833618253292777e+00 1.106185255752876984e+01
-4.277190741184540457e+00 3.324749333995179246e+00 1.343206302501360128e+01
-4.512904317540176180e+00 3.672780200476156942e+00 1.405206758166167802e+01
-3.844713236896424746e+00 1.766463532624924726e+00 1.013913123680721995e+01
-3.848826654527214952e+00 2.840345904431747837e+00 1.297571067070387230e+01
-7.904895061464851658e+00 2.031225820185325048e-01 1.513544740914653275e+01
-3.892604929639503997e+00 1.960663005582696572e+00 1.050705305528678579e+01
-4.513894821410918468e+00 3.435594217450703702e+00 1.336401788779812350e+01
-4.554257405195541786e+00 3.489100704443779399e+00 1.345593918549058188e+01
-4.681450112421623011e+00 3.606665155975353532e+00 1.361363421288891473e+01
-4.603740124126680655e+00 2.292551517870113464e+00 1.045330754242891302e+01
-4.647143135385528367e+00 3.432757941213696817e+00 1.319238597583008143e+01
-4.796801798268235828e+00 2.291295095179591623e+00 1.025819408816746048e+01
-9.447945907301340540e+00 1.572417412510724866e+00 1.128858134188755358e+01
-5.078903858839328045e+00 3.525305254564366386e+00 1.304183653718937208e+01
-6.046355313143311427e+00 2.663563895426161121e+00 1.083637955394504004e+01
-4.961841476487231617e+00 2.256312824295853225e+00 1.005109043462772078e+01
-4.919009899717628365e+00 3.549467223359097812e+00 1.319817436921459475e+01
-6.087191903447435770e+00 -8.984967150359501886e-01 1.200421232389725290e+01
-5.188217115488495956e+00 7.116994835441254885e-01 9.938653219906786518e+00
-5.825089292925881068e+00 5.093497031872997738e-01 1.012539287173023084e+01
-5.843331960879703857e+00 6.532919419558238516e-01 9.914162766129695825e+00
-9.485565524772624713e+00 2.366837810545283638e-01 1.449861405174211981e+01
-5.585714857269761247e+00 8.093716737204310618e-01 9.709206562287381104e+00
-8.853339164443200460e+00 -4.727764188023089176e-01 1.084765667520395382e+01
-3.794595153364746398e+00 -1.274900409547904623e+00 1.578901670535126911e+01
-3.991452989639562077e+00 5.763018550522702732e-01 1.032167898389751670e+01
-8.471014694660446764e+00 -3.344217680315765051e+00 1.322701419157636948e+01
-2.476678158942312358e+00 1.119682729355236939e+00 1.473565640754861406e+01
-8.208723236286733282e+00 -3.218679056680109341e-01 1.089264907214738898e+01
-9.977622130826416580e+00 -2.511709240917183728e-01 1.133637378332015189e+01
-7.713434126260420243e+00 3.274029546602325258e+00 1.266309122347736249e+01
-7.872058000346667583e+00 -2.459184762652048661e+00 1.270065374659698776e+01
-6.376035365756465900e+00 -1.043216897485610417e+00 1.550324716312464446e+01
-5.546733676286857317e+00 -3.619474189627401195e+00 1.361446213369099567e+01
-3.345836052367898716e+00 2.872734144962376224e+00 1.444026499009823183e+01
-4.609506765605823730e+00 -1.642802342699131835e+00 1.565489351859779887e+01
-4.532330039770689822e+00 -1.933676186220219861e+00 1.564813831309779246e+01
-6.504005218421933243e+00 -1.998709912746042150e+00 1.267205166720176734e+01
-6.697690909715102947e+00 -2.253399358249364326e+00 1.277112355875001626e+01
-2.023642703121161901e+00 -2.533351042831106348e+00 1.386547949393986201e+01
-3.286601164651185680e+00 -3.032683159604888878e+00 1.333473483689063599e+01
-5.064306368666184888e+00 3.022242417933411751e-01 1.058609975369538958e+01
-5.457362083474798453e+00 2.429360135058638015e-01 1.056910529633188034e+01
-7.238904866673801841e+00 7.560220163871629317e-01 9.717886538538454744e+00
-5.380874684282109577e+00 9.670726767267323609e-02 1.080629624517082377e+01
-9.441986314679928327e+00 -1.530106238313575950e+00 1.471236493720040173e+01
-9.734928376118542559e+00 -2.803032457604244243e-01 1.106677904229212217e+01
-9.774639588044882643e+00 -6.299271840918305720e-01 1.116850795399752272e+01
-3.987620295235736023e+00 2.082525882603008860e+00 1.066527913332103950e+01
-6.372570560384958505e+00 -2.421581303689160691e+00 1.543474603451280913e+01
-8.182841509141674408e+00 -2.004525097883808726e+00 1.517013375189970859e+01
-2.914122666760608382e+00 -3.136716708503076489e+00 1.339784309676621277e+01
-7.540511867767377474e+00 -1.011558065374154047e+00 1.526926270954020382e+01
-7.777694510928626848e+00 -1.424935859387135295e+00 1.523350774329476209e+01
-7.559203339113167885e+00 -1.850948754641705385e+00 1.527060287160524510e+01
-8.760478476669849357e+00 -1.609943605044767523e+00 1.501862049615269612e+01
-3.264488045028735463e+00 -1.504578113265821138e+00 1.249878523340170133e+01
-9.830968884360537174e+00 -6.754169636948650357e-01 1.436750293786153421e+01
-4.480072634284663735e+00 -2.636458141806211408e+00 1.558433551938654560e+01
-8.867843132983781018e+00 -3.127898925544561948e+00 1.297199957386254354e+01
-8.698325121950972516e+00 -3.337976668089588372e+00 1.321634472306933006e+01
-9.532298792468717252e+00 6.526528460895621997e-01 1.047157632877640410e+01
-5.561751558732499490e+00 1.173964735132430937e+00 1.539879510315694588e+01
-5.693853113146298384e+00 -8.089390643514020596e-01 1.194605393797943904e+01
-5.368139476833495571e+00 -4.252998200965223852e+00 1.443484917484985530e+01
-8.295317515309996281e+00 -3.552400237669989913e+00 1.498516727502198975e+01
-8.235458373399822563e+00 1.357478947154695526e+00 9.650627363489402200e+00
-8.314044904706163308e+00 1.242866936616331630e+00 9.576241107943001651e+00
-8.498882542926182282e+00 1.328993051990402074e+00 9.819828736374130784e+00
-6.018696951356082181e+00 1.830102623877401635e+00 9.129671813539228964e+00
-4.000500447359270240e+00 -2.435836496764038905e+00 1.570402002139261910e+01
