-1.171804802410470359e+00 2.021553350520381986e+00 1.790331514151986525e+01
-5.343627493461242217e+00 -1.077795424895342302e+00 1.623112237635514887e+01
-6.347339974047392364e-01 -2.506433589868116485e+00 1.868830335201624493e+01
-5.217859993029971832e-01 -2.929019088921989145e+00 1.830696066653556286e+01
-2.458478689955811092e+00 1.192475392820392610e+00 1.403607405698317123e+01
-6.575355196822755488e+00 -2.146591597999749634e+00 1.710494767335955046e+01
-4.065310245434884173e+00 3.175800209885828895e+00 1.845452417790709276e+01
-3.632303283173723862e+00 3.187868502096254719e+00 1.835954807352690565e+01
-7.204053504501144012e+00 8.589383798965987138e-01 1.807724517473092973e+01
-4.743624167437684669e+00 1.176050419508028799e+00 1.905957170651572241e+01
-6.474087922655617611e+00 2.603301907491538003e+00 1.725808540768975163e+01
-4.731384387690613202e+00 1.977919147004770561e+00 1.890859609880512338e+01
-4.345362657375755333e+00 5.960571288615142960e-01 1.913804365326869217e+01
-5.878638316548679299e+00 2.400442270005164858e+00 1.846213302535349143e+01
-4.561645824876315203e+00 1.392177498091247578e+00 1.903564080950082271e+01
-4.687714173999893319e+00 3.574844317358013779e+00 1.765089912615207268e+01
-3.161989347754490254e+00 2.645926683416984115e+00 1.656568615241663522e+01
-2.703984631077599676e+00 -8.110203615230782148e-01 1.900699788759319020e+01
-2.277736333538380897e+00 -4.165667599782723052e-01 1.434478669126645300e+01
-3.632749339324680804e+00 -2.070090055242518545e+00 1.930044154333831230e+01
-6.218690855558889119e+00 -1.737055066427138694e+00 1.669607340213559254e+01
-3.826311698313200615e+00 -1.826370334621998825e+00 1.932467657260076876e+01
-2.488204521929632040e+00 -3.002100627225534613e-01 1.429618198628592651e+01
-4.816354833500311905e+00 3.541241859018736893e+00 1.749151004873094806e+01
-2.094697852338616606e+00 2.349870359286877708e+00 1.836479385208872728e+01
-7.601694876183491267e+00 -5.393139786951794967e-01 1.781350543904530426e+01
-3.269076922397678331e+00 2.400071417601143953e+00 1.588441553002467188e+01
-1.727947875089765883e+00 -1.261730537812283170e+00 1.514360388182442918e+01
-1.726093379534507921e-01 -5.054077629807369743e-01 1.778882708024042003e+01
-5.059568358910028429e+00 -2.617313671601845027e+00 1.944044426600395425e+01
-4.827890713986942473e+00 -1.409986106708704723e+00 1.940901927637674262e+01
-4.746684228106819781e+00 -1.064406630664055609e+00 1.624727978288770558e+01
-4.207095366009524717e+00 -1.643686540187849543e+00 1.936218527027868319e+01
-7.038728558627179943e+00 9.959882081961392020e-01 1.569471040601163381e+01
-4.750712377505257322e+00 1.723205827201014229e-01 1.921552783763276651e+01
-3.651026584336809044e+00 9.483899512647985253e-01 1.305958068935178673e+01
-7.307069488119425138e+00 -2.443897368640308709e+00 1.773897290972496776e+01
-4.741804724715811936e+00 9.692798683314617358e-01 1.909194823895328952e+01
-4.212045128839040586e+00 -1.971570644407152795e+00 1.695372743005310312e+01
-5.330125482841384432e+00 3.060686792654988775e+00 1.830465449883464757e+01
-3.676605182969201024e+00 1.078838737064589548e+00 1.312025698006351959e+01
-3.036451242239866843e+00 -2.445183772267464750e+00 1.911175459071074911e+01
-5.208259886396606753e-01 4.574371540913307888e-01 1.815065879553907635e+01
-3.030928840913741595e+00 -2.677981546645006983e+00 1.909747116555842084e+01
-7.582265753076078418e-01 2.783287438347262777e-01 1.853464223621534401e+01
-2.839407029097780200e-01 -6.534467108474949493e-01 1.821536869858182328e+01
-3.377377738200170398e+00 -1.219237042760167311e+00 1.918355960547613037e+01
-5.872997338858121363e-01 1.295934949795867652e+00 1.750598916352130985e+01
-7.748030623779564863e-01 -3.191803651247132612e-01 1.872698823746156549e+01
-7.040058597930468842e+00 7.943943587881069357e-01 1.547836821409779517e+01
-4.693623850643485085e+00 8.183270606566029892e-01 1.310456140767589162e+01
-3.856942535969952957e+00 -1.629210476941073571e+00 1.931585264309634553e+01
-5.063332973717627361e+00 5.932875595262709911e-02 1.431231295059231812e+01
-5.451394213542241296e+00 -2.882497322059875522e+00 1.821647843113719389e+01
-2.581318080632850176e+00 -2.788574348042707207e-01 1.894813723766674585e+01
-1.027688002521576216e+00 4.486010051466974291e-01 1.865457781004699811e+01
-5.353574058052720908e+00 -2.162703760429438571e+00 1.732215733356941101e+01
-7.221598758300930676e+00 1.569009622937477477e+00 1.685332839957161966e+01
-9.426773908773853350e-01 4.780264567224720151e-01 1.859787835115592358e+01
-9.689759845152421391e-01 7.010838272003460103e-01 1.853111354794848253e+01
-5.374301697355028828e+00 -2.751072318495156210e+00 1.786012679497187960e+01
-3.723922269843167321e+00 2.573294512402092504e+00 1.868812935094826244e+01
-8.321020395256861768e-01 1.023682656072851804e-01 1.866145123734999700e+01
-5.370976653259312172e+00 9.826621687514148773e-01 1.907867693195190739e+01
-1.223877918708552226e+00 1.775665288018935861e+00 1.710869678222344348e+01
-2.152649743016220363e+00 -2.815819157154602070e-01 1.890453775256986901e+01
-6.166786572464017624e+00 4.161047452456944074e-01 1.417684854105664627e+01
-1.213063350522026518e+00 9.577914836924167341e-01 1.526635742509915517e+01
-1.330829815089783263e+00 -1.388140433751266389e+00 1.527021882869895464e+01
-8.647421352163000563e-01 -3.230956673989603622e+00 1.779448145410771431e+01
-6.688642030552496287e+00 1.218676772538318076e+00 1.859907956123556616e+01
-6.810327520269908952e+00 1.368744353569450123e+00 1.585449717341510834e+01
-4.581089551937227444e-01 -2.479747230800068092e+00 1.849166014516066170e+01
-7.230765859423699204e+00 1.427505874011987252e+00 1.740637778681707815e+01
-6.317768011949749685e+00 2.252107537687032313e+00 1.824359850981502618e+01
-2.262074569854633843e+00 -2.908091058048030586e+00 1.894747915573423214e+01
-2.435372361710929745e+00 -3.077018307583858636e+00 1.893227793787936619e+01
-3.029920759560821075e+00 1.205044369819307182e+00 1.362756456723756671e+01
-5.258909605085970718e+00 -2.865912528108523372e+00 1.926889300764617374e+01
-6.654629292586353717e-01 -3.040980793058347231e+00 1.760068532628084981e+01
-3.994492942267543256e+00 -2.234895924163468273e+00 1.710143747439957806e+01
-3.089750908772614046e+00 -3.149407808509598006e+00 1.869945057190952653e+01
-1.325927680433666822e+00 1.685152335297530168e+00 1.835942844830317355e+01
-1.312943297238704510e+00 2.143589722451201052e+00 1.791296082655395949e+01
-6.192701843718457333e+00 2.944430001938951769e+00 1.758622766909924096e+01
-6.741601640620935143e+00 -9.859472451791657654e-01 1.544977949376493953e+01
-9.152423997082861362e-01 8.825024954194715665e-02 1.870871930285820284e+01
-1.444505864801340689e+00 -3.310050083006597976e+00 1.872271566509190066e+01
-3.333873797332447264e-01 -1.902804982581752569e+00 1.653297678474568144e+01
-1.595173981617498793e+00 -1.312465465634331085e+00 1.894205220928869338e+01
-4.198907948762050424e+00 -1.270822203674850437e+00 1.933055237240902713e+01
-2.519943929992052301e+00 1.682982978842239685e+00 1.866845255773017342e+01
-6.957393568783857951e+00 1.237735599801654374e+00 1.824883220833519104e+01
-7.497114134178004541e+00 -2.049083570483545724e+00 1.734562658264216495e+01
-2.591587892021163242e+00 7.148141218647646733e-01 1.883686186611137359e+01
-6.145077140225069456e+00 -2.059579743985185285e+00 1.716865516640734413e+01
-1.974218777459828544e+00 -2.608463918194616760e-01 1.889085722934970946e+01
-1.470014721505046307e-01 -5.664860829362251549e-01 1.755742934008465639e+01
-4.399153504856370134e-01 -5.274239867372298995e-01 1.589205985245146380e+01
-7.026977906910413019e+00 1.594446127624923992e+00 1.652573630546676853e+01
-2.409639952027046395e+00 -8.607479521289000957e-01 1.896978292730344506e+01
-2.384261544639993957e-01 -1.708108577133451433e+00 1.694480061327938003e+01
-1.394671477698995243e+00 -1.298377068221949315e+00 1.893213574008546018e+01
-5.230625515605036746e+00 -4.816542636682557554e-01 1.540181269664311614e+01
-6.419349763586524205e+00 -1.730494504961348268e+00 1.648777607913165966e+01
-4.857235636683836510e+00 -2.973463358850408689e+00 1.906993444188707443e+01
-4.504341302625204158e+00 2.786757236114531189e+00 1.864616947753454568e+01
-6.544414025237397681e+00 4.315125031783401122e-01 1.904605238668692735e+01
-2.006909617073082686e+00 -2.307368814995233386e+00 1.669037308286937460e+01
-7.734032898168861969e+00 -1.114013055564795351e+00 1.706253472593455811e+01
-7.338113018681931443e+00 2.485205457774396498e-01 1.822809278093663821e+01
-1.831694506080368434e+00 -1.683581614914301916e+00 1.895780148329403048e+01
-3.228524012823667633e+00 1.191387843420795178e+00 1.344899381592415111e+01
-4.468882684293923546e+00 3.630528881624701665e+00 1.807188880531921527e+01
-1.942034999935376316e+00 -8.444617587280159876e-01 1.473646083534578466e+01
-2.631702112165684948e+00 -2.450637569105263314e+00 1.702840453699014134e+01
-5.720156668300289127e+00 -1.287947945122581928e+00 1.638132012131771020e+01
-2.568876943489626363e+00 -4.846425649930466428e-01 1.896396533796327688e+01
-3.252523668922299827e+00 -3.014828041001434755e+00 1.831964297586529611e+01
-7.523404315387161923e+00 -2.091126502231098083e+00 1.822328101059313710e+01
-1.170757520684230002e+00 -7.009551236391482476e-01 1.888079270900176354e+01
-1.575133160448677572e+00 -2.833915296623944480e-01 1.887011873881614221e+01
-2.140479101422489094e+00 -1.862753781111334606e+00 1.634553508712531666e+01
-6.717965214948173447e+00 -1.976138916231167109e-01 1.482093137374351599e+01
-1.557810730593892856e+00 6.154410124844400531e-02 1.883626608090110821e+01
-3.556586885314620083e+00 -4.699227832038321839e-02 1.909253536729442757e+01
-5.292858426276077388e+00 2.957366547471314000e+00 1.838213707648536044e+01
-2.297924838441153472e+00 1.131892744660655925e+00 1.873792031100282074e+01
-2.012460614616168098e+00 1.192586698403110823e+00 1.447667767894155233e+01
-1.464725784448750456e+00 -3.483415708764931562e+00 1.833768881059319611e+01
-5.970761285538855212e+00 1.255396975775557866e-02 1.927650271561869388e+01
-7.187488372501730005e+00 -1.956348723962007874e+00 1.663845051511920659e+01
-2.470097035215248926e+00 9.946406290252537419e-01 1.364223744887715739e+01
-3.450307239648022772e-01 -2.699841688799902606e+00 1.778326116343696484e+01
-1.418520658781549315e+00 9.655834901044063612e-01 1.489062176254406111e+01
-6.149469062072516756e-01 -3.132111483282201458e+00 1.792317698316321994e+01
-1.774216198104044739e+00 -2.367383296452846286e-01 1.421557203275954251e+01
-2.110007778931906053e-01 -1.893179053156747838e+00 1.756286462460384357e+01
-5.415545688594171736e+00 -1.402160992026013409e+00 1.945677408583707901e+01
-5.610657872159290349e+00 -1.833109339535637927e-01 1.931175368015067662e+01
-2.203147777808356800e+00 -1.072024064108879848e+00 1.896063256405045294e+01
-6.793244166702087306e+00 1.250080979917260304e+00 1.846966981745338998e+01
-5.527702844513868286e+00 -1.268267396150105863e+00 1.642120183529245381e+01
-5.220762206734943511e-01 -3.026049001513533732e+00 1.777275447389331120e+01
-6.812664855328708136e+00 1.527905020262756874e+00 1.609259885744316776e+01
-5.576286623147439947e+00 -1.726202002414594094e+00 1.692477011439566681e+01
-3.658752231211277461e-01 2.781414632021540490e-01 1.793616801928937221e+01
-4.057179695698645894e+00 -2.986463090182031266e+00 1.908845979478682509e+01
-8.620108570447300167e-01 1.118742009312917673e+00 1.631233680967222810e+01
-3.914773745258533388e+00 3.523501823058831750e+00 1.789904051826563247e+01
-2.931512625036756248e-01 -2.487927993709800223e+00 1.753605000422274784e+01
-5.124839098741784227e+00 1.988520544003922197e+00 1.885463633572699749e+01
-3.944070113865844718e+00 -2.543015482269611383e+00 1.738048561009015813e+01
-1.507733422259858180e-01 -9.388361929664458261e-01 1.778761110905683651e+01
-2.380419170218650127e+00 -6.727552248686357039e-01 1.895384531155172070e+01
-5.101835516748476351e-01 -2.825274893689375677e+00 1.738597850130684819e+01
-4.456797672786461106e+00 1.222529635552224825e+00 1.327917136430160028e+01
-1.499839123550543718e-01 -7.269540771603548723e-01 1.774531531091174585e+01
-5.743925149875964031e+00 5.481800514891636000e-01 1.916910171305293531e+01
-6.601890463033478262e+00 1.755490739162885561e+00 1.609707408751335223e+01
-6.581036910243558413e-01 1.313236935682486450e+00 1.775227715587891808e+01
-6.561403472212757215e+00 3.609574280295224646e-02 1.456793844230654500e+01
-7.115298388783746653e+00 -4.164320205334882674e-01 1.526278179171282190e+01
-6.856304548914812891e+00 2.153607881420847914e+00 1.708437804401052418e+01
-7.267721571931693436e-01 1.477580118410213306e+00 1.753822872568131075e+01
-1.955754825385984663e-01 -1.704105808073611783e+00 1.792779076119977688e+01
-3.117254311237810604e+00 -1.210956373462854341e+00 1.611201383301193246e+01
-7.469801312549461336e+00 -1.368216531036363648e-01 1.562867154094869093e+01
-5.121549851998618230e+00 3.248422511565328019e+00 1.700324568788969160e+01
-2.145647214656581703e+00 1.887783157328246642e+00 1.855701604869920729e+01
-1.762100835427673484e-01 -1.531314015646087157e+00 1.773998606320286697e+01
-2.938509777443847337e-01 4.809973327486961603e-01 1.677154771117971066e+01
-2.419651946590312352e+00 7.449242530736229773e-01 1.343402179584054679e+01
-1.929232178491234073e+00 6.995388872041877759e-01 1.380268281433562194e+01
-3.924451452009947161e-01 4.294843011816652512e-01 1.616965207444456709e+01
-4.026973473441208817e+00 -2.981835665889038367e+00 1.893030610700656169e+01
-2.712958337915555962e+00 2.655180561931847372e+00 1.711771067844024330e+01
-7.151985068421308434e+00 -2.572244109795282618e+00 1.874020792836256888e+01
-4.840557558787925707e+00 3.524178760458119175e+00 1.820103664862120851e+01
-4.698885754195853082e+00 7.336034065626991785e-01 1.322358988169463956e+01
-2.881016725357362418e+00 2.572938511513566784e+00 1.669130767131212068e+01
-5.102939103491757500e+00 3.348403853870706381e+00 1.821547915224507719e+01
-2.358266601586478384e-01 -2.121966909437323690e+00 1.775864582814073955e+01
-6.325476557728484828e+00 -8.501329343998081933e-01 1.538898250431605064e+01
-2.033675345554150748e+00 -1.156061540150499667e+00 1.524569957845531221e+01
-5.737708445079655384e+00 1.816500836771942407e+00 1.880071821323997838e+01
-6.133888894252952362e+00 1.655843556709805764e+00 1.521353728238058167e+01
-2.061468343753381394e+00 -3.456173117949715046e+00 1.855011566187163297e+01
-3.441902699323383885e+00 1.952794864033328359e+00 1.468997771227456539e+01
-5.740078668293581821e+00 2.042175666434926207e+00 1.871072655202837964e+01
-3.070834480910729525e+00 -3.142081247170130265e+00 1.852264621533722178e+01
-5.620597355539271867e+00 -2.743632536862573801e+00 1.787878762179218128e+01
-3.473160002788969969e+00 -2.996966193515825605e+00 1.891589484495260720e+01
-4.287231183052726102e+00 -1.779800984278686604e-01 1.485853896918727557e+01
-4.206305843773411546e+00 -6.378405462588927488e-01 1.926332760672456246e+01
-2.829311519287216470e+00 -3.084759084040736621e+00 1.791704897848468292e+01
-7.513073306243422955e+00 -9.643409214568425813e-01 1.839261890132030786e+01
-3.664347261505150222e+00 -2.968252542387099346e+00 1.888584091191446745e+01
-4.465863239443937260e+00 3.572276104059791901e+00 1.822955618228702335e+01
-7.513300154113232487e+00 -1.431545072897026927e+00 1.853650742002118434e+01
-5.805063575045533497e+00 -2.212693283950284862e+00 1.738275011041140417e+01
-4.068423982240373604e+00 3.550059964126305534e+00 1.788658842762756152e+01
-4.671563711225541482e+00 2.929634388122883237e+00 1.626875090811875069e+01
-4.055210483485822692e-01 8.855702617542299260e-01 1.694577427130504432e+01
-5.106704206928450063e+00 2.598691296098055936e+00 1.862386424673409024e+01
-4.157486202398573916e+00 -8.943149476643810214e-01 1.600807422873284835e+01
-5.312092035464106132e+00 1.983695343329808125e+00 1.882613672112890768e+01
-3.780371862080742495e-01 6.902624752243889938e-01 1.754477469124168110e+01
-4.596667267220823305e+00 -1.840162508180702483e+00 1.941973301482111580e+01
-2.881294424052827097e+00 2.879020452232290861e+00 1.749434400608449991e+01
-4.674492386302206981e+00 3.607721006113813633e+00 1.787524784080403251e+01
-4.960863940524231630e+00 3.068095982515974374e+00 1.659562893940926287e+01
-1.615704474815089497e-01 -1.326955566061190472e+00 1.777919914879565866e+01
-5.095732130318659792e+00 3.035457480478883863e+00 1.660995768237655668e+01
-6.886682645410883374e+00 2.031268122061354209e+00 1.763091375903442426e+01
-4.660868838123865210e+00 2.453824969796166933e+00 1.539976458300874285e+01
-1.416156854327336401e+00 -3.313800678527540899e+00 1.773220603266666373e+01
-1.958506157493723254e+00 2.826099235551081668e-01 1.882987675587230925e+01
-1.406498217190448763e+00 -3.239336776818475983e+00 1.759587059500256245e+01
-1.652733098018606128e-01 -1.347859862234158435e+00 1.758408015738991637e+01
-4.295992212850088254e-01 -3.351786356189846439e-01 1.837741110264429167e+01
-4.851367126916385608e+00 1.640278757799246812e+00 1.402877855926255890e+01
-6.089664499133765396e+00 2.236756140292083028e+00 1.843757224379750781e+01
-3.678663905822583402e+00 2.985377092404043475e-01 1.385921912280896962e+01
-6.956565077024714050e+00 2.061389221232156288e+00 1.723931203653556921e+01
-4.889649688881877232e+00 -2.852413223106710305e+00 1.934062454995169489e+01
-7.355675431356769600e+00 -5.969251247542550765e-01 1.564924198506398412e+01
-2.625060130016900750e+00 2.147962770675818422e+00 1.857439504300281286e+01
-3.654575038794412034e-01 -2.729951018786179517e+00 1.755510789066989830e+01
-6.343993481506159604e+00 1.220005235671159927e+00 1.883386038740914969e+01
-3.354667862784481258e+00 1.167779190228591002e+00 1.889450146905747019e+01
-5.016253537766013793e+00 -2.751523308281222047e+00 1.939866276783535781e+01
-1.794827277089692252e-01 -1.509772445327165702e+00 1.750418129777917997e+01
-1.565046002853679674e+00 6.804064048584145263e-01 1.419571824059699949e+01
-5.651690710970764808e-01 2.737848549290397004e-01 1.555191774968952600e+01
-6.982331579590305815e+00 1.430332701513391758e+00 1.803959104538551017e+01
-3.149470749443087136e+00 -1.437277596664643831e+00 1.631662029775742795e+01
-1.935796353752590182e+00 1.913420230806450295e+00 1.849730692185944392e+01
-3.278904235273481405e+00 2.595648746019670661e+00 1.856394761492476064e+01
-2.377475860351151216e+00 -9.574961352606335963e-01 1.542996652842986904e+01
-6.709396442329120802e+00 4.073523312650034756e-01 1.464178838892778245e+01
-7.752444846044702409e+00 -7.528252357764129155e-01 1.682402585665122885e+01
-3.837160758575512531e+00 -2.827433846321751432e+00 1.928278930546754211e+01
-4.431708375630574182e+00 -2.903439475270527037e+00 1.826935566406386258e+01
-3.923418679153573230e+00 -2.937693485241687164e+00 1.922327827276342660e+01
-7.347537069705796675e+00 -1.952832433708363569e-01 1.543444820001190365e+01
-9.280956264791875299e-01 -9.144204822470204386e-01 1.516197468106340907e+01
-4.999886606946937206e-01 8.947629124491464081e-01 1.775402058034948638e+01
-2.289078930955471325e+00 7.471923872668206901e-02 1.386513227442880591e+01
-5.042496275089936475e+00 3.628284599286876411e+00 1.806200925334781360e+01
-5.254178224217112003e+00 1.773803901764205104e+00 1.445891164432899600e+01
-1.105248956193594090e+00 8.789946931001880737e-01 1.531877428213275394e+01
-6.625308536864635833e+00 -9.700182389940518179e-01 1.930478401219515305e+01
-5.633172736069965936e+00 -2.415904907040049121e+00 1.948889317757618400e+01
-4.325223410521545908e-01 7.183279431926629099e-01 1.651587530961840500e+01
-3.824400995786347845e-01 -1.369358987073936884e+00 1.612838338386422166e+01
-5.441234555867357159e+00 -2.917720183090818598e+00 1.889691608495827424e+01
-6.986550882191065348e+00 -7.765005604851140664e-01 1.906586411172500206e+01
-4.876965335006104851e-01 1.106776776607268697e+00 1.734607438018254655e+01
-5.465724971753236794e+00 -2.579788219883840661e+00 1.944647965858773020e+01
-6.306416188238844533e+00 -6.410043574980464065e-01 1.935182685522260115e+01
-2.253980264693420388e-01 -1.950594094441231885e+00 1.734905131523104771e+01
-5.863537727354120044e+00 3.205153724864667542e+00 1.784209096467258249e+01
-6.276947300647746530e+00 2.650904561720399677e+00 1.701690651459692916e+01
-2.083300391617225245e+00 1.914171198098524318e+00 1.611467748125427235e+01
-2.808450878965864206e+00 -2.464270874063330563e+00 1.707461339583955962e+01
-5.909459307649371773e-01 2.035964699379676501e-01 1.542314235153419943e+01
-3.632604107754202616e+00 -2.929916917719269875e+00 1.915703430936462937e+01
-3.683032500746501903e+00 3.320840363035757914e+00 1.767070695085021370e+01
-7.355707070055591323e+00 -7.466255639399468347e-01 1.863463691207043027e+01
-2.871571871953121580e+00 -3.241718361359997136e+00 1.871871101578271990e+01
-6.148288374295422187e+00 1.244739985527322901e+00 1.890361834677373665e+01
-9.724313516779603539e-01 -1.294061888100620950e+00 1.533234201595565693e+01
-2.024847090542245542e-01 -1.124935952533431038e+00 1.812992221902483081e+01
-4.722930862126553109e-01 -2.881573641149727472e+00 1.754409939360472848e+01
-3.243222650099772952e-01 -2.592401192280372690e+00 1.795124011892136551e+01
-2.376107993014871855e+00 7.766494487700937865e-01 1.880211804627331773e+01
-3.837822066165008650e-01 -5.401528736837917233e-01 1.837860099913725875e+01
-1.673192077226181240e+00 1.102188983073426165e+00 1.474072893779463911e+01
-3.827000638089688156e-01 -1.129509526510974693e+00 1.851947668113343681e+01
-6.234042990432919318e+00 -2.386281473294957767e+00 1.946483091261618981e+01
-6.974563884414229697e+00 1.843291857073999118e+00 1.763751171839681930e+01
-3.019033889844169316e-01 -2.936634333633582061e-01 1.812241658582804504e+01
-7.690652099356511506e+00 -1.288048852486878060e+00 1.686105504730370441e+01
-6.597393847660527832e+00 -8.015328974618324276e-01 1.929768972048021070e+01
-3.642744014685006526e+00 4.141176434601424594e-01 1.367762892232628857e+01
-2.548184020905787772e+00 -1.226909888931757786e+00 1.900724063002914122e+01
-4.280573069961242538e+00 3.589700389931488100e+00 1.822798154187915642e+01
-1.813556966014560512e+00 -3.443718786484299077e+00 1.811638767401565175e+01
-2.673218512952268977e-01 2.583698289680834703e-01 1.757203682594749594e+01
-2.205441711663089777e-01 -1.393477849061600660e-01 1.775078758295139991e+01
-2.197874807839148570e-01 -1.705617727067299194e+00 1.712176385305710724e+01
-4.936029195792786872e+00 -8.823510776029015457e-01 1.603399956772561197e+01
-8.610656211401011007e-01 1.520953656049730540e+00 1.797940203176499452e+01
-5.366318520227148170e+00 2.242513694306614624e+00 1.872177094496329275e+01
-6.031878912608763521e+00 -2.855023447400390602e+00 1.865328857494139569e+01
-2.427025544212879637e-01 -2.108415816446225222e+00 1.796511282951357558e+01
-3.322234165852405496e+00 2.674742302707803221e-01 1.383621417334289916e+01
-2.221017821579160945e-01 7.796285955388226885e-02 1.695361434310358462e+01
-3.653065159972693543e+00 -2.967977252697438395e+00 1.907642472588634419e+01
-1.712311511506854345e+00 -5.318385928597549883e-01 1.445021531684595928e+01
-4.624510485311044583e+00 3.292737192296431470e+00 1.837177483536592959e+01
-5.959150690325265565e-01 6.706651173767644858e-01 1.814548925515204658e+01
-1.906197484892219407e+00 2.583673992024454469e-01 1.386255836628992100e+01
-4.760847684854623729e+00 3.009213678670232373e+00 1.849489090237100086e+01
-2.032332064058848253e-01 -1.537408948892939664e+00 1.814095621240926093e+01
-5.763935781407724335e+00 4.016430094664514838e-01 1.920092868810559494e+01
-5.893499253460261489e-01 -1.194915637104294603e-01 1.850833453508692727e+01
-5.664356875222442689e+00 2.952807857793859014e+00 1.821059684262482037e+01
-7.428181846252313925e+00 -1.558783614790432592e+00 1.866840311159384314e+01
-5.707750767237409484e-01 2.816874979745210839e-01 1.832253469053122430e+01
-5.090967429982327985e+00 -2.405870873930632037e+00 1.947780093506940702e+01
-6.267727810701395619e+00 1.808084913307182351e+00 1.564556164829392415e+01
-3.461948579434446671e+00 -2.983356424778595528e+00 1.906256130459212628e+01
-7.467953014133402512e+00 6.572445282911086872e-01 1.581657969205629755e+01
-5.378743438168986923e-01 -4.980798749855663288e-01 1.857361609343224629e+01
-2.469198337550735811e+00 1.957890409973710888e+00 1.570371972733606114e+01
-9.386255789558148876e-01 1.040597185687424098e+00 1.595921533559880245e+01
-4.039187746658164713e+00 3.545246557611051674e+00 1.822808733281499016e+01
-2.235772354460476397e+00 -6.192989146314986648e-01 1.459864374003719334e+01
-2.988176575253354006e-01 -2.340705783476532797e+00 1.814250566104621853e+01
-9.552138366057496555e-01 -2.992476412381656736e+00 1.728224370242464758e+01
-1.905783666753953831e+00 -1.219818263660322533e+00 1.518647351314553262e+01
-4.853091486184851533e+00 1.539413507626391731e+00 1.387698645966774436e+01
-5.880588936658883270e+00 2.185276211017768588e+00 1.858812302043694231e+01
-1.586878461715517385e+00 -3.225041054679838926e+00 1.761309982748229075e+01
-1.836092983422426883e+00 -3.345529447967738879e+00 1.790864073981983395e+01
-2.752963474644867681e+00 -9.181751065459949901e-01 1.565130216928770679e+01
-5.453519788172613403e+00 -2.858394058688359607e+00 1.925686944015594904e+01
-4.961007499412222188e-01 -5.022403924105097728e-01 1.575761468464488146e+01
-1.631738264214703360e+00 -3.417534486699698615e+00 1.798554282725917730e+01
-7.065968177688165319e+00 8.219150685682957702e-01 1.838124042515128664e+01
-4.908710883428537564e+00 -4.928497927545590351e-01 1.548331321974892560e+01
-1.411639858225886890e+00 -1.497128387228962243e+00 1.893714785338699969e+01
-5.654619373693283713e+00 2.370529866432503407e+00 1.858308833283298256e+01
-5.715180263169005848e+00 -1.041182477102001291e+00 1.605219431943182329e+01
-6.591308568034217608e+00 -3.844010728686193534e-01 1.923491357120168388e+01
-2.414820980398165506e+00 -2.761430648393863319e+00 1.728594307623295023e+01
-6.408684135485384736e+00 -3.811572268270567720e-01 1.929184518496524348e+01
-3.070144184838532020e+00 3.100901723847000024e+00 1.788155337523762611e+01
-1.799130931306832881e+00 -4.830303679190059429e-01 1.889971122572127271e+01
-7.124030583250442028e+00 6.373424924745875186e-01 1.542085325519091654e+01
-6.309411148702670502e-01 -3.095143165554790965e+00 1.775849125823376440e+01
-2.848211295169646995e+00 1.779710321936413209e+00 1.489770326752849527e+01
-6.010346577687517566e+00 1.115360475974097376e+00 1.432627991796377032e+01
-9.763106876381248966e-01 7.864789411509215400e-01 1.538115159072939875e+01
-6.365225709975031343e+00 -1.599134451962410663e-01 1.926255397608579401e+01
-6.172138331822959678e+00 2.443366352659138707e-01 1.921420824084179557e+01
-3.448618111457575353e+00 -2.915771612115586997e+00 1.826021901093718114e+01
-2.443080967887698574e+00 4.914453310288261489e-01 1.353820915998617025e+01
-6.380852056059765687e+00 2.180945295742232615e-01 1.917698509774040261e+01
-6.120210606859940228e+00 1.045879560314035395e+00 1.441810992664357016e+01
-3.268932358161221963e+00 1.347463862538754054e+00 1.369611926799528234e+01
-6.228376651570855849e+00 5.002898501159843692e-01 1.914092931822652943e+01
-6.148003578222447807e+00 8.094198610770945157e-01 1.906235352686887197e+01
-9.676499250799923679e-01 -1.936743414036487643e+00 1.593188198500860508e+01
-1.802374684679959316e+00 5.024015133396332322e-01 1.383703217066141278e+01
-8.484380725035594040e-01 7.279519215423196909e-01 1.842683199490859991e+01
-7.329799753119051964e+00 -1.158160051852531680e+00 1.877788917762884680e+01
-3.366373560532920362e-01 5.046027344883591281e-01 1.652965792856485550e+01
-6.144672911085724998e+00 1.012202098344860079e+00 1.899392787982021602e+01
-9.122168665991594594e-01 -5.112528706833192604e-01 1.881696050196036296e+01
-5.495946849864593808e+00 2.212833016865770608e-01 1.409691985590498930e+01
-3.901082789127354289e+00 1.723174040711811239e-01 1.409270228679850945e+01
-5.043515332196188972e-01 1.051203024947152453e+00 1.759226186101590983e+01
-3.984588246868334682e-01 8.635076518356595843e-01 1.735697322954951360e+01
-4.650406655111435583e+00 -2.222565363643397518e+00 1.944774622310034928e+01
-5.273099753203160489e+00 3.524490428647360840e+00 1.770647055932643710e+01
-2.261698392097369226e+00 -7.963637277351973687e-01 1.497374329162294870e+01
-1.000989715547485837e+00 -2.568079471219873344e+00 1.669607683284658961e+01
-1.142154181367006860e+00 1.216247056642254520e+00 1.594139411696837882e+01
-7.161788315246128356e+00 1.036826943688341274e+00 1.801945971743728236e+01
-3.090144389727405017e-01 -1.808503774965603883e+00 1.842034850627343090e+01
-2.242249891710918153e+00 -2.076104436106721796e+00 1.897627802914827910e+01
-1.063855909779304998e+00 -2.843109733885650581e+00 1.702683506983947481e+01
-5.268827021613520678e+00 3.543144498611126902e+00 1.803340777990902311e+01
-1.495781145577650406e-01 -8.891728757546475403e-01 1.750047825075512620e+01
-1.818863611353624954e-01 -7.480338531750715392e-01 1.712999858546469412e+01
-3.627956769648031710e+00 -2.878294375155898255e+00 1.830663383130964306e+01
-6.799380471057118847e+00 -9.564647130689002408e-01 1.921682116911960136e+01
-5.741476871442917407e+00 8.396408295807239464e-01 1.909947490487062183e+01
-7.393423926586963013e+00 1.255642743269121731e+00 1.703735383842331075e+01
-8.911924016825327755e-01 1.707297992028922184e+00 1.771515187044989048e+01
-1.991936065659491994e+00 -1.088808524555050949e+00 1.894783024326918408e+01
-6.043175856846205285e+00 4.153300564136109818e-01 1.408066392772393627e+01
-3.869671550188430231e+00 -2.894877689232704387e+00 1.849287211709399870e+01
-7.698397869367366475e+00 -3.736039233173581442e-01 1.724145018131514817e+01
-3.862106453483582946e+00 -2.858769631777628106e+00 1.830612498919454012e+01
-6.139557302826961660e+00 -3.486052763151558098e-01 1.486975412109207539e+01
-4.268712704738849339e+00 -3.002798043002407713e+00 1.911689336392727867e+01
-3.259821226976250763e+00 2.810758684766920368e+00 1.684683222183248930e+01
-1.891368507896089568e-01 -1.596628934175620129e-01 1.709139485414828030e+01
-4.452706370329013730e+00 -3.004941256749687373e+00 1.907113092694514833e+01
-6.622404226809043948e+00 -6.313998919567824775e-01 1.926502735827062551e+01
-7.519254876159064516e+00 -2.097213692946532593e+00 1.763652196475313971e+01
-3.207928058246483971e+00 -2.998594090147610469e+00 1.814076989627937664e+01
-6.439599099902125978e+00 -1.943031756887544592e+00 1.943312694200975344e+01
-6.212507251858585100e+00 -1.512440894730264329e+00 1.631793796899804150e+01
-6.578513997162975357e+00 -1.584697379166509990e+00 1.936856165225334436e+01
-5.499509946849057584e+00 2.789194453272793250e+00 1.840181440008482028e+01
-3.213150677803821686e+00 -2.245483325014170806e+00 1.917565417376254899e+01
-6.027238264949694724e+00 -1.543924432950675163e+00 1.654106238291264575e+01
-3.205724355817584303e+00 -2.609593560028473203e+00 1.730218683976782401e+01
-5.704910541764991905e+00 2.824258533395197279e+00 1.827718506296397649e+01
-3.434923365548344876e+00 -2.893475101076413925e+00 1.810857610511751048e+01
-5.917105948862051434e+00 2.610658862226869381e+00 1.829873623215598499e+01
-6.724253796640959902e-01 -9.440388958505088191e-01 1.548673139987936409e+01
-5.199517346549462626e-01 1.134852506581093934e+00 1.714826579036991561e+01
-2.210612789558981550e+00 -3.266228995702520344e+00 1.791496132407247543e+01
-7.087485634347557628e+00 -7.855653782317147948e-01 1.547860380369516164e+01
-3.508172902143189553e-01 4.574049933832479153e-01 1.771249241837793775e+01
-7.619364755465444894e+00 -1.769282034428846906e+00 1.763081988485322071e+01
-3.122937129969489689e-01 4.662431342856271366e-01 1.752184015455949506e+01
-2.328187292538292930e-01 2.651708616996238943e-01 1.734797529323155274e+01
-7.603888798941613736e+00 4.271129921894670778e-01 1.601412793626495201e+01
-7.254892614858060362e+00 -1.160845929831141987e+00 1.886600725428431602e+01
-7.645874057336913943e+00 -3.188827222892812729e-01 1.748873971773288716e+01
-8.123803152656532411e-01 1.020082989917515004e+00 1.824965552887687537e+01
-7.626239687157183589e+00 -7.835140587584999983e-01 1.784355498808842455e+01
-2.137981282440293285e-01 3.494335374017176754e-02 1.755437025905856885e+01
-7.261820037247216142e+00 -8.983106669021203583e-01 1.572153033252446974e+01
-3.106801516648338701e-01 -3.319801556699280010e-01 1.634143311991288172e+01
-5.267491137289911585e+00 -2.566583957180545550e+00 1.945245310488553869e+01
-3.702512251018506007e-01 -2.549715260502229075e+00 1.714569719087172572e+01
-3.915595193842470678e+00 1.179796118287605555e+00 1.901778207695739908e+01
-5.463756401472205759e+00 3.377113069033493620e+00 1.803559810187793389e+01
-5.670343148424562330e+00 3.169387929092178258e+00 1.804881058893358059e+01
-4.084835520225573724e+00 3.085814527748863778e+00 1.673110732434966152e+01
-7.058184652822203198e+00 1.807296288593913669e+00 1.743466935263171180e+01
-2.779901010299850039e-01 -2.363198488049711887e+00 1.734401571361382466e+01
-4.115025534351245184e+00 -8.061222876144191751e-03 1.445650068193670634e+01
-5.044042993863274482e+00 -2.856918886420444448e+00 1.932443009485180951e+01
-7.471259508176927078e+00 -2.014309594508394863e+00 1.720230955059057365e+01
-7.336037786666087523e-01 -1.285588718294093491e+00 1.882378975525898213e+01
-7.559316504716984575e+00 1.039358126365275137e-02 1.581291383218802693e+01
-1.022614221930875811e+00 -2.911109209866335146e+00 1.713637730494676603e+01
-6.616338574366423586e+00 -1.588868731518766619e-01 1.918262344099306560e+01
-6.376207303467974263e+00 5.746387931616869782e-02 1.921496193520433238e+01
-5.481285383962287483e+00 3.459703220732449847e+00 1.780500729684721151e+01
-3.623677940177393531e+00 -1.685788470574158815e-01 1.476522314528434165e+01
-4.554721411646520224e+00 -2.731892836381933920e-01 1.506761040971170118e+01
-3.494845445169445952e+00 7.004293676096714494e-01 1.326047270153660307e+01
-5.272983152909283433e+00 3.207982632570426151e+00 1.823488593262021240e+01
-5.666800187725869797e+00 3.356586179799090797e+00 1.788036568452024611e+01
-4.137836806314858507e+00 -2.421457929018882460e+00 1.939757454185308561e+01
-6.396633793898912401e+00 4.529744126560132367e-01 1.910312285244760133e+01
-3.340178653679693355e+00 -3.009012667109596695e+00 1.850595674938985624e+01
-2.266846366495996357e+00 2.325595357649783423e+00 1.689248460336787261e+01
-7.564589752126907207e+00 8.559876866925141270e-01 1.659529420419363177e+01
-5.007824765069588402e+00 -2.399810766713243559e+00 1.745573875877582637e+01
-6.236847812703827820e+00 -2.192123746804247375e+00 1.948306396406001895e+01
-3.161415143141791617e+00 -2.977498866835040392e+00 1.797156563082743830e+01
-3.841802876191394489e+00 -2.243220320298293213e+00 1.934880051183234073e+01
-5.851874152885292446e+00 2.575353780607785747e+00 1.836680574376101660e+01
-5.944540065333595358e+00 2.842197477841900799e+00 1.809922205600049594e+01
-6.143029270379489759e+00 4.186117697059102971e-01 1.917576694481014599e+01
-2.758574613721114233e-01 -2.132021703022153325e+00 1.696343454149256402e+01
-7.350892597048972910e+00 1.289592732547108156e+00 1.663202468628370312e+01
-3.632487943658185614e+00 -2.929086368191578860e+00 1.864935235913996436e+01
-5.967612505675926826e+00 -1.579667601883457451e+00 1.663114739867500802e+01
-3.266462880484729325e+00 1.971580122441845440e+00 1.490512738965493256e+01
-1.981301339338195078e-01 -1.325239496342006440e+00 1.714486682494946379e+01
-5.414908518548566807e-01 7.713229839707869129e-02 1.837883745235172128e+01
-7.521562736769100699e-01 6.813551618412140298e-01 1.835119956537238650e+01
-5.279091184833446526e+00 2.195637025037930012e+00 1.526442571886286359e+01
-7.611872045063701187e-01 -1.885730648789749830e+00 1.597874575512058115e+01
-4.751179696251420559e+00 1.398041620024717435e+00 1.902560694633200100e+01
-2.935728115727184395e+00 -6.304075218835245575e-01 1.532928793049660143e+01
-7.575043307813056792e+00 6.575279992114749783e-01 1.599552916867796526e+01
-1.233377571408098117e+00 5.307511542892925371e-01 1.447912231772366098e+01
-5.493916542157511351e+00 3.418982532795075802e+00 1.765047349306858493e+01
-6.716951157749335266e+00 3.157352257449297372e-02 1.467053469202182114e+01
-7.681774568548498827e+00 -5.614270139657182579e-01 1.743592611920194102e+01
-6.889033502235505146e+00 -2.379147770486778501e+00 1.912895362409817679e+01
-4.771605450618834787e+00 1.582378158233646914e+00 1.899159063348293941e+01
-1.407489274026680448e+00 -1.850229065089019631e+00 1.576503222345639088e+01
-3.987077606475114777e+00 -2.411950436710149859e+00 1.937826329199005571e+01
-3.886214241769888389e+00 -2.646404390642900228e+00 1.934885894206811585e+01
-6.483778347569922218e+00 2.376559547420198815e+00 1.686966320321505108e+01
-3.182951184445366621e+00 1.054995914855982875e+00 1.316068839050970851e+01
-3.618224516505766708e+00 -2.448666517299992407e+00 1.930006394890525101e+01
-3.845613215437244659e-01 -1.530520783611163838e+00 1.856165246992583562e+01
-4.905173064049874299e+00 2.412784885205249807e+00 1.874673164379574430e+01
-2.366840512107229788e+00 2.025927805183338926e+00 1.599628703545966246e+01
-1.095306419907551287e+00 1.915803496415862117e+00 1.770461470510528912e+01
-3.063272674640180604e+00 2.132000669011665739e+00 1.548087745210957777e+01
-4.929037052914754469e+00 2.166325299745621713e+00 1.882803169740995841e+01
-1.026281747370810127e+00 1.422036181235283081e+00 1.825698812267149052e+01
-9.248504408266455812e-01 1.702722399744679649e+00 1.791216465326870733e+01
-9.865404086646618609e-01 1.665137280769765749e+00 1.807488025712634183e+01
-5.485068817974871891e+00 -2.746175420461806294e+00 1.938570198369304975e+01
-5.062956590418172809e+00 -2.027844226214656320e+00 1.948064267849197861e+01
-9.784386400143447737e-01 1.199942689138310037e+00 1.620447364951472125e+01
-3.453896017375062577e+00 -2.667647292985150465e+00 1.923005932452521805e+01
-4.015160470047354657e+00 -1.230134976758087140e+00 1.930385378132040231e+01
-3.903067974153568986e-01 -1.734662648245191896e+00 1.856448153949710544e+01
-7.189169621373957320e+00 -1.802302048316724026e+00 1.643038963694593591e+01
-3.129244406814434498e+00 1.446194668817760931e+00 1.399148475284718884e+01
-4.463431937420479834e+00 3.192626574612701607e+00 1.844851215659385346e+01
-7.008466240427224214e+00 1.721694137352396847e+00 1.768558149486844044e+01
-4.250649277768797418e+00 3.422760578599822967e+00 1.833521968150882131e+01
-4.284371096886117058e+00 2.932583924935022068e+00 1.859005562929696609e+01
-5.535707667666149412e+00 1.182514319383968893e+00 1.902528451259282960e+01
-4.262008593837070869e+00 3.137295411029940251e+00 1.848553679543064376e+01
-6.118976286263557718e-01 4.560145317878935289e-01 1.829375294531812912e+01
-4.356648882781067655e+00 1.379888263126433312e+00 1.903966347340497478e+01
-5.876777437606398813e+00 2.990155202668989709e+00 1.803368337761597573e+01
-8.770730060070923706e-01 1.320109841867283862e+00 1.814672567431532357e+01
-5.748410610030457057e+00 -1.469466312265977459e+00 1.659496672918977467e+01
-4.494701525438772549e+00 4.053267496493800914e-01 1.372312080302647885e+01
-2.419937667665384762e+00 -3.226312363201409461e+00 1.887478357368087600e+01
-6.015520121745894233e-01 -7.252878526069735932e-01 1.555716906730675575e+01
-1.325034898184004550e+00 -9.168204414288734228e-01 1.488320325547858758e+01
-5.185615078922061194e+00 -1.957231894660537819e+00 1.713445009165111443e+01
-1.640929123152464086e+00 -3.295773771579507905e+00 1.877301478050072703e+01
-4.316605756498653079e+00 2.618857554871695914e+00 1.872900338916649687e+01
-1.125946263396425895e+00 1.864070687772805712e+00 1.751165042158115526e+01
-4.610976625086586900e+00 3.236882883862893800e-01 1.918452252026476046e+01
-2.292904633254027047e-01 -1.540548905646938138e+00 1.695525181729021469e+01
-4.287014680267843048e+00 2.799442310449928861e+00 1.865247236234180050e+01
-1.363913110825134112e+00 -2.303578009841735774e+00 1.634138893344740140e+01
-2.646286073513811843e+00 -3.229829529614085093e+00 1.887128227060312824e+01
-3.835209838973065999e-01 -1.902075998136654622e+00 1.854064085346853474e+01
-5.720565950161393687e+00 -1.483580093533534150e-01 1.463131086245929069e+01
-2.998715636995352707e-01 -2.094954708996942472e+00 1.830678150471644372e+01
-4.477693826032203894e+00 -2.430561073108666648e+00 1.943540134403299291e+01
-4.989141504900160839e+00 5.858046361339374064e-01 1.915507607999346007e+01
-4.409110026367592639e+00 2.079731219712368517e+00 1.475419489304840326e+01
-4.550046582095659709e+00 1.856202146591217961e+00 1.895431840680008762e+01
-4.017350566577399640e+00 -2.627132762062629023e+00 1.937832012714131835e+01
-7.621451143476922319e+00 -6.354954931311027622e-01 1.614002452911217844e+01
-1.195638382155831625e+00 1.253330729273868460e+00 1.845877145955764220e+01
-5.914398462339291562e+00 2.211394864317167475e+00 1.580908480164568530e+01
-3.442976932717926708e+00 -1.242099066853729061e+00 1.920075847461088259e+01
-4.478146133910275495e+00 2.185169616640352697e+00 1.887520613426130112e+01
-1.132318438507465608e+00 1.078973569655190978e+00 1.848829045436691487e+01
-5.932943594563688805e-01 1.393712323625567739e-01 1.539229547677648569e+01
-2.762750616519792146e+00 -1.179577515955967604e+00 1.596250099015830770e+01
-4.732896881040818293e+00 -1.931132855044176422e-01 1.486853922411802031e+01
-3.317423359842726072e-01 -9.399439475421783596e-01 1.839594772290550750e+01
-5.076114266430886701e+00 -1.614696327632606287e+00 1.945133603922637278e+01
-2.612591112652622893e+00 -1.731587102465319106e+00 1.643011426967711586e+01
-4.667626041127193481e+00 2.881069297581319688e+00 1.857660490336204973e+01
-4.958236631085497947e+00 1.354939573167535105e-02 1.925069022209302361e+01
-6.500417402196720040e+00 4.411333984824640231e-01 1.445580550660634955e+01
-3.466512164484949921e+00 1.609664116762137276e+00 1.403347250344916475e+01
-2.012045893277405462e-01 -1.677876767407806780e+00 1.735769467091389728e+01
-3.247312124010139911e+00 -2.654642575364349000e+00 1.916462949621765333e+01
-3.418115910023134418e+00 -2.891885870145098902e+00 1.914768364182345195e+01
-4.913941930698845439e+00 -7.063153431726102438e-01 1.580254374348799828e+01
-3.620098141464225705e+00 -2.258354933434574274e+00 1.704391173071111965e+01
-5.758128313760173533e+00 -1.202500490622705920e+00 1.624387587143938205e+01
-4.105980652346031157e+00 3.306375853419285971e+00 1.839133162574998792e+01
-3.219357829402111015e+00 -3.000192362139936453e+00 1.904175172620115220e+01
-3.056230273056987912e+00 -2.881349208575819887e+00 1.907074205361691455e+01
-2.011716561520793700e+00 -4.829571500362226377e-01 1.891075086070155820e+01
-2.644420826335354135e-01 -1.499552163760753398e+00 1.833985420084308160e+01
-3.363854410597590494e+00 3.274331886569007199e+00 1.810152831437580900e+01
-6.231394541227247785e+00 2.376163639275550743e+00 1.647265861461908898e+01
-3.634352950914307101e+00 3.415259180107554027e+00 1.810652251590996187e+01
-3.336860018340076728e+00 1.356390694543892828e+00 1.886393326546197002e+01
-4.848569184978265056e+00 -2.939373179749209530e+00 1.921287026662762187e+01
-4.384833752385435268e-01 -8.979862875529148747e-01 1.855391357284772980e+01
-3.849087132786172205e+00 3.012658210467941133e-01 1.387160708528764630e+01
-3.853813120120067381e+00 3.361048072839446288e+00 1.831898488447243167e+01
-5.163555971196559291e+00 2.203461151558719910e-01 1.922760441145719668e+01
-1.592501562482406374e+00 -2.089895748387334606e+00 1.613240404758766644e+01
-7.291440882292374859e+00 6.320050246302434394e-01 1.561961609127905248e+01
-3.728642221546549784e+00 -6.738068652253814683e-01 1.568029377927604529e+01
-4.508780866073272442e+00 3.409912582832046457e+00 1.832813425746834568e+01
-2.809598433164712361e+00 -1.692958648620215056e+00 1.644966745721114521e+01
-2.664439803776723625e-01 -1.733623108489805498e+00 1.832413171471302960e+01
-4.097935335702445059e+00 3.409030500587100665e+00 1.833652560852803148e+01
-7.156068972145026130e+00 -1.345408212814983795e+00 1.897618238986056483e+01
-4.455192940872148455e+00 2.032002209085662425e+00 1.465926272229729577e+01
-5.053196524316362570e+00 -2.218577540420558325e+00 1.948784756450436007e+01
-2.645312598171567497e+00 1.326483381993857957e+00 1.412125322235856473e+01
-2.384183733348985701e-01 -1.922264686315807714e+00 1.817065649976091990e+01
-2.436276859830449837e+00 -3.389318013025913512e+00 1.866959561069539220e+01
-1.695778140100579812e+00 1.294218582383389382e+00 1.513587500623731685e+01
-4.102865899252059023e+00 2.725711269313149998e+00 1.867770985081017798e+01
-2.243393347534642590e+00 -3.408905974110807868e+00 1.867727274300504448e+01
-1.839770132474531916e+00 -3.428257937015579238e+00 1.866384184370084043e+01
-5.141367609791538840e+00 1.841996614192981330e+00 1.889615688571823782e+01
-4.098932130264569373e+00 2.944308941143629177e+00 1.857475761036794992e+01
-2.094227346304973203e+00 1.847219010782021886e+00 1.592678977256048611e+01
-4.365353281976969146e-01 -1.139509623886438838e-01 1.831261213591035286e+01
-2.781388299942086917e-01 -1.158552501430197834e+00 1.834380888570914792e+01
-1.016432784530939326e+00 -2.321137558696452441e+00 1.886065894441132329e+01
-4.665154310266055759e+00 3.519526631019780805e+00 1.744568010916688294e+01
-7.501681500828809579e-01 1.072685308136981153e+00 1.813557006289888207e+01
-6.521197166031125647e+00 2.479741331238117796e-01 1.448137218871143617e+01
-1.589115249585244971e+00 -2.256048225330993695e+00 1.635162955103591642e+01
-5.419035559478433406e+00 1.106398505583722880e+00 1.352398469454159269e+01
-7.336903505021491689e+00 -9.417828815352635718e-01 1.583142289256734259e+01
-1.943647302404147403e+00 -1.713385575737830457e+00 1.591242805394135829e+01
-5.586506728157767387e-01 -1.685321441971562528e+00 1.596282868792426157e+01
-4.199416893989565303e+00 -4.579996834639600833e-01 1.924254084637382434e+01
-7.033444395355792800e+00 -2.811745734981847544e-01 1.508897621423634305e+01
-8.494182683204787310e-01 7.134263612139556399e-01 1.551818061014028771e+01
-3.507668779798482461e+00 2.762986181786462936e+00 1.855625868133285294e+01
-5.319383928210117851e+00 1.413133159664580418e+00 1.898542617409655620e+01
-7.171200933310013959e+00 -2.101224337222369787e+00 1.687830203453157552e+01
-5.363444721489913469e+00 2.231681980516989627e-01 1.923410883432329754e+01
-3.339618243113799956e-01 -2.355227862516959814e+00 1.694425348611532556e+01
-2.578349763518124060e+00 -2.973649930391020213e+00 1.760249660674073979e+01
-6.814175221325094789e+00 2.745754301891606408e-01 1.470200088213613654e+01
-1.321131965600988334e+00 3.245223764722992010e-01 1.421966399069992448e+01
-4.252692269351451948e+00 2.352672738747776826e+00 1.528152375466725843e+01
-6.583884161590758843e+00 -1.787596635084114149e+00 1.937361446557516231e+01
-1.346377687703673942e+00 -2.038175208589438903e+00 1.599089553867714741e+01
-5.576604667213063138e-01 9.745970496139466643e-02 1.551755587800814951e+01
-6.703040518127948211e+00 2.519825374051370970e-01 1.461233973340099723e+01
-4.851812604665182604e+00 9.644429107409379087e-01 1.310506388011635792e+01
-7.143080421976518046e+00 -1.990223645225256188e+00 1.896459521046447705e+01
-5.679754901178356796e+00 4.334716115014322080e-01 1.389038035928615855e+01
-5.264958614851037666e+00 6.446383514411538895e-01 1.349882818376443439e+01
-5.604207983953334526e+00 2.549020619905047358e+00 1.611448966638316804e+01
-4.870648794058920927e+00 7.586149716152957856e-01 1.324032040283163880e+01
-5.913061016310265039e+00 1.616878405419718279e-01 1.424654642831535156e+01
-7.371714671084116155e+00 -4.157203695969923229e-01 1.557904781579360431e+01
-6.211993631832692930e-01 -1.089800861665336518e+00 1.560152358254307003e+01
-5.484459727175358346e+00 3.116640374457827489e-01 1.398480873927888624e+01
-5.013026878108257645e-01 4.807645564084629397e-01 1.593348239084393114e+01
-4.854663631045037064e+00 5.956610552513584844e-01 1.345548118450254904e+01
-4.078657254093407403e+00 9.648846274093690889e-01 1.302128414591997441e+01
-6.753057957729009964e+00 1.844769216948684232e+00 1.806792951233616762e+01
