-7.797891972806377581e+00 1.813654464524759424e+00 1.605469009790239809e+01
-1.790979754254940381e+00 4.605851949751461616e-01 1.386678719943477844e+01
-2.753425519347323380e+00 2.704630327358193753e+00 1.566091738214036511e+01
-6.681029261747226222e+00 1.975690164197020149e+00 1.478997629364435440e+01
-1.909392880453019803e+00 -4.476888816571442220e+00 1.905553024556133934e+01
-2.112285028140834964e+00 -1.642307994776374347e+00 1.946042840657721840e+01
-1.513769158180027663e+00 -1.421302297344164911e+00 1.924881101783602233e+01
-5.487344793644349572e+00 -2.618646406522519010e-01 1.609095202917191259e+01
-4.160746469773630274e+00 -4.397412960348577649e+00 1.857472636233893937e+01
-3.245175716130201504e+00 -2.162891069332876892e+00 1.683088611929013112e+01
-5.344338771971645308e+00 -1.634646335865995948e+00 2.043709077195603996e+01
-5.260879599547431340e+00 4.712252547621208265e+00 1.817961251649540699e+01
-7.138821432353089413e+00 2.045340107105542593e+00 1.966914602407605273e+01
-2.233229845784113543e+00 -1.898707248305439244e+00 1.951908193021082738e+01
-3.041062161805347941e+00 -2.716258956098473565e+00 1.706761541330260101e+01
-4.310928070556395930e+00 -2.821501289582583283e+00 2.026426173264910702e+01
-6.023495018029346504e+00 2.869724320611242163e+00 1.547418341810261566e+01
-4.994353603391580521e+00 1.761586290274218980e+00 1.287038804412769011e+01
-1.999188186343374696e+00 2.670695146524541208e+00 1.665171540096769220e+01
-7.082724912455032218e+00 3.209366546486098315e+00 1.885604882869081322e+01
-2.213164264609062570e+00 -5.531595215635130014e-01 1.405680056673925904e+01
-6.423825674720271550e-01 -1.757661284547352931e+00 1.585342295514969280e+01
-3.271551697586351892e+00 -3.166786906461402928e+00 1.741156099110988364e+01
-8.311192575998951781e+00 1.417100838836832022e+00 1.881145288712485453e+01
-4.143224512821462646e+00 1.880983017807660029e-01 1.985652295871072326e+01
-4.062058981676453406e+00 3.358741444787565644e+00 1.908350512890043760e+01
-6.203756618757060082e+00 2.081047024722229022e+00 1.445477612295835357e+01
-2.836647548356742821e+00 3.604562254920712583e+00 1.713361714986365669e+01
-4.332187040563627356e+00 3.421112990944319865e+00 1.912680279009595452e+01
-2.477726712484292104e+00 3.349631684304581913e+00 1.715292133811030695e+01
-4.450578137696656000e+00 -4.166531037315351349e-01 1.595185236979427046e+01
-4.657389443440373533e+00 -2.254917961137711535e-01 1.575192852161336887e+01
-3.689730389785245812e+00 -8.601273548032396521e-01 1.988802337327264880e+01
-4.572766622127400815e+00 -8.510443311157653845e-01 2.017731477817973840e+01
-5.933319967427365782e+00 -3.985170152856579051e+00 1.935651995811450021e+01
-3.478581952697532120e+00 1.561991171972062720e+00 1.940769174926213125e+01
-3.532625944100506565e+00 1.384806094614911220e+00 1.946127673416321002e+01
-3.258251833302356903e+00 1.554079974392248653e+00 1.935140022799312121e+01
-4.813181060748848772e+00 3.041372867785337775e+00 1.488634314013959781e+01
-3.843493822546111272e-01 -2.437863363423916407e+00 1.685386930079786438e+01
-2.505005188333053301e+00 -4.735440750665548926e+00 1.841965538047245232e+01
-4.349846446810031075e+00 -4.446015476542406475e+00 1.874393631737918398e+01
-5.217227757770901420e+00 2.916354333254711495e+00 1.485401476570044466e+01
-5.267389829382008948e+00 -8.045596819371012565e-01 1.678915742021480284e+01
-1.328047118646152214e+00 2.323832905129061821e+00 1.845548374986571005e+01
-1.891195111453014999e+00 -3.657553826673283659e+00 1.929033427028958059e+01
-7.222230793931580628e+00 3.325385399126317587e+00 1.858835538617608663e+01
-6.512574529047081562e+00 -3.743744998557561932e+00 2.023596559335708989e+01
-1.003323786668580908e+00 -2.032654261661364536e+00 1.916489089027654913e+01
-1.181969252427168993e+00 -2.066348438609995508e+00 1.921990915392334287e+01
-5.378102557236554837e-01 -2.754985581213398316e+00 1.652009265518281111e+01
-5.355393770199923242e-01 -2.614707481283923052e+00 1.645046790906097200e+01
-3.652364552495356298e-01 -3.682222939026394415e-02 1.789395261260630221e+01
-4.494383809782092065e-01 -2.619969851635159941e+00 1.668666694458113753e+01
-8.535902028270664132e+00 2.101870809937434470e-01 1.936984252855711830e+01
-3.268683313261917522e+00 4.159616244284188191e+00 1.849928400493451264e+01
-2.682754793458094866e+00 -6.324699645434960216e-01 1.951415891506053057e+01
-2.606005920844215229e+00 -2.319531701576828642e+00 1.603353746905245103e+01
-9.034542453538101370e-01 2.358368083973457097e+00 1.776247163703047605e+01
-3.553341386102620625e+00 -4.257884036960494001e+00 1.812427097234101225e+01
-5.350308786877945089e+00 -3.765710648268700833e+00 1.851910680848155621e+01
-4.978949456116595229e+00 1.148377367268420324e+00 1.311907014208789590e+01
-3.885043782464499884e+00 4.542961101602019269e+00 1.832101162210491552e+01
-5.480664691636540908e+00 3.808533774624011325e+00 1.913481111477326024e+01
-9.152805970779109845e-01 -9.531327941917058233e-01 1.512635445127711975e+01
-4.952499578665920055e+00 -4.033502868374077899e+00 1.852494975808630429e+01
-4.816842967996061375e+00 -4.069170966843564052e+00 1.847751792935720161e+01
-8.728547567492981329e-01 -3.593282649666575956e-01 1.493674582478881163e+01
-7.606198808997375327e-01 -1.455643921965071586e-01 1.507854360705718832e+01
-4.890572914982416641e+00 -1.428350179484694005e+00 1.713239219732865948e+01
-7.381273154361820410e+00 3.281609024280522924e-01 1.484626756060086095e+01
-7.679683000370919999e+00 4.886765684209726235e-01 1.494717793221165536e+01
-5.327689434692579606e-01 -1.806814023022266014e+00 1.606731093900548402e+01
-8.287533764867831110e+00 1.280114424981191101e+00 1.615859302800128106e+01
-3.550834425318538656e+00 -2.403528123625079393e-01 1.429626327815092068e+01
-5.035759187001194626e+00 1.803987211528438772e+00 1.300648358482997580e+01
-9.026114716437886543e+00 -9.557580484274043053e-01 1.812261433712646763e+01
-5.528916793438840571e+00 -3.927008737913994629e+00 2.020937499177259511e+01
-6.120261473863988222e+00 -1.198787156970315904e+00 2.051908248047017835e+01
-2.769559607151996339e+00 3.334764520836300261e-01 1.938717389841748329e+01
-5.998277318298001148e+00 -1.131554159523727954e+00 2.048909188591339969e+01
-7.341766958970679546e+00 -2.459988649070261602e+00 1.844854788175684845e+01
-5.037358753351054652e+00 4.354815941309828631e+00 1.734869031269476736e+01
-3.555635934481881311e+00 -2.452380958426127133e+00 1.999181562225079389e+01
-6.636565739760229121e+00 3.128585790930278332e+00 1.922019133510093880e+01
-5.865927740990996675e+00 -2.666894704574552799e-01 1.603301138385946345e+01
-8.464653179272625394e+00 -2.086298232670656283e+00 1.838152498810974222e+01
-4.605213303740121056e+00 -4.035237215771228847e+00 2.008178057630619762e+01
-3.053180117216155676e+00 1.818806996403508514e+00 1.373669918237931498e+01
-4.379094765687143287e+00 -4.088181107107451417e+00 2.001212299431918140e+01
-3.319874241708801854e+00 -4.206755346009460439e+00 1.797774499074966670e+01
-4.395381825013573440e+00 -6.703072705101312811e-01 1.628609881931838643e+01
-1.012685928869660801e+00 -1.912228039297795279e+00 1.916181307414088408e+01
-5.822150785578307008e+00 4.561557284164029724e+00 1.813383091727335383e+01
-8.256726947487345925e+00 -2.022072250291204534e-02 1.990851631674781075e+01
-7.731456225314914832e+00 1.427258277102149364e+00 1.964723564605095518e+01
-2.688979673824879235e+00 2.961513218270718006e+00 1.618337282393401111e+01
-3.996984892353546925e+00 9.841137214348540940e-01 1.292394683581207104e+01
-5.737067389697131148e+00 -1.832237491566490739e+00 2.050425392659968438e+01
-6.373960547510213459e+00 3.432745737032422806e+00 1.915123389487972005e+01
-4.522624985267595932e+00 -4.492352387202349639e+00 1.891540365160433979e+01
-8.097553552186081305e+00 6.909025053024666629e-01 1.553536371752239020e+01
-3.813312618047191016e-01 -3.239727374570259499e+00 1.826228790058918250e+01
-5.525939948285507164e+00 -4.818565177122867693e-01 2.031572226057921782e+01
-4.213487096719235048e-01 -1.243542372663094309e+00 1.827792352593001013e+01
-6.720317181612101898e+00 -6.823798120891079177e-01 1.641605139822482684e+01
-2.815941410946969370e+00 2.425086871142729805e+00 1.510275945149604482e+01
-4.768514597423598289e+00 -4.660212529652139613e-01 2.017098671574983726e+01
-3.899599204805434205e+00 7.670021934872917058e-01 1.314312117945707215e+01
-6.251432142688091886e+00 3.579654039108466357e+00 1.911020738991837575e+01
-1.480379111737385234e+00 2.571873191607425002e-01 1.415008145361706582e+01
-1.021515083214559194e+00 -1.146944839346498490e+00 1.507509734173534710e+01
-3.799451824349474371e+00 5.918618989056136925e-01 1.331124839884095579e+01
-7.985699478339787660e+00 -1.865746678938395853e+00 1.762018289771910062e+01
-4.449523728714554593e+00 1.405904349164916356e+00 1.972179806644314581e+01
-7.932849066611312949e+00 -2.682445017950848776e+00 1.908043236998948444e+01
-2.305797969272525005e+00 9.504640102220087705e-01 1.913818828362017754e+01
-2.818484704386053252e+00 -7.120997883196877876e-01 1.427898810189558176e+01
-7.197907172201449377e+00 2.824447019883306709e+00 1.665541312154450893e+01
-4.444420360757266764e+00 1.042919735765529099e+00 1.297799699993528222e+01
-4.570439182982792836e+00 1.128156020011912730e+00 1.292443019530047010e+01
-6.192631870700934016e+00 -3.890675188031967213e+00 2.020963505789292114e+01
-6.822492386365428985e+00 -3.288520013115234786e+00 1.903156940910679751e+01
-6.057404705326337790e+00 -1.745675475174161440e+00 1.765465050163530591e+01
-6.207280218362506652e+00 1.147575870487371752e+00 2.015247908629537577e+01
-7.321991730427006573e+00 -4.233115675088294783e-01 2.054418748570213538e+01
-3.967441728686150748e-01 -1.279813009847756033e+00 1.808663133539844736e+01
-2.514693903871970004e+00 9.625449430577683874e-01 1.920047313886799500e+01
-4.020626257647198498e-01 -1.427619809162970599e+00 1.819478475651782290e+01
-3.934233491252213000e+00 -2.249270177983271779e+00 2.012937625702133815e+01
-3.729861550739313358e+00 -1.448030606100081608e+00 1.999123503163702154e+01
-3.748388855389090502e+00 -2.253230025875542442e+00 2.006129076246304876e+01
-3.673762636390462966e-01 -2.436874199554679876e+00 1.808350186535689730e+01
-7.100219374220372970e+00 -3.553805682606195337e-02 1.527250529043199023e+01
-3.863775973683510223e+00 -1.989036192903603339e+00 2.009201468006096647e+01
-4.402784332330715866e-01 -1.807899390250071736e+00 1.847326528601766782e+01
-5.117255009421801226e+00 -3.978898208892289290e+00 1.857080843302113138e+01
-2.398728990542064565e+00 2.461268845508926884e+00 1.570178606352203232e+01
-5.477715976379375462e+00 -6.672487798738153675e-01 1.668263449503337981e+01
-5.743675083406364124e+00 3.201865499009129756e+00 1.576562122205171690e+01
-2.528027791091720822e+00 1.363027844793555543e+00 1.361474652592187695e+01
-4.778290003900099059e+00 -3.866814739796945233e+00 1.828287707095684667e+01
-4.317118195987171170e+00 -4.558467411878401876e+00 1.892497666130575240e+01
-6.320534301231663044e+00 4.038497387194747823e+00 1.876641086360819699e+01
-5.368052668720994625e+00 1.657331704334074729e+00 1.289235588977087232e+01
-6.034121338115131294e+00 -3.906741766427004325e+00 1.930349796165704035e+01
-7.856941017931559301e+00 -9.998183482660200072e-01 2.046420678178428076e+01
-3.631990790568886851e+00 1.632594388977556044e+00 1.287113178338359987e+01
-8.458179861169139002e+00 1.669229095862239776e+00 1.678858042492891300e+01
-8.057415996290211879e+00 -3.761779778205963376e-02 2.009129620202130084e+01
-7.932987519476666805e+00 -7.678583089641827925e-03 2.016570534796028014e+01
-3.200755687126691562e+00 -1.076797096902468720e+00 1.543570989216581424e+01
-2.640949548039443595e+00 -9.500239519655104825e-01 1.443126935826874657e+01
-1.704891370770028836e+00 -3.622021903843552604e+00 1.678549455115892286e+01
-6.734714856747024747e+00 3.470262473959873972e+00 1.892039205878871044e+01
-3.433849228237744633e+00 4.217686859138457756e+00 1.773594639790779937e+01
-6.873366057174661314e+00 3.415638200159957893e+00 1.885995178529446648e+01
-3.490887571354662988e+00 4.330722308898248052e+00 1.791720607352972294e+01
-4.290713884604856254e+00 4.725180015186151827e+00 1.834246424307420043e+01
-3.014483502699118578e+00 4.800762956213113219e-01 1.328101890578470901e+01
-2.911376747996592851e+00 -4.364454477035880409e+00 1.798125372692900825e+01
-2.242231796234227303e+00 3.379402330818437328e+00 1.754736573948924061e+01
-5.067329572688795691e-01 -6.414864801630961733e-01 1.848337482823116673e+01
-1.048354011610154624e+00 -1.592718941126785470e+00 1.523794660170992543e+01
-4.069685057086274149e-01 5.841726721104290032e-01 1.755666746410147638e+01
-3.467392402183937072e+00 2.959753524057597840e+00 1.537034704056997825e+01
-5.894365319154862171e+00 -2.255904576300549635e+00 1.790767620025454576e+01
-1.888382264566963897e+00 -3.200437589259365723e+00 1.638463898441971267e+01
-1.477151347849562368e+00 5.783202398963018798e-01 1.438119064664224922e+01
-3.292427441262877341e+00 2.587306222153950674e+00 1.910471928136299269e+01
-3.120137675222272033e+00 -1.632598258279422065e+00 1.979970423584084571e+01
-7.206924127315543771e+00 1.458128001922708972e+00 1.484389631880273797e+01
-2.066480331404998871e+00 -1.992456595109018513e+00 1.519636080629907227e+01
-5.188150907157457858e+00 3.199688732409774250e+00 1.532542366231114173e+01
-6.543189419508396831e+00 -3.391245106680657262e+00 1.893611174768268413e+01
-2.015648649383394275e+00 3.070973252769670481e+00 1.730652281052587327e+01
-7.798572393599688013e+00 6.894210342692566051e-01 1.500771002403544330e+01
-2.108467148002286962e+00 5.468399511528844181e-01 1.914565715896383935e+01
-2.164923914255688420e+00 2.619255542412182725e-01 1.920386899571309769e+01
-2.507939256202165623e+00 3.649072810963419067e-01 1.929493852530557874e+01
-2.549972949136540823e+00 -1.034498505966210263e-01 1.938358605905737519e+01
-7.633988855498209603e+00 3.011773662762915027e+00 1.748513580320895855e+01
-7.318315621979009755e+00 1.815569135687669089e-01 2.038584242297350713e+01
-5.890992638175975848e+00 2.836621415443025374e+00 1.954424374468139192e+01
-4.080510624670178332e-01 -2.203907920245280483e+00 1.668436502882044792e+01
-4.854278828995784778e+00 3.171063618948685381e+00 1.932670984842775042e+01
-5.878279564633864140e+00 -3.188265863799766731e+00 1.839978107174694699e+01
-6.294317934287808392e+00 2.996812627478891766e+00 1.943075867705829651e+01
-4.512380674034476513e+00 -3.015814497184324150e+00 1.774810903846494980e+01
-1.507877040562845217e+00 -3.640687466095084535e+00 1.678081531032995244e+01
-4.978464384660217235e+00 -2.444237363975441113e+00 1.768572645676479382e+01
-2.933671905741458641e+00 -4.042403166498450551e-01 1.956084558181820299e+01
-7.581565589546788164e-01 1.139447724196817502e+00 1.846332897548791507e+01
-6.143485581925872019e+00 -3.435358166030720639e+00 1.868992548332709092e+01
-2.218127298321925789e+00 -1.316403925230851257e+00 1.464248138334362537e+01
-1.896874332311696332e+00 3.120815117820787243e+00 1.756418775869061832e+01
-4.076691273425488760e+00 -2.207371953219635419e+00 1.724125486605842283e+01
-2.323654893297781410e+00 -6.285016745468516852e-01 1.939486238132939988e+01
-4.150493322544399621e-01 -1.397077945952466926e+00 1.648851946335208041e+01
-2.987095844374670683e+00 2.521686939893717394e+00 1.506914467702298666e+01
-4.166968764462386510e+00 -1.442632618915141496e+00 2.013598723678797953e+01
-4.358243900720096820e-01 -9.689551712583809318e-01 1.627526091065587011e+01
-4.472775612329646933e+00 -2.197080242313278919e+00 1.737675242152786481e+01
-2.620611596777375762e+00 1.854057018199240847e+00 1.430818287096913721e+01
-5.067637162798860340e-01 -1.860768231104999115e+00 1.867161578431720059e+01
-2.718539478350623817e+00 3.334679431808207362e+00 1.679741668182272818e+01
-1.541493518229375637e+00 3.111428590945004125e+00 1.810054619450237468e+01
-7.441927702327077121e+00 3.395979053626478894e+00 1.785855014924258555e+01
-6.362121904614878254e+00 -3.609639480092661667e+00 1.910405788476193933e+01
-5.685409684545294162e+00 7.770757818146726281e-01 2.010197919586657989e+01
-1.043329275315302285e+00 -1.996736318963585832e+00 1.543438491875808793e+01
-5.732146615088161923e+00 2.792057417369404604e+00 1.508849556990423579e+01
-4.056707114406110648e+00 4.619160622781899761e+00 1.837063611544027353e+01
-3.648098764816071871e+00 4.407664309269572200e+00 1.794435824854342698e+01
-3.561494508074392051e+00 1.730896713910865969e+00 1.311816569563044865e+01
-3.083911094154931476e+00 2.561405710397371305e+00 1.905581093733360021e+01
-5.935322745628400121e+00 3.892250825262521530e-01 2.023118218108763600e+01
-3.916308357184136391e+00 -4.182277242192239619e+00 1.819666307731077737e+01
-8.139795663668490278e+00 5.058787017911689499e-02 1.575613915318048086e+01
-5.308484272779286250e+00 -2.372772649907794573e+00 1.777214131623883375e+01
-6.863221379665019661e+00 2.529127891618680124e+00 1.582407541955422303e+01
-9.331351877976536979e-01 -1.535194131910699644e+00 1.534955096670838870e+01
-5.483693279835696544e+00 2.367035989226247139e+00 1.967255332309848725e+01
-2.349087314530240445e+00 3.081712147554215075e+00 1.685383505200632115e+01
-2.399244199709877456e+00 -1.085364002821210594e+00 1.448387890992359317e+01
-6.229732011038839445e+00 2.313992161942358017e+00 1.483125272570559972e+01
-8.305436455518075967e-01 -1.370750850495140671e+00 1.541262081444881105e+01
-2.554993980513862617e+00 -3.233286063128802290e+00 1.958121718563231539e+01
-3.953515298981125525e+00 -4.078610248533141913e+00 1.810985757594710677e+01
-1.493050395928056107e+00 -3.983576463216837560e+00 1.718208261767481915e+01
-4.486423488308619589e-01 9.973146394444871721e-01 1.750094513887234982e+01
-3.929042624141746209e+00 1.993607739875005169e+00 1.324351661358037902e+01
-5.703590917946856464e+00 3.168662184301272333e+00 1.940590345776213965e+01
-4.910750076592929503e+00 -2.205880106358387049e+00 1.754487840497872853e+01
-2.614934165689778212e+00 3.220690877703067834e+00 1.672880231449395083e+01
-9.954416257776603771e-01 2.472469976752984244e-01 1.488797326380037944e+01
-2.064690080724123078e+00 3.537978636731990534e+00 1.814375699340244452e+01
-7.893469000033515925e+00 1.074872938821468615e+00 1.534733990714433460e+01
-3.709424941422421185e-01 -2.378943046311995158e+00 1.748044883047046838e+01
-3.792428750535338233e-01 -1.639520773604500992e+00 1.748541191043912235e+01
-3.797236751084488438e-01 -8.011350254736147036e-01 1.747908957114333717e+01
-2.472121545338648474e+00 2.775172165949247649e+00 1.614850647334494127e+01
-4.147641297471105215e-01 -3.889095077793296440e-01 1.667654646145058095e+01
-3.776066384555385458e-01 8.211730611880282971e-04 1.754133918359941546e+01
-1.580676093540126281e+00 6.491916932788741601e-01 1.427128999713055535e+01
-9.799461090869707736e-01 1.250956660658946618e+00 1.592998722560873048e+01
-1.198914425036613718e+00 1.031421587312625787e+00 1.528678635216709480e+01
-7.029163873432155540e+00 1.299876001433834194e+00 1.442675088801529526e+01
-1.237153891306825182e+00 2.564673496037660261e+00 1.755170188654539842e+01
-1.165135057348819503e+00 3.317136374015161038e-01 1.467062607546418818e+01
-1.184255093113909751e+00 1.463933681520092733e+00 1.591291038646590650e+01
-2.260147553749000338e+00 1.794838780926288457e+00 1.474137816264231660e+01
-7.335243699335357803e+00 3.330656672569456855e+00 1.757994607553686350e+01
-1.503113836397404368e+00 2.927576217833776528e+00 1.776074575423367818e+01
-1.636987675092422823e+00 1.788585428110280207e+00 1.572362482899503178e+01
-1.815067665024360455e+00 2.194695130736433963e+00 1.612042646031939697e+01
-1.820508821663644028e+00 1.460159306233204557e+00 1.489521286403098443e+01
-1.956433593730059872e+00 1.694112608451729063e+00 1.505842485862629232e+01
-1.838323237909728292e+00 2.081599017627189241e+00 1.589592591717451953e+01
-1.991003582820661588e+00 2.309884304326077942e+00 1.604877177386391551e+01
-4.237748482109683579e+00 4.470408980224854112e+00 1.860962114537840151e+01
-2.192505060408629802e+00 1.478828911000107382e+00 1.431463834006287428e+01
-4.549044015681389830e+00 -6.852122049220675803e-01 2.014277699061088711e+01
-5.574280311518519326e+00 1.712170326819192789e+00 1.324540634586054821e+01
-5.814307675053857594e+00 1.936037778564204004e+00 1.384175888062738480e+01
-6.037101562770371466e+00 4.005530416771907909e+00 1.731279498659833038e+01
-6.536344417115854455e+00 3.704039944356416036e+00 1.722438717824281795e+01
-5.129840463291277963e+00 -1.444752044650185585e+00 2.038649587924003370e+01
-6.515641205252761026e+00 3.338362947875368913e+00 1.662407188200706187e+01
-2.617932730236496752e+00 3.438113166544496835e+00 1.711327604488993970e+01
-2.785560053156671767e+00 3.659436066623048767e+00 1.729633671673732564e+01
-1.786327749156174871e+00 3.085119210363237663e+00 1.765025472294068365e+01
-5.605982667002270325e+00 2.082720194139256353e+00 1.385943695883214488e+01
-3.694830524627924495e-01 -2.402326365642241335e+00 1.789225689218855919e+01
-5.172913483587647576e+00 2.111210838332958417e+00 1.350443139225966505e+01
-6.315365651221124033e+00 4.121918344808298329e+00 1.770235757413200517e+01
-6.887498396701761116e-01 -1.591142710232329449e+00 1.571340076333767755e+01
-5.813911782839102926e+00 2.494153512363951553e+00 1.468596813166102422e+01
-5.972676224240833776e+00 4.172100346804813675e+00 1.753315089670094196e+01
-5.834359445346009920e+00 3.088196673017213012e+00 1.566002814274804322e+01
-3.179130015368721196e+00 1.741712666787696762e+00 1.347376732233397334e+01
-3.380150916087893087e+00 1.882389212689080438e+00 1.350712012033539011e+01
-3.425374047626151164e+00 3.883414175145900149e+00 1.710280415653920372e+01
-2.994621442496708141e+00 1.870619957516710619e+00 1.388648822843210340e+01
-2.803718252249378207e+00 2.076401003370636378e+00 1.448735727224338987e+01
-3.367620653141112808e+00 2.093053704114969715e+00 1.389022521959547518e+01
-7.295307593663252987e+00 -3.341958685647606675e+00 2.023222029503549280e+01
-3.556001169118572225e+00 1.958201425801002316e+00 1.346370232856549976e+01
-3.188487794473283010e+00 3.889878511773218861e+00 1.728513518187200404e+01
-3.436159719282951830e+00 3.575197894322093894e+00 1.652425676145785971e+01
-4.062743492631876840e+00 4.355418471729609387e+00 1.756295169321825611e+01
-3.802957611884237643e+00 4.035294369597656861e+00 1.711514980122413121e+01
-3.608495948271313480e+00 3.192858254217216807e+00 1.569394766002367803e+01
-3.623845800464904343e+00 2.678045748446782337e+00 1.470211945436691892e+01
-3.827190062922475100e+00 3.607225522903389603e+00 1.631236731918260929e+01
-5.660871433952620713e+00 4.267195138900214957e+00 1.747492527298459564e+01
-6.260787169401792696e+00 2.149387712248599591e+00 1.461842523555967333e+01
-3.779454459373122077e+00 2.334581238210924337e+00 1.391057220753116397e+01
-3.830842541845286497e+00 2.796118572964917615e+00 1.475645946581527213e+01
-3.983799258726192782e+00 2.707807385038639492e+00 1.447656922315056605e+01
-4.459098037115640345e+00 4.390032229936060126e+00 1.737034713784290929e+01
-5.436047487801273448e+00 2.928602102301348875e+00 1.504939200936044941e+01
-4.014282898207330419e+00 3.259774707958849937e+00 1.550954749942860289e+01
-4.219313395420286383e+00 3.653575663396876116e+00 1.611384420023249575e+01
-5.235712079293870502e+00 4.409586649862097474e+00 1.751609882761716719e+01
-4.934807351445606116e+00 2.607554016164670863e+00 1.411006878115342644e+01
-5.048708512513284674e+00 3.108727242467606899e+00 1.507251818321291026e+01
-3.528088287519332678e+00 -3.926083909867297272e-01 1.455889767338332419e+01
-5.011846525375748485e+00 3.386046564558199634e+00 1.553944076586695289e+01
-7.278031031078966429e+00 2.117937176088429574e+00 1.578529383239773765e+01
-3.443265157260992027e+00 3.801041965292940361e+00 1.693398858903926296e+01
-4.216521020565958899e+00 2.229721911373501175e+00 1.349173867612810440e+01
-4.201097373797287204e+00 3.306432131785612238e+00 1.546974223736346588e+01
-4.408639868330738842e+00 2.119836585841337495e+00 1.329651688728045755e+01
-4.615603856685279283e+00 3.273182708015894171e+00 1.530323532554080046e+01
-4.114463716013514016e+00 -2.047764500818144706e-01 1.522633583133760382e+01
-5.355442204183106902e+00 -3.790985219174111798e+00 2.026629565303133163e+01
-4.277284867664419288e-01 -1.796953190947699674e+00 1.646296005851129607e+01
-5.343929438458866699e+00 -1.860913920437522906e+00 1.752138201198149758e+01
-5.310515798278205857e+00 -1.738044881934811325e+00 1.744292133851404358e+01
-6.982691515384523484e+00 2.047574261922859407e+00 1.527820854086527547e+01
-3.763707064846247619e+00 3.321281292370555693e+00 1.901936715391262211e+01
-5.531883561143936312e+00 -1.765293846493040553e+00 1.752660714825249855e+01
-2.162438324959467195e+00 -3.861938266095069849e+00 1.933008267878531328e+01
-2.343501604081887901e+00 -4.036154951469854701e+00 1.934100037705373509e+01
-7.608987845099587588e+00 1.475086791636151196e+00 1.540510787044841479e+01
-3.751196869526489230e+00 -3.247029911419656134e+00 2.002560169321519723e+01
-6.606079341778738900e+00 2.067151463166931880e+00 1.484996711127923064e+01
-4.261630227834807272e-01 7.951425668542108083e-01 1.770857639833457498e+01
-2.463384291592884967e+00 -1.400044438791441248e+00 1.476994332208131411e+01
-2.454340801094593516e+00 -1.296338534845191459e+00 1.467771807564583142e+01
-5.352160900884403993e-01 -2.086569740308540089e-01 1.571428481083728101e+01
-1.310665001429602849e+00 -4.010046812684256778e+00 1.720914455833419154e+01
-3.395182468394839503e+00 5.177118655400800851e-01 1.328109186414097209e+01
-1.185823779703559122e+00 1.855158568865193258e+00 1.649524120103677305e+01
-2.723980655071458923e+00 9.956997017415545326e-01 1.926717877666938605e+01
-6.119521453981134229e+00 5.728863166833303433e-01 2.024405333461222156e+01
-6.124354991551351546e+00 -8.073212394145989901e-01 2.047223636960894666e+01
-6.721366411160318854e+00 2.533863377311202036e+00 1.956131218358362034e+01
-6.499678327629266228e+00 2.921828920424964782e+00 1.941054608714136620e+01
-1.721515937996963785e+00 -3.427384199082067262e+00 1.657382832536485395e+01
-6.860276272146665910e+00 3.201430648063819717e+00 1.903609363266697230e+01
-3.710512373818238840e-01 1.832633797303513945e-01 1.791577077610786617e+01
-4.059785634222581763e+00 -3.123322545692094998e+00 1.763139648798209080e+01
-3.793520339957177079e-01 1.589616921838604979e-01 1.807676663423244534e+01
-2.791011016232610498e+00 4.797792960260353623e-01 1.330639955138136443e+01
-3.836810794373816114e-01 -1.433765962835049645e+00 1.727622087394982842e+01
-6.890752575677209890e+00 -3.326289452386716139e+00 1.915800556711732483e+01
-7.637522737884159696e+00 1.960323917496144874e+00 1.935806907736703053e+01
-7.125708496972553263e+00 -3.154186911330256304e+00 1.910570695340498659e+01
-4.438771520541010318e+00 4.755094480101468513e+00 1.833345963220918762e+01
-4.545219488485097159e+00 1.339115758577571258e+00 1.977116983978529774e+01
-5.586921725231584368e+00 1.014389772477123808e+00 1.356945185318548042e+01
-5.620912662125253867e+00 8.565722393976581417e-01 1.382234321828412860e+01
-3.902094397194130870e+00 -1.784024065912081181e+00 1.694703420058148069e+01
-4.572589916963131884e+00 3.137947644660307400e+00 1.505567426561119859e+01
-6.535789146311774545e+00 -2.857062019337175407e+00 1.845187984868317344e+01
-1.944792504530796773e+00 -2.232122025940958210e+00 1.944464489996680712e+01
-4.744781339943567211e+00 -2.636867895485272228e+00 2.037542808794579585e+01
-1.924992396660090588e+00 -2.644543043485132916e+00 1.944370359484836897e+01
-8.423399159180151585e+00 1.005739368187356986e+00 1.899618608185979340e+01
-2.880857707737200180e+00 3.943522495025919561e+00 1.776381195070239372e+01
-7.897781496285952940e+00 1.636763975758850631e-01 2.012632855980566760e+01
-8.554575670177632318e+00 1.046718841785634568e+00 1.859149491682257960e+01
-7.227308609364048841e+00 -3.037143669014927383e+00 1.902620634667050226e+01
-2.709992261615995712e+00 -4.420752419922041376e+00 1.797426602740789647e+01
-7.353063906628350743e+00 1.081632126322764176e+00 1.466087066548982776e+01
-3.144242147383648156e+00 -4.249114017291993228e+00 1.794900002152139606e+01
-4.366137403824701391e-01 -1.660629623366209673e+00 1.847868360392839904e+01
-3.542543595953059121e+00 -4.042605835201860565e+00 1.792541363286774114e+01
-4.102347143027827769e+00 -2.807326980972716865e-02 1.988207612324835694e+01
-5.683700758309839784e-01 -8.853293966267329340e-01 1.867877862543531720e+01
-4.858489765512702396e-01 -8.636199318400612501e-01 1.850167516677241153e+01
-4.103960425230714471e+00 1.971916765593856535e+00 1.947410220906605005e+01
-3.912473190186730676e+00 1.782234666609439966e+00 1.946718438566104581e+01
-4.063030727504964856e-01 5.810878940327099951e-01 1.772633877601624519e+01
-4.589348025023594069e-01 9.694842399495741114e-01 1.790595507812639298e+01
-6.281553715677723915e+00 -2.301245368321490847e+00 1.804447676811669155e+01
-5.707114474147761740e+00 -2.188980783337101776e+00 1.781295667375514213e+01
-6.088714871687570529e+00 -2.377439912506221109e+00 1.803400291026265378e+01
-1.831917339135252565e+00 -3.114613603694471600e+00 1.627216367877391789e+01
-4.618773651807883240e+00 1.835268120233368272e+00 1.293055694392191768e+01
-3.422305854597456953e+00 3.236018975004024689e+00 1.592155257324900575e+01
-2.325280677974218335e+00 -2.051483122748212651e+00 1.955944234239380464e+01
-7.196863940095162171e+00 -6.112369166270396059e-01 1.589843981604181167e+01
-2.559751417599215095e+00 -1.657278253547183944e+00 1.960874394328461889e+01
-2.926641964158281262e+00 -2.244264227484063845e+00 1.976124165411740918e+01
-2.738725568459267734e+00 -1.849507058122509928e+00 1.968316941625429806e+01
-2.978370127632148812e+00 -1.622763397050638989e+00 1.974977572482370292e+01
-2.953453912093414235e+00 -1.855266698373989831e+00 1.975835068361245916e+01
-5.556866965416998205e+00 2.409347685399591654e+00 1.431142175476396616e+01
-1.859900045561864612e+00 -2.116991817574076507e+00 1.528560299047237336e+01
-2.075228349011625451e+00 -2.087542052100313850e+00 1.529023776629692222e+01
-6.747501651696461877e+00 -3.223538842054464393e+00 1.887427290838868643e+01
-4.095821437457670910e+00 -1.370948801486143065e+00 1.678202845104949503e+01
-4.793907670772538765e+00 2.616122906383662183e+00 1.410316379878001314e+01
-4.394613623275974712e-01 7.863903870990222034e-01 1.793706855353466167e+01
-2.719719580783360957e+00 -2.001988783790900062e+00 1.582444700579708652e+01
-6.979569845795763783e+00 -3.455811037058605706e+00 1.945770881995750656e+01
-2.987159346473964305e+00 1.533355387885976029e+00 1.329738929418218518e+01
-4.574922703294121540e+00 -2.014412112593122473e+00 2.030651997247543150e+01
-7.865826378454499945e+00 -5.864495486152286885e-01 1.588703194902270965e+01
-4.847714916838669730e+00 4.684109555914759859e+00 1.795822663364200267e+01
-3.122075849197599950e+00 -3.198623794403923526e+00 1.737147324744378452e+01
-7.859519610233761000e+00 1.877445588710409119e+00 1.621755790561414656e+01
-3.505165087218121034e+00 -2.719027421467438810e+00 1.728277794863894101e+01
-8.702061299123203142e+00 6.932118117191090612e-01 1.632778837081547962e+01
-4.632617830334251785e+00 -1.861006972552807781e+00 2.031072753541292641e+01
-4.554981420685474625e+00 -1.426881468853139046e+00 2.025329455948917357e+01
-3.005192191501697252e+00 2.759737849685264810e-01 1.343960398271358869e+01
-2.814410611718838329e+00 -5.006614570394929409e-01 1.408266619301975808e+01
-2.856235243400387702e+00 -1.752010823501853054e-01 1.379963978643607092e+01
-6.065709335074731534e+00 -2.246247116073889771e-01 1.594325150735452823e+01
-2.791992068172637342e+00 -2.761601942810715027e+00 1.970671576524260260e+01
-2.350590353923205811e+00 -2.847437314951647203e+00 1.635454664862159646e+01
-4.332796178921652919e-01 3.874404253329684078e-01 1.690875775010858106e+01
-3.870665200227859648e-01 -1.228880625974430485e+00 1.766402249191598273e+01
-6.831521989587570509e+00 2.027059688193583870e-02 1.533298226956492627e+01
-8.761179409959254372e-01 1.961509621332931719e+00 1.717860848335375223e+01
-5.502053683932482286e+00 1.562328628582908552e+00 1.989778565975752755e+01
-5.821068942963952608e+00 8.411484596526144220e-01 2.011772236178977735e+01
-4.689142210093224961e+00 2.768887442330753679e+00 1.943144749279911210e+01
-1.853069577285129554e+00 -1.799998002391408392e+00 1.500864671838256115e+01
-3.220877970344648400e+00 3.470459469186779611e+00 1.650424863560894195e+01
-9.331244457142420234e-01 5.659837549173977189e-01 1.535846534920985462e+01
-6.076772423866130701e+00 1.840850531221726039e+00 1.992572594454412993e+01
-3.055709928557800215e+00 -5.531830787310296760e-01 1.423029627916370643e+01
-6.257216230615942898e-01 3.378878368773606811e-01 1.858168765314034587e+01
-7.428774122368107413e+00 3.008159068551044424e+00 1.864685997128719563e+01
-5.379183443979999701e+00 -1.206467034257342474e+00 2.040018976811135687e+01
-4.355068132195203390e+00 -2.474194300402678959e+00 2.026919671525242350e+01
-7.415700746134678667e+00 1.870475185159246045e+00 1.564020831535441758e+01
-3.689766863052307500e+00 -2.792152394925671910e+00 1.738189435613632483e+01
-2.286633350954943911e+00 1.592690230683927732e-01 1.925840531171919778e+01
-2.674558749228184151e+00 3.462359142944708701e-01 1.935329399367188685e+01
-2.291254273222633309e+00 3.649426252184733710e-01 1.922800221055677738e+01
-2.698679720842821261e+00 1.332917395522794923e-01 1.939536282183092553e+01
-8.358044429110199403e+00 1.664304370586662918e+00 1.841613298250457476e+01
-7.251151619014347460e+00 5.163818240699441509e-01 2.030940034886858925e+01
-1.703149414800059880e+00 6.713472099639279378e-01 1.410821830054217330e+01
-7.135530511199864812e+00 3.663405408643247707e-01 2.037944115840688752e+01
-5.762743645229713607e+00 -8.329293017860991410e-01 2.041005141158121816e+01
-5.536999628392666573e+00 -1.013105716242689525e+00 2.040029306968920864e+01
-8.126147123412918560e+00 2.151198323646802635e+00 1.692319170016317642e+01
-5.875679717947005720e+00 3.270034162082947393e+00 1.935859665357984838e+01
-7.090451173952421193e+00 2.723412597696451609e+00 1.637429037380896446e+01
-5.891760933572791181e+00 2.986817527297930042e+00 1.948268475626940344e+01
-3.150417067755351574e+00 -3.451768843663606479e+00 1.748850341056045821e+01
-4.880281343075399958e-01 1.373495372713483098e+00 1.749675539095520449e+01
-4.619508466747746844e+00 2.038104415499002897e+00 1.316044007921216163e+01
-7.920242283413433171e+00 3.846661966704321145e-01 2.002763905705858960e+01
-9.835494443113959040e-01 1.642623202729869725e+00 1.647966863965156747e+01
-6.505659234808376823e+00 -3.751866554956652333e+00 1.952856536929183662e+01
-1.689795700986057359e+00 2.362877191106099950e+00 1.657938709960021484e+01
-1.787062165653332979e+00 -3.225406870987106434e+00 1.933932299731772630e+01
-5.890695406780671384e+00 -1.494871090882397668e+00 1.745354366702038007e+01
-8.928373951936086073e-01 1.575353634812174164e+00 1.654945222701614327e+01
-3.703465607464883291e+00 2.013990602196945368e+00 1.935466747662849585e+01
-3.716012712807087226e+00 1.582492386776467974e+00 1.946033266232121761e+01
-2.508027420055114920e+00 -1.802879996185863476e+00 1.517983269607475094e+01
-5.267653694547918874e+00 2.378204765259381404e+00 1.400151635818255258e+01
-3.769701856586997746e-01 -2.009681237955792454e+00 1.687612218593654134e+01
-1.594042285324320574e+00 1.479377747960015199e+00 1.529614678657587845e+01
-1.510969828573242690e+00 -3.747137663538291807e+00 1.690413493334130024e+01
-3.646692415864523973e+00 -2.155405298836825523e+00 1.704334813209903743e+01
-3.603898328612953339e-01 -3.204092575465864456e+00 1.764117285385959732e+01
-3.009724405818771320e+00 2.216882539125742735e+00 1.451072920083295159e+01
-3.571096125313846237e-01 -2.852119991610982730e+00 1.806442334000626815e+01
-3.650644520239872959e-01 -3.040629326866211457e+00 1.822674640139208080e+01
-6.814234435813077972e+00 2.050280672993455955e+00 1.506375056283928515e+01
-5.307593621256969207e+00 2.400548021497900031e+00 1.963830406102252724e+01
-4.907496950469145247e+00 -1.797913614351533962e+00 1.734119408285423347e+01
-3.794876612252188863e+00 -4.702539773119866484e-01 1.527736263133025219e+01
-5.072382341399499062e+00 2.074705453963607560e-01 2.011427999234299691e+01
-3.864393789910430144e+00 4.392917692123724294e+00 1.854499806954143892e+01
-5.928724356829891740e+00 1.575945375151542871e+00 1.997772036309521226e+01
-2.734909890022336754e+00 -3.435440318480823763e+00 1.960381083100708466e+01
-7.056558906686996480e+00 -7.497669689728881925e-01 1.616631176825617544e+01
-9.479721875282229870e-01 1.147794220626143558e+00 1.865280733140982150e+01
-8.821551570206560555e+00 7.147919225634898066e-02 1.660363598901092885e+01
-6.092049298187289796e-01 -1.182959905900132336e+00 1.564360638032299633e+01
-2.853757428024611187e+00 -2.905692017437131014e+00 1.707068207906852919e+01
-2.358950349723359707e+00 -2.851524553409199747e+00 1.956436197343830585e+01
-2.319982710505026358e+00 -3.038171785955151805e+00 1.953320591946846108e+01
-2.527455748419924486e+00 -2.639574251909879266e+00 1.963187143921557620e+01
-7.330733894763093339e+00 -2.109247657306230136e-02 2.043736779590222952e+01
-5.411673236269308518e+00 3.212181741837759841e+00 1.550281246103833510e+01
-2.075312193092148760e+00 -3.146385674579558867e+00 1.643673725703343891e+01
-2.699546833383584588e+00 2.917260870062626132e+00 1.884187037014172361e+01
-2.528383751235972809e+00 2.734835539713495578e+00 1.883052466596036467e+01
-8.686072024177171613e+00 1.044927782199198685e+00 1.818061717695891488e+01
-1.442867526078476903e+00 2.997122245187369138e+00 1.813904745444199662e+01
-1.481791317570011923e+00 2.912991407741305494e+00 1.829606745285335379e+01
-5.077500468533137301e+00 2.765771348945634145e+00 1.949250206917373518e+01
-8.040494549347668496e+00 1.671126402996579996e+00 1.617672614141816112e+01
-5.284467691006036638e+00 2.800534665330084660e+00 1.950666451948025681e+01
-5.101537738104878095e+00 2.988490677649715987e+00 1.942115835763211251e+01
-5.071823709400073987e+00 3.190146029952825479e+00 1.934941081271450614e+01
-2.157961827924186338e+00 -4.713831007019197647e-03 1.378663994641922486e+01
-3.238718189660997115e+00 1.466508325690822456e+00 1.290240630802187738e+01
-5.592208206995899822e+00 2.853457682390845740e+00 1.506340921581787384e+01
-6.479456533092438519e+00 2.787263918367473003e+00 1.949733755129470225e+01
-3.151452222998055053e+00 1.320265545509345495e+00 1.281624990997205416e+01
-4.049787877431481498e+00 -1.375828954955317984e+00 2.008846606577258953e+01
-3.929393463670422193e+00 -1.281478827547199772e+00 2.003548373734511401e+01
-3.875804746965552106e+00 -6.461578507142933248e-01 1.991523718756170425e+01
-5.376002015856458982e+00 4.531160144555580693e+00 1.778564513254155699e+01
-3.950921206493936744e+00 -1.062860767459067546e+00 2.000898098860591645e+01
-4.148772808348466512e+00 -6.135726871071811583e-01 2.000065231299412360e+01
-4.147203526083699465e+00 -1.019035758769290645e+00 2.006807347651475126e+01
-4.127667622684836779e+00 -8.027050005267378774e-01 2.002522694895622735e+01
-5.722498500894358742e+00 -3.211859921548464669e+00 1.835015682287339800e+01
-5.720936920339656950e+00 -1.409786189393779976e+00 2.047525443472622797e+01
-4.572344444263606533e+00 1.676874657530536217e+00 1.269315859142662006e+01
-3.831747517127743752e-01 -1.234593773943530870e+00 1.728310349657458644e+01
-2.691280853297972619e+00 8.111536376761873113e-01 1.928834755303952520e+01
-2.734857679869284741e+00 5.697659201044061872e-01 1.934042636573799356e+01
-2.316633562677008928e+00 5.737644744652370399e-01 1.920318967860334070e+01
-2.494264723225197766e+00 5.684179633156609679e-01 1.925881165984376153e+01
-2.277124715925950227e+00 -1.610806830308266324e+00 1.951144128328328620e+01
-6.746784671594126870e+00 -3.758984211416116050e+00 2.009204582249557447e+01
-3.289472059687887473e+00 -9.771758125901018888e-01 1.541437761399928874e+01
-3.642284011741564242e+00 3.389339915236126988e+00 1.896820072183100692e+01
-1.933331490591198243e+00 -1.995404829088330001e-01 1.397164690049628533e+01
-6.530577672496325370e+00 3.042501694363928699e+00 1.932395124906066641e+01
-4.691321392875034135e+00 -2.799121923225551534e+00 1.773240213980146152e+01
-4.862871755491137371e+00 -2.943529969068782393e+00 1.786516294109974368e+01
-3.637195185835976119e+00 3.858702283704305458e+00 1.690165892130098158e+01
-8.959963506451913418e+00 3.618331353435647046e-02 1.814406501019547235e+01
-3.280697462036751499e+00 -1.185031110563880663e+00 1.583311275494220283e+01
-6.805074532859937797e+00 1.899029050835103982e+00 1.483452483753634610e+01
-7.745555793813990064e+00 2.011523699367809837e-01 2.020242102689121921e+01
-7.452747216683202502e+00 2.167550681853340322e+00 1.937223792284743595e+01
-6.870595761023881032e+00 -5.174566118695644867e-01 1.600246544518173053e+01
-2.615849153940324801e+00 -2.157424786970347341e+00 1.580278673024072944e+01
-2.544005995783298335e+00 -2.258069428409047674e+00 1.581030312171077057e+01
-2.030229699143907496e+00 -5.348231243483765329e-01 1.408669013937135972e+01
-2.019822874184917350e+00 -1.369739272967100130e-01 1.390694705845541179e+01
-4.244584842587347140e+00 4.660637065231025389e+00 1.812154365728976657e+01
-4.489749975743602128e+00 4.242797055440101772e+00 1.878876228880685417e+01
-6.557092788784420812e+00 2.993570581480426096e+00 1.614556439584309899e+01
-7.627281880975667505e+00 7.166111707468535152e-02 1.518121185556449504e+01
-2.395918783827219123e+00 3.653434679400441976e+00 1.842177406830738917e+01
-3.538740430352111943e+00 -8.107863227294185293e-01 1.982882614997319237e+01
-3.500437414852263451e+00 -2.434188351267172756e-01 1.972482976143107081e+01
-3.723329278976170720e+00 -4.470271976796252322e-01 1.983112642871662601e+01
-8.341032698458619166e-01 1.622102142876126196e+00 1.674362199038502652e+01
-6.662829716350901599e+00 3.626474842195435144e+00 1.885066806954194973e+01
-3.321350171009534336e+00 -2.569706130683616641e-01 1.966688691118784860e+01
-4.137101610057674073e+00 -1.261167523815926783e+00 1.672682318983641991e+01
-3.706397932880525659e+00 -6.433201588462416076e-01 1.985827453542617249e+01
-3.368111976163300270e+00 -6.786733028806868351e-01 1.974955450716625549e+01
-2.915619196341812547e+00 -4.571943071030208638e-02 1.949704084246102909e+01
-3.111217298249167040e+00 -2.484870560355290914e-01 1.959547457999893894e+01
-2.109236005635997557e+00 3.532314691807915352e+00 1.831113308140791318e+01
-3.131594926893268127e+00 -6.532253272685230039e-01 1.966669601540669632e+01
-2.938412102287832894e+00 -4.068560540443438178e+00 1.770987240440935651e+01
-3.433323833894467381e+00 4.083813780357888668e+00 1.747131473012088421e+01
-3.522159379357272524e+00 -3.945638945105502948e+00 1.784981318486575574e+01
-1.810553061149158260e+00 2.461886728865334995e+00 1.862005079449273737e+01
-6.210875266635623504e+00 7.056407773039928832e-01 1.418622214384888380e+01
-6.400436795379351729e+00 7.936055691861921835e-01 1.409283460233391239e+01
-7.590754981836603577e+00 2.605613878827648389e-01 2.026278907540365637e+01
-6.613152224834167647e+00 7.556652750893375625e-01 1.420812702772885316e+01
-1.673237810334087250e+00 -3.220560043335263245e+00 1.930355074727080833e+01
-8.594152963630085296e+00 2.768502854517223555e-01 1.920122806046630970e+01
-8.640270901546495352e+00 1.703370606707485246e-01 1.915196621743962524e+01
-5.485384358973495189e+00 2.200943144496140924e+00 1.972152321249855689e+01
-2.535994505779372687e+00 -1.252501531852829864e+00 1.956013419719139179e+01
-6.054855590904101525e+00 3.521547339070360660e+00 1.920583202462018235e+01
-6.561964084563585153e+00 -3.804679607714742673e+00 1.971473965048806676e+01
-2.035411833581360685e+00 -1.237002839467093107e+00 1.455537260114541098e+01
-1.538585441254324948e+00 -4.037662705255547380e+00 1.905552023413357077e+01
-2.852094172808760320e+00 1.795008539870742492e+00 1.917047840134734216e+01
-5.342276374902750646e+00 -4.068937310885140768e+00 1.884121321079724609e+01
-1.497531240137786712e+00 -3.839586174964302767e+00 1.909820888455939425e+01
-1.869092026489007630e+00 -1.459771731581926524e+00 1.472788810932342685e+01
-5.643483447503291117e+00 3.908896564096334014e+00 1.684916083027823319e+01
-2.043395933977845136e+00 1.450130019302725115e+00 1.451649454175017340e+01
-4.319057492483801219e+00 -2.646330409736233680e+00 2.026220480420569814e+01
-4.812130174003378613e+00 8.824287397017472889e-01 1.994531812790446068e+01
-3.903022176800050147e+00 -2.468214747090135219e+00 1.730505596910267130e+01
-3.983480002979364887e-01 -3.404681231674096253e-02 1.711009064261464019e+01
-4.114138443761457431e+00 -2.381212544753753768e+00 1.733572671600021309e+01
-4.249699072317029369e+00 -2.129350359764489387e+00 1.726685571976976874e+01
-3.520102108499570726e+00 -2.421389132665634492e+00 1.713450482583136036e+01
-3.929391322491502692e+00 -2.353925310933157267e+00 1.725991370314005380e+01
-1.114452194833484677e+00 1.725909412512077967e+00 1.639759103266733931e+01
-5.113015778472304262e+00 5.723121198419245381e-01 2.005300434088385586e+01
-3.539136774324158630e-01 -2.647670479555276568e+00 1.802161729982032412e+01
-3.393054158094624961e-01 -2.862177416747364589e+00 1.744884791726710560e+01
-9.832984227073691130e-01 -3.611749479358711934e+00 1.893634890622464795e+01
-7.737023691526896840e+00 -3.055673321492180516e+00 1.948722515536558930e+01
-2.529823004373969564e+00 -4.464535376079598272e+00 1.796524973181346851e+01
-2.948138331174328552e+00 -4.481695568546531838e+00 1.814452812390216607e+01
-2.299437079340405532e+00 -2.373421275373132355e-01 1.932469661518852533e+01
-5.025309796733400169e+00 2.384367949080703042e+00 1.380888379787016973e+01
-2.524760036253086870e+00 -2.759922443297015970e-01 1.940357416606586938e+01
-2.095281991492902840e+00 -6.141330302870229296e-01 1.931742951723294865e+01
-2.318184960048335075e+00 -8.357919709649589413e-01 1.942735397762812610e+01
-2.939432440653263257e+00 -2.024351743320430774e+00 1.976340965131061367e+01
-6.569494265236070163e+00 3.752694095694919962e+00 1.733559923560459382e+01
-3.139822813280078506e+00 -1.833492097730317738e+00 1.982282495149754098e+01
-5.295156313954842986e+00 -1.589188695773747551e+00 1.735512957077333240e+01
-8.828741662414865132e-01 -7.364016076576198611e-01 1.507831103944250017e+01
-6.423983948078428874e-01 6.147371865688935344e-01 1.611679252579108734e+01
-5.296141504552565493e+00 1.551168075219969467e+00 1.987067474875118833e+01
-3.685086214801772675e-01 -2.299363295143557750e-01 1.810378839917386173e+01
-2.517590715517154187e+00 -4.161326797986729886e+00 1.762060306185286507e+01
-3.196205503119224911e+00 -1.067104772649421607e+00 1.975288892651870398e+01
-4.402538778207795156e-01 -1.203335310403260694e+00 1.628157973735106978e+01
-9.569091012140307217e-01 4.453751696735559484e-01 1.521113252538004090e+01
-4.021756302635098868e-01 -1.590455854568682881e+00 1.664214660214524244e+01
-4.627309952561124984e-01 -8.258672186365595413e-01 1.605892590216223326e+01
-4.641871636770077414e-01 -9.783384541948697555e-01 1.608409884225177322e+01
-4.188230130721829481e-01 -1.184422189061132169e+00 1.644443463505821157e+01
-4.001689262970822725e+00 1.164607613827147503e+00 1.272877767371392466e+01
-7.441598372627837854e-01 -2.146016773481877582e+00 1.588122344604801484e+01
-2.222103986253066044e+00 -7.857703116989889214e-01 1.421930592577513508e+01
-5.939597157024007146e+00 1.732149598827815162e-01 2.027220275554222795e+01
-6.164569297696770533e+00 2.412185230631347377e+00 1.490731059367509559e+01
-4.713713463222036104e+00 -3.223235107726420967e+00 1.791969839970429135e+01
-4.294977973791417547e+00 -2.954829642583179705e+00 1.764135985544322338e+01
-4.363936209086747731e+00 -3.054138742751150826e+00 1.770843001633195612e+01
-4.292918355077900650e+00 1.981831559881671145e+00 1.953409921695191898e+01
-4.501878522021764972e+00 1.765312804063560614e+00 1.965815063784444661e+01
-4.689388223841239878e+00 1.971704615363740309e+00 1.966375244760391539e+01
