-7.600258186810204819e-01 -2.458164179610666522e-01 1.848215410848317575e+01
-8.524471793064822833e+00 -1.183415802732455724e+00 1.634927504592122816e+01
-1.661220774079458673e+00 4.315920803334790889e+00 1.670657230267412885e+01
-1.409711326493358508e+00 -1.326755067145785949e+00 1.914747519489583638e+01
-4.874546516654428174e+00 3.144336678611824865e-01 1.323330581982847676e+01
-5.407795916462887487e-01 1.124393563673286467e+00 1.527161346480378867e+01
-4.740195500567888409e+00 2.019918165008179223e+00 1.192716332221089814e+01
-6.650761051886947328e+00 -6.449627437238126815e-01 1.551409455849503516e+01
-6.140780950816098205e-01 -1.463082886229578383e+00 1.684426324912212536e+01
-7.733291275598370262e+00 7.695723840347201694e-01 1.907621925359736892e+01
-6.639883438240562263e+00 3.197451758555083678e+00 1.437832993472730791e+01
-8.762885579459513963e+00 1.409779329471784859e+00 1.676513646348807995e+01
-6.733820387046319134e+00 -7.433704155465397090e-01 1.554565685256525498e+01
-7.357532447704469902e+00 3.327405303335283726e+00 1.771152973822801968e+01
-5.370343291337100755e-01 -9.088181255326780450e-01 1.811011649047085470e+01
-4.597173241754651585e+00 2.307546244146901238e+00 1.844187105941228921e+01
-7.277387572654730796e+00 -2.627396395949688213e+00 1.961861238686296716e+01
-3.065944049245004521e+00 -3.183223340869290041e+00 1.786667934673870306e+01
-7.691597776365743933e-01 1.729745166243937371e+00 1.786248015058876248e+01
-2.025328806163130047e+00 3.902537503839774935e+00 1.587917974554506273e+01
-3.607792982160317186e-01 1.561832675844620155e+00 1.747847708587203996e+01
-2.908213994732657071e+00 -3.609878265721157220e+00 1.861914523602761662e+01
-3.956272335465181311e-01 6.837679181650177518e-02 1.576567542948732736e+01
-2.633605191850612037e+00 -1.183731632545352408e+00 1.508075197962519454e+01
-2.077001347597106085e-01 3.656726655250087110e-01 1.624440644071425410e+01
-3.625100748287381602e+00 -3.038941919369113620e+00 1.782518529562591780e+01
-3.618286577878393473e+00 -4.149985525935448449e-01 1.916404939209293801e+01
-3.445903455232285584e+00 -2.842596808934596986e+00 1.768159834429116373e+01
-2.840799203628448399e+00 -1.166483766397299782e+00 1.550657540243131294e+01
-7.149057543472211229e+00 3.754900675151703560e+00 1.750687002376505674e+01
-5.996123629231063790e-01 -1.482342873786562487e+00 1.721336261896742670e+01
-4.011869623430936116e+00 4.559307697140284610e+00 1.725789048743775922e+01
-3.897120267799561333e+00 -1.045364762363532457e-01 1.442173866069067500e+01
-4.101699681824690025e+00 2.148736280213965344e+00 1.217752865968360609e+01
-3.204692627088831625e+00 4.729248017891783284e+00 1.705851681122350882e+01
-2.870722951484952823e+00 -1.004443803510645328e+00 1.528485485335779615e+01
-5.247594999793053994e+00 7.030066545262961264e-02 1.439334077615557206e+01
-2.776120009077286621e+00 -1.122613604741877547e+00 1.528542272970369353e+01
-1.032727991989137672e+00 -1.885923554306294214e+00 1.579859460608845367e+01
-5.941710986640230452e+00 3.272120756600541469e+00 1.390337473091557641e+01
-6.309843578175538426e+00 7.429201906723255089e-01 1.250251406099082985e+01
-1.018746166558793131e+00 -2.097768222643339620e+00 1.598137133156480516e+01
-9.001774563334457468e+00 -9.846003342409915815e-01 1.754438665083253923e+01
-9.014985838229787163e+00 -7.762839036856692410e-01 1.742400770970430202e+01
-1.298096732678934107e+00 2.943099395750762959e+00 1.564379872215392808e+01
-8.646394245973709758e+00 1.201766876762270675e+00 1.780726301307133141e+01
-6.850557497715826116e+00 1.996373277229245735e+00 1.871715971713767956e+01
-1.553056201138015568e+00 3.628510019929457542e+00 1.736072157071269473e+01
-8.282657810595125625e+00 2.595933528924447842e+00 1.694769447258978445e+01
-7.216953821543164338e+00 -1.452601696178028146e+00 1.611958711974724778e+01
-5.008145446350261487e+00 -1.849278800879303963e+00 1.955504302357100599e+01
-6.148019147175927124e-01 -5.224036922086742196e-01 1.559426084658877798e+01
-3.252818488398830699e+00 -2.477232936315882483e+00 1.739527502431915806e+01
-2.022611861378356135e+00 -2.858455620427911015e+00 1.936359597115317754e+01
-4.465231179053275490e+00 1.790752410572266973e+00 1.864262574875055734e+01
-4.769973305062121582e+00 1.958448043088760082e+00 1.858622293211415055e+01
-5.806939071556352694e+00 4.787665753864640550e+00 1.716078019361959051e+01
-4.581674269129122123e+00 1.960701058925051976e+00 1.858259092589809214e+01
-5.458775337277860906e+00 -1.870305502927006591e+00 1.960177294536565640e+01
-1.783175011926942055e+00 4.409493571367097964e+00 1.689417308294438769e+01
-5.797521160339574209e+00 -4.149534697547584972e-01 1.933006725482996657e+01
-1.554965988847454017e-01 1.154991847143652883e+00 1.617719141188706899e+01
-3.311689749829544560e+00 -2.709649727151039578e+00 1.757415789597262901e+01
-4.073665521470674733e+00 -1.829220933003338434e+00 1.714270244465964410e+01
-5.073973283096969489e+00 3.236858331285975332e+00 1.349821729152005290e+01
-6.265233288237518572e+00 3.286449765224892516e+00 1.805833901744364667e+01
-7.193616062365912889e+00 9.882975375241969118e-01 1.908727632587451595e+01
-5.315223665078220305e-01 1.512744272988634897e+00 1.548890582059519616e+01
-3.276838810522179624e-01 -1.133979304169013269e-01 1.621745848185470251e+01
-7.007613418921994075e+00 2.561763574953994649e+00 1.421059295819494750e+01
-6.577511496499646171e+00 7.314478985325284510e-01 1.266634178647465703e+01
-3.730839771846017339e-01 -8.838640215604925965e-02 1.596323582199645941e+01
-7.282825573541040320e+00 -2.497134942844712491e+00 1.788628808089439914e+01
-5.578500020955448946e+00 3.083163853829636314e-01 1.343778762702936191e+01
-5.696998008283410186e+00 3.059686129476179572e-01 1.347357691847009065e+01
-2.416752830944480568e+00 -2.486712085092565694e+00 1.933515876541666856e+01
-1.260661822593109882e+00 -1.462632005660792878e+00 1.520301176075405536e+01
-1.591320840616819776e+00 -3.526641929565519362e+00 1.843313530993763649e+01
-5.365049755381250840e+00 8.994241220625844857e-01 1.176720075293875922e+01
-8.378231406826223804e+00 1.806640185890279859e+00 1.780257746311225375e+01
-1.272613861134314739e+00 -3.384931899003566613e+00 1.790992347404300133e+01
-7.721635143812274116e+00 3.840144525732039682e+00 1.649612635299226682e+01
-7.304273923871813068e+00 -5.170306702289990258e-02 1.406759803629896410e+01
-2.290448249206122000e+00 -4.937365561285165794e-01 1.400348816554194897e+01
-6.586167543995043339e+00 1.961592734957275708e+00 1.872301813099181444e+01
-6.634350536668169873e+00 2.217502895129204177e+00 1.861405975608339602e+01
-8.985340786566837323e+00 -1.191106792835634476e+00 1.821881853264150308e+01
-2.272072651967585455e-01 1.523528504844489762e+00 1.721526213046215403e+01
-5.053267883893264312e+00 3.134516351108226573e+00 1.336939736852675864e+01
-7.259438069258052906e+00 3.983060223431341917e+00 1.720013184214587554e+01
-6.636405693763649971e+00 1.152580455080784994e+00 1.261290437952390775e+01
-4.392198715536657083e+00 -1.061452860247169339e+00 1.935130502822493170e+01
-8.359649411772252847e+00 -3.957581689633963284e-01 1.534038655701805354e+01
-7.028468763607160774e+00 4.206016156911815962e+00 1.719404481623921654e+01
-7.978998525871658032e+00 -2.761156768743420642e+00 1.927582065877732376e+01
-4.608072366040530277e+00 3.122777471913652292e+00 1.805762984263119009e+01
-6.771642958679595647e-01 -2.912018633830748549e-01 1.837790408154815580e+01
-2.158147621634069480e-01 1.397226733703014478e-01 1.663338163438663386e+01
-1.743190287844283981e-01 3.390086651357068770e-01 1.658870805288204409e+01
-8.984240979922926584e+00 2.230814005170492775e-01 1.679446236759907762e+01
-6.030164593812686213e+00 2.724685017478729598e+00 1.340312899207100727e+01
-7.445264462223348367e+00 4.507055602478905465e-01 1.363913525865688925e+01
-5.229137944577457731e-01 3.053110169371236360e+00 1.664332617027472239e+01
-7.446063870782079874e+00 6.361736062556215821e-01 1.363271299304925677e+01
-8.902604333996542607e+00 7.686360501674605050e-01 1.678973851439614506e+01
-4.795232449640150385e+00 -3.374531476788876994e+00 1.870256307587504452e+01
-7.874491036944244016e+00 -2.419645748715240074e+00 1.776113230993307113e+01
-4.508150724156394951e+00 2.711657253854724559e+00 1.278707114399085398e+01
-7.375245912528379577e+00 3.529592355556674832e+00 1.751714980692834800e+01
-1.664382275031226488e+00 -3.144586549123343566e+00 1.740211669669169581e+01
-5.065094768599649910e+00 3.418303628938076599e+00 1.372134768842984087e+01
-1.894078600170041149e+00 -3.025267384536468818e+00 1.933605005755797279e+01
-1.023115535960434919e+00 -3.057412819918388536e+00 1.722476551222824881e+01
-8.708200587059302222e+00 1.433641742532847152e+00 1.717336749382296901e+01
-1.330282399874108901e+00 4.003834767507969516e+00 1.681852803179782185e+01
-2.075500059926584928e+00 -2.298212924574317029e+00 1.578712618488578201e+01
-7.352906532652967009e+00 -3.168813985898052188e+00 1.945461975294136536e+01
-3.383079376851438003e+00 3.556979539309826244e+00 1.772718880445664880e+01
-6.648543669786150190e+00 -2.624174518377780707e+00 1.972788975168976933e+01
-4.238906704229224331e+00 4.427686433952698231e+00 1.510001691334670326e+01
-3.832362363579541853e+00 4.742372974761108750e+00 1.571246741382528356e+01
-8.180390208645929917e+00 -1.595915827572126799e+00 1.932605610090649506e+01
-1.840566985538251599e+00 2.988221867667644638e+00 1.507592839274621710e+01
-6.623995401208367717e+00 4.666389900860417050e+00 1.704438429542623723e+01
-3.556654546350275226e+00 3.077100316585348883e-01 1.306447316243850665e+01
-6.589006079976257091e+00 4.569542030839217617e+00 1.714303590888414774e+01
-6.770023528079556208e+00 4.520181938026690105e+00 1.709209577007216652e+01
-2.817061924596472977e+00 -1.895572980063196411e+00 1.928346164577176225e+01
-8.669081998017464485e+00 2.004888515091794443e-01 1.579482615093776232e+01
-8.222651983844691870e+00 -2.571847745626496540e+00 1.816393915895852373e+01
-8.276738459337661169e+00 -2.407273199750983750e+00 1.794454047235908334e+01
-2.070793886025264818e+00 -1.822812132150139597e+00 1.526331701439749722e+01
-6.184985201977012181e+00 3.170270823470779931e+00 1.811498981066318592e+01
-6.441980711430184137e+00 3.179378425619609594e+00 1.419352743781305648e+01
-2.556704405638128286e+00 -2.326090522545049666e+00 1.658654203641198777e+01
-2.558710534236833034e+00 -2.421645164719779864e+00 1.675517020147325198e+01
-6.497971273975656104e+00 1.028542004088720097e+00 1.235967487828286338e+01
-7.261526954789013999e+00 1.209902420127804135e+00 1.356128573106402158e+01
-7.218626581831601108e+00 -3.228311735615628564e+00 1.889831257112001950e+01
-4.092254121249910170e+00 3.372790164418118519e-03 1.409514751161319523e+01
-6.991978441296022417e+00 -3.243171654583301589e+00 1.888969427096408893e+01
-7.234989635342093273e+00 -3.167212498660943787e+00 1.872296560394797282e+01
-3.086648472287726985e+00 -2.309503329117434056e+00 1.718602134952560689e+01
-8.131077651564506681e+00 2.688694630092173909e+00 1.590749194823457557e+01
-5.029273149508838081e+00 5.570640650918639913e+00 1.635571686071923025e+01
-9.353436732886928340e-01 -2.428025611022464614e-01 1.478090536438262248e+01
-1.738302557508669466e+00 2.072622119982417743e+00 1.430557248510901402e+01
-1.005037126932392333e+00 -4.310689377887683693e-01 1.479300955072258361e+01
-5.418246644068736018e-01 6.036418672872109203e-01 1.507208686032128853e+01
-2.179498468696842828e+00 2.313941941175130523e+00 1.819934366067112208e+01
-1.844079830788772467e+00 1.104837154061014126e-01 1.356651715580098383e+01
-7.571956617019145241e+00 8.736758460276338178e-01 1.908533417035033253e+01
-8.556018506605997942e+00 2.121951066494818683e+00 1.639398174374961670e+01
-5.655965062317870995e+00 4.176377518856368098e+00 1.473360550682474823e+01
-3.463791877154720034e+00 2.815315666501549074e+00 1.347436197732907814e+01
-2.475235210775174055e-01 -5.964879659868883854e-02 1.741941802965149932e+01
-2.056079265766186659e-01 1.495273966454663817e-01 1.723140344087090270e+01
-2.595758090886246983e+00 3.530752967392901454e+00 1.765435549155298034e+01
-4.820023801847405309e+00 -3.000102974284974522e+00 1.806068006721385544e+01
-1.340180907454290526e+00 -5.742316948324356352e-01 1.448202068253607777e+01
-5.284275302404907393e+00 -6.976001545967286388e-01 1.624337522977959125e+01
-7.256226124326546234e+00 1.598835833856935729e+00 1.377790051680478811e+01
-7.089987055020150031e+00 -3.331679972720433369e+00 1.928383799486910632e+01
-2.501349897370790387e+00 1.755708002851877225e+00 1.307886945411182822e+01
-3.236358106144691327e+00 1.866057801227959612e+00 1.242846899698821161e+01
-6.959676086240054182e+00 -3.343992050692922824e+00 1.945324107564863070e+01
-5.380387257484167129e+00 3.749232403483750531e+00 1.775903288181901374e+01
-7.871518935952055429e+00 -5.393652727158317894e-01 1.479269929929847294e+01
-5.760143368449091916e+00 -1.268091843070606295e+00 1.951986148207437211e+01
-8.318822239932305962e+00 2.625557263101683247e+00 1.666254677957666885e+01
-6.393408436829042252e-01 5.080812623528121463e-01 1.819710095982538078e+01
-3.493727675566700164e+00 3.169438448369881201e+00 1.392528553744531550e+01
-2.024118715435511362e+00 3.358565076362610924e+00 1.769677696141920720e+01
-5.722136236044887525e+00 -7.161584866609748135e-01 1.627662969524061154e+01
-2.828438011603945146e+00 -1.267852813943646462e+00 1.921809141879978355e+01
-1.444223025128744675e+00 3.144961706738386376e+00 1.567061461897461427e+01
-8.212322765999779506e+00 -1.526602407410467377e+00 1.624969381340378405e+01
-6.628731032629473496e+00 1.421761105937660030e+00 1.280342522729648991e+01
-6.008185350018505844e+00 -1.448995116296663888e+00 1.957408370360932182e+01
-1.592539258567305493e+00 6.843907966027298340e-01 1.354541319218109763e+01
-6.193978850432505290e+00 -1.594410421631563990e+00 1.960759627771162528e+01
-6.608382877716052484e+00 -1.428831008293735438e+00 1.959879778832850050e+01
-2.565542423869084931e+00 4.158430343473052737e+00 1.729942947822917532e+01
-6.821604916074259783e+00 -2.394612601480941905e+00 1.971530945425247339e+01
-6.804513668494292844e+00 -2.226739134137283749e+00 1.970518387432443674e+01
-4.954103055006537026e+00 4.282485358088203853e+00 1.745349352812740662e+01
-8.384841882550471581e+00 -3.505247986693035833e-03 1.897337869022838319e+01
-3.666457531950369830e+00 -1.690849408577251856e-01 1.447421598517996344e+01
-7.768149321285735986e+00 9.764962564229051623e-01 1.898144258076527890e+01
-5.628938433934711938e+00 -2.273044385488232955e+00 1.966376791029510329e+01
-7.155728657870083609e+00 2.439558467085459981e+00 1.431565605065697966e+01
-1.387019106011336822e+00 -2.696888598413704763e+00 1.908139607676711691e+01
-6.223909384892757579e+00 -2.446507455214697480e+00 1.971763476387836889e+01
-3.299430761354242292e-01 5.647078586602091166e-01 1.564891958217060974e+01
-7.212091376632572270e+00 -1.675119524370408230e+00 1.695456513574714208e+01
-7.850572653539604762e-01 1.322708209110466271e+00 1.807580252297068668e+01
-4.620356569484745712e+00 -9.891633772512263556e-02 1.920779809161695439e+01
-8.232501466544785984e+00 2.804137794337874467e+00 1.679425562955443141e+01
-4.893194321745290232e+00 -3.115038340741440592e+00 1.822686539588207566e+01
-9.583362120310349175e-01 9.163186760984047829e-01 1.451104788881702135e+01
-8.903667372956189041e+00 7.852885749539986193e-01 1.698289293425230895e+01
-8.063177989602923645e+00 -2.909636963244071062e+00 1.869229336157611598e+01
-4.485485383542271443e+00 8.347176950764659265e-03 1.429480493273339547e+01
-4.391493586137008798e+00 5.566293847367985492e+00 1.635986580787490752e+01
-7.831982017480987324e+00 -2.952545098090406661e+00 1.854551021240969888e+01
-3.509698071103179551e+00 -1.114634007093386225e+00 1.621885518853453689e+01
-3.776092670144980179e+00 9.028355760982524902e-01 1.161712109950110161e+01
-4.159494611981475742e+00 6.534475207636880612e-01 1.212085377560775257e+01
-2.678448454969931003e+00 -7.660731650745348231e-01 1.449793899582428125e+01
-1.583362579597821451e+00 3.963575742036568705e+00 1.713715333510474537e+01
-4.403350923133824146e+00 -1.649610824090283367e+00 1.943809932830158616e+01
-4.420335166429167906e+00 5.157628457286151935e+00 1.594075608561990620e+01
-7.419677676864256277e+00 7.804997787115304231e-01 1.913797725414501727e+01
-7.392385393338559041e+00 3.043034306317288773e-01 1.927727868807884803e+01
-8.529839112947218638e+00 5.998755367735413291e-01 1.853140007077607621e+01
-7.219675386131584993e+00 1.818921876322682207e-01 1.930953846287285458e+01
-7.463710925640962834e+00 -2.113239786970541267e+00 1.745684739693534127e+01
-2.410605887621935395e+00 -3.555806203892053929e+00 1.853415061246760231e+01
-7.307197592276167164e+00 -6.128821105751466325e-01 1.474604046648699196e+01
-6.169741196581892684e-01 -1.280873249338955633e+00 1.819932878816899446e+01
-2.611357584507483676e+00 -1.671631865839132480e+00 1.925178289690582645e+01
-4.825981072816586170e+00 -4.864615467131296889e-01 1.583054093206419921e+01
-1.391948946172771873e+00 -4.861420365406161070e-01 1.898332194557564279e+01
-3.029048282813998849e+00 -1.492541549087164077e+00 1.925916660739476427e+01
-8.686582781077341053e+00 -1.645647704417476431e+00 1.733956108312849764e+01
-4.055183236964578164e+00 -8.373532792015042636e-01 1.609342773840461049e+01
-1.203521262942701231e+00 -1.871686753770541278e+00 1.555696251938930530e+01
-2.991173929794782804e+00 4.808249117215914303e+00 1.697735880304776757e+01
-1.297729538349504441e+00 -2.058436178464532418e+00 1.562077062410165595e+01
-6.703110844495014931e+00 -8.149308099692732787e-02 1.411241400077259200e+01
-6.995291781158776701e+00 2.140809667731716104e+00 1.383283370211593066e+01
-4.748828745858930667e+00 -8.995539819014105598e-01 1.640691258266530994e+01
-7.941957086298384816e+00 2.936873513321750728e+00 1.735172625529291324e+01
-1.369413777257816101e+00 3.975475425423376841e+00 1.664796707901659900e+01
-8.696606298202759433e+00 1.083405248406155152e+00 1.779558032922843225e+01
-6.758466866473257006e+00 -9.302917007639656122e-01 1.598588086320732415e+01
-8.790759965018960287e+00 9.970958615227907273e-01 1.757157516360630822e+01
-2.778494496523591373e+00 -3.547359517060691303e+00 1.835992341203373357e+01
-8.728032259594776576e+00 1.220375209734023914e+00 1.574996806472169553e+01
-2.345604960081326240e+00 6.567803836104811888e-01 1.270356024042338206e+01
-8.865475683562440423e+00 7.940078775245776876e-01 1.618999936215599078e+01
-8.804383788045026193e+00 1.212640871936281117e+00 1.600469770273934600e+01
-5.729777076567905247e+00 -1.778527503490860306e+00 1.960554589056992469e+01
-5.414686880704960181e+00 5.119963519703127908e+00 1.580272687586140634e+01
-5.834879533979395738e+00 -1.614984907444571016e+00 1.959346612560182521e+01
-5.823898787966687252e+00 -1.898465028316503433e+00 1.962397779049387125e+01
-7.293470606535675138e+00 3.193980049007606681e+00 1.786611785020427945e+01
-6.172279678555111282e+00 -1.692839745115899630e+00 1.962011809114948946e+01
-6.965473639055585586e+00 4.509253130733531734e+00 1.696282553343793253e+01
-3.102946992600386977e+00 3.057899206734258635e-01 1.300645354075278348e+01
-4.217452021622107416e+00 -2.866547058102191237e+00 1.956190685027791076e+01
-1.330836414292542180e-01 5.517127122436402686e-01 1.700090419156741106e+01
-2.412859665891333272e+00 -6.903857342902478544e-01 1.907996132530080402e+01
-1.649352031845277899e+00 -3.559697608070909958e+00 1.858680892121001804e+01
-1.669084357494703852e+00 -2.715967222505884848e+00 1.639521075584332621e+01
-1.470352134581504600e-01 5.114129571836006916e-01 1.708451418766066965e+01
-2.020092270544231183e-01 9.469413398704271678e-01 1.599355480213892733e+01
-5.071757384548758907e+00 3.324624287339768891e+00 1.360654545791267012e+01
-6.241613178131977691e+00 -2.478320183214791861e+00 1.788594997576999290e+01
-2.962387929758430460e-01 2.440464646067626475e+00 1.656540212764974385e+01
-6.655165693495587398e+00 -3.101624937338899102e+00 1.850724592788251144e+01
-6.174452146034282052e+00 4.034141929457152109e+00 1.762004167555356915e+01
-3.983032594441593410e+00 -4.724245131091803773e-01 1.921739214739082158e+01
-5.035420221566065280e+00 -7.663820260565289422e-01 1.630822184459988122e+01
-6.158314330995972696e+00 2.495320794055611024e+00 1.327579931448086015e+01
-7.322802418436611394e-01 -2.067870225859609778e+00 1.704927853389120074e+01
-8.842568913195602676e+00 -1.592910261777347181e+00 1.776935933296883618e+01
-6.087654970594062576e+00 2.606829836087297458e+00 1.333069778348925283e+01
-3.714277187588166829e+00 7.129437208146513494e-02 1.375910403013197580e+01
-6.374165435498196253e+00 3.704461543251936106e+00 1.465992378237069360e+01
-3.577611614397898876e+00 9.608359868114671465e-02 1.364202910317455419e+01
-2.210393819766911072e+00 -2.505742335473502003e+00 1.934077874232208316e+01
-8.545225089662153550e+00 1.751874474764048673e+00 1.737400724883724834e+01
-8.023345205887299159e+00 2.010410956773877267e+00 1.816538796543379064e+01
-8.134820330618353523e+00 1.896563307035637580e+00 1.813719836368137450e+01
-1.811808662757400601e+00 -3.533745130905793452e+00 1.911597494534225561e+01
-5.133890808302615127e+00 1.214288638600905745e+00 1.127066263395235879e+01
-8.063793264205166622e+00 2.077168558852330982e+00 1.806617376921151319e+01
-3.829529633861588511e+00 3.450222217223907428e+00 1.406211817668490838e+01
-3.930538276856108570e+00 3.892901788984230116e+00 1.459080511272359715e+01
-3.572299127970746113e+00 1.084936453534929734e+00 1.136836014675758477e+01
-7.052595504753004896e+00 -3.056343875742633109e+00 1.961725090522876158e+01
-6.785380418817068993e+00 3.951035803276113256e+00 1.755650417810855046e+01
-5.691395074344579363e+00 2.368470312096116359e+00 1.277981156656113271e+01
-8.648718407337092628e+00 1.001758632195183463e+00 1.801854846123821474e+01
-6.812364134392529635e+00 3.830862631781378980e+00 1.763792095451448816e+01
-7.519498760339691223e+00 -1.930445515284890945e+00 1.717049999621900369e+01
-6.920466185543568294e+00 2.478734675895272410e+00 1.847035990294717678e+01
-6.991929220802336253e+00 3.564609856990777814e+00 1.775363425215561008e+01
-5.701718597517355214e+00 4.815418937930721066e-01 1.290589993456619666e+01
-5.913732187325529743e+00 4.824893567811401329e-01 1.297471072692532701e+01
-6.958828143775577679e+00 1.233448216325943703e+00 1.311643046547811409e+01
-1.681563513477478677e-01 1.765556063359481342e+00 1.638522017828377741e+01
-3.095202572401172691e+00 -8.075320213045750206e-02 1.365875421636614462e+01
-3.312687996575048643e+00 -7.258065698914951958e-02 1.383357279689634467e+01
-6.658622535742352078e+00 -1.793219310677238276e+00 1.736105244475125531e+01
-6.676262369831254873e+00 -2.429939626202145320e+00 1.787359969814211169e+01
-7.465046421983469571e+00 2.224687538152839927e+00 1.845546417380991855e+01
-6.046584423127976393e+00 5.242323310865510066e+00 1.678770968951755904e+01
-5.826570789470078005e+00 5.397138827518721982e+00 1.671492684065074386e+01
-5.719918127541482988e+00 5.485930199452840661e+00 1.667247676321931138e+01
-5.862686422298985178e+00 5.466981940275577934e+00 1.666327034133276541e+01
-5.445149114783686350e+00 5.543161927903807573e+00 1.666080340095721013e+01
-5.271738813096148668e+00 -5.420896009375484326e-01 1.597122301360240115e+01
-2.743406993866864152e+00 -2.552007192446692496e-01 1.377623730809827762e+01
-2.413799070475523667e+00 4.611595031397166089e+00 1.698894362771063626e+01
-4.771974691054739481e-01 2.441008967860008205e+00 1.717133404732411250e+01
-2.598272296192758457e+00 1.966170750928570632e+00 1.835560835656987066e+01
-5.916932650674873173e-01 2.419142818036584153e+00 1.731133441445722454e+01
-8.058869121635623856e+00 2.405980677691495373e+00 1.557034670245049668e+01
-3.876651286010299735e+00 -2.436601256703558427e+00 1.750487759238725616e+01
-6.496786141368606771e+00 1.599584881696633376e+00 1.275268600786448658e+01
-1.070268902752667950e+00 1.955440976748725079e+00 1.506308726488119376e+01
-5.241953730944622691e+00 2.319226625032698053e+00 1.844770074232940615e+01
-1.420654690312257884e+00 -8.964386472150351892e-01 1.907036106671598574e+01
-8.187539095514143384e+00 1.130624427384075759e+00 1.484354848099802027e+01
-7.612310502508869980e+00 3.785821687467992192e+00 1.699140877531663207e+01
-1.999160933970306697e+00 1.736402314384468459e+00 1.841348736030498756e+01
-7.253847327105148679e+00 4.218288955348477032e+00 1.697340828284420056e+01
-7.405492512625696300e+00 4.007133110594025105e+00 1.702103358897990759e+01
-8.948601649021597382e+00 5.572559667701090236e-01 1.737860355549279134e+01
-8.640172755633446222e-02 1.164014651344841944e+00 1.663690097165811821e+01
-4.651741011378521584e+00 -3.510253228661778024e+00 1.925585203812325474e+01
-4.384396408121677524e+00 -3.370343329037282842e+00 1.833568397557550966e+01
-1.265070258675644377e+00 1.165366741170250631e+00 1.422511317302460654e+01
-2.060550430434675562e+00 1.786367911489476601e+00 1.363280493500451129e+01
-8.893092338996311241e+00 -3.970401312067563526e-01 1.671632823831438586e+01
-2.104025689188762094e+00 3.645305557625403980e-01 1.319548000265253407e+01
-2.867873067717226387e+00 3.314569269114614691e+00 1.454755050745657385e+01
-1.994407308468008733e+00 -7.049585375270886467e-02 1.892973535357511494e+01
-1.146044220766018196e+00 -2.429629280785322365e+00 1.609821469982137288e+01
-4.883495832676756798e+00 -2.629994247763298709e-01 1.540910076411644170e+01
-9.623916398838040509e-01 -3.183435187471279626e-01 1.870726769975869885e+01
-3.661826222946248599e+00 4.496966007169874935e+00 1.725506399097062982e+01
-8.318763645889490022e+00 1.387699087172663992e+00 1.831043304829538343e+01
-8.296866312578053737e+00 1.481373722070582044e+00 1.826557711093120062e+01
-2.191856937113587200e+00 1.727404368725892203e+00 1.842738003824073800e+01
-5.798799721004488816e+00 3.167123025892357724e+00 1.808743310922023895e+01
-5.345453364488673920e+00 7.017952842075647624e-01 1.217155527438211138e+01
-3.940899601457300783e+00 -3.301894099152281603e-01 1.507982547669885420e+01
-3.219621721718825214e+00 1.640513478769885625e+00 1.218960162226449384e+01
-8.526409876549723155e-01 -1.460211230528441373e+00 1.582494269815105170e+01
-8.809774457388812152e+00 6.068404541238072714e-01 1.797310418753909644e+01
-8.819044353473529441e+00 7.746651349106293827e-01 1.777136483268171574e+01
-2.910525492152885807e+00 -2.930601285084236451e+00 1.759299271449901525e+01
-6.605058988088452487e+00 -3.307738385688880456e+00 1.957196415674325962e+01
-2.600108209309653695e+00 -1.362605907916471237e-01 1.897033318444927019e+01
-2.097502517029166569e+00 -2.434324938521099213e+00 1.603725740547566758e+01
-2.050410535771159282e+00 -2.647692891877774457e+00 1.642813824682501789e+01
-2.258364032626043461e+00 9.929098964584892606e-01 1.280862582942694061e+01
-1.834070559880625728e+00 -2.602529456720863443e+00 1.623261351563698796e+01
-7.772246749893732876e+00 1.242376897729951857e+00 1.430529495269016493e+01
-6.055006194938878039e+00 -2.826327956765574134e-01 1.535355934605941641e+01
-4.565128328010173320e+00 5.390108529968812512e+00 1.680375780608610015e+01
-4.415889077529296713e+00 5.534031989611181146e+00 1.669754614215667132e+01
-4.393492601189518787e+00 -2.600867789986426315e-01 1.921840193339980729e+01
-8.434788411549101195e-01 -1.086847453600671143e+00 1.865812714512004433e+01
-8.221009683147745051e+00 2.396174490435103444e+00 1.742983697276243404e+01
-3.151266748617008506e+00 3.856357237161906149e+00 1.500613278294622788e+01
-8.018596791027100323e+00 2.784063365735903517e+00 1.738308659493985076e+01
-2.890856142109531124e+00 -2.667007248717537138e+00 1.736811209074226170e+01
-1.603361345650000214e+00 1.974856393947920674e+00 1.438904276716639075e+01
-7.384128453410236936e+00 3.974422370316559316e+00 1.601444303140632641e+01
-1.987063872441020784e+00 4.545080584698953707e+00 1.689562238386792714e+01
-5.795724146350831774e+00 2.722240196673746837e+00 1.322373075226483863e+01
-1.332992065356457534e+00 -3.286736742673062928e+00 1.885508590699836518e+01
-8.027860557127389995e+00 -1.933360359851996169e+00 1.693330534507549245e+01
-5.389670906810152928e+00 5.627508890187423951e+00 1.654894226278141289e+01
-4.227521359388310529e+00 -1.331897078537708501e-01 1.472339821703060281e+01
-4.141630153963172134e+00 4.389016095431990117e-01 1.268858308865891971e+01
-3.872930270400062991e+00 5.924675755249476650e-01 1.229059669977674574e+01
-6.192004099830978880e+00 3.545374551595100954e+00 1.791542756639932676e+01
-6.365765982510351861e+00 3.654774810061745427e+00 1.784918296492779533e+01
-3.937388961949341848e+00 5.256228837805974052e-01 1.244828997528685122e+01
-4.828814617322584546e+00 5.301226190230023505e+00 1.686745906206564527e+01
-6.912844806213118698e-01 8.940054661815727277e-02 1.833994981522611667e+01
-2.781274921454624849e+00 -8.664892368290235680e-01 1.479876951096593629e+01
-7.875435274147511322e+00 -9.312864174532359263e-01 1.519878880409240551e+01
-4.833582922089016520e+00 5.540487681359535621e+00 1.669195706124474654e+01
-3.040828199367171969e+00 1.671963940746803656e+00 1.240365828803603776e+01
-3.283518347306285001e+00 2.421441042177864489e+00 1.308906614502119581e+01
-5.878825191393567406e-01 -1.458806725053698461e+00 1.761581601732025959e+01
-5.132430661757767076e+00 6.912306844749945833e-01 1.215512706209097260e+01
-5.146556579647969976e+00 7.285265667087571506e-01 1.207377944831938166e+01
-6.334472510507590748e+00 -1.132302123810709604e+00 1.676595523193689630e+01
-4.813699797946577874e+00 -1.995684067674797335e+00 1.734112414473618813e+01
-2.257903333223505449e+00 1.823228650510291704e+00 1.342845835049277170e+01
-4.884678185712117759e+00 -2.104639430313180348e+00 1.742223539419042666e+01
-8.500181690982355320e+00 -8.552844560214643010e-01 1.905393529157709409e+01
-7.939789807021939705e-01 -2.252408400365814245e+00 1.803493485264511165e+01
-8.186188658499716553e+00 2.970529292366251184e+00 1.639888225597901439e+01
-1.466608277375157920e-01 5.095227813637558389e-01 1.655491224413424689e+01
-3.361983623128089960e+00 1.936416253594090309e+00 1.845134732530143751e+01
-1.164582716856656930e+00 8.634589552387744726e-04 1.428832748109270412e+01
-6.834317515456297620e+00 -2.663981282239902271e+00 1.804897936358251442e+01
-1.015544235298091680e+00 -9.522670312513006885e-02 1.456937476549996191e+01
-7.484592373761973505e+00 -2.478545607243263227e+00 1.784591982065851923e+01
-6.926873604754979930e+00 2.321883837262195271e-01 1.356023029655905887e+01
-2.832826188536084366e+00 5.131227835415111294e+00 1.667766949014978550e+01
-2.726185862229721923e+00 -1.909160019188715918e+00 1.640033680345058187e+01
-6.100994152819260163e-01 9.884937287920711468e-02 1.523421200291899780e+01
-3.054119256047566733e+00 4.677045434911748956e+00 1.598205468805290863e+01
-1.612338833828517171e+00 1.251874787776059206e+00 1.380393798173501452e+01
-2.069725006917668253e+00 4.675092125167680912e+00 1.673707802413292356e+01
-7.603884114598438160e+00 -1.232817089604774319e+00 1.952246596754825347e+01
-7.003839928196889275e+00 4.741241968178311339e+00 1.672021626809747019e+01
-6.722239911196790096e+00 2.231687362062523050e+00 1.352665815466639643e+01
-1.403268267131462688e+00 5.727829871202803069e-01 1.376502884133366322e+01
-1.338851873798047709e+00 -3.433473725997328030e-01 1.431339757740348873e+01
-1.820159891396498919e+00 5.232508982177425105e-01 1.877353894922536526e+01
-2.906197201805005736e+00 -1.692231478641804232e+00 1.640696092012171547e+01
-6.807836532906769378e+00 2.509299783705127851e+00 1.846516112086308326e+01
-4.747506526555195450e+00 4.487645785535848475e+00 1.501101389419419618e+01
-2.000364699692615211e+00 3.943892469620710273e+00 1.732497044883524140e+01
-5.664827273633086691e+00 2.580409918123805824e+00 1.297925532094572887e+01
-1.814632931166336061e+00 2.401839281498109990e+00 1.813948846916751378e+01
-7.203376070118418184e+00 2.066074369002267375e+00 1.864371056159140849e+01
-3.226447145759359092e+00 2.641888364037778381e+00 1.342089073097975316e+01
-6.815475736288576059e+00 1.189961366242952234e+00 1.901250848419241279e+01
-4.837261451699541581e+00 -1.759921602118631023e+00 1.718924322641388969e+01
-3.375351380490519304e+00 -7.485575055568151059e-01 1.554781584237147385e+01
-7.781960597707004990e-01 3.348290066737765081e+00 1.687442931608103081e+01
-6.700641358630090139e+00 3.543971743182069978e-01 1.331733320418556943e+01
-8.730276447778344107e+00 9.839164166076794782e-01 1.572481394227177631e+01
-4.529554306428471122e+00 6.741049952989840444e-01 1.210454925311397645e+01
-3.226236778854068454e+00 1.973834374914966161e-01 1.896201084214173349e+01
-7.858041137529337306e+00 -2.674425013722529165e+00 1.809874940186631065e+01
-3.438601201062533530e+00 5.112432447093778975e+00 1.685790443448152942e+01
-4.126821574409914817e+00 7.588680568865843190e-01 1.187985311518103160e+01
-8.505211160004691351e+00 4.645458283562683421e-01 1.864576680948926324e+01
-7.543238287412793674e+00 2.896313588661709737e+00 1.791096608144858138e+01
-1.584421935277562365e+00 1.087226063919536578e+00 1.374218145510998212e+01
-3.423534825687587713e+00 -4.620129615010296620e-01 1.914443684850369820e+01
-7.737386556287195738e+00 1.024911514657061318e+00 1.414618987550368345e+01
-3.485670320967507507e+00 -1.388494921154795225e+00 1.654678221367163005e+01
-7.843162620789831951e-01 -1.455053714766521233e+00 1.597920329448053067e+01
-3.154343895593340275e+00 -7.099023958943787571e-01 1.522385369375789210e+01
-6.562380424817263247e+00 -7.591983018630299451e-01 1.598041111084645038e+01
-8.827715001766296865e+00 -1.801691248546319235e+00 1.817012611196323135e+01
-7.595653921109209783e+00 2.766797378851475031e+00 1.796927198808849724e+01
-6.326472390471129525e-01 -1.474004422626138400e+00 1.663469558954201588e+01
-5.441539954478257002e+00 -1.589742498430886553e+00 1.718028025828435190e+01
-8.251629155982833197e+00 6.614599545609553544e-02 1.906327246420965693e+01
-4.058056229577312379e+00 3.602091298045907664e+00 1.410810776079511086e+01
-7.090401395909850635e+00 -5.632210128605394939e-01 1.474111839303838778e+01
-7.741048183816747752e+00 -2.144552916922185304e+00 1.739821179011927299e+01
-4.431574644476772740e+00 3.891856488009573511e-01 1.909290998772451431e+01
-3.981173668153005885e+00 5.152424544790705774e-01 1.900361000275719547e+01
-4.501636469854111589e+00 -6.377774493828911040e-02 1.464192331423543081e+01
-7.395150899761901986e-01 -4.960390642964646601e-01 1.848718344785596557e+01
-3.467378254099805268e+00 -1.997934417901628290e+00 1.712391288340052498e+01
-2.607129380274344488e+00 -3.288120615349830800e+00 1.939462125441847107e+01
-6.295583607529978032e+00 3.634066169739046392e-01 1.331809439837960340e+01
-6.968086814975913867e+00 3.331153823749593457e+00 1.483785428277788654e+01
-7.196452791309878805e+00 -8.116411813464614600e-01 1.950665094191653637e+01
-7.042849655088250671e+00 3.658290789452102842e+00 1.765541635937442422e+01
-8.938167132339188470e+00 -1.029511297687671689e+00 1.714243978737084362e+01
-1.542361041670752275e+00 1.520689852536420084e+00 1.408504554637928052e+01
-3.368703973461124157e+00 2.913605982150338392e+00 1.803457714433871573e+01
-6.829285861030687244e+00 -3.296556443898086997e+00 1.906886107336414327e+01
-4.094069295351276949e+00 4.938114461437542957e+00 1.582624172495134118e+01
-5.787494242882322837e+00 3.998835495566105180e+00 1.764870593104553720e+01
-7.412665295445390434e+00 1.762688588218258801e+00 1.874259975613100337e+01
-7.549781480709885528e+00 2.085758815275285727e+00 1.850462488064816924e+01
-7.745657938644178842e+00 1.562185996977954572e+00 1.870584276103752686e+01
-7.572623539803548631e+00 1.727691529627774614e+00 1.870341074121048663e+01
-2.652304267823887063e+00 4.737264316357481242e+00 1.696148010231140901e+01
-2.812171394914074085e+00 5.032107255949502367e+00 1.679748094172397899e+01
-4.272319837318176994e-01 2.144087522296499237e+00 1.724251381511037451e+01
-7.772048617135819626e+00 -1.040778278644791222e+00 1.945903596118618495e+01
-1.352718859397790796e+00 -1.268161796646689821e+00 1.912098063033834805e+01
-3.096835487354676619e+00 1.803445170375172824e+00 1.249108121128208992e+01
-1.470849833899485537e+00 2.542350616497564886e+00 1.507318352464826816e+01
-8.164822037599119398e+00 1.788248129755077853e-01 1.448912580613060541e+01
-7.460077384918647248e+00 -5.495623156861234593e-01 1.944344856964236712e+01
-7.417905251700281255e+00 1.044508508003307190e+00 1.905203210771309230e+01
-5.484091912225268040e+00 7.442519090258853387e-02 1.437648825463179136e+01
-8.016235364870238911e+00 -5.105093973125869322e-01 1.483191669385790235e+01
-8.295308118147936227e+00 -2.693515972462581232e+00 1.899160309167526250e+01
-5.479472631192836118e+00 1.296663209872717382e-01 1.412061170509731411e+01
-3.211126639176173470e+00 -1.476724143865044026e+00 1.927697161056867614e+01
-4.533544645133711803e+00 1.050413864385484120e+00 1.129894053479946692e+01
-3.884596389195329014e+00 3.708743403879536160e+00 1.437399823879815486e+01
-1.184775573981181163e+00 -3.773153900398560356e-01 1.450909840954074426e+01
-4.946052189708023406e+00 9.629422605632025345e-01 1.152385706403493160e+01
-1.364996220809656213e+00 2.142921358280650779e+00 1.812936539872233865e+01
-1.658512684247616109e+00 -3.361815358371218920e+00 1.797627350814297742e+01
-8.983122302358619748e+00 -1.408122859569220509e-02 1.684213878726567160e+01
-8.943391509144252183e+00 -6.575123448906317059e-02 1.670513722771852017e+01
-3.247170892919295060e+00 -2.680681742441596960e+00 1.940980659140459252e+01
-6.683693974111230673e+00 5.047921355161991031e+00 1.633338868200977245e+01
-6.109013995830445687e-01 -1.459625947130040347e+00 1.802050399222888544e+01
-1.241237450580531920e+00 -3.141730788155034482e+00 1.717827771241106305e+01
-6.828625957912117350e+00 2.375484075824852326e+00 1.379911697049940855e+01
-8.513905294475325292e+00 -2.443271978871727867e+00 1.833921462055279861e+01
-2.719213190935041879e+00 4.907026759549343309e-01 1.277117192847110871e+01
-1.769303217451552390e+00 1.815007540562276755e-01 1.886339895326512206e+01
-1.223501922868823755e+00 1.569943087673618232e+00 1.832065444776916152e+01
-3.997125753306665530e+00 -3.560286208381590711e+00 1.852820011036792991e+01
-1.031557687259338607e+00 -1.075713314470282400e+00 1.521925278946293858e+01
-4.086388412768108935e+00 -2.230377988578297610e-01 1.490330272080583640e+01
-6.572851611546434825e+00 1.656305785315225432e+00 1.287296000197533274e+01
-5.756300470970653116e+00 9.984777909338371504e-02 1.424407964251109249e+01
-6.333618833917945778e+00 5.432485336242142138e-01 1.292223412593671483e+01
-8.944276219895666458e+00 1.787137489744442531e-01 1.791649089378747917e+01
-5.753045842066251137e-01 7.485305765606877770e-01 1.806530002235229304e+01
-8.950612343515530256e+00 -2.099711937755644742e-01 1.817257704697660259e+01
-8.798069004002385896e+00 4.141257951025045791e-01 1.816062757127891913e+01
-7.134981847545018852e-01 -1.838572182400381116e+00 1.816695798646167148e+01
-8.683825179301756236e+00 4.273443858686779562e-01 1.839575351751327403e+01
-6.831618767408742521e+00 -6.303972346098423163e-01 1.945819785662061818e+01
-3.986663764300622859e+00 -1.450679434370115484e+00 1.936105462562671065e+01
-4.023975733784602049e+00 -1.632846829334313021e+00 1.938561877457735605e+01
-4.017960628651774613e+00 -1.846955725926854752e+00 1.940893897096810505e+01
-2.305302377201366326e+00 1.954589955869625584e-01 1.327558959581655884e+01
-1.303546249546524649e+00 1.079291207602265601e+00 1.854880130644848535e+01
-4.252208527932790361e+00 -1.891324806536600178e+00 1.720692219096475029e+01
-1.075918051827172928e+00 2.072205224609154683e+00 1.796539734400123578e+01
-5.739596902679530155e-01 -3.738903667845153156e-02 1.538400633441860421e+01
-4.408543543694828593e+00 5.174479731286686146e+00 1.694086018229390689e+01
-1.803892792554425695e+00 1.271062914277978795e+00 1.356063886391490669e+01
-6.455021312222346097e+00 4.568923380643068910e+00 1.560431166709201634e+01
-4.537384209947402880e+00 4.743815604551683940e+00 1.719773458625141060e+01
-3.790514099001627724e+00 4.861966058678781621e+00 1.585278171433252581e+01
-4.389665216947798321e+00 4.954434188141345174e+00 1.707452830714492009e+01
-4.807113054944845310e+00 4.970904624960487794e+00 1.708809958255642769e+01
-4.714342144209043184e+00 2.187788002609609705e+00 1.211757316342024993e+01
-4.034683515906992923e+00 -2.011288181061262392e+00 1.726322584070078037e+01
-2.604286807231506629e+00 -2.894918898796605689e+00 1.937655341304737178e+01
-5.228998974284860601e+00 -2.027132558879514601e+00 1.743972456663658122e+01
-5.249809396931501837e+00 -1.825023748182857730e+00 1.730783773323061681e+01
-5.650141253511154815e+00 -2.245285948643804375e+00 1.765966410177483326e+01
-6.187626700865454410e+00 9.734834613017466776e-01 1.900866215684899529e+01
-3.038284427466189541e+00 -3.499845079191707953e+00 1.825872517170737908e+01
-9.324195163791142438e-01 -4.784066936307765361e-01 1.870786216709941741e+01
-5.411925754525309884e+00 -3.218783407808702535e+00 1.962220615590861783e+01
-2.360178670934977241e+00 4.641198836011066753e+00 1.642608800986116435e+01
-4.909701081146360835e+00 1.546248381100640001e-01 1.387047188590834068e+01
-5.093409548391717223e+00 1.177781551544806182e-01 1.411715090747503254e+01
-1.470592083930571725e+00 -2.857937848359305200e+00 1.662299821095060892e+01
-9.024493275195535347e+00 -1.996891759481289053e-01 1.758538339119885663e+01
-9.030293475039364637e+00 -4.101089723464221293e-01 1.756212446773673364e+01
-9.021439953323419303e+00 -3.933707005412823143e-01 1.735668818410692538e+01
-2.474604802296664907e+00 -3.309894754031534880e+00 1.795772753684665091e+01
-6.028619772494154816e+00 4.789949509542594797e+00 1.557430440023111018e+01
-5.321322894882651866e-01 -1.054615526444407647e-01 1.552005341142470130e+01
-6.658017211515024236e+00 -1.683788595642180086e+00 1.725927447754784438e+01
-7.117768920887427297e-01 -2.217835313453192791e-01 1.518897858001860257e+01
-3.792321161918676076e+00 3.257235583355401864e+00 1.382584442084148080e+01
-3.076651936009858090e+00 2.769028838674780779e+00 1.369892842179574544e+01
-4.470710071809222974e+00 -3.537261991832723496e+00 1.930475551487350927e+01
-1.783089027051995901e+00 4.004502251618565545e+00 1.622422019778873548e+01
-3.979393160842336297e+00 1.567693953755182057e-01 1.909358501217671389e+01
-8.026421366801546498e+00 -1.336187687496941834e+00 1.579309721881103101e+01
-5.461178846440639667e+00 -6.245962665181101769e-01 1.611743420848898367e+01
-7.933879241249852221e+00 -1.993293939771742185e+00 1.944743701706000749e+01
-6.599787466466514374e+00 3.855511960638571267e-01 1.922559903830084593e+01
-4.478127242171431988e+00 -3.521855765448644426e+00 1.889688613958065488e+01
-5.609462199103995239e+00 1.344758268718534655e+00 1.883673797524583549e+01
-7.159566899859678424e-01 -1.259525588909292004e+00 1.601732468824049604e+01
-1.921815901507002433e+00 2.323897262686540621e+00 1.431434023854911786e+01
-5.929162221963928392e-01 -8.827031319155592692e-01 1.600343304323197557e+01
-8.882324586347316142e+00 -1.805298655038890809e-01 1.837547334995570125e+01
-4.036479337427921088e+00 -9.853299410300667693e-01 1.629507070740050168e+01
-8.937567223229930136e+00 -4.188677147302483639e-01 1.834572241731064324e+01
-3.581281547961078005e+00 6.913298657770496902e-01 1.212576710958559190e+01
-3.938518609458729003e+00 8.628347818952748494e-01 1.167572839419323927e+01
-7.625000457598120063e-01 -1.962118762134883232e+00 1.645756289342076073e+01
-7.130919658823844376e-01 -1.671281257263139253e+00 1.639350323465415116e+01
-4.837877931028847556e+00 -1.448191252406996421e+00 1.946720601565158759e+01
-3.476983559576709570e+00 -7.245085431570990053e-01 1.557713552585045491e+01
-1.039320118979759400e+00 1.928976810182547519e+00 1.800912596002985921e+01
-1.818747529484936676e+00 -4.920606227443174302e-02 1.891786628043190532e+01
-3.643037695383080976e+00 -3.285587805375504544e+00 1.801895471551884143e+01
-6.007318392116128614e+00 1.154128810345443679e+00 1.893128041697647390e+01
-1.455185922763397310e-01 5.747104066414550072e-01 1.646127977945237930e+01
-5.507800859639936597e+00 2.815609668656318121e+00 1.311062594715461316e+01
-4.532688452291294467e+00 9.466507386819684733e-01 1.149934373992205749e+01
-3.934209526606467833e+00 1.222207848016845233e+00 1.125291575187269544e+01
-2.068580771581508326e+00 -3.207064700655003264e+00 1.768955721109636769e+01
-1.357988533545729570e+00 3.584067841047330560e+00 1.622388472731408271e+01
-6.085960929702644684e+00 -8.732864153141077779e-01 1.648428542851111089e+01
-6.456218260678688203e+00 2.963991662168169228e+00 1.399158822673875946e+01
-6.156739133921234064e+00 -9.581120587770008967e-01 1.659531950377462195e+01
-1.967411288774758127e+00 -1.941009885446558503e+00 1.535337047068816574e+01
-5.826611332154181255e+00 4.903272353059505484e+00 1.707999992943633671e+01
-4.599917892537142450e+00 -1.637278699976318697e+00 1.946306982419415377e+01
-5.842024337914989651e+00 5.010809334312404495e+00 1.699880170523679723e+01
-8.110429941749607963e+00 3.089332901700472256e+00 1.676597226510254401e+01
-2.918752750932168460e+00 -1.283140980189961144e+00 1.584675239728967355e+01
-3.020155791142112189e+00 -1.377042091248385169e+00 1.613281596432816301e+01
-9.569377975895020372e-01 1.128066949216259385e+00 1.830520350159433818e+01
-7.112241402348217001e+00 -1.416370558349787867e+00 1.634708355956778192e+01
-5.131333154946342567e-01 -1.094849261856330802e+00 1.681285188942339559e+01
-6.421572182903179105e+00 5.221177314195851515e+00 1.635309005580486641e+01
-1.798919576712411095e+00 9.013073631335017932e-01 1.334873336550235834e+01
-5.875257630819501919e+00 4.300070894759459250e+00 1.747016799803864373e+01
-5.671937287304542608e-01 -1.261139833426125456e+00 1.673739903887373615e+01
-8.102142054907354174e-01 -2.083125202870340864e+00 1.641556379654975117e+01
-6.047243811466803898e+00 -8.400091779813747550e-01 1.943418254550077151e+01
-6.807283112199349340e+00 2.775876922910283540e+00 1.831850527148538177e+01
-1.109292474658484462e+00 -1.243048607374510173e+00 1.522426322582417058e+01
-6.210549542662570310e+00 -6.029549127480627879e-01 1.939907698293097482e+01
-3.820455663790679690e+00 -2.433109207373097327e+00 1.945729539096414484e+01
-2.293412981670079454e+00 -1.153982276569290200e+00 1.471548005203706211e+01
-1.996173930576542466e+00 3.438230636847587895e+00 1.540588355272133825e+01
-3.567264386436299617e+00 4.243383277688711708e+00 1.738341579187460084e+01
-5.684613104785500859e+00 1.196668991127272541e+00 1.156706475818739577e+01
-5.535285280417636677e+00 1.240407232896894696e+00 1.147891566884426950e+01
-4.189127450442899026e+00 3.376711829146981536e+00 1.791568045907925111e+01
-7.747296169816841882e+00 -2.321408267902944189e+00 1.763808070615730728e+01
-5.182005771825329177e+00 4.929528295538728955e+00 1.710752583921766146e+01
-4.265578196236445407e+00 -2.637869118772538712e+00 1.766140400362373342e+01
-3.577118134609806877e+00 -5.066504560672736579e-01 1.522537759872622942e+01
-3.644526233026468720e+00 -1.738217157998464213e+00 1.698193426990598809e+01
-4.517015301600213029e+00 4.541329653149945855e-01 1.269244902414418519e+01
-6.197239520855150730e+00 1.341169855069200390e+00 1.889496357831618312e+01
-5.052655342952848905e+00 4.125283358913064191e+00 1.458627057232103041e+01
-5.485860155313405429e+00 3.868761922783670038e-01 1.314465182537426458e+01
-2.411851550181975501e+00 -2.343889212518239229e-01 1.898133831780180358e+01
-2.614738656849154630e+00 -2.181036051573581602e+00 1.651983599068996611e+01
-5.554579085570650498e+00 4.555454425604309465e-01 1.294133692504630417e+01
-5.773253348839740617e+00 5.518619136841410366e+00 1.642083930901157274e+01
-5.272848299593746013e+00 -6.144814034775540890e-01 1.610212414831493177e+01
-2.315268500840287125e+00 2.910809197398005033e+00 1.453913472184950351e+01
-5.076111319956971846e-01 -4.687969430154053652e-01 1.812415948595318937e+01
-2.648643480586651222e+00 -5.406081825706010591e-01 1.414183311950376165e+01
