-6.902721062510973615e-01 -2.347127823530610335e+00 1.842929243383815674e+01
-5.890995734080437529e+00 3.510437683184430835e+00 1.755138137063811854e+01
-5.502291707672743115e+00 3.599810860245804101e+00 1.761459390973499239e+01
-4.128518291066631818e+00 3.173756907014458672e+00 1.459852476087498019e+01
-6.029096568552658297e+00 3.676393493627443831e+00 1.739197053722156028e+01
-2.563539918330858924e+00 2.479589008059915223e+00 1.370263582209393149e+01
-5.507455452903156079e-01 -1.273757023216672002e-01 1.986467777804313073e+01
-5.337373982266273131e+00 2.547224302252737438e-02 1.322715765784559494e+01
-4.109138683528752445e+00 -2.457113270047065701e+00 1.832934909712583504e+01
-7.829552535468984331e+00 -1.022050409653440850e+00 1.780494305568871738e+01
-6.737862813425411490e-01 1.204763537950958474e+00 1.944082827042319650e+01
-4.908510608540476383e+00 4.439535192657605656e+00 1.728603551157215890e+01
-2.730881639317950249e+00 -4.613173233452555477e-01 1.653131090672849268e+01
-4.668554780471044552e+00 3.364037461065025436e+00 1.795371035819074734e+01
-7.211372529087510586e+00 -1.053437751635983188e+00 1.931846013095128711e+01
-6.592788242377000785e+00 -2.135761338671413601e+00 1.656745454785893656e+01
-4.490075706931069277e+00 -3.011774550864763089e+00 1.935961279574840432e+01
-1.323015019321416852e-01 2.766601873155545732e+00 1.810996923923229929e+01
1.938698167064019651e-01 -6.644601671850143276e-01 1.900002611883397918e+01
-5.860707704915300909e+00 -1.685512867122772152e+00 1.713404529826674860e+01
-7.802342045526840408e+00 9.725915070422089803e-01 1.622305014215938712e+01
-6.083383074102842514e+00 -2.980836782143182262e+00 1.917801404245072661e+01
-7.790839692750497036e+00 -8.511734434261379878e-01 1.827888712557293616e+01
-6.779661810092740826e-02 9.970935415411626979e-01 1.552554308009777628e+01
-1.885530132405607739e+00 1.255851918502820075e+00 1.271956907962373151e+01
-5.151519907269143772e+00 -1.248059825536484535e+00 1.714340028824631190e+01
-4.520764726931188804e+00 2.480514842797468589e+00 1.351826135946184593e+01
3.461827826320050816e-01 3.625180394087074154e-01 1.810118888601745368e+01
-5.059742700144772343e+00 -1.047515390054496898e+00 1.694935213125314988e+01
-1.144873140021737568e+00 2.979048104665268148e+00 1.578254761646018522e+01
-7.149568173373729962e+00 -7.521019933056551920e-01 1.930982490927563333e+01
-2.279281940444162213e+00 7.082532179411532569e-02 1.456100887616436523e+01
-5.092018646953132333e+00 -8.983042565382330924e-01 1.674065296618381637e+01
-3.430039230634289282e+00 1.916922786475686147e+00 1.890211499102040449e+01
-3.299823108682709449e+00 2.176511188025535226e+00 1.880921559598786530e+01
-6.459137281165036271e+00 3.317417856790179975e+00 1.567710028719352522e+01
-2.094350845963342422e+00 2.375007364673334731e+00 1.876206358607742430e+01
-6.723416647771330190e+00 3.054164340600183714e+00 1.746871833485777614e+01
-1.180619039349274146e+00 1.554028988920000742e+00 1.419468394225607710e+01
-4.212434468314034675e+00 -2.164319580448051727e+00 2.008279015826463620e+01
-6.250008737120044344e+00 -2.770185569567106931e+00 1.950654015482376025e+01
-6.380224306617792607e+00 -2.698477417259951938e+00 1.946838256982510273e+01
-5.409053261201735907e+00 -7.141799097964508514e-01 1.465176842208976637e+01
-7.415238771691205599e+00 -1.973152989745106112e+00 1.892403576934779608e+01
-8.660836621272053337e-01 1.975009795427866921e+00 1.911227404585184075e+01
-2.713238133804948049e+00 5.123245944396184193e-01 1.253267154695335961e+01
-7.763581727848897884e+00 -8.102401611219238742e-01 1.842133206991705663e+01
-3.360039177010298861e-01 7.380400690823671894e-01 1.478072607020676088e+01
-4.921155408296224110e+00 3.996202428018966302e+00 1.561966408661034222e+01
-4.464703195069144925e+00 1.743100052795986787e+00 1.875519168536766301e+01
-7.735898358381383844e+00 -4.201208890923372463e-01 1.620618567707741420e+01
-6.874327055438106404e-01 2.370622806097297364e+00 1.879281726702588173e+01
-7.181413395959094004e+00 -8.237905049694120851e-01 1.515310800940000036e+01
-1.423113509020543344e+00 -1.340592268415596422e+00 1.763397271092078000e+01
-2.726737493841082660e+00 1.653165521890014533e+00 1.235445707532533532e+01
-9.537206717457786809e-01 2.069170082987961123e+00 1.907749133948745879e+01
-7.177864937369083265e+00 5.862722654774137343e-01 1.478521836812800672e+01
-3.886518748177617777e+00 1.021463266285403515e+00 1.127185406290067959e+01
-5.115227851667855319e+00 4.427601125193327825e+00 1.618062996670310127e+01
-5.875546605775932463e+00 2.166213001850331832e+00 1.835047364151050431e+01
-2.125878986160973483e+00 1.293350115967048519e-01 1.397313621818858564e+01
-3.253929010233990837e+00 -1.250993968535292433e+00 1.996728925222687678e+01
-1.241111709061411439e+00 3.227379674406598564e+00 1.589822212783276001e+01
2.855125389462320196e-01 1.556399321743063613e+00 1.776441682791080723e+01
-3.104466812459862002e+00 -1.246046420369816943e+00 1.996121241986514860e+01
-3.899602411029033711e+00 -2.255835855239846310e+00 1.815456816029420395e+01
-5.869085156479643572e+00 4.525592205603023999e+00 1.648633282643643128e+01
-1.144360108909947549e+00 3.755546527629884945e+00 1.696756568914269536e+01
-2.320682510221593997e+00 3.880817863316507133e+00 1.606014348827063998e+01
-7.815997301474279624e+00 -5.006934860073641858e-03 1.801078643683783298e+01
4.247478861253459748e-01 5.439512557253589620e-01 1.633234636813053697e+01
-7.473526442809859560e+00 -9.715755897373310468e-01 1.579102657243728203e+01
2.105630851294355010e-01 9.620004643562829472e-01 1.866083158727233382e+01
-1.972950406527385903e-01 -1.943590106625851632e+00 1.761805482697003100e+01
-5.722729455245229024e-01 3.305835163081923156e+00 1.737373894463232915e+01
-1.207016511177869456e+00 9.416655571219681997e-01 1.359705829627282014e+01
-7.435324110129371888e+00 2.721072290045500885e+00 1.657183282423243753e+01
1.962470754147981333e-01 7.246984617564852238e-01 1.581559515686043227e+01
-7.474924110326487181e+00 2.499058318725955186e+00 1.675988335996610346e+01
-6.539229278843226467e+00 2.401916166531492536e+00 1.500048848951131220e+01
-1.514943548259915840e+00 -2.041317720456400586e+00 1.833666306558736636e+01
-2.226686684337515487e-01 2.813583098936991878e+00 1.821635940606547166e+01
-4.287918490165173679e+00 -2.762218031532043483e+00 1.865329000719451358e+01
-2.335952540881861772e+00 1.397356326983658192e+00 1.906172555675075131e+01
-7.036725827998294491e+00 -2.145131987801145890e+00 1.663781137267557142e+01
-4.706743498849403906e+00 3.862468037705033552e-01 1.920170676760749018e+01
-2.542471288902607540e+00 -2.042218753342691429e+00 1.817720165698080592e+01
-5.781659864830913653e-01 2.341987469560264656e-01 1.441520480040463781e+01
-1.163676489834772898e+00 3.714675976948963232e+00 1.677471725912364064e+01
-5.014794704596431174e+00 -3.134393645236756565e-01 1.421586696122006543e+01
-5.018160065109183776e+00 -3.424634228915977019e-01 1.439065431647976112e+01
-4.068767909938119764e+00 -2.788141328770671556e+00 1.865466336566424133e+01
-7.590264919487079709e-01 1.176220020530780230e+00 1.455127008567598068e+01
-9.008465965130911801e-01 1.327658341885367355e+00 1.942540341403638138e+01
-1.102747780876454087e+00 1.197240801389032772e+00 1.398010504792771513e+01
-6.862278760723469873e+00 2.908068136698321871e-01 1.912038974027635874e+01
-7.768248494555619388e+00 -6.187559461374549930e-01 1.840873420779702485e+01
-7.809716110655749333e+00 -7.737454564243728683e-01 1.818642549813578313e+01
-7.807213430164367196e+00 -5.711789428746274488e-01 1.822588673911862145e+01
-1.901133300082671340e+00 -1.853339221323882846e+00 2.012360325827547314e+01
-2.251812806574363002e+00 -2.059856533095811404e+00 2.014240831379840557e+01
-4.329870457870772071e+00 3.106825036442988353e+00 1.448313639006607190e+01
-1.017393228224603874e+00 -2.541692792382151289e+00 1.879728707072611371e+01
-9.566451840110405946e-01 -2.570176633213072659e+00 1.883702269314780153e+01
-1.501627254121977728e+00 -2.822431351039131009e+00 1.934255919703311832e+01
-8.851447110680352726e-01 3.680798819065914662e-01 1.973724281106564149e+01
-1.245741770545828242e+00 -2.554024872943712055e+00 1.882945665726548867e+01
-2.106244364383032863e+00 2.311097071091433308e-01 1.945861603580863886e+01
-4.530058466219507807e+00 1.853847818291894045e+00 1.869817860287263045e+01
-2.202079346075081823e+00 9.881577603072967397e-01 1.203161000014333126e+01
-2.767854210843601059e+00 4.090487177348683723e+00 1.628170884532283935e+01
-1.288033212282351014e+00 2.600257501253689263e+00 1.515437464170513948e+01
-2.518848106353606120e+00 1.025679750492252129e+00 1.174457967128155644e+01
-4.949493064038168910e+00 4.900249051383923415e+00 1.669580049720074300e+01
-4.555438663478546535e-01 6.350821508882956712e-01 1.447552702867919550e+01
-2.454572189141449035e-01 5.998858604874872658e-01 1.940342628239416456e+01
-6.253864514329796620e-01 2.266796579784628562e+00 1.593715199679680694e+01
-2.521146038103057485e+00 -2.663137881438788934e+00 1.875429475713639249e+01
-6.931727340270164461e+00 -1.716046346436164716e-01 1.445711622899391102e+01
-6.535632944717578496e+00 2.426701291155544116e+00 1.808505835358045744e+01
-5.269559974401946789e+00 4.901740262820812433e+00 1.669830927925146113e+01
1.627527056123386218e-01 1.487303414050434591e-01 1.894953327233212548e+01
-4.411878893401597779e+00 8.137941856787997419e-02 1.326589618863020803e+01
-6.531305225098943623e+00 -1.179189340837060174e+00 1.482987128082326223e+01
-5.526020927389897253e+00 1.996201467950822428e+00 1.846671569789015876e+01
-6.454072389259927434e+00 2.103375473511382321e+00 1.470118166028912299e+01
-5.040072554237360336e+00 1.540551781369008832e+00 1.870880536538480499e+01
-3.112910706614809175e+00 3.911773770205011047e+00 1.795319265320495816e+01
-6.478643872507001689e+00 2.178932003511260262e+00 1.826228953692476864e+01
-4.834157555540332663e-01 2.550653853120957493e+00 1.857858375503395365e+01
-6.092973946321825096e+00 -2.027476574510715501e+00 1.977425005204015918e+01
-4.485521171793697803e+00 -3.077332200634057269e-02 1.940159142766526656e+01
-4.916333008129493365e+00 -4.176002399804311649e-01 1.947091451829986397e+01
-1.284901314406535988e+00 1.600758052616282900e-01 1.969223669724119219e+01
-2.649763158520548334e+00 1.882876715854169936e+00 1.889005845372425796e+01
-2.481002924069132476e+00 1.557518181521168055e+00 1.900088160591792530e+01
-9.747621455428768789e-01 2.542733838252571488e+00 1.561101588986253574e+01
-6.293360109544471115e+00 2.584252015637382716e+00 1.804906980768904390e+01
3.549664909952895409e-01 7.764616573925209320e-01 1.797316256418901048e+01
-2.595222814701937608e+00 1.913295977760666622e+00 1.282730878099050642e+01
-2.871981507930127631e+00 9.628830941750408101e-01 1.921211697042299704e+01
-4.889462367660229347e+00 4.599118424764908397e+00 1.719954966977161348e+01
-3.073998983631369253e+00 9.656708552348395314e-01 1.922286781735652283e+01
-5.108739398403344012e+00 4.397349037443531117e+00 1.725158619752340172e+01
-5.117624096289603131e+00 9.238755658787454195e-01 1.893292948213795057e+01
-5.706828646505538671e+00 3.168219484432370336e+00 1.782444066886070289e+01
-5.680152832075616942e+00 -1.180276381141246222e+00 1.968502285196993995e+01
-6.048270559698037729e+00 3.883830314925814653e-01 1.909623096914673113e+01
-2.704636700142096561e+00 3.780323275582265108e+00 1.805240263490825470e+01
-5.026753374155983778e+00 1.265382753254773007e+00 1.252061129190908417e+01
-5.690824347225778013e+00 -2.026246064666155977e+00 1.984793719274870938e+01
-6.117800971941026233e+00 -1.191572850298290520e+00 1.480553111353006557e+01
-6.947447751839507246e-01 3.565800476501883587e+00 1.754273892073268115e+01
-5.935239550934467090e+00 -8.209944719730619678e-01 1.437549246488225663e+01
-3.723082387102542690e+00 -9.454304489669745903e-02 1.535257997869342717e+01
3.766421219462893211e-01 8.008840105058649961e-01 1.672066369586421786e+01
-6.065265709048391685e+00 -1.692486611052267609e+00 1.569949167525884093e+01
-6.789578960703179789e+00 -6.800425908123154395e-01 1.451045621211829939e+01
-6.612258528029489213e+00 2.317315689555459635e+00 1.813776077338789605e+01
-6.554935968719357575e+00 -8.842389084967180457e-01 1.455416711941257546e+01
-4.358779105800500986e+00 -1.466169239783519929e-02 1.418912031781619021e+01
-2.896534367094693252e+00 7.115210540311076581e-01 1.929922196950125368e+01
-3.493002519505112424e+00 4.544333069636563138e+00 1.755404525269425875e+01
-5.155659717516444474e+00 2.460161419000957694e-01 1.285514557354814258e+01
-5.926757503707429819e+00 1.974547547409956083e+00 1.843420971172915301e+01
-5.520106244780118132e+00 2.407666608070743841e+00 1.828268660469607454e+01
-4.686612337952043461e+00 3.567030351631100160e+00 1.783408546834549213e+01
-3.261409779518933849e+00 -6.240108271438831178e-01 1.976460659763450423e+01
-4.956457034882104651e+00 4.068827196588452821e+00 1.748373128701661017e+01
-7.170368820126054032e+00 3.213970234578542584e+00 1.639949374728268339e+01
-3.097626327094292975e+00 -5.005671024624652743e-02 1.956743962469436582e+01
-6.319268821933780700e+00 2.819824580791827628e+00 1.788325968047602998e+01
-5.688622791350999464e+00 -1.434711825056799395e+00 1.976187696830703544e+01
-5.733186794932853658e+00 -4.270938476200504264e-01 1.941357956229389004e+01
-8.985397893829236704e-01 3.756229351660084426e+00 1.738934252659050372e+01
-4.347662939901031365e+00 2.258323957188547837e+00 1.311649409755197837e+01
-1.878032297969270292e+00 7.639373292646940428e-01 1.933261247216587009e+01
-6.286368151058445264e+00 2.983279438919804960e+00 1.777754930809865641e+01
-1.961488928944266075e+00 3.354791332762115941e-01 1.334646038761035669e+01
-3.117772420403803757e+00 3.317196089723499774e+00 1.827575846875578947e+01
-4.761570329516565891e+00 3.456251341505130470e-01 1.258509240024412890e+01
-8.741734426797597157e-01 9.490507503306597759e-01 1.955997856224575315e+01
-2.902337467846515029e+00 5.610505379151278227e-01 1.935087790089166049e+01
-1.656712001030217429e+00 -4.587990569318910472e-01 1.975352819948674465e+01
-2.886814611648319762e+00 -4.863427052541673401e-01 1.970860276846115511e+01
-7.188138477084857314e+00 4.596650188509465718e-04 1.479989394627278898e+01
1.607787408858462053e-01 -1.909974378855016530e+00 1.793415268316686451e+01
-7.211669003531815392e+00 -1.910451193402197934e+00 1.652147743150418790e+01
-4.293664646336328161e+00 4.399663446100283259e+00 1.747440182342189274e+01
-6.075556195463414966e+00 7.673667528196450593e-01 1.894574397204042526e+01
-5.187753759759095473e+00 1.013550355585830953e+00 1.257060295663667659e+01
-3.145424352296268378e+00 -2.966446661994627920e+00 1.975627785535687053e+01
-4.953039187609807215e+00 2.317949510136193547e-01 1.281184785858953035e+01
-4.953683049694586060e+00 1.196388589017407966e+00 1.240431152609360055e+01
-2.555507993055456506e+00 2.660920555168124757e-01 1.337600758344667895e+01
-4.434796233282680689e+00 7.362419834892042214e-01 1.912823036989001224e+01
-2.667538807358903696e+00 5.504070696858954781e-01 1.934079888706401107e+01
-3.908309828716705514e+00 -4.449609459612346996e-01 1.965205192577248994e+01
-5.307501448806982935e+00 5.586129334646684486e-01 1.905152374888959343e+01
-6.374458808534128051e-03 5.654904014725203876e-01 1.517504357905136914e+01
-3.688985088603013551e+00 -4.893821744525378437e-02 1.953958822960920116e+01
-7.472825822359142833e+00 7.705757215890010059e-01 1.525783070152292709e+01
-4.906447327680238502e+00 3.406017685306921283e+00 1.786971629277906004e+01
-6.055758782268277685e+00 1.127087681047532541e+00 1.362665789602502997e+01
-1.374274629735730890e+00 2.457147786254388899e-01 1.964004004851771867e+01
-4.538278437225521378e-01 9.871843120871560684e-01 1.941758345434809740e+01
-7.286003662662556835e+00 2.385717648441826544e+00 1.584422910317304201e+01
-5.686733322289867942e+00 -8.679996429890509679e-01 1.957342190023912565e+01
-3.715730209236200565e+00 7.979192291076669941e-01 1.924971939493997297e+01
-1.263710600625637559e+00 -1.250765803440090584e+00 2.007644986867467907e+01
-3.711534070262387353e+00 1.380751939816065033e+00 1.905591254878874707e+01
-4.122708588703979160e+00 9.673675935676950832e-01 1.911713366679992987e+01
-3.881997148349547011e+00 1.562570618698731817e+00 1.896380947808498263e+01
-2.913116856935830778e+00 4.326530933347125796e+00 1.773721965149999136e+01
-4.865788532964776536e+00 1.181626623192638226e+00 1.887348423730714586e+01
-5.299131706227784733e+00 1.367312345595729894e+00 1.874294123899772302e+01
-2.877123096831492255e+00 4.544624417980807074e+00 1.758990140228658561e+01
-3.495212569811943837e+00 4.138045999081990445e+00 1.777814366283070768e+01
-4.881671450078734154e+00 5.033849124810227949e-01 1.912472225185027241e+01
-2.093271226519150652e+00 4.220512233772280908e+00 1.677737213855282050e+01
-1.133509772761179812e-01 2.763734618621322525e+00 1.775115989893356527e+01
-2.918854942159617050e+00 -2.297365229037184875e-01 1.962259740027599264e+01
-1.281556916873271668e+00 2.825968217586917408e+00 1.864390952373440768e+01
-8.713377397951836967e-01 3.573235126573639509e+00 1.715957275778023217e+01
-2.355416344429502651e+00 5.678089366331489085e-01 1.255175906879593839e+01
-8.725956701320667364e-01 -2.533753445062617571e-01 1.990526030946876546e+01
-1.314557797634108516e+00 1.378289446978593125e+00 1.376542268952211856e+01
-1.093434973233776475e+00 -4.552628745678294342e-01 1.991575929076878282e+01
2.658870495878690732e-01 1.359543896123596163e+00 1.836454360370627370e+01
-1.483941297862330977e+00 -2.495764386296439596e-01 1.974020701791990717e+01
-2.689331324004029078e+00 9.283296249899783970e-01 1.921304350087324764e+01
-3.713931562149547894e+00 4.638563798394612192e+00 1.746445045418990105e+01
-7.319983003230719376e+00 -2.009855071275878480e+00 1.702905581599672047e+01
-4.474868322206839721e+00 3.369271434342659965e+00 1.800126577380091675e+01
-3.711717433616260831e+00 -2.980703636968688564e+00 1.958072393095130792e+01
8.505426359352213916e-02 7.598344070337889056e-01 1.556823754329197129e+01
-5.411317361109594160e+00 8.007098910966906624e-01 1.274699266728261193e+01
-1.283153177806059642e+00 -2.742514504650687690e-01 1.981231092919531278e+01
-3.274325381969013904e+00 4.155925141672922152e+00 1.779918189037859833e+01
-4.269332069738094759e+00 1.156294497354566131e+00 1.901770000982320852e+01
-4.089127725670171465e+00 -2.068868107759180841e-01 1.954199512836521535e+01
4.621319006369110083e-01 1.736099163753118957e-01 1.652906457166219667e+01
-3.909261111740657935e+00 -1.610245935050031552e+00 1.762830672868220461e+01
-6.344046476812234658e+00 4.069379206963622542e-01 1.362053107610471869e+01
-5.504803864591487184e+00 2.965032628852722230e+00 1.798928897697594209e+01
-7.380801271797094998e+00 -5.460464025053191062e-02 1.520241338777196916e+01
-7.328113668236651890e+00 4.074837708973207406e-01 1.502673785492375913e+01
-7.174350732143752296e+00 7.859558328541020877e-01 1.482283950867206812e+01
-6.345564646079253635e+00 7.903978544544667528e-01 1.378876999065479936e+01
3.764266063075010216e-01 -4.317341405202385074e-01 1.794247099478568686e+01
-6.537722412901842972e+00 3.802194427457072035e+00 1.621102204179955919e+01
-7.457908518407926124e+00 5.948210669861871969e-01 1.525857699397212031e+01
-7.398150601056558529e+00 -2.100905625527433873e+00 1.739764112966285836e+01
-5.742428813239428109e+00 9.930971066521442348e-01 1.319636366854288667e+01
-1.477077968996821866e+00 3.021202337906848889e+00 1.534378790739279452e+01
-5.686004966272070860e+00 1.181318762579042891e+00 1.323239796016696346e+01
1.500195019658277507e-01 -1.500128987647816103e+00 1.710639093640589437e+01
-1.934833902657654203e+00 2.947783193993076090e+00 1.480333206398096024e+01
-2.709005563487064450e+00 3.926640260333473353e+00 1.604398203212659979e+01
-5.327836433788528225e+00 2.181938462510696564e+00 1.362856133116115842e+01
-6.099384905015925895e+00 9.486029153315242990e-01 1.887168584196792409e+01
-3.851592162549209997e-01 2.938699293824155401e+00 1.720477800245740951e+01
-4.337608429491567885e-01 2.833802753753373427e+00 1.693302618678724514e+01
-4.490517592899639254e+00 1.532658636538495989e+00 1.225454113785036014e+01
-6.994718672850057661e-01 3.375010592480311100e+00 1.717638452268420224e+01
-9.847643200606852609e-01 9.816964266440666442e-01 1.398074873113893091e+01
-7.337569206162976032e-01 3.167047374115700364e+00 1.680361346987305637e+01
-3.124787372096583749e+00 2.302527522310533481e-01 1.947104040321990226e+01
-8.906430033404392210e-01 3.371402222649000802e+00 1.676053509109622297e+01
-5.954165567832381711e+00 1.606146765087863137e+00 1.380442509799834738e+01
-6.339437649275687647e+00 3.597418163939716695e+00 1.582537461288727343e+01
-7.308613765425242548e-02 1.193196408183405666e+00 1.572805975408576273e+01
-5.717596566537801905e+00 1.991996012246993963e+00 1.381894395870814662e+01
-5.551758746178602877e+00 1.390536047492595850e+00 1.320749196250790902e+01
-5.145052150135379421e+00 1.193094350491303635e+00 1.261219060210824949e+01
-5.897875627349087324e+00 3.913637033167911561e+00 1.585337959403536701e+01
-9.787145680356814648e-01 1.776815397394358786e+00 1.479720751515803556e+01
-1.803632107857490396e+00 9.763082190277676542e-01 1.263721362018793570e+01
-7.015697650173269295e+00 2.421321973684981366e+00 1.553774085516304382e+01
-1.477481939250823384e+00 1.225107192581831539e+00 1.331248368303261742e+01
-5.918744160503605301e+00 3.350486969402155957e+00 1.525044396410822856e+01
-8.571753942018667249e-01 2.999990053979102456e+00 1.631167484416837254e+01
-1.111867432709293446e+00 1.981671870837659055e+00 1.476858044405841497e+01
-5.500240647150560491e+00 2.803065749706352250e+00 1.808109146410574652e+01
-2.362390878390186355e+00 1.237353637312535115e+00 1.214070229734935680e+01
-2.545046970179452028e+00 1.396181932490871525e+00 1.216722858129332963e+01
-4.681262482841646033e+00 4.621529153226581421e+00 1.637836412524880814e+01
-4.736079985783002044e+00 3.359817797290467478e+00 1.481531553171471671e+01
-1.403834418492463154e+00 -9.191714688048386872e-01 1.705663966205064952e+01
-2.496987399579450706e+00 4.395121821222032210e+00 1.678542137944263146e+01
-4.370573493728283632e-01 3.208704936795358176e+00 1.754548786018487760e+01
-4.107549554149241722e+00 3.423581302472548327e+00 1.498600843657316517e+01
-4.154729570998929589e+00 2.561897386839768309e+00 1.358667522813241391e+01
-2.507739283376235750e+00 4.279988170455784058e+00 1.664466290562613437e+01
-2.899193828891541980e+00 4.189203144867840400e+00 1.781460273255367355e+01
-3.701716006379667689e+00 3.787006158410227918e+00 1.559322113883997218e+01
-3.754219137281518126e+00 2.008848991269683193e+00 1.259298823786721755e+01
-2.110699091367078672e+00 4.134917611136859961e+00 1.657724799119367987e+01
-2.486450865386260478e+00 3.837314201564814287e+00 1.594042812438512158e+01
-2.281318609950405474e+00 1.636753812918877449e+00 1.274826442189507958e+01
-2.745141923362746539e+00 1.808961124665125597e+00 1.257007372026128422e+01
-4.354149978880412775e+00 6.766705720041247263e-01 1.187126403385578044e+01
-1.546700133355340512e+00 2.961900698937642851e+00 1.518637750714122348e+01
-1.338317395433940904e+00 3.737611613472950012e+00 1.638229701763928148e+01
-2.445097428693441266e+00 1.723718633493778629e+00 1.265705475181004402e+01
-1.899413343835698598e+00 3.759014553701488293e+00 1.598852275346516194e+01
-2.535590098009153692e+00 2.778783515774231549e+00 1.417719364802775317e+01
-2.316934169872164162e+00 -2.607685136112005253e+00 1.874301893500657457e+01
-5.516131034335598926e+00 -1.621821398575836737e+00 1.738619615606310731e+01
-5.609199685156511350e+00 -1.576356343861422094e+00 1.727568842358979850e+01
-6.888256857778465303e+00 -3.758283815490037760e-01 1.446598068098449374e+01
-1.476334952148993684e+00 3.185668367980480031e+00 1.842579996608998272e+01
-4.554872595238535382e+00 7.322851510098372929e-02 1.317872219231949771e+01
-6.340505856234438298e+00 -1.209272936096170037e+00 1.481163177439512424e+01
-1.914421618501161548e+00 8.002301256649796413e-01 1.253757522630791499e+01
-5.866704078831572744e+00 1.172439623417087740e+00 1.343842484358471978e+01
-4.484313150236737044e+00 -1.669420327416252459e+00 1.994359281519838589e+01
-5.283331139127550813e+00 2.323921300732817663e+00 1.835350147284721345e+01
-4.669808854912908203e+00 -1.647843750589199407e+00 1.991206039543877893e+01
-4.953508279070781839e+00 -7.127410789429108884e-02 1.337684886455495814e+01
-6.490354466668366129e+00 1.980383617024267462e+00 1.837978476304571274e+01
-4.696264796669498698e-01 2.777037236111078222e+00 1.842616675402456394e+01
-3.754701977713637451e+00 1.525945390477059460e+00 1.186311739648427732e+01
-6.961233827077961678e+00 1.514462464504914840e-02 1.442911447223450949e+01
-4.321610555335311687e+00 -3.497837321817621747e-01 1.601690027626867874e+01
-3.116356950816810301e+00 1.316218598912008542e+00 1.910864304638710109e+01
-5.972953606869529253e+00 3.254317141803118485e+00 1.769527635807335741e+01
-2.670024032136018022e+00 -1.588027328449801434e+00 2.004860583187794276e+01
-4.693639601093121172e+00 -2.431678366089730647e-01 1.944302499999226796e+01
-2.099903891234020215e+00 4.562830404535784368e+00 1.762704967468306450e+01
-2.303934214264394598e+00 4.348211314288336737e+00 1.775386763099958642e+01
-1.520967888652223099e+00 2.187343832991289982e+00 1.436255871625320424e+01
-2.485192750553787189e+00 1.757558898988824669e+00 1.893287938233699919e+01
-2.292636641752867632e+00 2.009935126582887754e+00 1.885967844686757644e+01
-4.702973528634704081e+00 1.756372827882791698e+00 1.265696991877072719e+01
-2.503557487410565052e+00 1.960029356986001003e+00 1.886311977003025220e+01
-2.716455561029607946e+00 2.453200795483982510e+00 1.357177910763410722e+01
-6.302981560483852164e+00 2.348995658082383642e+00 1.819414227109190563e+01
-1.517721552743330760e+00 3.458641353676683572e+00 1.825516888225750733e+01
-2.965415466309016423e+00 2.892673076218877370e-01 1.323111729651250101e+01
-5.083172307752512609e-01 -1.547359869717565006e+00 1.679141230926251183e+01
-6.497558917144305113e+00 3.544276565942203749e-01 1.911865164246965065e+01
-4.887556204166703111e+00 4.721438635709079179e+00 1.712377278527204538e+01
-5.083317632255081264e+00 4.546713412484462147e+00 1.717162160626379119e+01
-5.694237552169173711e+00 3.381876710639742267e+00 1.769328215954449490e+01
-6.111626912238092402e+00 2.765571164037513352e+00 1.797843976960965762e+01
-2.748233668317198397e+00 3.708057150526413159e-01 1.297480478610238208e+01
-5.889891522787788602e+00 -1.182952898347686910e+00 1.968233589902504832e+01
-3.243045919342492756e+00 -2.932627317174177684e+00 1.913133669633194955e+01
-4.701453939417312711e+00 -2.238338947069411944e+00 1.814787609233834331e+01
-3.316488155496530421e+00 -2.943069847616657686e+00 1.919207705565238342e+01
3.053003850695306665e-01 1.169766869841978085e+00 1.694698538672826515e+01
-4.696423604778487970e+00 4.525798695423720375e+00 1.624997961521295053e+01
-6.666015866633273390e+00 2.752116128130197570e+00 1.778450428391403193e+01
-5.932407931120229350e+00 5.681566925011369840e-01 1.902487631563377590e+01
-5.717071675796209007e+00 5.794704350312449570e-01 1.902329813112326917e+01
-5.683467345305006191e+00 4.428059183950142641e-01 1.907758430779859538e+01
1.958659730755318851e-03 -4.149204869070176604e-01 1.557324380881915715e+01
-6.281972827996799680e+00 2.343772135921232902e+00 1.469753278780702743e+01
-2.508817455045458722e+00 3.971887966723261609e+00 1.795626763175072682e+01
-2.535846837301918733e+00 3.695912196704932207e+00 1.810705214389624018e+01
-4.762646453590935636e+00 -3.895519761467775011e-02 1.340181819035225175e+01
2.994476542309628675e-01 -4.456194531030432948e-01 1.854452075697907532e+01
3.692560850450390397e-01 -8.482235820361616607e-01 1.814012566191846787e+01
-7.501219127840414558e+00 1.177028999845109336e+00 1.823410475371765926e+01
-3.539381991646411763e+00 -7.598511677173535039e-01 1.682983814835876757e+01
-2.299330688230042608e+00 -1.241981623284017289e+00 1.755486413693321879e+01
-6.100075959073649301e+00 -1.640171095254352451e+00 1.975941934531824273e+01
-5.224548420505565005e+00 -1.931470867764262689e+00 1.989833202963279035e+01
-6.662150279361341632e+00 1.931503937510058000e+00 1.836864737996783958e+01
-2.720818500536578810e+00 1.773436892669588705e+00 1.893127305142913741e+01
-5.402796517382673080e-01 -1.705667292691136705e+00 1.712763313783624852e+01
-6.122956977089957675e+00 -1.351251091650682801e+00 1.503454038339239673e+01
-4.323673449222651399e+00 1.355965816977333649e-02 1.399338888827211491e+01
-6.283901162576063015e+00 1.525993068479811754e-01 1.919274322244817199e+01
-1.547342012887833018e+00 1.402869666230577073e+00 1.925543597126233664e+01
-5.128068644877410431e-01 -9.748367873325953781e-01 1.575901512481598843e+01
-8.330821838047128836e-01 2.030858484906414851e+00 1.532621505432317122e+01
-5.165321656536017159e-01 -9.185518580622575868e-01 1.567226350439277383e+01
-5.230696977082990307e-01 -8.354060346942243642e-01 1.554758855880684365e+01
-7.564425738932602172e+00 2.380163012920817334e+00 1.662553788435899804e+01
-7.663555571485579421e+00 2.196976075166072739e+00 1.643635928183646655e+01
-4.290075243215349943e+00 -1.265893717741634728e+00 1.733083780505184279e+01
-4.291342376717761198e+00 -3.006868271764840284e+00 1.958819669496698168e+01
1.197960739348191694e-03 -6.465551179484413380e-01 1.942540164966112570e+01
-1.194761400119761285e+00 1.952786757410345908e+00 1.458450199792341095e+01
-5.470826386370299943e+00 7.592117553558871412e-01 1.896481227201761754e+01
-7.443836813862043655e+00 1.136922431614419970e+00 1.837090513420212545e+01
-7.852759852450912348e+00 7.753420254298224457e-01 1.683310356329032231e+01
-7.637475629373932762e+00 9.682276143471781893e-01 1.800939131192606624e+01
-7.732379364352368611e+00 5.718229755501041955e-01 1.800475599691622364e+01
-6.407320279119199213e+00 2.238146355003957755e+00 1.474775254369829725e+01
3.254208231565509646e-01 -5.251625725851732929e-02 1.835954884956876754e+01
-5.536852870254740822e+00 3.237446214098763875e+00 1.495700023801735057e+01
-6.302820906393780120e+00 1.981247862031806362e+00 1.840194039992660180e+01
-6.102725038344830821e+00 1.930418578207404590e+00 1.844300471371150252e+01
-5.707194889384339831e+00 2.375083814683052186e+00 1.827071483646513883e+01
-5.705871876666000375e+00 2.174303848318555055e+00 1.836705566144138402e+01
-5.143533742502922834e+00 3.434673378502985486e+00 1.498642377377257873e+01
-5.322807203494342332e+00 3.384720478202086547e+00 1.501268669533978084e+01
-4.725252753921976634e+00 3.801726230261319728e+00 1.769286383959705944e+01
-4.496388935099576045e+00 3.741509038813591204e+00 1.778537756077721355e+01
-1.640521808973190443e-01 -1.352316801379525479e+00 1.642080780434702802e+01
-3.272254190754300573e+00 -4.080111166361652386e-02 1.956381412399515085e+01
-3.115720483735541446e+00 1.064380645747716458e-01 1.951377260159465266e+01
-6.761979243965637210e+00 2.807950108746817275e+00 1.767631570100221694e+01
-4.267143542680805979e+00 3.374959184781902710e+00 1.805338678557296106e+01
-4.383055800792559964e+00 3.247611875686713390e+00 1.809525408513802347e+01
-3.344369112377437059e+00 3.829228201950589661e-01 1.278020124762728216e+01
-6.487341763418834617e+00 2.577940751567771471e+00 1.799506086479124889e+01
-6.518100289819980020e+00 2.988260030442608350e+00 1.767237480282829409e+01
-4.274757703266393705e+00 9.120746461808300065e-01 1.910299488008619306e+01
-5.878646374708456079e+00 -1.429157645764509210e+00 1.974786515850119173e+01
-6.081029314372697669e+00 -2.274637757288640039e-01 1.933926868276837752e+01
-6.085888540169909433e+00 -4.642004838654245624e-01 1.943013074311777899e+01
-5.196687068813881538e+00 5.897807562595331898e-01 1.255071532398318368e+01
-3.078590481321617389e+00 4.750227136168938991e+00 1.700901920630305142e+01
-6.699424772151168384e+00 1.975595790749772318e+00 1.487330467261347877e+01
-4.952869924035049110e+00 4.698905563623915760e-01 1.247018780549502992e+01
-7.243364265686286885e+00 2.113414908734280395e+00 1.779910712268627293e+01
-7.145910323666875286e+00 2.390405402706756721e+00 1.765487142507213036e+01
-4.316349016896140256e+00 4.588530872608558298e+00 1.641832103850870794e+01
-4.295148437873418601e+00 3.907996330319267297e+00 1.774143625860728690e+01
-8.637244111897898202e-01 3.781095657130011389e+00 1.756734926372606509e+01
-9.645183885024314341e-01 3.909461918241645240e+00 1.746802260307073595e+01
1.536047835977396026e-01 -1.709583630285001599e+00 1.752330721388545243e+01
-6.550834211346797886e+00 -1.556197586691409507e+00 1.524228734004692143e+01
-6.683353604974474393e+00 -1.543521474563671392e+00 1.527596806807076746e+01
-7.372376270472930093e-01 -6.599664631957840033e-01 1.532711780695725423e+01
-4.320828131366351244e+00 -8.986900110375301010e-01 1.693214977743244987e+01
-2.087725862195229709e+00 1.157757772402934204e+00 1.917006568339169092e+01
-8.076689799663833158e-01 2.873556263356298324e+00 1.626023331630089785e+01
-2.074705989697665842e+00 9.559704665853110406e-01 1.923531807290471818e+01
-2.363186088875408597e+00 3.505606551830295903e-01 1.313991896528635550e+01
-2.130882470566320297e+00 3.097792858375568725e-01 1.334005776125291476e+01
-2.172444800724513403e+00 3.714188193461185894e-01 1.315391028805946405e+01
-5.086427080296346048e+00 3.149273281697168692e+00 1.797390667123821117e+01
-2.082669778495287005e+00 -2.713500798774312273e+00 1.892126442646119955e+01
-3.545496003317841982e+00 3.163336357913114627e-01 1.295927883908450440e+01
-4.502597804664105752e+00 1.564825362851428814e+00 1.880995146711187971e+01
4.416490027604513813e-01 1.615774130199507941e-01 1.712935284194875862e+01
-1.682561249651252533e+00 9.749445920466577320e-01 1.932978007151299948e+01
-3.074999942519054397e+00 3.626369172368520966e-01 1.942449712967385977e+01
-2.946305465467906615e+00 2.302915242170187615e-01 1.946661752852251226e+01
-5.515915208409259307e+00 4.339033090504562651e+00 1.716166404561096215e+01
-1.604242117841174320e+00 1.530413785077419764e+00 1.343079513023140947e+01
-2.882329396356166917e+00 3.574138631150733381e-01 1.941964290608701305e+01
-1.894742953548935294e+00 2.828682300826499962e-01 1.947545079609508889e+01
-1.881574277952361873e+00 4.081580632393432273e-01 1.943980744902761870e+01
-1.885550953282395081e+00 -2.088516415293099060e-01 1.962988653401610151e+01
-7.195150940051268762e+00 3.945687792679861139e-01 1.479350051297664947e+01
-1.560073256495756011e+00 2.953003124840934968e-01 1.367187477728835177e+01
-2.856946118601263684e+00 4.894352467484752722e+00 1.733538415732252957e+01
-3.298698071790466813e+00 4.975240287427624253e+00 1.719674101383991172e+01
-4.511271051527780074e+00 -8.097975175938876280e-02 1.439562057483342272e+01
-7.529365987764744972e+00 -8.238596294468900627e-01 1.584249452649343937e+01
-2.865169648055528651e+00 -8.533207439608252454e-01 1.982841035366809024e+01
-6.527280354181927535e+00 3.215535680804930685e+00 1.747685590796944410e+01
-1.797015453775923977e+00 2.572539540370059052e-01 1.361603166245497931e+01
-5.105817835124353721e+00 -1.433585113536924638e+00 1.979682700511948212e+01
-5.505166405181487477e+00 -1.627989069665467525e+00 1.982128954837978796e+01
-4.522102462009840451e+00 2.668846440404213372e-01 1.267653326882891207e+01
-3.643499674129238475e+00 3.865332313892214433e+00 1.571656015503030801e+01
-4.894489701205923637e+00 9.611823590704610121e-01 1.895167346689543564e+01
-4.704892883748549082e+00 4.558801879004295010e+00 1.727607879960287107e+01
-4.705658518525588363e+00 4.372672499037456362e+00 1.738148176759796115e+01
-4.478024801360911411e+00 4.152118408779083225e+00 1.756250916251504179e+01
-6.018818604013121742e+00 -1.330302741678800471e+00 1.506522617066867298e+01
-4.516235867323468156e+00 4.614665075012872819e+00 1.729943572723934153e+01
-6.086817520529400838e+00 1.148068855757967688e+00 1.878978009534088045e+01
-4.610733786288074398e+00 4.855235908237454545e+00 1.672631187832647015e+01
-5.035156582418785831e+00 8.287042269106231762e-01 1.234879351653367507e+01
-5.383466702957095507e+00 3.468657031594885254e+00 1.514670994985691976e+01
-5.105427559015241812e+00 7.868819106008758668e-01 1.242101285631557772e+01
-4.956005594313094065e+00 4.470570919477736105e+00 1.618920132289812130e+01
-1.049283802112505715e+00 -1.147050739884556858e+00 1.640478343657112958e+01
-6.323519499170453528e+00 -4.155630949740035662e-01 1.404135730912509672e+01
-1.471149658651064618e+00 2.953420048699633593e+00 1.857114383873096841e+01
-1.686190989002046114e+00 2.798967938597945349e+00 1.865082685755617575e+01
-1.475609789570985209e+00 2.570266657409827626e+00 1.879426152519766902e+01
-7.860153857601478222e+00 -2.186845545226882015e-01 1.783462416444009335e+01
-2.909539832515714242e+00 -2.063578696806485979e+00 1.811341510276259470e+01
-7.873941229577210876e+00 1.617009192057832223e-01 1.761699214446487360e+01
-4.482759584650176876e+00 -1.284212199442876345e+00 1.733341192330217240e+01
-1.685010032706993233e+00 1.743135109432613961e+00 1.910137489577498826e+01
-1.369331793408914422e+00 2.559264878376567243e+00 1.499025638866221044e+01
-1.865808501389550900e+00 1.521373353788445293e+00 1.910977910902863641e+01
-1.988394225142553928e+00 9.709290624280709769e-01 1.237173456540350003e+01
-2.284950258106428489e+00 -2.924687099984322192e+00 1.954517482480414259e+01
-2.870711650714414809e+00 -2.935738216531048828e+00 1.936773959976247994e+01
-3.283103013505475509e+00 -2.964892006013896797e+00 1.955909324671999627e+01
-2.888124118988231182e+00 1.730428490264843244e+00 1.895500104586655254e+01
-4.140592263699983455e+00 -7.057712540150358205e-01 1.670975039667439432e+01
-5.629465492298534102e+00 5.863597437206680141e-01 1.294243873920668619e+01
-2.719498995945236253e+00 3.692751164148099452e+00 1.565279811814594524e+01
-3.680204539300351740e+00 -3.864806571057515239e-01 1.965812250802257211e+01
3.897317162141700209e-01 -8.595660383301393370e-01 1.797112812031140550e+01
-3.918037997594299160e+00 -1.255695668042313029e+00 1.733121556614904080e+01
-7.612017827851664364e+00 5.503760832050594853e-01 1.840966798494550005e+01
-3.540305683215058785e+00 -1.356247014542671270e+00 1.742475750279942304e+01
-1.755442264090377513e+00 1.814431672713751498e+00 1.905387807183034710e+01
-3.741680002136996031e+00 -1.366306704562544994e+00 1.742775488209841939e+01
-3.782576744359201548e+00 1.764350607108031710e+00 1.219114061456700426e+01
-1.551486317397883896e+00 4.307336388617535761e+00 1.722142895297555043e+01
-6.093398290819905583e+00 -1.284838176995903636e+00 1.494944553717914459e+01
-5.564390778254182379e+00 2.669717040462308955e+00 1.434113217536769724e+01
-3.917728863672786943e+00 1.423579631511266708e-02 1.476100174938940768e+01
-2.732426171553785643e+00 3.089000413876870077e-01 1.319080163959488772e+01
-2.727442344690222953e+00 2.602412621476741794e-01 1.338229485115885353e+01
-5.605646443044548732e+00 8.232847757838611669e-01 1.297662179538301785e+01
-6.898347856840238990e+00 -2.531010174263798262e+00 1.768452175430360995e+01
-2.670615145495885301e+00 3.553400846922013745e+00 1.817636526598556657e+01
-2.494055099812879206e+00 2.577298132830537991e+00 1.864099240874718078e+01
-3.102275229716661364e+00 4.770671058863292124e+00 1.739373575204957945e+01
-2.734645478020821585e+00 3.066441009182888422e+00 1.455211771942505550e+01
-3.479167001508402191e+00 4.755918038704912476e+00 1.743647596871928585e+01
-2.546196870602511098e+00 5.928698869523988391e-01 1.238279408490669198e+01
-3.302483659375810898e+00 4.773415062233596906e+00 1.743254662151579737e+01
-7.602210368206543833e+00 9.200561271118773421e-01 1.815875771634526359e+01
-7.445295994927706218e+00 1.545405853495995352e+00 1.801808438642161292e+01
-7.565727957990514341e+00 1.404685567052789574e+00 1.783701159125769919e+01
-7.054258445508294173e+00 3.369424626985502158e+00 1.630865488845068256e+01
-5.886531568838551109e+00 -1.623563181991176885e+00 1.978342969391733419e+01
-4.724694207010593061e+00 -1.629621716372204210e+00 1.761720287320602552e+01
-6.261768287180270676e+00 -2.033438569834536747e+00 1.972526608360387712e+01
-1.697725882567632683e+00 -6.376856951278079277e-01 1.980219997342236837e+01
-2.674627581475764959e+00 3.377770747018876696e-01 1.941426161395804684e+01
-2.479740771363294627e+00 2.022542320690237094e-01 1.945339095522642481e+01
-6.926443240246761945e+00 -6.105953881478607403e-01 1.464688110733057158e+01
-4.118077201446546098e+00 -7.903800095217189403e-01 1.682033424168616875e+01
-6.081013629783624808e+00 3.961794683056636401e+00 1.718465164096850373e+01
-6.381928726521911344e+00 3.831851752175739367e+00 1.710054501035398289e+01
-5.994543992104539143e+00 -9.193212959400445250e-01 1.448195188291582980e+01
-1.665212192774657263e+00 -2.626419603827735982e-01 1.969064152805687939e+01
-1.151730024471516955e+00 3.297803304322505458e+00 1.830381410651298069e+01
-3.896275363144207304e+00 -1.024522209631319125e+00 1.985186290968584188e+01
-3.292434790906204167e+00 -2.901298551705066675e+00 1.894795284125529378e+01
-1.930110467000083929e+00 4.318434281353010995e+00 1.700371334655516620e+01
-6.070938602141128015e+00 1.572566321704484293e+00 1.860701976666592827e+01
-3.309625890048802699e+00 -1.353806347880016192e+00 1.743842861479976847e+01
-3.501331381340813564e+00 -1.468117898790413101e+00 1.752000318563828785e+01
-3.115814980747435570e+00 -4.392991778024596394e-01 1.970096793050472428e+01
-3.496286312066102298e+00 3.366857150710678148e+00 1.821380638691414333e+01
-2.699430756777835061e+00 -2.253432729974986781e+00 2.016006977362489749e+01
-5.317903997404270555e+00 7.698731785672008332e-01 1.897109437109340746e+01
-4.317716192762494076e-01 -1.330624191723001892e-01 1.484329772326329788e+01
-7.145241769928983189e+00 1.406860728921831116e+00 1.847838419559340650e+01
-5.464611280442200680e+00 4.221107153742565954e-01 1.909349853134254715e+01
-6.913201604516226340e+00 2.202042277109526935e+00 1.807344678061053145e+01
-6.899626409295184004e+00 7.786070603805802515e-01 1.441499512136732619e+01
3.943548502729056215e-01 -5.289719967181824023e-01 1.782618591304886735e+01
-7.123190021398004390e+00 -6.199815299003167413e-01 1.929615250663866988e+01
-4.468667290162624539e+00 -4.323220305556803034e-01 1.955274670889785682e+01
-7.118002866403699835e-01 -1.043686612944004999e+00 1.595869181232993128e+01
-7.875852155408084032e-01 -1.091647585674059728e+00 1.608648721190001396e+01
-2.700507170845942273e+00 4.618489155616409825e+00 1.694866482391372386e+01
-1.293148483537385873e+00 2.719752514525412224e+00 1.871117044671255769e+01
-5.693986144840740948e+00 -1.880100570854091213e+00 1.756489803806393013e+01
-3.553052060805416357e+00 4.121796048686031666e-01 1.259143738907280152e+01
-4.901545025088342555e+00 9.784628378378948943e-01 1.223739569296006380e+01
-7.969862728460523904e-01 7.275446175809417715e-02 1.439937551746634625e+01
-2.099960999720972943e+00 -1.225727388829508824e+00 1.757331120473370589e+01
-2.702105982502887915e+00 -2.037904966092737524e+00 2.014077018970677102e+01
3.478518459901729365e-01 -2.345607610973698409e-01 1.816119274999398669e+01
-1.331117464829301378e+00 -1.770595650840936619e+00 1.802239781222886705e+01
-4.935831230482724763e+00 1.299899133647189897e-01 1.296968376805439505e+01
-4.596166443402486479e+00 2.058012871432448154e+00 1.293487971679336823e+01
-4.946156094869847308e+00 9.270087742312944912e-02 1.303457828828722143e+01
-6.895411343104242974e+00 -2.357796715553081679e+00 1.718589387555546466e+01
-6.362229109117386372e+00 -2.865145086853763123e-01 1.394231477207369352e+01
-5.872420725408519004e+00 -1.498935281804365305e+00 1.554372626658371104e+01
-5.538327034111448555e+00 -1.189553961535608995e+00 1.679779592930801613e+01
-1.277274535629316476e+00 -1.030723417226521166e+00 1.696346975143307390e+01
-7.692189268905892163e+00 1.195270766715655908e+00 1.580683215819771448e+01
-2.332471096688970569e+00 -1.354393045590031042e+00 1.764839806814992329e+01
-7.646448215456668862e+00 9.817986954786236398e-01 1.566350451621499928e+01
-5.097447297898327179e+00 1.756073825784808973e+00 1.861484221204563028e+01
-7.550480920744897517e+00 7.945188013304227415e-01 1.542313668720469622e+01
-5.069124232835520161e+00 2.155157923998253455e+00 1.845716917537441759e+01
-5.301504717481464013e+00 2.006459393012530956e+00 1.848652092861830454e+01
-5.308729403501843080e+00 1.465982613023987913e+00 1.870164935669179584e+01
-6.511675877129793122e+00 -2.745977611602133717e+00 1.824829483720771606e+01
-1.684314567432698473e+00 4.427203694137180179e+00 1.764052640472300482e+01
-5.672711647792892720e+00 -6.116115336277203607e-01 1.948108445982845183e+01
-3.507046419993955944e+00 3.854769577761388621e+00 1.574108648745168892e+01
-4.046198862146018982e+00 -1.074869024234788584e-01 1.530266767200875222e+01
-5.712870732448545041e+00 4.540570118690039791e+00 1.648869025237300434e+01
-5.337339796853139973e+00 4.836761435475072091e+00 1.682998968635326520e+01
-7.194660630292663228e+00 -1.860764653429588744e+00 1.638779645932576301e+01
-2.323834869687900540e+00 3.327102823663055986e+00 1.831449189390242793e+01
-4.804128465810444393e-01 -1.749731982823450549e+00 1.718770200548219407e+01
-4.766915078508652814e-01 -1.947007572506822104e+00 1.759980973468928767e+01
-3.277364587717895184e+00 5.628429105526839837e-01 1.935997364143836563e+01
-3.683360370889571023e+00 1.170679007421355555e+00 1.913019304749045801e+01
-3.489043558495276809e+00 1.180588660976829019e+00 1.914856616238880349e+01
-3.890006317848950790e+00 9.520285107273122049e-01 1.916840331491646054e+01
-4.290073648372151993e+00 1.758134887415943037e-01 1.936490649636348138e+01
-3.880371437312881699e+00 6.334839491606570894e-01 1.928051939079582411e+01
-3.133348021359377178e+00 3.337931165004970335e+00 1.497933038538734962e+01
-4.060686886597275169e+00 7.751353962759007787e-01 1.919717436465174387e+01
-3.859492060537919045e+00 1.145150249243666707e+00 1.911004301822010376e+01
-3.959641665242338959e+00 1.248081847741475903e+00 1.905596202093800429e+01
-5.098733700676907343e-01 -2.099170562296126530e+00 1.791088306572346767e+01
-4.719009318853819579e-01 -4.000613532582086851e-02 1.979905272975911856e+01
-4.068684769112940747e-01 2.524772521443107820e+00 1.662216387542675022e+01
-8.221580332598301677e-01 -1.163503950467561943e+00 1.624133679007330500e+01
-7.259545345505113989e-01 -1.365253976031412630e+00 1.656617881462877762e+01
-7.855270439422969986e+00 -4.247338407501994872e-01 1.702189897780035466e+01
-2.673774072272825375e+00 4.306216698367790308e+00 1.776217228557041494e+01
-2.187307587574665035e+00 1.319177864448165982e+00 1.242609692794022891e+01
-2.896093871543809595e+00 3.955894471598606632e+00 1.794408009241912083e+01
-3.299663463066402791e+00 3.780411875197243532e+00 1.800641895918975877e+01
-2.930927614065038878e+00 4.440768358461644638e+00 1.767145222852330733e+01
-3.101558863174061820e+00 4.169091153528205140e+00 1.781018165524938013e+01
-1.850581580034801110e+00 1.106121994856946733e+00 1.264024712574804710e+01
-1.702931882135353847e+00 4.109303469267910458e+00 1.678922480268827400e+01
-5.733890042473230864e+00 -1.970184545459162884e+00 1.764228105965535320e+01
-4.863924791877497711e+00 1.330132143510045939e+00 1.881759941477640297e+01
-4.695648835808666988e+00 1.369444114566799264e+00 1.883562845229799620e+01
-4.697310026658747972e+00 1.204294254695606137e+00 1.889828387733700055e+01
-4.893681706851978674e+00 7.685727999538018995e-01 1.902385045739872993e+01
-4.278491073925776433e+00 7.738969085878715237e-01 1.915047254399736687e+01
-4.659593698920167171e+00 9.657443019200021572e-01 1.899507051333905849e+01
-3.732510128408339511e+00 2.718639610916401050e+00 1.385089763254800488e+01
-4.667645678465982328e+00 5.810248368692521037e-01 1.913794934109703405e+01
2.243109970072475479e-01 9.531577083204142431e-01 1.614804861317826834e+01
-2.558748383932589743e-01 2.994608916052626135e+00 1.774469699863944783e+01
-2.897684508174633411e+00 -2.694063420013231624e+00 1.870042961320390162e+01
-3.370805641139107856e+00 5.072511162772594950e-01 1.231636993402710090e+01
