-2.412833043248534537e+00 -3.275121688485826077e+00 1.885617834190392728e+01
-7.057711947332181879e+00 -1.773509354509206659e+00 1.556159008130363475e+01
-7.702723881026992458e+00 -3.814429582320559398e+00 1.783466310244179454e+01
-3.061272161035078820e+00 -2.544281711009847236e+00 1.654841175743163717e+01
-7.890916663707406187e+00 -3.456571568411977324e+00 1.859650129865521251e+01
-1.055559783560177545e+00 2.028772971328440811e+00 1.816510639054204290e+01
-7.548969388870757413e+00 -2.134867783992950296e-01 1.860016657798201578e+01
-1.919157672733626363e+00 2.098071841779000302e+00 1.653592063394820144e+01
-6.450514844615410581e+00 -6.760997803942176976e-01 1.493472931640512513e+01
-6.492554443632810646e+00 2.784578116407032233e+00 1.799093637891122910e+01
-3.367005017759753915e+00 -2.639775903315947581e+00 1.907960787904431754e+01
-1.302882632329296353e+00 -2.356698554661149636e+00 1.530121800157370870e+01
-7.872540636766728994e+00 -3.331576606118314743e+00 1.750722364418812305e+01
5.457386445757728133e-02 -3.165899737158332172e+00 1.648800699737793707e+01
-6.596031331259476715e+00 -2.616654355599883353e+00 1.919199504500512887e+01
-7.626939200913525951e+00 -3.715393250867838226e+00 1.769963597459631899e+01
-4.499917359250440896e+00 -4.013396199732276237e+00 1.730044062788494585e+01
-2.345145762370751008e+00 -6.308083160291344527e-02 1.894799804244117780e+01
-8.169006640998803803e+00 -2.768421472178425269e+00 1.840364137347976481e+01
-2.122411286740080172e+00 -1.798601961991920906e+00 1.571751208941067546e+01
-3.029221784024170638e+00 2.429896161653686271e+00 1.567260377958818651e+01
-6.590739494848111280e-01 -3.914530171884075038e+00 1.670608559226324275e+01
-7.835009847165888885e+00 -3.542991093095776201e+00 1.769546483309003548e+01
-8.243814512771630021e+00 -5.187364439223413060e-01 1.763946392059370538e+01
-6.142687755099540681e+00 -3.856683677490345019e+00 1.751618303366988982e+01
-2.973139569008474759e+00 2.022696080556565690e+00 1.493921488748356552e+01
-1.257463340483792935e+00 -3.140057620931641758e+00 1.594031971983938689e+01
-4.272493185590144904e-01 -1.321845694912221258e+00 1.489480054394645236e+01
-2.851639676025844672e+00 -1.918033256406758147e+00 1.616775323197591518e+01
-8.286029589242335902e+00 -2.104163667962867024e+00 1.680883124170762954e+01
-1.111687897174454820e+00 -4.132279490900231944e-01 1.410288492669968008e+01
-3.749169946009971444e-01 1.147853077290555690e-01 1.614194903964870065e+01
-3.579515266216892311e+00 2.865552250369565179e+00 1.879410470083535500e+01
9.861136538114312344e-02 -1.329507697574010550e+00 1.552896819353706803e+01
-7.608071155001573160e+00 -1.398973352276620785e+00 1.886281872736640253e+01
-7.035589338292831840e+00 -3.040243916544000946e-01 1.466911100129600953e+01
-1.241037711490264872e-01 -1.114762256097264759e+00 1.520062150828401570e+01
2.519192752076104824e-02 -4.819351353804161020e-01 1.819772023609872491e+01
-5.330410422580813545e+00 8.182011933719883778e-01 1.286841063549177022e+01
-1.558878033289400333e+00 -3.626236521686503345e+00 1.663764078351093900e+01
-7.745720137536842742e+00 -3.701944015678577671e+00 1.862061713445914535e+01
-5.568670783026705706e+00 -3.641075850048052232e+00 1.912244861074061930e+01
-1.144382190995558268e+00 -4.511426579093551048e+00 1.754028018112233411e+01
-4.303783851336222543e-01 -4.281571758708595965e+00 1.805597667477112367e+01
-5.769952020493564149e+00 -3.677374865195399245e+00 1.912402808867236104e+01
-5.342931515796387032e+00 1.580748457340587443e+00 1.886308202910511511e+01
-1.496033842584244544e+00 -2.542194880739103269e+00 1.552277733945417282e+01
-1.196443699028919561e-01 -2.339268181520416157e+00 1.571405240871536080e+01
-1.428124113629571035e+00 -4.607840197035717900e+00 1.856609821290090423e+01
-4.299358343925604231e+00 -2.120563356953688583e+00 1.660108191873590755e+01
-6.183212706407003267e+00 2.213118494762299271e+00 1.627574263453690406e+01
-4.027180176779477705e+00 2.479820706774358285e+00 1.567704640450742204e+01
-6.463563780032991701e+00 -2.707909103178637977e+00 1.686513107850427673e+01
-6.199805563297688948e-03 -2.852476578263396512e+00 1.784771580508213162e+01
-8.947863270485697518e-01 -8.364552986458897443e-01 1.439846546775962111e+01
-3.708765585421661903e+00 4.019840401122131368e+00 1.852899896236341704e+01
8.915469101323370005e-02 -1.121102811779814523e+00 1.555745052818956253e+01
-6.294268085343361463e+00 -4.715334216412994106e-01 1.476844608957106431e+01
-8.397684769721427855e+00 -8.942138792613129050e-01 1.687639172424522371e+01
-6.437369581187857293e-02 -2.250123434030934177e+00 1.824795530141532396e+01
-7.109177849127005899e+00 -4.214569348004337246e-01 1.479142806090813167e+01
-1.963084402166305864e+00 -2.067711474556879203e+00 1.894420577906254266e+01
-8.075960447625279315e+00 -1.044401528687592950e+00 1.600692790919608655e+01
-3.463569475480544391e+00 -3.566337919317438931e+00 1.697191349371175306e+01
-7.754291710528768533e+00 -3.112900707383183807e+00 1.886050960486852546e+01
-5.056504461297741670e+00 1.397700398356990892e+00 1.386651917362725328e+01
-5.036667327759339230e+00 -4.553497097745544231e+00 1.871345169432783706e+01
-7.862815068851382705e+00 -3.038167344576729434e+00 1.879623443376188874e+01
-4.976765907712352721e-01 -4.350163597598493581e+00 1.728527904860300879e+01
6.829962823588231480e-02 -3.384159776405765818e+00 1.720936056779846268e+01
-8.321849254057703149e+00 -1.066410164031126984e+00 1.746646302560399278e+01
-3.454198410215032933e+00 -4.238170814028265454e+00 1.729485950520212612e+01
-8.020172966093438660e+00 9.249283505733848498e-01 1.652598777557328447e+01
-5.951982187691182702e+00 -8.261158895275781955e-01 1.912838856855752567e+01
-2.805848949854139462e-02 -1.132549630893953330e+00 1.535095013409010534e+01
1.851700906356714693e-01 -1.664077541289920248e+00 1.794906829042861318e+01
-1.295780780663318588e+00 -3.999843036410815067e+00 1.684368488879986359e+01
-8.200371907812611383e+00 1.298537591258649426e-01 1.628884544209046936e+01
-2.910583652085562356e+00 3.817832169032350009e+00 1.851831279849295697e+01
-1.906852725103749480e+00 -1.116436769186690769e+00 1.480650365172084548e+01
-8.997135449864357426e-02 -1.647089074838255840e+00 1.841539505438005619e+01
-2.519776253206063021e+00 -9.294425918145116094e-01 1.504973661899902737e+01
-7.873986076235910403e+00 -3.771947997412933518e+00 1.810064230045638567e+01
-3.370931949481225098e-01 -1.318471508243337365e+00 1.498320093612606030e+01
-1.808146086277922393e+00 2.086353143994383597e-01 1.332705571929706423e+01
-2.260950662449251247e+00 -3.784533607408806510e+00 1.693577039423929165e+01
-1.897730076988662251e+00 -9.235306317459759384e-01 1.460362282279084667e+01
-9.531286991946430476e-01 -1.030366609219365015e-01 1.892201334909277222e+01
-6.067992599928428987e-02 -1.328316628702824742e+00 1.533293483952910208e+01
-3.072901813660834591e+00 -4.758294556678693610e+00 1.811538526362503632e+01
-7.314692716576169929e+00 -1.414082726385058164e+00 1.539471791593879146e+01
-2.878989376641889031e+00 -1.347598756243919338e+00 1.566738639533976141e+01
-9.619620010231031415e-01 -6.439655726399756697e-01 1.896413256557205784e+01
-1.971247284082549012e+00 -3.488431963629957444e+00 1.879019619047550549e+01
-4.207012296642028915e+00 -4.432937967367736043e+00 1.892264640389116437e+01
-2.788699206869722946e+00 -3.450726755436402726e+00 1.890525438820743886e+01
-7.792944364585512318e+00 -3.433686270342800384e+00 1.755621629374139303e+01
1.659668541918879470e-01 -6.656317141680110350e-01 1.795023887193496392e+01
-5.831108125350816351e+00 -4.013802663745004828e+00 1.907151225545310780e+01
-2.805561070168304916e+00 -4.812029808904400241e+00 1.848569405261404341e+01
-5.553617592752482679e+00 -2.435870580710839395e-01 1.910763758401666479e+01
-4.673603182872021478e+00 -4.223780749770218002e+00 1.749909833458164599e+01
-7.085454139426179410e+00 -2.864729967028136315e+00 1.689662892052579934e+01
-1.542389097546194243e+00 1.939571310009894578e+00 1.870986688910510765e+01
-7.051618301163335545e+00 -4.083167136983543166e+00 1.792350008340577716e+01
-2.082806919530241441e+00 -1.940883440617963140e+00 1.580083251813246648e+01
-3.924282233516194651e+00 -2.641104457976321207e+00 1.674605639217740105e+01
-2.886894206938714902e+00 -4.454664122637373325e+00 1.749740841026670779e+01
-2.428953720302039709e+00 -4.689550254653115147e+00 1.862977986347446091e+01
-7.802001062325265579e+00 -3.581705463700543213e+00 1.864263367089007772e+01
-1.583312080513425979e-01 -2.150395386553695332e+00 1.556895469645532160e+01
-3.920154633743700323e+00 3.948228526960434470e-01 1.274072906066046329e+01
-4.558741593504366918e+00 -3.718539269879254927e-02 1.909650343585381904e+01
-7.982382208769626786e+00 -3.340089169781019329e+00 1.850831331608586794e+01
-7.167813760661838174e+00 -1.307233262388267869e+00 1.530602232377430028e+01
-2.423188375361782221e+00 -4.801736603963138172e+00 1.844506559068865670e+01
-7.972014088097600037e+00 -6.002158615109337569e-01 1.574939227697657174e+01
-8.231312169117428468e+00 -2.946404019313898281e+00 1.753351787251767036e+01
-6.555523263867240047e+00 1.084454266125546074e+00 1.470460498021721207e+01
-5.223783800816761413e+00 -4.543941188386175334e+00 1.798708356796112895e+01
-2.209919758431989401e+00 -1.867125435406168599e+00 1.587184477334617583e+01
-1.081823010356026460e+00 -4.769221219540705548e+00 1.823956079872657909e+01
-8.298244111158389558e+00 -2.284364045889369699e+00 1.697976200526148460e+01
-2.265952456504558565e-01 -1.342220351093150521e+00 1.512604014123456864e+01
-8.090617078693036035e+00 -3.388689615243333009e+00 1.794604027566798266e+01
1.418627603636135603e-02 -2.253882404268980899e+00 1.808612625147829078e+01
-2.792087527982402229e+00 -1.089392585792056778e+00 1.899736292885016553e+01
-5.580706820370808785e-01 1.132604155904499699e+00 1.855916925822025121e+01
-7.787181116960530503e+00 -3.365238122053943570e+00 1.875402288117415139e+01
-5.949221393063730545e-01 -3.666378055534452507e+00 1.869908807939926021e+01
-2.149198505249116486e+00 -8.970493346570833637e-01 1.897470974315669423e+01
-4.769139245124377702e+00 3.234473652314994396e+00 1.714122217931882375e+01
-5.900120099086002767e+00 1.065396735447992071e+00 1.385374559034089970e+01
-1.708396940009137666e+00 -8.584347472918699706e-01 1.444876874391633947e+01
-1.245905138445806193e+00 -2.234357618373151055e+00 1.521292208726197259e+01
-8.145964767444711541e+00 -3.294311528771049602e+00 1.809329636506321748e+01
-4.750076953489974940e+00 2.435513573101120599e+00 1.878450953806834889e+01
-4.130497148565444476e+00 2.038407047190836374e-01 1.312401720248640657e+01
-2.241892163826374684e+00 -4.176943680916678225e+00 1.714903917896007357e+01
-1.344601704304697165e+00 -2.081753242018172578e+00 1.897531982804589745e+01
-9.160442385479086180e-01 -3.125562762525285976e+00 1.590650588447255132e+01
-1.782202091470548533e+00 -4.731102074353980669e+00 1.851749025648197033e+01
-1.527006302725168130e+00 1.686502076441769304e+00 1.652763728229716378e+01
-5.767226018061604620e+00 -3.356327305898551217e+00 1.915720190992904293e+01
-7.981166381341152416e+00 -1.570433943743207328e+00 1.860853870455122916e+01
-7.064680768713285097e-01 -3.757684513778942303e+00 1.653847053129060640e+01
-1.436958871361072587e+00 -4.578512047674320407e+00 1.765825273858980893e+01
-6.250547327393972452e+00 -4.285509631574561773e+00 1.789054935540817581e+01
-3.139058327728442510e+00 3.847142592348324897e+00 1.845550654521480283e+01
-1.420763041691869510e+00 2.480477045564263960e+00 1.821075471035165805e+01
-4.101426891678931597e+00 -2.195801692739533628e+00 1.917357956258416607e+01
-8.254082016430364099e-02 -2.451599291865374397e+00 1.822505409984763958e+01
-7.598461355488430158e+00 -3.213433794168171431e+00 1.891050522092505304e+01
8.183723190269631687e-02 -2.976612799937615073e+00 1.650882878436503631e+01
-1.177050860917801423e+00 1.969468265686745267e+00 1.776378686965772857e+01
-4.541624350446628711e+00 3.609590141365270455e+00 1.776225117479084759e+01
-4.740569564174671235e+00 8.881675897702541178e-01 1.258606041110473939e+01
-7.221986410976761306e+00 -4.034987698126274225e+00 1.863217828005773669e+01
-4.411124150483239248e+00 -4.741329024069831810e+00 1.852717716371462586e+01
-1.493440087543154604e+00 -2.112283423317680153e+00 1.523995242997960986e+01
-3.612320070988473297e+00 -4.413222653373561677e+00 1.750160580548713085e+01
-1.234754517038216814e+00 -4.595646431948993360e+00 1.854170548119677875e+01
-6.881162049019685867e+00 -1.033867061763375783e-02 1.438957717597555330e+01
-3.340544607528647347e+00 9.205433858220559706e-01 1.274890436553602768e+01
-5.838125352751179165e+00 -4.522222530706323518e+00 1.821781652620365577e+01
-8.077667628645286868e+00 -3.429619692881247239e+00 1.812126567914718578e+01
-5.516725047536974458e+00 1.378706769294534062e+00 1.887738284841670833e+01
-2.173959758367132622e+00 -1.896227759663377199e+00 1.894729576212793631e+01
-8.010907954887462878e+00 -3.551023984931230615e+00 1.810754128258177786e+01
-4.088635593667966361e-01 2.309914894250751916e-01 1.626642625881516580e+01
-7.989318046098423665e+00 -3.525584955389756026e+00 1.790542961730402993e+01
-5.041553814800342481e-01 -2.936572993024058498e+00 1.573921444579556805e+01
-2.379660856915806644e+00 -1.043489457217718464e+00 1.896601264746280435e+01
-1.341521615452287985e-01 -3.970104333859489465e+00 1.740437670410956628e+01
-5.570130996346742691e+00 -8.378565246941204192e-01 1.914484506990251589e+01
-7.925462226851653469e+00 -3.564454455616782980e+00 1.846186017546128255e+01
-1.015724391787247161e-01 -6.176984528835807731e-02 1.829382536198890108e+01
-6.448234755190352274e+00 6.167240803724223230e-01 1.391235601087363705e+01
-3.969066144570455590e-01 -2.513935673378589364e+00 1.875701959681494202e+01
-2.507073961866000955e-01 -4.036880984851886289e+00 1.780894430623686731e+01
-7.650057224622814900e+00 -3.578482921945000506e+00 1.761052383942647737e+01
-1.980097496992547113e+00 -3.639983668219313628e+00 1.878027527396979934e+01
-6.266410144872875065e+00 -4.475130441056023756e+00 1.847591790056971206e+01
-7.764069992596864367e+00 -2.974098008381621305e+00 1.887351615442641872e+01
-6.877485400872439314e+00 3.121513485350893569e-01 1.878209574248092650e+01
-7.246582953122272741e+00 -4.124049868298164334e+00 1.843620717321972791e+01
-3.609377730232427250e+00 -4.773685407342841636e+00 1.867670180501897903e+01
-4.030125226387889725e+00 -7.989391791757605166e-01 1.509883042693898147e+01
-7.315765998515514568e+00 1.424589295424725233e+00 1.631146997971968204e+01
-1.934811559853280905e+00 3.084942579506853022e+00 1.847966185019444652e+01
-5.521843417038004631e+00 4.074015958868536513e-01 1.904532042470403042e+01
-4.523061540538648728e+00 3.685489192021643490e+00 1.790754160397697348e+01
-7.978282894011794468e+00 -3.561128285481213851e+00 1.830672170465783921e+01
-2.332089103564335630e+00 2.347609470443472013e+00 1.875343805093875460e+01
-6.848288983551491071e+00 1.225949215705809114e-01 1.427784056750139285e+01
-3.540359265716484849e+00 2.364238703860337132e-01 1.294047355706771896e+01
-9.129543130590316302e-01 -4.682960119570759971e+00 1.784142259873472369e+01
-2.547883750311922491e+00 -6.853879771519355568e-01 1.465345810033058882e+01
-2.041243127885910003e-01 7.604782747800592491e-01 1.767191573599448162e+01
-1.360833073882838917e-01 -1.273595156487849822e+00 1.520300126324011103e+01
-6.572511983801025082e+00 -1.593380614516652249e+00 1.914704207716787465e+01
-1.498702282289268828e+00 -1.699427615396729152e+00 1.499191375302363127e+01
-5.884771334415036748e+00 -3.638781083466950506e+00 1.734808341907642415e+01
-5.042016119796405960e+00 2.703024473827043472e+00 1.633052819373274644e+01
-8.057332608411007513e+00 -3.371597059269151764e+00 1.831859128560071071e+01
-5.368289385654748003e+00 -2.254639752431419453e+00 1.918334845099312957e+01
-4.218516368207177791e+00 -4.747307131017032944e+00 1.836531545809755528e+01
-2.241914639426421552e+00 -1.955171459630650199e+00 1.595525777976543935e+01
-5.063463243015695170e+00 -4.267637206794961280e+00 1.894382589230860958e+01
-7.248525917127666141e-01 -2.947683528420993682e+00 1.573809348325340096e+01
-5.201765245939787619e+00 -4.044860106736656746e+00 1.903450726340498989e+01
-8.021020393090967815e+00 -2.621850064672710978e+00 1.661829323018037030e+01
-4.708627400189105972e-01 -2.548529700487053518e+00 1.545720784532215930e+01
-1.502772914470343446e+00 -4.127756479144925605e-01 1.403316414589756533e+01
-2.115564531281246552e+00 -3.616939732789553830e+00 1.682966271137283343e+01
-4.283043446437289958e+00 -4.283595474954505988e+00 1.742921912147161834e+01
-6.173277487537770725e+00 2.680901651613205594e+00 1.715768136521433007e+01
-7.661189857787249480e+00 -3.575095574447922253e+00 1.875589890629009915e+01
-7.778754282997510927e+00 -1.905297464140587316e-01 1.527723569925751690e+01
-1.339918540339721797e-01 -1.949926219111614900e+00 1.552282035456862275e+01
2.215298521974224943e-01 -1.835322854887347477e+00 1.690031832456953254e+01
-7.290274093742516115e+00 -2.260808070015287718e+00 1.593419403917776123e+01
-7.832229559446806988e+00 -3.186754327960562350e+00 1.732268903674693661e+01
-6.715679899848428391e+00 2.441098192513445397e+00 1.738056647237245755e+01
-1.032652086134661751e+00 -4.565992332556436661e-01 1.416177313435223795e+01
-8.349806394971949430e+00 -7.075390834639406767e-01 1.727911007219527306e+01
2.495922058831028245e-01 -1.139530659166564597e+00 1.614890152401229528e+01
-6.718946499141457807e+00 -1.194959208755915103e+00 1.524619655782112915e+01
-1.101795265541600344e+00 -1.517656816730465374e+00 1.479719294237376914e+01
-6.566134328108349294e+00 -1.593166147743155792e+00 1.562276387785309595e+01
-6.133404340477333960e+00 -1.421781027496222372e+00 1.916378381034325429e+01
-8.190466150973364279e+00 -3.121110088703666463e+00 1.813376758351839158e+01
-4.272701539342113719e+00 3.928635078948285120e+00 1.836985477133411138e+01
-3.775521876753188177e+00 -4.007399976382915174e-02 1.910779562836818712e+01
-1.246086684559756241e+00 2.228885039003450252e+00 1.808505248522769904e+01
-8.141140475162705670e+00 -3.129770810158476024e+00 1.830642513773133828e+01
-1.702443200632464571e+00 3.931680252263169972e-01 1.369184917771165999e+01
-5.973879731084380751e+00 1.992642591353045223e+00 1.864973525351691563e+01
-4.400013525424336436e+00 -4.084694096649353234e+00 1.900537111298738324e+01
-9.231817695129398427e-01 -3.758415085123874455e+00 1.654576179712744022e+01
1.398569350592053784e-01 2.958483464622531089e-01 1.766159472612466885e+01
-1.968894008471221424e-01 -1.685388531824889791e+00 1.857695807404732591e+01
-3.724347918850869910e+00 1.358118117895676491e+00 1.903226343192743997e+01
-3.694984902606552879e+00 -6.741431205781804881e-01 1.470706366360346351e+01
-2.444050098319193065e+00 1.888617055805402734e+00 1.518184185394220975e+01
-7.569581640649518661e+00 -2.618399809875453954e+00 1.898016894303587065e+01
-8.035129518664389181e+00 -3.280856095357687074e+00 1.759343670077238642e+01
-3.765955058725011240e-01 -1.079919773468304811e+00 1.482061379923191424e+01
-7.183432697057007488e+00 2.077723298612496272e+00 1.773173369936071708e+01
-7.934505611954492110e+00 -3.154435369878481943e+00 1.867553516227827970e+01
-2.377020579623429164e+00 2.456553728728803954e+00 1.642373902421770993e+01
-2.118962816882603128e+00 3.135811476931701591e+00 1.862236394258919603e+01
-7.452975994720286934e+00 -3.719236582064920249e+00 1.764438168633534332e+01
-3.551071360118443820e+00 -1.844769568173321828e+00 1.912877382382911406e+01
-7.922235966451687261e+00 -1.812303846944578245e+00 1.872295213801330505e+01
-7.706343298165112543e+00 -1.204229527174016434e+00 1.876765598974079552e+01
-4.133756947396463488e+00 7.611491061349295872e-01 1.226091473677919197e+01
-6.212743122898981341e+00 7.522081000995697320e-01 1.373856506219918572e+01
-6.914660063285092306e+00 -9.596808687667612858e-01 1.508934791484183791e+01
-7.855466963213631360e+00 -3.183578987425662810e+00 1.876299537748281665e+01
-5.366220963160330371e+00 -3.335994714581975273e+00 1.913777184139429011e+01
-7.884971405958426161e+00 -1.051265941719207619e+00 1.856728458831094031e+01
-9.970376308452496561e-01 -3.929878784544432513e+00 1.874444976248663863e+01
-6.088695066310092940e+00 -4.436766970045652458e-01 1.480312865307918457e+01
-2.600625103354926360e+00 -2.469640088159463787e+00 1.895432692120063933e+01
-1.855982858496069143e+00 9.981345085802345585e-02 1.343560940157947670e+01
-4.769118421576009625e-01 9.594106640464914459e-01 1.852454325742363750e+01
-6.341886314693995885e+00 -4.346715417758404421e+00 1.875244326123088001e+01
-6.908952187997440930e+00 -4.552255376238464324e-01 1.473177553470794976e+01
-8.243992446318067380e+00 1.087362318809018541e-01 1.711354015014550356e+01
2.431811773801730858e-01 -1.190797110601433451e+00 1.616035791630114460e+01
-8.119201311520138020e+00 -3.211549157224237838e+00 1.763829314710680762e+01
-1.122562916429411084e+00 -1.888133833405131412e+00 1.500625806371563442e+01
-2.659303168447167742e+00 -1.988874571706243044e+00 1.615496293518416593e+01
-6.092685312914168705e+00 5.085384330724973534e-01 1.367416351142495756e+01
-2.271431528550012402e+00 -1.733844538524719869e+00 1.579593612370504729e+01
-1.732897199520082587e+00 1.363298346427181285e+00 1.882834150607671830e+01
-3.080603515814875903e-01 3.279446795845727958e-01 1.846449773334156674e+01
-3.745518205150188962e-02 -3.185648363950313033e+00 1.626982643860526423e+01
-1.177275518946569566e+00 1.276478736714368400e+00 1.646453153311073692e+01
-1.400408780978501522e-01 -2.551818052924167191e+00 1.577227599926437307e+01
-2.699587056999284584e+00 2.337535541198860756e+00 1.880726298633423710e+01
-7.922976919871503654e+00 -3.699719807885561096e+00 1.826647600915919867e+01
-5.423416300425001779e+00 -2.585147109918425556e+00 1.918372788069196133e+01
-9.153347968572831395e-01 1.759755284816932441e+00 1.793714564933433309e+01
-2.290772204684667912e+00 3.388454080777204780e+00 1.848733800355385881e+01
-2.146949690931788446e+00 9.230477677444074436e-01 1.889395522130532612e+01
-7.106354156082668183e-01 -1.216591340916117980e+00 1.468186477333696160e+01
-1.422693094716024342e+00 -4.688189546007816233e+00 1.787988026442189238e+01
-1.283652671223856734e+00 1.055130187906917927e+00 1.883776958122508205e+01
-7.824377744332322138e+00 -3.062731630422115714e+00 1.715549267827818625e+01
-7.032965055856088554e+00 9.504900181871621667e-01 1.512054398230696961e+01
-9.155629133357150451e-01 -1.342256543838019844e+00 1.470238313740161118e+01
-5.200498102461262873e-01 -1.288814054348242921e+00 1.481255982500902491e+01
-6.159258186322437822e+00 -2.820258317346212351e+00 1.921006260038053171e+01
-4.505972137898605290e+00 1.229588698351191223e+00 1.324958221106153644e+01
-6.314300020203496899e+00 -1.055770354627580065e+00 1.912654064763406581e+01
-1.030059491031885877e+00 -3.462414178331242098e+00 1.883236540234184275e+01
-4.585621694527046710e-01 -1.117935502984749752e+00 1.476952485950214822e+01
-1.053339285876753850e+00 1.517803525866243675e+00 1.718533009675469714e+01
-4.942986338677779479e+00 3.492953699792963107e+00 1.777192545075293850e+01
-6.655427346204726646e+00 -2.740784889021999682e+00 1.685878048003137764e+01
-5.077951816435779087e+00 -1.224828599248773686e-01 1.420613417811125601e+01
-7.182163341993289762e+00 2.079412190174704023e+00 1.756158639115284359e+01
-8.031671118899032180e+00 -1.801235797054462129e+00 1.860252355882280995e+01
-3.314722034981327781e+00 -4.453616506283103682e+00 1.753254174176741031e+01
-6.767936509814253654e+00 -5.857803086125018543e-01 1.899795385571849948e+01
-2.653529028054542049e-01 -1.143088599184849841e+00 1.499396416809100430e+01
-2.662119335739723702e+00 2.139015234633431461e+00 1.539068721168287368e+01
-6.737752409801652576e+00 -1.003939030633585583e+00 1.906244630626766678e+01
-3.540777979383340490e+00 7.204757126030876258e-01 1.906488933253368145e+01
-7.800396024168497533e+00 1.280671433660159231e+00 1.736344873836686276e+01
-7.828103356669981139e+00 -3.749627739413440075e+00 1.844362315005810871e+01
-3.767493710875289281e+00 6.479997232743346380e-01 1.233451845065461328e+01
-3.878340207112396687e+00 -4.231013839431241763e+00 1.731556714551750531e+01
-3.236616157888122514e-01 -7.125526583285094473e-01 1.864495398021353623e+01
-4.503221111090856432e+00 1.381951496391770062e+00 1.898869141549884887e+01
-7.874652448154767725e+00 -3.637278900962282790e+00 1.848746619091501486e+01
-6.190258915399706297e+00 -3.994135372606396395e+00 1.902045477916844618e+01
-6.991676958026650013e+00 -3.531298846339137043e+00 1.900007627904346919e+01
-2.751301375644156444e+00 3.530739636885335209e+00 1.794984063697152976e+01
-5.941874106136811662e+00 3.189619603267658476e+00 1.802191506063553561e+01
-5.822304000949346303e+00 -1.693824259500736895e+00 1.630590370459538008e+01
-2.917641179007238961e+00 5.405997233476530495e-01 1.898888949302204310e+01
-7.390653164359489935e+00 -3.600848784536121450e+00 1.887582690186535217e+01
-3.039131306549230693e+00 3.335290682278646557e+00 1.731190736982804879e+01
-6.677288706231507831e+00 -4.201829371202907559e+00 1.870148346878276158e+01
-5.680517954458901286e+00 7.409337660014280180e-01 1.311117670704981464e+01
-6.003955537168145895e+00 -1.733027761662017108e+00 1.627997863927954114e+01
-1.170067403657750749e-01 -3.574627708474928056e+00 1.648108472338330444e+01
-4.612023716485849967e+00 3.117879740040175207e+00 1.863871815466249870e+01
1.900647223056917134e-01 -1.463355245495232326e+00 1.792997535706861356e+01
-8.127126193957417755e+00 -2.679865527514678547e+00 1.686078273604282884e+01
-2.091854662161485301e+00 -2.603103780852739746e+00 1.630888563928381529e+01
-6.060146496537768712e+00 -4.389081834417631001e+00 1.883422150280903651e+01
-7.823876348270696113e+00 -3.744195823787475064e+00 1.791776600548224962e+01
1.004562107055730902e-01 -2.629875321225222606e+00 1.749455001461360126e+01
-7.780417436692758315e+00 -2.158567583311804761e+00 1.597696441022900160e+01
-7.803154197973086070e+00 -3.658823816689198871e+00 1.777237927292404862e+01
-1.295283620768421073e+00 -1.477802917405962591e+00 1.479602885370981369e+01
-7.335947970290206399e+00 1.657000751614308598e+00 1.680646934884534716e+01
1.347119909918734759e-01 -3.225084004239870517e+00 1.708532037999481190e+01
-8.898760175828300811e-01 -1.231130226164943720e+00 1.464567607839067165e+01
-2.336088905048430142e+00 5.687576832455246700e-01 1.293441796249480547e+01
-8.146509432710425713e+00 -2.985367553505661853e+00 1.837431306914229623e+01
-7.270243503001770691e+00 -3.757664024968546457e+00 1.764179272322396486e+01
-7.675495541162106861e+00 -2.828763120195339376e+00 1.672880928818955937e+01
-5.645319846060308677e+00 -4.464115085054357834e+00 1.790333126800197761e+01
-1.322903732975001079e+00 -2.104755643804647747e+00 1.515878012027829413e+01
-5.273944543319728950e+00 -2.950561979603570251e+00 1.700828195016877231e+01
-3.888777653240493404e+00 5.392143699088554065e-01 1.908968008978088449e+01
-7.700093528865512127e+00 -1.845926062944259538e+00 1.577630702490866810e+01
-2.742343356259047127e+00 -1.265733988092855755e+00 1.899418954682712979e+01
-4.938797727918531777e+00 5.137829764286778733e-01 1.303535830532151607e+01
-4.379102757537156165e+00 3.202974386643336224e+00 1.698599027659409444e+01
-8.155696607116606600e+00 -5.341851083687697566e-01 1.786636576369407692e+01
-5.332664712592966039e-01 -3.124686481855756703e+00 1.877424538630122441e+01
-2.294085953625096153e+00 -4.877553055121907066e-01 1.421423842883126554e+01
-3.764634912846763992e+00 -1.300678876873126777e+00 1.915424728094325957e+01
-1.467983047054793655e+00 -2.294454535748707613e+00 1.533590576907823788e+01
-4.473566218680345763e+00 -3.159528258293113900e+00 1.699912567561460008e+01
-8.350843432888931162e+00 -8.980843469811542468e-01 1.720596655969516320e+01
-1.305172939792465625e+00 1.177597644054622528e+00 1.882121519673123800e+01
-7.600999212944147487e+00 1.530590196737640296e+00 1.756011003518317892e+01
1.418223140401040361e-01 -1.495687682693531473e+00 1.809961477293796150e+01
-7.088705943836748347e+00 1.536860435802121394e+00 1.826044388798020179e+01
-3.935585631018848840e+00 -1.264043416222389027e+00 1.916233352357538422e+01
-6.568024183181114140e+00 -4.179992267662091088e+00 1.877056248445061470e+01
-4.348752074934499667e+00 -1.658340793239477362e+00 1.917536805115386045e+01
-5.808948847188299958e-01 -1.076743331618974064e+00 1.466568475059418120e+01
-3.334652493883671465e+00 -6.835538623794358282e-01 1.907502467267429580e+01
-2.667318021242775838e+00 -2.337285698493957398e+00 1.635701018402494356e+01
-4.352794757157257166e+00 1.836564969593850405e+00 1.894867590348111719e+01
-3.946688342685638062e+00 3.614067409064118941e+00 1.773708904494939276e+01
6.887008825013407609e-02 -1.644961055789379012e+00 1.817064732168735475e+01
-8.320634853176020584e+00 -1.975978703411383153e+00 1.791967245831580868e+01
-6.915289339036013061e+00 2.373567665646087177e-01 1.425228530964797358e+01
-4.559200370171583749e+00 -2.871429369546357080e+00 1.692482831276519306e+01
-2.918628503075192615e+00 9.242810617406908014e-01 1.291668504639853410e+01
-7.853926365173627744e+00 -2.709035642960053281e+00 1.655658892899059254e+01
-7.342823873591392214e+00 -2.379763432463055217e+00 1.905708767048106722e+01
-7.693710602442010327e+00 -2.651877968468422608e+00 1.639995110231306086e+01
-8.285005745242003172e+00 -1.761884192067888710e+00 1.803580596161365435e+01
-3.303058744523104107e+00 9.245751223514862838e-02 1.317322057562500248e+01
-7.115390182949717257e+00 4.289735200518128289e-01 1.447954113211230265e+01
-8.024314361914369087e+00 -2.832859866824211537e+00 1.690379346688113316e+01
-6.823095583391181052e+00 -4.187395817318444458e+00 1.864114399597988836e+01
-8.271057526159115270e+00 -2.729057024817278077e+00 1.737698521232336901e+01
-1.784271704219809962e+00 -1.301306915324892843e+00 1.899472846339098453e+01
-8.202382376397398644e+00 -2.915761072517076613e+00 1.736779035997593468e+01
-4.176538257932447706e+00 -3.649684210048474320e+00 1.907722712913986385e+01
-5.072160783324410005e+00 -3.915036449883444014e+00 1.740319231328125937e+01
-4.473640568259885875e+00 -2.159329360101332362e+00 1.664466770768400750e+01
-8.341708688227083002e+00 -4.644511845135708139e-01 1.729937640944913824e+01
-8.751931573949298659e-01 -3.031669731964246495e+00 1.581440023307439446e+01
-7.895278988487655525e+00 -2.762528670090718563e+00 1.669086697220739524e+01
-3.829174055091133511e-01 -2.898077112588925530e+00 1.868310140790543983e+01
-3.333931034987400732e-01 -2.139213100952360058e+00 1.534277639260727000e+01
-9.938107159283902092e-01 -4.098490037962855936e+00 1.870464372667579767e+01
-7.761299117813416970e+00 -2.792029515655739758e+00 1.888702721782351546e+01
-1.710037899541499984e-01 -1.760820200296441485e+00 1.539275894242817344e+01
-3.575413038794046816e+00 -3.259768641398645528e+00 1.906246161542834017e+01
-6.429122481011573242e+00 -1.708087646660866765e+00 1.589742729853455216e+01
-7.759081441320532235e+00 -1.384830658739789166e+00 1.876750443741888574e+01
-8.342042501231649254e+00 -1.278080566504414373e+00 1.688088733034661715e+01
-5.149041711501828544e+00 3.501026731928708280e+00 1.796125879068699760e+01
1.722876663551384802e-01 -4.518454072512679831e-01 1.797463932138390419e+01
-4.735972425217053194e-01 -4.174172663797539151e+00 1.702727285111084399e+01
-9.981391276454513184e-01 -4.759546848218249693e+00 1.810936358848186245e+01
1.129680468750438038e-01 -2.857060523461925072e+00 1.671178130705493459e+01
-5.258828974474251128e-01 -2.709458311200123148e+00 1.555153240560294137e+01
-1.315633096608407104e+00 2.007327063873469264e+00 1.756149731301184147e+01
-4.128849852390334974e+00 1.294374372173138887e+00 1.336445875741739542e+01
-6.625993430813055696e+00 -4.347489365662397631e+00 1.839372281936798714e+01
-7.526899109864544357e+00 -2.618470678875154611e+00 1.635910975716486604e+01
-4.239702730052082202e+00 -4.363850031692865450e+00 1.752112836196582890e+01
-1.219289555652861123e+00 8.992657962599578392e-01 1.565876786923901420e+01
-7.593387749350876348e+00 2.876963196348867324e-01 1.495815374918134921e+01
-6.606800751463497434e+00 -2.350557710079147711e+00 1.650838810794077460e+01
-8.117015037415312051e+00 6.553729810530154465e-01 1.713897629483214047e+01
-7.258252726230349339e+00 1.622429953434702421e+00 1.804733341578780426e+01
-4.365872785479403717e+00 -8.482242496389807984e-01 1.914689570025139176e+01
-2.870291297484103055e+00 -4.716315370057978740e+00 1.802384695306054851e+01
-2.243049722912671573e+00 2.586063218928765117e+00 1.691413824264494536e+01
-1.709660102367984713e+00 -4.771782826730461280e-02 1.365631912356325728e+01
-6.203950070052749455e-01 -6.730896816291814799e-01 1.453908403336247090e+01
-2.614606260219602962e-01 8.689005894735758462e-01 1.774601467751418937e+01
-6.501628990553285803e+00 -9.966910122540915129e-01 1.518404037938178419e+01
-1.438984284959315518e+00 -3.083716835504043630e+00 1.596471946171831746e+01
-7.158319898455632213e+00 -1.761576518565355798e+00 1.907377741220717837e+01
-4.909013588050791022e+00 -2.505612863415997982e-01 1.436993754246606869e+01
-6.472173691773550175e+00 -2.251814802192662945e+00 1.649626870047637084e+01
-8.064631436853488822e+00 7.087357503335213194e-01 1.733289767872036435e+01
-4.009290570746023796e+00 -4.756188266327813885e+00 1.831923915322480667e+01
-2.211297614680959533e+00 1.569820238756221897e+00 1.496936334689878123e+01
-6.447212651538242412e+00 -2.499845217111423601e+00 1.672484166942127359e+01
-1.083440076081161330e-01 1.522843686843748934e-01 1.826157163686587381e+01
5.177285746081095041e-02 -2.407359696520611436e+00 1.613646217221148760e+01
-6.388906867264866563e+00 9.115189866049137057e-01 1.418775358273002496e+01
-8.177551450693947288e+00 -2.679639856527654906e+00 1.695775150420178790e+01
-2.099017436545062232e+00 9.382794899909205899e-01 1.395100135571135525e+01
-5.927029290232333381e+00 1.566988825493147885e+00 1.876752281628107255e+01
-3.553923093831244939e-01 -3.499698563672307472e+00 1.849025985923936588e+01
-6.247178107084859988e+00 -2.116644156024046097e+00 1.650331804759691323e+01
-6.058721965663812270e+00 -2.188724370742932912e+00 1.661966009711374426e+01
-3.620926256003514698e+00 2.461116773491029086e+00 1.563815145575716770e+01
-6.489811350701559789e+00 4.747548872209573778e-01 1.391379972424551426e+01
-8.360923486590623455e+00 -3.465066676882694874e-01 1.708674987856640115e+01
-3.199496917417715469e+00 2.858809382130263366e+00 1.878026046594965948e+01
-2.198153646565293329e+00 -4.790767811600614046e+00 1.844058781543262171e+01
-7.478641473758816716e+00 -2.396672064588237561e+00 1.604745146198708028e+01
-1.139414957465050948e+00 -2.558791284370476760e+00 1.893536689583172716e+01
9.256944541853950881e-02 -3.169499861739826230e+00 1.663805001320411492e+01
-8.247688760638387961e+00 -2.958466442959845288e+00 1.796231577686557301e+01
-8.075688562068627618e+00 -2.256323645158992974e+00 1.638233117986556664e+01
-1.650466086254871012e+00 -1.408356186196509929e+00 1.487695660632719097e+01
-8.164568116504252515e+00 -2.849694764997294349e+00 1.715109608382679340e+01
-6.007294351879506777e+00 -4.029434168984030507e+00 1.905144844487926292e+01
-7.900339210989379524e+00 -2.133319562892149190e-01 1.548933068419883341e+01
-7.659806001023893529e+00 -1.738145193635803887e-01 1.507082394324147145e+01
-7.950349680939061692e-01 -3.465336156765729925e+00 1.880888330774521222e+01
-1.841789068413231423e+00 1.506969771754574472e+00 1.555223617502220179e+01
-8.229326831262564923e+00 -2.700914608994257726e+00 1.715273363652023164e+01
-6.332154616406008074e+00 -1.815885996947955938e+00 1.917725293326818559e+01
-4.704785504877030178e+00 -4.532890554892957669e-01 1.469568362871132905e+01
-2.354774617819578308e-01 -4.220177004572978952e+00 1.740312903110142173e+01
-8.388540014011681478e+00 -5.187257669123852555e-01 1.707935219872119603e+01
-6.274857244219386843e+00 1.270518797756554408e+00 1.469191474534185460e+01
-8.061675694858523755e+00 -2.684435103583984628e+00 1.676482429553088593e+01
-3.925716358781023541e+00 -6.704769427844891050e-01 1.913908911791486389e+01
-5.758544974506865088e+00 3.070913675408749377e+00 1.755902836911928944e+01
-1.929146013323231212e+00 -8.391144153787841176e-02 1.895009473023772273e+01
-8.056601902969291018e+00 -2.929210707078060416e+00 1.709098704711769301e+01
-5.724634508545779710e+00 1.664963105189822823e-01 1.397125234464130017e+01
-7.135179530187901520e+00 2.060359831924954754e+00 1.736493721651859090e+01
-5.424389795007393822e-01 -8.484023645372016365e-01 1.465080501938951585e+01
-6.783001092829715972e+00 1.219506586014295513e+00 1.857931971944655913e+01
-6.543923108215021767e-01 -8.824213727382519412e-01 1.454734819352020736e+01
1.823360035389274270e-01 -2.747279253901586671e-01 1.795287399509325610e+01
-2.771091494027555946e+00 -2.565453222121026888e-01 1.898324644725494181e+01
-1.220281177063644584e-01 7.810853831738338027e-01 1.806019615757305985e+01
-2.745035012767094607e+00 -5.101895399659234220e-01 1.898034938921799863e+01
-4.854253941435375808e+00 1.656118709850514792e+00 1.425786019668787930e+01
-7.205576151808004148e-01 -1.057251979915239115e+00 1.459201705453128994e+01
-6.632184264219818104e+00 -3.904853222001383628e+00 1.769332959020789531e+01
-8.279679173095136235e+00 -2.338483990776384580e+00 1.817488368493378914e+01
-8.344426287961425714e+00 -1.640576662847358369e+00 1.699949183093872307e+01
-7.087092784017473335e+00 1.216997294879723190e+00 1.566532694266421544e+01
-6.864972021921765588e+00 -2.509620485797466216e+00 1.654083698676310377e+01
-7.937396576242093715e+00 6.828493778627888755e-01 1.767410450768795016e+01
-4.864921723360718708e+00 -1.018841031880611536e-01 1.406636695005066429e+01
-6.695204306370104774e+00 -2.444225474270488974e+00 1.656138451519959176e+01
-4.935984691635621147e+00 1.980353013102098991e+00 1.884584247296761816e+01
-1.327069949646879188e+00 -1.684262773071540709e+00 1.492458009347893011e+01
-6.677369670978160698e+00 -2.540068073650627589e+00 1.667889925172222121e+01
-3.100876380503461149e+00 -4.860815531317894678e-01 1.428869425660840875e+01
-6.642503665302690763e+00 -2.635167920422322396e+00 1.677799272977162559e+01
-2.725109599437654850e+00 -2.089031624524623432e+00 1.623415337898779143e+01
-7.949648513654164361e+00 -2.575343749556524564e+00 1.874254928255075470e+01
-6.871530764714400163e+00 -2.673964308754718466e+00 1.674158462709881690e+01
-7.764838415911881953e+00 -1.577500028203181692e+00 1.879840005133450376e+01
2.245372215544334527e-01 -1.145086879529620960e+00 1.597103600709341009e+01
-2.278828694899676321e+00 -2.980437228020028861e+00 1.657431248337154273e+01
-7.865660013985468879e+00 -2.800749663791425093e+00 1.881311067701103923e+01
-3.610425002721472598e+00 -3.119548035764380778e+00 1.908540793906928457e+01
-2.068852903473747062e+00 -4.377554591985480137e+00 1.731206345592030971e+01
-2.655466343935487750e+00 -4.551942232472632632e+00 1.767665750386511547e+01
-5.161385885644813598e+00 -2.422265092149999965e+00 1.917091661046692508e+01
-8.179999558279638094e-03 -1.491596090262580665e+00 1.548736659981852171e+01
-1.492347983985976567e-01 -7.649106670793446305e-01 1.542466320864937757e+01
-8.070923287903671195e+00 -2.794391142455699750e+00 1.858434592374899808e+01
-9.104055471038279279e-01 5.910227990495623418e-01 1.573456898114952907e+01
-3.948254922067074624e+00 2.644979480180927878e-01 1.296068290315764671e+01
-2.050745664004713031e+00 9.825000306196733924e-01 1.413199066914464197e+01
-5.834553061695640253e+00 -4.161509274190826169e+00 1.762252941644372584e+01
-5.457821128413847589e+00 -2.118796202186238986e+00 1.663505186622151655e+01
-8.015397282799206380e+00 9.275299394159812749e-01 1.712211291273202107e+01
-7.777888312566629825e-01 -4.483203098870411907e+00 1.843906653129722883e+01
-8.323673380078465911e+00 -1.456646881634797275e+00 1.679642011599565166e+01
-8.053665508214075786e+00 -2.984343150640892617e+00 1.855363148450985022e+01
-5.044970001788811942e+00 -4.406293410142765765e+00 1.776043213844905466e+01
-7.367582960018141947e-01 -3.115380621098369218e-01 1.887343506575701468e+01
2.193782039014169349e-01 -1.634311279409200290e+00 1.714925392620832412e+01
-3.468324023982825466e+00 -2.948999690556735054e+00 1.676910025650998648e+01
-7.963784082343266846e+00 -2.770894338616697539e+00 1.872272339600647229e+01
-7.248431388938572084e+00 -3.108288174789811897e+00 1.713818334897490558e+01
-6.120289685848927519e+00 2.197604784573148784e+00 1.852866058873201638e+01
-8.251747373554412235e+00 -2.949754802993130198e+00 1.772515248830115553e+01
-7.574053745828734918e+00 1.455374625989065418e+00 1.770992797479515701e+01
-4.157161132024702610e+00 1.166262496959428629e+00 1.304257425536585657e+01
-7.520628575509070046e+00 2.030846700105110869e-01 1.485017899781762907e+01
-1.873577179942662152e+00 -2.719386696568449224e+00 1.618567087254749026e+01
-9.948881261753819150e-01 -1.876955483665642355e+00 1.898571154186413423e+01
-8.207159593298294809e+00 -3.144664869011196018e+00 1.793025354555421558e+01
-4.041615710048214183e-01 -3.674779864895657333e+00 1.847817758281218659e+01
-8.302166133855882535e+00 -6.850063106377941580e-01 1.751456839122353415e+01
-6.412489415033139295e+00 -4.425124496277032193e+00 1.838593370854518128e+01
-7.867779941920472808e+00 -2.913934688100079384e+00 1.692464613549519470e+01
-2.198886015010064199e+00 -3.249718871176104251e+00 1.883085255082797715e+01
2.509456742623823455e-01 -1.408478445518424937e+00 1.628688825940992047e+01
-8.461363166381636880e-01 -4.281399936983162569e+00 1.860286445345317929e+01
-6.619600714936884955e+00 -4.021880873557122982e+00 1.884839544604221828e+01
-1.508934505462991016e+00 -1.941523406070037927e+00 1.514794126260257201e+01
-3.340698169622903890e+00 -3.465037961100359887e+00 1.900392369932870906e+01
-8.339801527706683260e+00 -1.073352248648770102e+00 1.728282693906954393e+01
-7.607082676801603327e+00 1.518830002743780883e+00 1.693073675662712674e+01
-4.811543135857366593e+00 -2.462571026123747231e+00 1.916100797539885292e+01
-4.265045267815732899e+00 -4.176868951387743500e+00 1.732987400201010075e+01
-3.400812141491548202e-01 -4.346653958459002709e+00 1.738412398048978957e+01
-4.023181759621238029e+00 3.559053101590076373e+00 1.763076499924761009e+01
-7.051211499944383121e+00 -2.692918497881324313e+00 1.669619435992230194e+01
-8.046323582755883663e+00 -3.078332175379907554e+00 1.732821922628252054e+01
-5.857128896402581830e+00 -6.276987654752304024e-01 1.516483711219014907e+01
-6.689759781088179480e+00 -1.779241201693976926e+00 1.572905143972364073e+01
-1.072553625161500879e-01 -1.034787847226011026e+00 1.842616765399876044e+01
-5.741399921781281890e+00 6.879146891917902185e-01 1.323821592324621577e+01
-7.650552190441491263e+00 -2.935283616498400860e+00 1.692145689701843025e+01
-3.556426558105617364e+00 -2.736364995481032625e-01 1.909645592386866753e+01
-7.198907047630564549e+00 -2.749818716143971109e+00 1.671879708870837078e+01
-1.281569562051352307e-01 -2.761387108014900171e+00 1.588533381822215063e+01
-7.753074953938067893e+00 2.194695943094445434e-01 1.522276002273797246e+01
-2.552095136760320626e-01 -3.460454903059236642e+00 1.825897042751193311e+01
-5.697149220357964339e+00 -2.845746100600473616e-01 1.910306939150767391e+01
-4.301801536898212319e+00 3.150714542496676485e-01 1.300000854803479911e+01
-8.064342419829936048e+00 -2.482273467747750040e+00 1.654076845159324449e+01
-3.666356515511325576e+00 4.092273319491416927e+00 1.858745813339755415e+01
-1.602128649938526328e+00 1.080616278897026522e-01 1.353054457976945457e+01
-5.353508590770029940e+00 -3.471123325705493201e+00 1.912308680971596431e+01
-8.354972180791563119e+00 -2.123935747424377851e+00 1.758859609716549244e+01
-1.031800522042701784e+00 -4.736394259471156332e+00 1.797931843755023351e+01
-2.724361477314760194e+00 2.963421449411922204e+00 1.872837805925983190e+01
-5.440479457061254465e+00 -1.559371926829432375e+00 1.627332408523734841e+01
-6.866788836556050768e+00 2.377929706246255215e+00 1.760860269696095770e+01
-4.533585441844684816e+00 -2.933144884125231111e-01 1.426684012972671667e+01
-3.145575502111749078e+00 -2.409980289564026101e+00 1.650778644492291392e+01
-6.214824136726905479e+00 -4.397464827288908751e+00 1.874752644745957042e+01
-8.257750274799812829e+00 -6.987309752210546510e-02 1.728820071694210725e+01
-7.848524154921490137e+00 -2.585948823911518701e+00 1.637603954512059090e+01
-1.592005620647168662e+00 -4.631523599501606192e+00 1.857137975753057191e+01
3.252988868814776779e-02 -7.027631420248893201e-01 1.593378278616030741e+01
-5.782845591081121839e+00 8.915088557834892624e-01 1.339792312015516274e+01
-7.387869695388719293e+00 1.471763951921136737e+00 1.798967751456198982e+01
-4.430909987853234311e-01 -8.887113251468236053e-01 1.477617059723089454e+01
-1.962326901689369185e+00 -3.071555647610549222e+00 1.884346946613244000e+01
-1.951964613890609712e+00 1.247473061336099365e+00 1.483698545635395760e+01
-6.126579056483155483e+00 -4.505030767465641794e+00 1.855963495818164688e+01
-1.855552163600210136e+00 2.333217067787355603e+00 1.709834152919181349e+01
-8.013335216970361330e+00 -8.399447130292677643e-01 1.585675181085855456e+01
-7.474571379907049007e+00 -3.075662448990711617e+00 1.711747932790490978e+01
-3.075205848336895365e+00 -1.601903254595108184e+00 1.596118417662601274e+01
-7.804077124900819840e+00 -7.753626186146548305e-01 1.551081317498939427e+01
-5.794958871565514258e+00 -2.629076914452566527e+00 1.920124037242022297e+01
-7.695463236248967220e+00 -2.458465159943218126e+00 1.615301971681467563e+01
-6.077522473549131776e-01 6.088075571058098046e-01 1.648447168846652033e+01
-4.039597340909097056e+00 -4.383676407634884420e+00 1.751470916316443294e+01
-3.042916806359997617e-01 8.575590654934481805e-01 1.760204199713676587e+01
-1.862087967533274213e+00 -4.769826548934054777e+00 1.807462971328550339e+01
-5.739331318738692289e+00 2.071642301533802855e-01 1.905256856382030151e+01
-4.283124178751606337e+00 1.930465807853948501e+00 1.469092325953609190e+01
-7.462320098480182295e+00 -2.490436229755874642e+00 1.617579289848738000e+01
-5.462045164003089814e-01 -2.122102920493829536e+00 1.519184040748124431e+01
-1.136528100482683046e+00 -6.401338824047835274e-01 1.422159790268966617e+01
-7.990994426103812387e+00 -6.761796930977403974e-02 1.571034140310672456e+01
-2.314764646708702855e+00 3.024607914041821388e+00 1.762757606899240415e+01
1.523248189715049605e-01 -1.770546564387005972e+00 1.591103186886379461e+01
-6.055195494906794096e+00 -3.755340430276415731e+00 1.743786926894682665e+01
-7.871830063117243981e+00 -2.273560017621023555e+00 1.613678472852573975e+01
-6.937254062365210139e-01 -6.603521441545230353e-01 1.443694889274950555e+01
-7.925094424264036874e+00 8.995496720780452593e-01 1.755201861034824162e+01
7.114472464405108276e-02 -3.236673247777402729e+00 1.741143910586483656e+01
-6.069071149998229942e+00 -2.069082724510630911e+00 1.653228310711850213e+01
-9.016315813343369623e-01 -1.083519220849633369e+00 1.455367172100156381e+01
-8.357910207948673786e+00 -1.485011560969083932e+00 1.722489118621194137e+01
-6.341564488208959460e+00 -3.022223056213606540e+00 1.919532794385169439e+01
-7.599232337364894008e+00 -5.589487863684486912e-01 1.867514938049545492e+01
-8.135854227429296870e+00 -2.606038387705426729e+00 1.850137182781089962e+01
-3.682038335371920823e+00 1.452697466976133223e+00 1.377571022883413576e+01
-4.122512625078873505e+00 -4.776806103422534200e+00 1.865271126369118093e+01
-4.418627583743198528e+00 2.566169620593931278e+00 1.585760710204505131e+01
-1.565766701627923085e+00 9.473673560848938635e-01 1.887447176626672274e+01
-7.984787922514888336e+00 -2.955066856433710143e+00 1.867506729150682077e+01
-8.073564276577201326e+00 -3.181910715461328643e+00 1.750337650235989173e+01
-4.029560753759003688e+00 2.728176414583697529e+00 1.881364620642722940e+01
-8.165947132464845382e+00 -3.098194959725294240e+00 1.755148646362603415e+01
-8.189218508773496552e+00 -3.142163773101608548e+00 1.774733310743011572e+01
