-6.838122071476339769e+00 2.510921334610571876e+00 1.586878042132122957e+01
-7.464456429016212979e-01 -3.117554689747804808e+00 1.414148154608128394e+01
-7.441649722438333114e+00 1.832772044924888988e+00 1.508707786799270067e+01
-2.504700694197583566e+00 -5.130979584006609695e-01 1.100883444698473923e+01
-6.825045014853956538e-01 3.389697111249774242e-01 1.620735192932369628e+01
-2.894349031496491698e+00 -3.174251618917601214e-01 1.759771905914582746e+01
-3.159981440555485133e+00 -1.296864912574547501e+00 1.274667292054472156e+01
-2.932367282560218502e+00 3.662946023650927696e+00 1.242661078045304279e+01
-1.225595064678622448e+00 1.004724552710979379e+00 1.297726887264689211e+01
3.255267306367448654e-02 -1.465155607195319787e+00 1.426872375485121935e+01
-5.739040988246468800e+00 -2.835401042340945033e+00 1.735412658317612866e+01
-1.944904787395768109e-01 -2.530979367572691263e+00 1.718641140844049531e+01
-3.368775652353733996e+00 -3.091548446780823856e+00 1.625504126575971853e+01
-7.317664363706080977e+00 -8.774674372324059446e-02 1.784998986844204794e+01
-5.296807126202939031e+00 4.588770501905878874e+00 1.281578109083443096e+01
-2.242384009588834548e+00 2.026922027206000454e+00 1.225674638106471903e+01
-5.365053002267073268e+00 6.523499948183899555e-01 9.330916044313436686e+00
-3.378109203484806589e+00 -3.279612179386282467e+00 1.645452453366622692e+01
-4.214751172318518257e+00 2.282818793048651429e+00 1.081547113132309690e+01
-2.156776670458081746e+00 3.725700065491757584e+00 1.464047197314638638e+01
-2.515610284690354526e+00 -2.524534008245499006e+00 1.822734729582054669e+01
-6.512221164140431284e+00 2.336425705556495203e+00 1.652880199794228488e+01
-3.468268705807468599e+00 1.096270658558284872e-01 1.760642841636361666e+01
-7.915299365181676094e+00 -3.915733806205110024e-01 1.503217100897656522e+01
-7.831140451599482688e+00 -4.054995211678473210e-01 1.463771656646757791e+01
-7.842532230684106764e+00 -6.149626262029412871e-01 1.486922231241977599e+01
-1.245021253544035700e+00 3.270526091247123457e+00 1.409197093589051164e+01
-7.865267470692954177e+00 -4.564891695848655728e-01 1.480469815689339086e+01
-1.908297780692084444e+00 3.834023914765191776e+00 1.431127527581756809e+01
-2.909043493773036726e+00 -1.945306301658463077e+00 1.452393535122149260e+01
-1.978097812873437888e+00 3.946699869501132607e+00 1.423937009781812080e+01
-7.040515087903877145e+00 1.319037840917707705e+00 1.707512888589789313e+01
-1.600972255605289885e+00 -3.421044676816277441e+00 1.444698813511884694e+01
-9.689716544020554601e-01 2.694329363228937346e+00 1.457102727571567513e+01
-7.336528109914763007e+00 1.978060407620856331e+00 1.530140695888818314e+01
-6.297903693904075340e+00 5.580226336971543244e-01 1.809387349138810563e+01
-2.306855738196532002e+00 -2.077267497181188638e+00 1.301635670694851044e+01
-2.332747036698775922e+00 -2.557027740193011045e+00 1.411304745946408090e+01
-6.296986637938494225e-01 -4.360108166640400462e+00 1.574339129355403699e+01
-3.994706316017444525e+00 3.702610295726027623e+00 1.181740329856384264e+01
-4.447174484722832943e+00 5.316780192971516383e-01 9.539108589857580256e+00
-1.414712261705930674e+00 -3.900889817195410281e+00 1.523013874694730063e+01
-5.320821104118834910e+00 -3.117357399453159594e+00 1.755404933041623039e+01
-2.213272055318331155e+00 1.849031519256270073e+00 1.220302550971930700e+01
-1.759772339267949848e+00 -6.131509497553231380e-01 1.723247912351292044e+01
-9.170244869962711487e-01 -2.142104947569288154e+00 1.751305586290317606e+01
-7.387760723828908027e+00 -1.650725600958661499e+00 1.522197383947427696e+01
-1.461914112732015880e+00 -3.247794484476282939e+00 1.407038745020994597e+01
-7.186558814569480091e+00 7.982896261283398687e-01 1.733712846648402817e+01
-4.094746912512334802e+00 -2.140568628263652240e+00 1.874186080464022908e+01
-5.835379883951270941e+00 -2.542630084496587672e-01 1.228037986075951338e+01
-2.683727082959491028e+00 -5.200997384257264322e-01 1.761782582385946583e+01
-3.169715743478549896e+00 2.115560705994819823e+00 1.637545642836526483e+01
-1.434382321251823189e+00 -3.392649065750847015e+00 1.425347180651020906e+01
-1.759032792774302578e+00 -2.970112019900921219e+00 1.388229403845331333e+01
-1.722534312548983593e+00 -3.143544934710504002e+00 1.410049272252376440e+01
-5.634022903303602448e+00 -6.061588243511919494e-01 1.301738021743661378e+01
-5.676040289943186323e+00 9.069869596080739615e-01 1.785321536949133403e+01
-5.691382050437038487e+00 -1.963493974531903330e+00 1.607223071688287419e+01
-3.935363097875747229e+00 -2.654779152804851883e+00 1.612858364376835496e+01
-6.452611222043174166e+00 1.509935409051204491e+00 1.107833903525863306e+01
-3.944717054973616133e+00 -2.865590221071721011e+00 1.636203244975104454e+01
-2.834973042902430684e+00 -1.233307652132383581e+00 1.803232968392503111e+01
-4.711846045095017033e+00 -2.928817186779249848e+00 1.871326928236670639e+01
-3.732323262916968254e+00 1.966249604977581944e+00 1.669365521080474579e+01
-3.135757128565459073e+00 3.341667085555333649e+00 1.547102746977450138e+01
2.014166332437172802e-02 -2.136961094665450922e+00 1.664163527307263379e+01
-5.176784013588410005e+00 4.759747287352849909e+00 1.434514206534554503e+01
-4.586078738277286071e+00 -1.257508016012830909e+00 1.473888053435364398e+01
-4.383160174829129119e+00 -1.345492754245183997e+00 1.480642144539042349e+01
-1.213208948669188825e-01 -1.363178380466932182e+00 1.337587983430188032e+01
-1.461884968627430892e+00 -3.757991325012453032e+00 1.495484833357767585e+01
-9.513720338278868205e-01 -1.722291803074565975e-02 1.285070309378045650e+01
-7.719538512783135076e+00 -1.552609710938338550e+00 1.551404596014450377e+01
-5.836466104530686039e+00 -9.239593993451091780e-01 1.380685253413328084e+01
-5.685567676737671050e+00 -9.056611121288205002e-01 1.384545443884500671e+01
-3.746237674576006871e+00 4.939190481697164792e+00 1.415759936180065992e+01
-3.548523886329560284e+00 4.939738172779875924e+00 1.409196526067654887e+01
-1.366632565602309723e+00 2.747721246198227885e+00 1.495800392892560282e+01
-1.339429279798985295e+00 2.484868334022780179e+00 1.513578616918584530e+01
-6.128086203290751044e+00 -2.826196875693377741e+00 1.756793466959626571e+01
-1.123888673081462120e+00 2.269254853803589267e+00 1.514301239231065566e+01
-6.944563444036406352e+00 -2.531694964403570669e+00 1.755369671694615263e+01
-4.251429480106831416e-01 1.168607999075888859e+00 1.416132774325554422e+01
-6.525905556071073477e+00 -2.618204697195159802e+00 1.744118961245561295e+01
-6.006473113583320256e+00 3.257685300522351390e+00 1.234716833685218162e+01
-9.645185078176136129e-01 -1.348314134432511580e+00 1.723431922827462515e+01
-6.881206239594332530e+00 -2.687176487121150537e+00 1.872656061801983540e+01
-5.556371646914021412e+00 3.852989705705726298e+00 1.235381043124302280e+01
-5.337837296469162496e+00 1.229532723624710222e+00 1.758178309554298480e+01
-6.652433793078506241e+00 1.694378907480961649e+00 1.169677475576589742e+01
-7.906238024597968206e+00 -8.273475988242744439e-01 1.586327856231675426e+01
-2.123664958760301591e+00 4.011336556351576377e+00 1.326665265099824254e+01
-6.582174183931190470e+00 -1.475616073954053586e+00 1.472615351986552312e+01
-2.073521711746595830e+00 3.491220271339585679e-01 1.686009214409443402e+01
-4.375385172223369423e+00 8.150409221648677871e-01 1.753181775701490963e+01
-3.957533679505783386e+00 8.372581619011481013e-01 1.737418506162658005e+01
-9.501789925010719617e-01 1.887573525183937173e+00 1.532419315378250602e+01
-9.560773011545249389e-01 1.466409303033306744e+00 1.570296443286307309e+01
-6.193251393428951701e+00 -2.346028267302156411e+00 1.673694201172324725e+01
-3.282693446830585504e+00 -3.595455291144981746e+00 1.669864193877105762e+01
-7.859363278745908232e+00 5.491436918613497031e-01 1.565401931804366953e+01
-3.977945924901924446e+00 -2.542447581496895204e+00 1.603542090552654642e+01
-1.938009994036356209e+00 -3.378153364191008645e+00 1.790640069066342832e+01
-4.435783861217145407e+00 -1.089007566363580981e+00 1.863861926248300094e+01
-3.875360078490115434e+00 -1.733285362997044610e+00 1.513705154560150490e+01
-4.139538300701977036e+00 -1.808119222014794580e+00 1.539734036287620356e+01
-3.083213831409755912e+00 2.980631788569551244e+00 1.191858700890785272e+01
-4.202902895784291104e+00 -1.678458653371474263e+00 1.528477931800077627e+01
-4.890948292907978612e+00 -2.138682136766492548e+00 1.894642035665612312e+01
-7.179645011640285901e+00 2.406988468813726190e+00 1.452086750188194131e+01
-4.144522813541611228e+00 5.590191239402356516e+00 1.312283397131294649e+01
-7.690794482041422242e+00 -2.046080598372978177e+00 1.722171861351226241e+01
-5.249312270875766018e+00 -2.971313398270769568e-02 1.125851472084291416e+01
-6.936332357888280953e+00 -3.533051865975175843e-02 1.231000112098368859e+01
-1.028948209061653296e+00 -3.509250832539632547e+00 1.433650042260789448e+01
-7.658392791768969587e+00 -2.020206005684700989e-01 1.402263184499146931e+01
-2.385299822550725590e+00 -1.898489967432906322e+00 1.278178523005351863e+01
-5.136527849892235764e+00 -5.397727455136955843e-01 1.858715916666235657e+01
-3.909999911740121625e+00 -6.403201662062454336e-01 1.823878611376408188e+01
-3.916100877993857754e+00 -5.059230725491925540e-01 1.817184070267913043e+01
-5.993244725203542567e-01 -1.596061870081115108e+00 1.717226355847428110e+01
-5.357567936378428541e+00 3.834338286448805366e+00 1.541936359957495384e+01
-5.101434707982056338e+00 3.731365210066786897e+00 1.554354096399752549e+01
-7.557255506449651605e+00 -4.044333807024159122e-01 1.386517157475476480e+01
-5.377181766669806295e-01 -2.073740365942827069e+00 1.359658766720367495e+01
-6.978904696672955765e+00 1.749965564612061319e+00 1.671594366275725818e+01
-6.877711334715794322e+00 1.867891456373130366e+00 1.670797584126566093e+01
-9.957011783777542924e-01 -4.249883226816513648e+00 1.559977168025458028e+01
-5.690233122300487167e+00 -1.737893764144140540e+00 1.915710778255226288e+01
-5.862862682604323084e+00 1.342367425410107451e+00 1.024414943033235303e+01
-6.771264738256148163e+00 -2.080529772391214838e+00 1.905331919852377709e+01
-1.003736540637537367e+00 -2.222611625657042733e+00 1.757405046243495761e+01
-2.754178543485560571e+00 -2.652665632428181652e+00 1.531046720694491725e+01
-3.115735853811510747e+00 -3.373241625372052632e-01 1.770785177594899906e+01
-2.976687656717936115e+00 -2.641644891227112879e+00 1.550526368928487742e+01
-2.037513058285980172e-01 -2.251274870209704737e+00 1.424135717699564552e+01
-5.590510578381562290e-01 -1.460585739152337581e+00 1.317576266071376878e+01
-1.543367094038632814e+00 2.249035547801311596e-01 1.226512959993451446e+01
-7.314747737192242028e+00 1.224745955125335239e+00 1.295373072415272375e+01
-1.149220728068281794e+00 -1.749280811026139304e+00 1.747212819394291117e+01
-4.185877064580049378e+00 3.503942463476122260e+00 1.164942002294016632e+01
-3.792562539234655805e+00 3.283411856965766873e+00 1.161660603725801977e+01
-2.049954521781521599e+00 1.802416550117464711e+00 1.607812398557318900e+01
-1.735376721774861464e+00 1.105759368526478825e+00 1.637432369513929942e+01
-3.082129791068324853e-01 1.120765508230897156e+00 1.512761526759136999e+01
-4.313452976547925033e+00 5.116743615015079349e+00 1.404718598069773705e+01
-4.137734984190664989e+00 -1.578481618299177658e+00 1.867731444329883672e+01
-7.793391256143424428e+00 1.391569050806630292e-01 1.630218416980913432e+01
-7.633552617854659772e+00 1.322307460334701257e-02 1.385818327076525591e+01
-7.555893380982364960e+00 -1.345416237585235208e-01 1.371110651214140930e+01
-9.128282398892335614e-01 2.362276673322339260e+00 1.486484580085295093e+01
-3.509963920611162358e+00 3.735369061155898507e+00 1.529227988398141846e+01
-1.538637190281707312e+00 1.344066926992279809e+00 1.614545312087906481e+01
-1.782706155173616303e+00 1.267533250100025155e+00 1.630517719037287705e+01
-6.236206328020436729e+00 3.092936407019399425e+00 1.252398834147051687e+01
-1.182126973750593057e+00 -4.652870823011149071e+00 1.698621773548739000e+01
5.973560763632346227e-02 -1.884479173449862710e+00 1.566958043275139900e+01
-2.138090952118265609e+00 -2.326817387405586857e+00 1.804867429514056809e+01
-1.423833643324175391e+00 -4.616653630807689090e+00 1.698749888643594730e+01
-4.532456084863158985e+00 -2.701525493616379059e+00 1.873833473205439404e+01
-3.080921624244422397e+00 -1.454454699141762841e+00 1.335925857257305083e+01
-2.396122201062885981e+00 2.649616669018642234e+00 1.240444304549309962e+01
-2.973658718936570633e+00 -1.580078492273254032e+00 1.352643215753699124e+01
1.452940496386474489e-01 -2.756377069825690196e+00 1.617177315371614910e+01
1.416105327597637631e-01 -2.718383040474531054e+00 1.600145962504224073e+01
-7.371025963248502677e+00 6.608959933228670813e-01 1.268286298219943475e+01
-5.826257426712556864e+00 -2.372294412204641212e+00 1.662810850882074831e+01
-7.669944013002394811e+00 1.305840566869119090e+00 1.540102765412554575e+01
-9.593481867873052682e-01 -3.529934638330348484e+00 1.768972336147351498e+01
-7.596236254882906991e+00 -1.772427464926758844e+00 1.560793875880241544e+01
-6.178282518992796568e+00 -2.178768946043693866e+00 1.641634235195867930e+01
-3.117518109672674509e+00 2.514313954810128315e+00 1.604663303541111574e+01
-4.980280245122964189e+00 -4.612974202826827796e-01 1.267044068439414062e+01
-4.610742332356185358e+00 3.827243009751270186e+00 1.179220403482577595e+01
-3.243476570135138459e+00 1.274649753338263247e+00 1.084296717680632227e+01
-2.616979238722898060e+00 -2.724691009112818474e+00 1.522618404276343185e+01
-2.549233165930999245e+00 2.055436417357160650e+00 1.195622358295729626e+01
-7.364689441439313811e+00 -8.331564915731484167e-01 1.830656381544840272e+01
-6.939929306156612299e+00 1.448477097257819146e+00 1.214394012411359469e+01
-7.248637052648598811e+00 -7.231733330519343195e-01 1.837615052613678657e+01
-7.237724023602403634e+00 -2.074243148235660250e+00 1.860165382123487277e+01
-4.086414509512707127e+00 -2.525440662263289227e+00 1.867134732965996946e+01
-3.991894967705728270e+00 -3.785680061215886294e+00 1.750260972210277899e+01
-1.393760713429225362e+00 -2.934543253319369605e+00 1.371895778336868332e+01
-7.640424638847218120e+00 -1.872579204709499123e+00 1.801367962584022209e+01
-2.600195304671134799e+00 8.596996384180493056e-01 1.133086539954080152e+01
-4.632372074503258830e+00 2.270794738237069677e+00 1.070332134664129242e+01
-7.576101276664950035e+00 -2.086776279656858524e+00 1.800398200405402704e+01
-7.915563986446345623e+00 -3.906171483055849714e-01 1.526042052144873296e+01
-2.844352403182393019e-02 -3.281775837347584268e+00 1.520886572464643294e+01
-4.281841976302131592e+00 -3.454707656172157026e+00 1.718857800619441534e+01
-2.518201411401412848e+00 -3.203569334209747765e+00 1.572842874277722913e+01
-1.790544583534162904e+00 -1.245081088230321598e+00 1.200719932021078407e+01
-6.875190713450846092e-01 1.322274094688946855e+00 1.559262250069584965e+01
-1.231501630709984640e-01 -1.879817703836348386e+00 1.404435878982593167e+01
-5.876436405174162658e+00 -2.365488941738542295e+00 1.663960378111594096e+01
-5.330427130732180885e+00 3.440692434986754922e+00 1.580827468114474854e+01
-5.087677835089179368e+00 3.439320990312565218e+00 1.581447777392790854e+01
-4.488263727236678768e+00 1.261271560530547176e-01 9.808522283073141779e+00
-3.256967897948556345e+00 -1.256738447012144544e+00 1.314914876811822708e+01
-4.335625441048486906e+00 -2.037504210566052354e-01 1.099928310728428116e+01
-3.687891460376297115e+00 -8.502846569291164780e-01 1.258856586296016289e+01
-2.057158243221548943e+00 -3.750958076615903636e+00 1.600510054252346137e+01
-2.026455634198098821e+00 -1.097351862279209556e+00 1.177058139995510899e+01
-3.123411547429078450e+00 -1.749010837256592454e+00 1.832562251148499755e+01
-3.389408628850211214e-01 -1.682246952912831217e+00 1.337997948019485861e+01
-5.080138656549380016e+00 2.796538281279802973e+00 1.635952071176059164e+01
-7.728944336270128446e+00 -6.115274084339581417e-01 1.444101351164763614e+01
-5.776972104253845330e+00 4.372378976447231835e+00 1.456302345880721205e+01
-5.700820475289914313e+00 4.561054390613604959e+00 1.435110964803073230e+01
-6.070076486751831979e+00 1.634372572824239533e+00 1.739901587261391214e+01
-5.918833386981422251e+00 1.667494049108510401e+00 1.738525770307679963e+01
-6.905773806330268272e+00 -1.078378266214440329e+00 1.391301656755228677e+01
-3.154858708287313185e+00 1.831843355367811288e+00 1.656718850659984454e+01
-6.151433002024738528e+00 -1.055504498228569510e+00 1.398020929357395303e+01
-6.927840334873163197e-01 6.825789830195694297e-01 1.603444542912702886e+01
-2.128485956036471727e+00 1.216076757881518366e+00 1.648843607249783005e+01
-7.350967098184273851e+00 8.530495352263749442e-01 1.269169653857645486e+01
-2.077035234551495524e+00 -1.478522717070488879e+00 1.778308124687403691e+01
-7.675476338055403858e+00 1.331433803434861174e+00 1.441610444344447828e+01
-6.651831330561902789e+00 2.694663709865754875e+00 1.289132934442032408e+01
-9.095734570521504248e-01 -1.113647778565949986e+00 1.256846882187295833e+01
-5.114316310177902114e-01 -1.130527864226477330e+00 1.690296998081736390e+01
-3.913520025158701010e+00 -1.517897131801404953e+00 1.857379897748979758e+01
-1.949448987262019539e+00 2.692993975013005414e+00 1.535163656600289883e+01
-2.856051675483442853e+00 -1.222406687400685144e+00 1.208118465891250892e+01
-4.486972826215312460e-01 -4.430269164837797646e+00 1.701792628776638239e+01
-5.683554439991310048e+00 1.577478890271742651e-01 1.832198429546026475e+01
-2.581240698478630691e+00 -2.364235581997020663e+00 1.824918632942183550e+01
-7.130372894178242049e+00 -2.273396787680614928e+00 1.679573950070131261e+01
-2.165762885578708108e+00 3.340747639460052820e+00 1.501383753333001536e+01
-2.311705435582697810e+00 3.587206155998067469e+00 1.488678613292067965e+01
-7.155991330593943545e+00 -1.091664886245833577e+00 1.405639195862375246e+01
-1.694288319609850380e+00 2.499791950317367673e-02 1.201794319933528854e+01
-9.679007671089125964e-01 -7.097540348803823562e-01 1.691321335715809582e+01
-3.112602666232351378e+00 -3.137718671976304385e+00 1.821195013671906437e+01
-5.662866938214136781e+00 1.664854545827193721e+00 1.029110008172208879e+01
-6.298803950980564892e+00 -1.473028052139833566e+00 1.491215608184274899e+01
-3.527004324025377446e+00 -3.349729890876943728e+00 1.822991811413261942e+01
-4.370700612195081547e+00 -4.605186305985244366e-01 1.204912309261068870e+01
-3.118288733334273477e+00 4.647564929583710480e+00 1.281936754139696077e+01
-4.627305653649338879e+00 -3.647484828155534431e-01 1.197664694142777719e+01
-4.824120390363471955e+00 -2.406967442802260271e-02 1.083531517566386171e+01
-5.502817933905340908e+00 2.713697362502660138e+00 1.647640139449966412e+01
-1.282693191170781732e+00 1.358608575483060577e+00 1.304848577567875267e+01
-2.349343831026854623e+00 -9.539237631699217790e-01 1.769171255895042449e+01
-1.440618486146915345e+00 -2.652252023569333872e+00 1.345487842483897722e+01
-6.903479881764768677e+00 9.461029571767787250e-01 1.751672043451427285e+01
-2.750383299135463311e+00 3.105612703253691764e-01 1.717327589370595931e+01
-6.906838303669042389e+00 3.019834392023080127e+00 1.435670880247726089e+01
-7.433691641153076901e+00 1.335405504281826916e-01 1.743527568968380947e+01
-3.134351189255245806e+00 -2.899750967235335875e+00 1.830257990113537048e+01
-6.456756591588911576e+00 3.745483689255675763e+00 1.454193337712606748e+01
-5.466797949711230231e+00 1.167671591776483497e+00 9.840786653041778465e+00
-6.487471773225832905e+00 3.781000653929580846e+00 1.436710195743159701e+01
-6.729143811093745597e+00 2.805504473197494075e+00 1.316806390709741592e+01
-3.309843768043488232e+00 2.923448339389728812e+00 1.582267770287444009e+01
-3.486813520383876597e+00 2.826250551082238882e+00 1.594850466177772930e+01
-2.680396982530191430e+00 -1.893324694053064583e+00 1.332706357050733814e+01
-2.559724687213424055e+00 6.962324557844350448e-01 1.689946234913294987e+01
-6.553593406923823750e+00 -1.759454838699246793e+00 1.540151455428496874e+01
-1.921890734653100896e+00 5.085732698847558186e-01 1.672245655544787368e+01
-6.284137524090082749e+00 2.716829687941094029e+00 1.626863081247603660e+01
-6.820385397609364020e+00 3.226704249685121262e+00 1.414039434530439010e+01
-6.807316405881037369e+00 3.242406922855937346e+00 1.392537940892262682e+01
-1.691090387945326956e+00 -1.787567542331519599e-01 1.194724722476274437e+01
-5.091977436039693217e+00 -1.595887321124749292e-01 1.837083549732408372e+01
-5.740768639179552935e+00 3.427869580177307807e+00 1.214319376687076257e+01
-5.469693001900497009e+00 -8.024045256092332545e-02 1.841290446246691559e+01
-2.034266234110628346e+00 -2.214716416497827023e+00 1.305866256828606353e+01
-1.900622684824077480e+00 2.921360656312743109e-01 1.681160122860331185e+01
-3.710616845552035858e+00 6.633211851765097311e-02 1.774469048179154029e+01
-1.617962239664202606e+00 2.749610953028598370e+00 1.323973952814931820e+01
-6.610439073101700203e+00 3.643972773033647972e+00 1.413546797290044665e+01
7.065417356561054518e-02 -2.082480729816947207e+00 1.623667601444994446e+01
-1.830432859774331122e+00 1.958114866503647411e+00 1.266366959719860930e+01
-2.107039346287799653e+00 2.939819362945939485e+00 1.527398786265652220e+01
-1.007529629022298590e+00 2.004917647114511092e-01 1.645123042988808848e+01
-6.758910275799378198e+00 -1.677660619620722660e+00 1.514135699204070207e+01
-3.340419913323209755e+00 -2.604502341664827636e+00 1.572784814333816783e+01
-4.318657182740116340e+00 -2.546678751035213573e+00 1.872578531084553433e+01
-2.729293301526932058e+00 3.890010250285599880e-02 1.731106008762858650e+01
-1.842236983655023197e+00 -2.339271952575677549e+00 1.314683241835037464e+01
-7.350809366399900568e+00 1.054212735309920657e+00 1.287402699024097430e+01
-7.823000829106698362e+00 -8.321557666091465855e-01 1.686876246968524029e+01
-6.118552354740359078e+00 -2.936181742268721528e+00 1.775638546568432830e+01
-2.340882675555551184e+00 -4.367888648993294431e+00 1.743616324201517287e+01
-8.248001485104806685e-01 -4.083935979575480602e+00 1.522018498563446443e+01
4.205148451304541179e-02 -1.885679827636801420e+00 1.483565276715255621e+01
-1.531300265905172875e+00 -2.946011149728991807e+00 1.790902348174651237e+01
-4.300215801689578399e+00 -2.137265485717751545e+00 1.879543230567592005e+01
-6.117280786821433836e+00 2.941373517283731864e+00 1.611557208897636073e+01
-6.331757204403135830e+00 3.154717961632858447e+00 1.569436379401068749e+01
-6.266586517215660734e+00 2.916728406989128164e+00 1.604997014291472013e+01
-3.065897082779899030e+00 -1.930160855515618668e+00 1.835397646070545008e+01
-2.886836550635865084e+00 -1.530642126022802252e+00 1.815703323419824855e+01
-3.150397041689088962e+00 4.233865544373787593e+00 1.254029868026834649e+01
-6.609543085578257759e+00 3.597697010567652232e+00 1.375518035242328452e+01
-1.570063178013041849e+00 3.761461846680901555e+00 1.404273651829133840e+01
-6.535895716790184551e+00 3.194084745120052915e+00 1.534176907600729933e+01
-4.899223310368306272e+00 1.531797127202868092e+00 1.730434771951694373e+01
-1.701389444356117053e+00 -5.989811797706825480e-01 1.179033541840223265e+01
-2.717192918751771824e+00 1.493425258794654820e+00 1.658229844458135815e+01
-1.590374574718576905e+00 2.592789331925921203e+00 1.320107465823436499e+01
-6.767554757980100533e+00 7.255338332815175484e-01 1.106520445989665902e+01
-3.810590825858551245e+00 2.205376188213864275e+00 1.653735056571456496e+01
-5.922828084118780367e+00 -2.887441116740343094e+00 1.755051515825295283e+01
-3.165502937840168673e+00 -3.078849264744484948e+00 1.610259922115989539e+01
-7.546208083832953051e+00 -2.678418246641979250e-01 1.747585587546849339e+01
-5.100411305429416231e+00 -9.975598388494433255e-02 1.140636938245568999e+01
-2.012120213610111730e+00 -3.242983640452504535e+00 1.486790863349377290e+01
-8.947560050826475209e-01 2.202508450124398554e+00 1.393490948702986643e+01
-4.015254253855688127e+00 -2.460981153264089061e-01 1.080711861809787067e+01
-4.195698945948622693e-02 5.216129885415118905e-02 1.512669306319598306e+01
-1.526089073710175104e+00 -2.863726910478164300e-01 1.694480053721254720e+01
-2.210875066957460611e+00 -5.528875783216768980e-01 1.127630752091536337e+01
-5.009222891139231137e-02 5.529318610507853726e-02 1.525558022028006278e+01
-4.869774544137541739e+00 7.545608232907492496e-01 9.484443479919779207e+00
-1.552408873956236501e+00 2.709684628686415131e-01 1.666941706205914286e+01
-2.208248178916525362e+00 -9.955404753221825942e-01 1.764662300368145864e+01
-4.490925202283229112e+00 1.105872216757045168e+00 9.871506934936444821e+00
-4.723875621808241831e+00 4.708954728050130711e+00 1.447999578834147272e+01
-5.489537522686633864e+00 -5.086868844662175704e-01 1.864513083067102528e+01
-6.068098079045364912e+00 2.750012603405048495e+00 1.185047025818700561e+01
-1.325598805689485626e+00 3.370067110885007100e+00 1.421309807535684300e+01
-3.480906342403863984e+00 4.856097288760207742e-01 1.738914142474245850e+01
-7.588374342212256707e+00 7.537916032065581362e-01 1.650081830830416507e+01
-4.189569868673293840e+00 4.925548769798361093e+00 1.264531135495589709e+01
-4.321381943734769138e+00 2.700381907102145540e+00 1.627324907071383464e+01
-2.984430225245571222e-02 -6.270134247617207279e-01 1.387280515502624567e+01
-6.879591397138415942e+00 7.331491426145702039e-01 1.770449515893398384e+01
-4.841729161243437218e+00 -1.114676342930771558e-01 1.122271827723131921e+01
4.905303368002056352e-02 -2.090144597720033914e+00 1.519704518123524295e+01
-7.666345268513774514e+00 -7.001951741385425976e-01 1.744283507934897770e+01
-7.886086256766322578e+00 -1.261076926172365553e+00 1.663211356316989153e+01
-3.512232973248106127e+00 3.169768204572773307e+00 1.571857577077016188e+01
-7.682004665115663045e+00 7.559945776733447698e-01 1.396086461814708102e+01
-6.098485853420513081e+00 1.158601198485283756e+00 1.772296373804869418e+01
-3.869265091527043232e+00 2.541044636617256991e+00 1.628552135069420004e+01
-6.542917380697684138e+00 2.773756088658876795e+00 1.594925575348418434e+01
-8.927843670569735046e-02 -6.633407082946514155e-01 1.609758729428065394e+01
-1.372130365717207479e+00 2.045734728909740063e+00 1.550045241548032138e+01
-2.104825851067052334e+00 -1.325296444647866112e+00 1.773835127833426739e+01
-4.591910434569476784e+00 5.256373156252410972e+00 1.289183884022805771e+01
-1.720584581728944684e+00 7.081623625692647916e-01 1.655079699649140323e+01
-6.303195693994776860e+00 6.982241121291561381e-01 1.800252174966868424e+01
-1.935639800264374211e+00 -3.062084821732414253e-01 1.714215158743420986e+01
-1.367967505102265946e+00 2.971875071287015668e+00 1.362965065513805385e+01
-6.366517726142484790e+00 3.235988325757342743e+00 1.555317957252479388e+01
-7.854104659634199237e+00 -1.060992441556983135e+00 1.555637738085392741e+01
9.872788824661604679e-02 -2.299545320828147776e+00 1.603199024443417287e+01
-6.577284074106639622e+00 3.019944994154069029e+00 1.554616347532543941e+01
-7.163065899340919529e+00 1.403286484129000755e-01 1.789737524274840652e+01
-1.917111946525990041e+00 6.160435825684926758e-01 1.667409098796462885e+01
-6.212401843275099367e+00 8.806115817208668428e-01 1.004641189021664260e+01
-1.421475132762080928e+00 3.525092064458260843e+00 1.417012786624107079e+01
-7.267155537536771348e+00 8.731063484537329167e-01 1.248944332326581375e+01
-7.493138648385560430e+00 8.675714733600212725e-01 1.326148982794443398e+01
-3.894505306284001378e+00 -3.207126216316380951e+00 1.838300941221153906e+01
1.427027101858946434e-02 -1.652299915054431967e+00 1.422964884494281179e+01
-7.107425858445473921e+00 2.445916962709649756e+00 1.371834484521653152e+01
-6.795619599938906852e-03 -6.905208517251851252e-02 1.489827703227289035e+01
-6.904070791378108751e+00 1.089161480561111395e+00 1.167487628640374098e+01
-3.170182743686567606e-01 4.011094293249861664e-03 1.363658923629818887e+01
-5.513490951706240040e+00 4.839511344724883202e+00 1.323418363538261744e+01
-5.984346851235752496e+00 3.841680609033442106e+00 1.293233709932906450e+01
-5.175699918804784971e+00 4.822665962489073088e+00 1.290377610970122291e+01
-6.036606715901426945e-02 -5.680492775805093264e-02 1.410491533487677529e+01
-9.592780341398168265e-01 -1.777822951551081498e+00 1.740165301133268727e+01
-8.220967775063720007e-01 2.340018232317722102e+00 1.421746636412879994e+01
-6.680124876502064879e+00 2.518447479701273028e+00 1.611819367358046051e+01
-5.842017773633624955e+00 2.120252020954960681e+00 1.088184145058302121e+01
-1.111668986720267149e+00 2.979057267349238813e+00 1.404932477265306190e+01
-1.508766102111672724e-01 3.380420489873094958e-01 1.413352838423895363e+01
-1.495356253904253752e+00 -2.376119594888590481e+00 1.779698711111231901e+01
-2.719681633443272739e-01 1.459797400847738513e-01 1.376770672561837827e+01
-3.735346415447725832e+00 5.498060472027864520e+00 1.305899731642285033e+01
-5.262419213100923088e+00 1.719915452192269933e+00 1.023644856456365559e+01
-4.574839229945208530e+00 4.631542535649326275e+00 1.237397337871734848e+01
-5.649364177822681299e+00 9.254853444283925867e-01 9.639551526522513569e+00
-2.199429675703867382e+00 4.378523176517577831e+00 1.334157040521052195e+01
-1.444529070030358131e+00 3.328329926403494010e+00 1.370415766306431138e+01
-2.796874896975420022e+00 4.005523985227003259e+00 1.271846912163183063e+01
-3.438953998765501119e+00 7.002007875943052628e-01 1.037867379541786406e+01
-3.111724212208941243e+00 4.284044195666370847e+00 1.260298215143987122e+01
-1.682123792957989972e+00 -2.833718517822064742e-01 1.701393514966600762e+01
-3.630942360021165882e+00 1.076506515858211444e+00 1.038716641742726310e+01
-3.286981223177174449e+00 1.456935569270440212e+00 1.089824325697604834e+01
-3.920858008659305671e+00 8.894016926013914581e-01 1.006129562124462851e+01
-3.884933339094005511e+00 1.103452995690701099e+00 1.021033562205849066e+01
-1.897383890696646036e+00 -4.045472229298182398e+00 1.630054246192073109e+01
-3.602007974851620276e+00 1.696117160419836623e+00 1.077161516270269104e+01
-6.669460924756384301e+00 9.053872611947098026e-01 1.088312777335580606e+01
-3.412081971538373448e+00 2.272447025086370864e+00 1.124826223220962973e+01
-7.227958701375175821e+00 2.006086234595787055e+00 1.580956144439113231e+01
-3.825990609870926207e+00 1.676218277800939127e+00 1.058776501321638719e+01
-5.690006578514889668e+00 4.580044578148370960e+00 1.323197919233173891e+01
-4.032124058729650073e+00 1.687124466687919266e+00 1.045720690415535259e+01
-4.279274155654187339e+00 1.293192475688076826e+00 1.008393328284951096e+01
-7.473785420064098517e+00 -4.817278732633336058e-01 1.784376698421757723e+01
-4.853660416326430749e+00 9.332106583092691920e-01 9.620278126914865169e+00
-7.891565206683992528e+00 -1.062859251645533742e+00 1.645054609593255535e+01
-3.994865833132205779e+00 1.894805631526367939e+00 1.060470891690633621e+01
-3.564399074628610276e+00 4.275877208846573296e+00 1.225963783883937808e+01
-3.972902458343066545e+00 4.086201429744377833e+00 1.205198521360949471e+01
-6.490695173057737577e+00 7.612697673558690425e-01 1.790141298539429116e+01
-4.726135914678781802e+00 -2.838198712852046945e+00 1.681193813722081742e+01
-7.352323969129646031e-01 -1.161978182564953554e+00 1.703554616310174552e+01
-3.526648686099866037e+00 -3.135822734265102607e+00 1.831450605111372099e+01
-4.415573572802607316e+00 -4.854859261797335734e-01 1.219990060951370126e+01
-5.029222342158231385e+00 5.103454148439596771e+00 1.307857938777291551e+01
-4.264194531027918345e+00 -1.167033278051988199e-01 1.061046902443703388e+01
-5.704162757278288254e+00 2.515855485253625012e+00 1.666513705659793132e+01
-5.511790179362094477e+00 2.595826245237435881e+00 1.658898980669941992e+01
4.754443657033258219e-02 -1.475407540467699619e+00 1.504577831984311942e+01
-4.545517356662085007e+00 5.286885229383507578e+00 1.379996524684554160e+01
-2.111634612356351859e+00 4.627758961516791891e-01 1.682280649158249375e+01
-2.916829340792318259e+00 -4.026071412239424774e+00 1.692366896033632528e+01
-3.919629258312952835e+00 -1.945608597880696955e+00 1.867552313957319043e+01
-4.901324821666120712e+00 -1.937727691038237943e+00 1.896582932125994247e+01
-7.450031978606011407e+00 3.113889541769406799e-01 1.725198902954837976e+01
-3.320665301171387807e+00 -2.910258353375180462e+00 1.834669928860447996e+01
-3.694274527618689241e+00 -2.563670323268893103e+00 1.855916299573365436e+01
-5.502717692675712868e+00 2.279305090792474342e+00 1.687789748765296238e+01
-7.375653818150446739e+00 2.020260086735572891e+00 1.432503340423106764e+01
-6.966885687039710007e+00 -1.323962268018773258e+00 1.438874376825837587e+01
-3.133682589051846268e+00 2.895046848043146159e+00 1.577941809639339610e+01
-7.289876595891547240e+00 2.133656741559140091e+00 1.493566370491013018e+01
-5.216086627124548514e+00 2.662738998623501718e+00 1.092887500867891148e+01
-7.278686586772455058e+00 2.194062801853284395e+00 1.471785887751606126e+01
-2.515606957154654211e+00 1.925253912888934549e+00 1.621142508492843959e+01
-4.914987980134791101e+00 4.791031165669116021e+00 1.261127142216112063e+01
-2.488835948632043937e+00 2.116043296856147116e+00 1.605906485763947344e+01
-2.870970184275379200e+00 -1.650704621617228973e+00 1.309481668313087610e+01
-2.779486259147679661e+00 -1.757975419427245001e+00 1.314767629416894934e+01
-2.912766190240854147e+00 8.856759037689188041e-01 1.694870206870104923e+01
-5.645312146724418056e+00 2.524802835791476241e+00 1.105976455020863014e+01
-6.316523311051820855e+00 2.610453906919484979e+00 1.636775311029751734e+01
-6.416870306575505722e+00 -5.058301216155007829e-01 1.283854152385801584e+01
-6.997483672175942360e+00 2.846625747213712643e+00 1.412214496816464404e+01
-6.903242400893905284e+00 3.027334180616606307e+00 1.394454866119749070e+01
-7.422253957435078320e+00 -5.198214382444690251e-01 1.799379882208360826e+01
-1.437269946214595251e+00 1.859876679880868577e-01 1.237115466733012781e+01
-6.721851309109750261e+00 2.590627738719049500e+00 1.594953490259274886e+01
-8.833055412149678487e-01 -9.019231923301085363e-01 1.697397220956456110e+01
-3.140200856881825597e+00 -2.144664720808755920e+00 1.843349731545675851e+01
-3.041016834666542046e+00 -2.099698942610557229e+00 1.838632866338748428e+01
-5.302319361597410463e+00 -2.625049527063145205e-01 1.847511637655040673e+01
-6.922737648204773109e+00 3.011901112542415326e+00 1.414153172222408372e+01
-2.022709416760850587e+00 -2.388026678253180712e+00 1.328327432588092805e+01
-1.555789215508426526e+00 1.439231520561171651e+00 1.275585043022375586e+01
-2.036866256652537288e+00 -3.494625340795909363e+00 1.547335261463142686e+01
-4.213787012133986210e+00 2.884616452587284385e+00 1.123353358539671021e+01
-5.093728024973252388e+00 1.706552289231454134e-01 1.021441554219761016e+01
-1.298317276462216618e+00 -4.634121786441487423e+00 1.684881406424356598e+01
-6.723007460082845554e+00 3.426011061050279860e+00 1.393802282511240875e+01
-6.661998125960451489e+00 3.516444662307192548e+00 1.426434440305922280e+01
-5.627337214425919498e+00 1.485498601824566389e+00 1.013707358362194455e+01
-4.118301199326500850e+00 1.304664530328956573e+00 1.719759987054120742e+01
-2.035274558441135362e+00 -2.044799950449092574e+00 1.284981350803376543e+01
-9.542171173591185163e-02 3.512246536257264129e-01 1.450758245458241547e+01
-2.160503598750920240e+00 4.106194925207654833e+00 1.420998836609888016e+01
-2.429932588986983166e+00 -1.812940218676254656e+00 1.268502356402360576e+01
-7.194032602119079911e+00 2.005101299224215872e+00 1.593275262789152791e+01
-2.996648942964986073e+00 2.248433900087236204e+00 1.160490447490805010e+01
-2.512365694209187428e+00 4.630023091661359835e+00 1.389744952721235549e+01
-1.529251771550008687e-01 -4.338379324613658716e-01 1.367214528333729007e+01
-6.944760304380912519e-01 -3.863029243207613539e-02 1.640973632722392139e+01
-5.928133827132394673e-01 -2.055764454979259193e-01 1.644649729564951812e+01
-6.879871609095861373e+00 2.955319192846717513e+00 1.471341233062503662e+01
-7.798622595448736483e-01 -2.713742036819827064e+00 1.375346825052853816e+01
-3.908340404072616625e+00 3.150598815552817289e+00 1.584390118390693303e+01
-3.746390765388762922e+00 2.749426989866504911e+00 1.608722798488009076e+01
-3.714066357163763765e+00 2.971719055061670112e+00 1.591738985343798518e+01
-3.889678616536939249e+00 2.314437108008029043e+00 1.647343599957624960e+01
-3.922344355274733463e+00 2.922242759816813251e+00 1.601164465240942647e+01
-2.925641461401904397e+00 -3.199632448200875334e+00 1.814619571277520649e+01
-2.765399441097309285e+00 5.029394605684403885e+00 1.316792265375166338e+01
3.084201702705091641e-02 -1.721284306299311284e+00 1.623855493551662832e+01
4.948058150827661095e-02 -1.713406729383853966e+00 1.604489581847703406e+01
6.704922004294233684e-02 -1.907175109061818752e+00 1.605403894640702944e+01
-3.107723113408473736e+00 1.331086579108068157e+00 1.682025235620249859e+01
-3.657079605042990345e+00 1.571754833165740717e+00 1.690775934692798543e+01
-3.169652273773771345e+00 1.477888198902984618e+00 1.677158544461854106e+01
-2.294007216102031510e+00 3.215241431504167746e+00 1.277030062577714276e+01
-6.973446803894156609e-02 -1.344800105369039711e+00 1.649384649785975299e+01
-7.485623568454807142e+00 1.766312000734348464e+00 1.495409054839184293e+01
-2.148280859158049338e+00 3.107445713043240243e+00 1.518098036368239789e+01
-2.295759352184761237e+00 4.666482724382905900e+00 1.339822014143549822e+01
-1.235351857656172836e+00 -4.607059057047616868e+00 1.671915460229176276e+01
-7.249521606086498648e-01 9.919130726688703270e-02 1.635292849309449892e+01
-7.126477963569499252e+00 -7.467636006348979394e-02 1.809709060640844669e+01
-6.792450226016640613e+00 -1.618017456610599147e+00 1.499795227156652189e+01
-5.543467833276984891e+00 4.001123527814852920e+00 1.517216144195696259e+01
-4.302137472587520328e+00 -2.751662389368998429e+00 1.866194019969763573e+01
-4.500942220126009197e+00 -2.539418774330280293e+00 1.877416916461594454e+01
-5.977136345530082551e+00 4.057382056116363600e+00 1.313145284486085629e+01
-4.691556186991264532e+00 -1.029474817121268648e-01 1.100946487363365733e+01
-4.461260893111317571e+00 -1.630247230849319884e-01 1.099381337208920328e+01
-4.379615614537225809e+00 -2.459410928121329998e-01 1.118028751050621494e+01
-3.299806314298102450e+00 2.212840977179738822e+00 1.130964777766198281e+01
-4.261289189169312763e+00 -1.713366147391578442e-01 1.080333308362527944e+01
-6.722196759782667286e+00 -1.490529529716154267e+00 1.471968407055607386e+01
-6.787615757816784168e+00 -1.440519315516552323e+00 1.459572158344977666e+01
-6.576952743734034712e+00 -1.417274009446509497e+00 1.459023891491365177e+01
-2.332440536494985395e+00 2.912068737640332028e+00 1.540814148226006708e+01
-2.669879056249596649e-01 3.482217328843250082e-01 1.577996188068170724e+01
-4.375399794626654071e+00 5.150807328172540167e+00 1.281553343334360662e+01
-3.417088690854439559e-01 3.046118920234789362e-01 1.591972058856979189e+01
-4.971960616066292360e+00 4.857120290522576767e+00 1.275183765627053489e+01
-5.549239324514182670e+00 -3.078498579505011712e+00 1.885727665928606811e+01
-5.495375710101921385e+00 -3.168054808857888371e+00 1.879752617529114289e+01
-1.631800011972747821e+00 -2.444994829229232725e+00 1.324236624571561194e+01
-1.835993392385297351e+00 -2.135101428073176155e+00 1.292841092999853814e+01
-2.914239909638434600e+00 3.188658888840315564e-01 1.723813266093976537e+01
-4.679090222483500483e+00 -7.228970677102257714e-01 1.856287114416530315e+01
-3.277601971538074199e+00 -1.028511996460222955e-01 1.764328937994998014e+01
-6.095356776931538434e+00 3.375378862311655404e+00 1.261894324116326871e+01
-1.340757687732258674e+00 -1.273509336297590777e-01 1.677405835565781089e+01
-1.831423175421338145e+00 -2.244259785683189179e+00 1.304192189565383231e+01
-1.641979954954843279e+00 -2.337977043861433124e+00 1.313876177486448782e+01
-7.801003445874711062e+00 -6.547459551280871981e-01 1.685762142533719654e+01
-1.616243492880317101e+00 1.209103095965319952e+00 1.259262975693174624e+01
-6.047352507809525823e-01 1.946876829143642240e+00 1.455524863921281664e+01
-1.755195800401674333e+00 -3.820874286083729032e+00 1.565809357227827903e+01
-3.241303443080263413e+00 4.389869985845438194e+00 1.254790160052378312e+01
-3.312446207224736483e+00 -3.560878306402632809e+00 1.808410248160636868e+01
-9.052003292724982719e-01 2.160404917104029376e+00 1.503620959419181347e+01
-2.736861651814147756e+00 -3.727932963580953718e+00 1.789407077880417418e+01
-2.521620340724342491e+00 -4.023214048145426602e+00 1.673871389464347814e+01
-2.060424479679578980e-02 -1.319000063456301497e+00 1.624317131431693539e+01
2.857723873870809950e-02 -1.482569637542941576e+00 1.599971729084606054e+01
-7.414047303441184678e-02 -1.131542835074864417e+00 1.630144426831895643e+01
-3.740229997155310571e+00 3.903647624177012165e+00 1.200216382540593330e+01
-6.688534450520865704e+00 1.741678813537576698e+00 1.184273938784336266e+01
-4.149143809392004556e+00 4.355372588219402985e+00 1.221131252528322264e+01
-5.214601542628241049e+00 -4.940407716098210167e-01 1.283086728197561044e+01
-4.289554767440628691e-02 -4.459686797455517104e-01 1.390023713091414592e+01
-1.050248939149831306e+00 -2.354513757472943780e+00 1.331060854124617876e+01
-1.729045363738698882e+00 1.677266264020529585e+00 1.600512655806668150e+01
-1.663101338063431189e+00 1.558368937395411047e+00 1.606082461086154822e+01
-6.256332772372873663e+00 -3.030718493282120729e+00 1.801215694425316727e+01
-5.755308310784029047e+00 1.666980860444974510e+00 1.035397424570215108e+01
-6.107309841967957453e+00 -3.063008193967706738e+00 1.797747225839833973e+01
-5.952640461801092187e+00 -3.101580030390021392e+00 1.795097488142141984e+01
-5.901481743810792935e+00 -3.015692981684666041e+00 1.776275301330771939e+01
-1.586647062722818635e+00 -7.645138515074350050e-01 1.186965498961918897e+01
-5.729531641830041266e+00 -3.079945032443744068e+00 1.777235439424941532e+01
-5.277650345705660051e-01 -1.003243763896456420e-01 1.634099938658541262e+01
-8.111793740300646816e-01 -4.214725200693859364e+00 1.544836138639304934e+01
-9.794141706089162236e-01 -3.983358014830844951e+00 1.503893759012815323e+01
-7.898612367314867821e-01 -3.977515427795543346e+00 1.504183480024743957e+01
2.063400531829895357e-02 -1.863386787041950932e+00 1.465739048115008458e+01
-4.446084914441280844e+00 -1.956225499565986681e+00 1.884040583037683447e+01
-2.129606848557268783e+00 -1.737240464287358899e+00 1.788786009952966438e+01
2.185814240983552370e-02 -1.917483214980447048e+00 1.643230253275665476e+01
-4.712750949741145945e+00 -6.082520489821201526e-01 1.851895794897830072e+01
-2.781343898586566610e+00 5.138373675826818143e+00 1.327004758631533932e+01
-6.082040216072611472e+00 3.514162158633579836e+00 1.548702440035379269e+01
-1.425776681897226839e+00 2.184907652261382616e+00 1.321053182033539386e+01
-6.307688565642292744e+00 2.807164455002671755e+00 1.614439817021848356e+01
-6.844062361948651585e+00 3.059035691840933602e+00 1.373672015621614051e+01
-6.485054803127885847e+00 2.702709277041797975e+00 1.611061350073227416e+01
-6.309836292250311729e+00 2.978113921420849852e+00 1.593808908589003792e+01
-1.786575395759526508e+00 3.303690705090012170e+00 1.479414022425168795e+01
-6.238847686988728825e+00 -1.393205485685508060e-01 1.203265779092612675e+01
-4.823443098126455553e+00 -2.654677141334887414e-01 1.178896030010843177e+01
-7.430576758300602158e-01 2.662360039183159222e-01 1.628006031906918238e+01
-4.276761398801131264e+00 2.391114255330526461e+00 1.652080291899286024e+01
-6.848112721868968578e-01 1.831610396685796838e+00 1.409669586710426969e+01
-4.393977181964133116e+00 -2.727698886345676144e+00 1.649442963361819281e+01
-2.741529833172386077e+00 -1.965775051284603503e+00 1.822767750733561698e+01
2.856584060936195879e-02 -4.807722369229763815e-01 1.486659100257266530e+01
-3.094106446268596766e+00 -1.332543651455312839e+00 1.817603767808701676e+01
-5.133928905369172568e+00 3.622582240959236977e+00 1.160597072560861065e+01
-7.840171328402334439e+00 -6.542628915067998374e-01 1.664215473730131478e+01
-2.925586028941967509e+00 -1.755229431392377970e+00 1.824368948592959683e+01
-2.734404988916922630e+00 -1.742692036783240805e+00 1.815614637057931802e+01
-4.060386901204250165e+00 3.021780587074768931e+00 1.597655226125056416e+01
-3.339606932917600801e+00 -1.321065243518862564e+00 1.827569886275615474e+01
-3.307605402493964064e+00 -1.522680445329750443e+00 1.833187096669358951e+01
-3.717088092973608315e+00 -1.747266168969890288e+00 1.856136012655130330e+01
-6.659714466518282805e+00 3.445755747321495033e+00 1.368261943656397861e+01
-3.397560580067493063e+00 -1.800220713902128233e+00 1.845058101190008060e+01
-3.245566091802021713e+00 -9.803999637057234651e-01 1.194381019924520260e+01
-6.620707614574085298e+00 3.638647393634463434e+00 1.394091607094050644e+01
-7.142405852439489777e+00 6.500460160888454908e-01 1.195592748704496344e+01
-7.096432299506229668e+00 6.883145592761052978e-01 1.186311168736377297e+01
-2.760232550878695790e+00 4.311782782685880555e+00 1.438840843288648230e+01
-2.289014758220498713e+00 1.747135271119163891e+00 1.623250730376281226e+01
-1.645224823224016530e+00 3.941731760659040518e+00 1.374228114814586021e+01
-5.402051415878991847e+00 3.260429356294902714e+00 1.152147195532704060e+01
-5.177227618397600040e+00 -2.096906292302637809e+00 1.615318511143905411e+01
-4.970913514524649912e+00 -1.814335713217950063e+00 1.581477044534973331e+01
-5.159026262268145757e+00 -1.880517410867445172e+00 1.591529721885848758e+01
-6.855744168754297263e+00 3.148545928595157584e+00 1.420616448704971546e+01
-6.477163240490765972e+00 3.309836968357099174e+00 1.527101144780374753e+01
-6.843166472391384758e+00 2.687840805563788127e+00 1.326369832789974268e+01
-1.893902345920770447e+00 -3.052734692571378528e+00 1.417454029364911960e+01
-4.685750679144879527e+00 -2.019052080045922182e-01 1.141210340031495818e+01
-6.480018175694130633e+00 3.373830439133532533e+00 1.515414638768572431e+01
-4.719164783485491732e+00 1.650464283673099386e+00 1.719257045407653450e+01
-5.309077777376311147e+00 1.096510062830894805e+00 1.764836007120039696e+01
-6.129319928902340564e+00 -2.411612230086914721e+00 1.681886453927590352e+01
-5.107329849691049972e+00 1.471284579107098756e+00 1.738896976511675874e+01
-2.264035187198459642e+00 -1.105090151579732227e+00 1.174794975813820841e+01
-2.008919848365396721e+00 1.828241058254154838e+00 1.241201784662597518e+01
-1.797139712555210878e+00 -7.765791786514437689e-01 1.167049907468561187e+01
-4.287938176362008136e+00 -1.935863851283124326e+00 1.879092446549581652e+01
-3.878782340211835766e+00 -2.586344812813334393e+00 1.859879140704952150e+01
-4.488458632920645286e+00 -7.421504287929936439e-01 1.851562107822193681e+01
-6.520741456697042082e+00 2.956742782672771686e+00 1.572757300724353158e+01
-4.715022109682863949e+00 -8.896724121456462964e-01 1.864910439491622540e+01
-4.086298613019144987e+00 -9.189366840040019691e-02 1.801031282872851236e+01
-5.477403192755069483e+00 2.725337259932024025e+00 1.106172005358927279e+01
-2.942329562817116884e+00 -3.646014424716037094e+00 1.655019734505338036e+01
-7.120299711527037445e+00 2.399111753943464542e+00 1.512428342051976315e+01
7.938057472924286984e-02 -2.117477311885678670e+00 1.583442072408323398e+01
-7.201606356694147948e+00 2.205498557220037181e+00 1.532457159926619639e+01
-7.284977106296830485e+00 1.958086176444320481e+00 1.569159509096921923e+01
-2.894783357967713133e+00 1.419860170926831255e+00 1.126936575834482213e+01
-7.094036754447168747e+00 2.377472923144527073e+00 1.535818144738776070e+01
-6.995512512236693681e+00 2.606075526526327124e+00 1.515657741418578652e+01
-4.914990559425342909e+00 5.159750531512935723e+00 1.392193582486607895e+01
-1.707749045889375150e+00 -2.346260071255574786e+00 1.787034308559568885e+01
-4.073295269008162300e+00 -1.659646345415741187e-01 1.058820409255931949e+01
