-6.593363657393192412e+00 -2.473664114973368910e+00 1.564174545105898062e+01
6.877319291368533261e-01 -2.396180036796524693e-01 1.250894419262354518e+01
-3.615292830051215045e+00 7.878010148458882700e-01 1.022838075617395504e+01
2.341292005055093939e-01 -4.725907115219479815e-01 1.166585615510367191e+01
-3.877035280814883134e+00 -3.958098737910417775e+00 1.391545228842581849e+01
-6.559648551534799310e+00 -3.419252793849853589e+00 1.387130157706955913e+01
-2.962704213057830938e+00 -2.273692618125000564e+00 1.297623999627121094e+01
8.791662615947726245e-02 -6.332244791387470206e-01 1.159770321480409905e+01
-1.918246219220794746e+00 1.822322971992703211e+00 1.665074190409431054e+01
9.833660112591829927e-02 1.736481578682016691e+00 1.520044393636327840e+01
-1.648803948030433730e+00 2.302094415052191145e+00 1.373506623908895108e+01
-4.343115266354759640e+00 5.578008097644564511e-01 1.677295832081548355e+01
-9.958183772726472704e-02 -4.134869468472827769e+00 1.362901090043411045e+01
-4.085924072427465248e+00 -7.203851425046915447e-01 1.112766261835021808e+01
-2.889665333711759487e+00 -3.524462455701424801e+00 1.389814700184688689e+01
-4.306544693863413542e+00 -3.913337181266864917e+00 1.367185681624754068e+01
-3.079331582729507577e+00 -5.362166261766613040e+00 1.586065593283343134e+01
-1.947085276741989723e+00 -4.565611492673708582e+00 1.679130711556520339e+01
-5.614518529631887134e+00 3.954200443037498847e-01 1.626632003390976422e+01
-1.324427282783259274e+00 -1.683813748930714782e-01 1.672646117191332849e+01
-6.253696518314965758e+00 -3.057055384809193477e+00 1.281917537744569557e+01
-3.451375219380735437e+00 2.410212309741537773e+00 1.321926705442364636e+01
-3.476868622455686175e+00 2.215093641782448053e+00 1.263344043123785809e+01
-2.398724316022378567e+00 1.997030341247911123e+00 1.115453493316506695e+01
-9.605365030913965985e-01 5.496420169400728639e-02 1.662173565346537885e+01
-4.468159376623985324e+00 -1.897996458544988219e+00 1.175592677834001876e+01
-1.305801267191579740e-01 1.267153464870866886e+00 1.304221479586097843e+01
-2.447411433283198434e+00 -4.456112238522623059e+00 1.432634041537891534e+01
-4.749898137426956879e+00 -2.156113598946019394e+00 1.184731611830140352e+01
1.483206691711403291e+00 -1.711686781512096411e+00 1.328072934390097970e+01
-3.326901468772446968e+00 7.038855917190540712e-01 1.695458993608852438e+01
-3.100770427940196861e+00 7.015969705737921114e-01 1.696460558308284305e+01
-1.613443950298485419e+00 -2.835081561503596248e+00 1.343106895522341659e+01
-4.473842847860868943e+00 -9.452656677915868277e-01 1.127314067830194233e+01
-4.313997828394397160e+00 2.783364388623471797e+00 1.545930941292402849e+01
-5.054581839457521486e-01 -1.580723928206645423e-01 1.107597384115397077e+01
-1.900196223156060960e+00 -4.318601778947357417e+00 1.425521052273315803e+01
-1.458694284805770458e-01 5.993315159582761620e-01 1.142153546624802729e+01
-6.411390957973470250e+00 -3.911797123804021226e+00 1.592894318491113381e+01
-6.457010285162821717e+00 -2.834048250058643914e-01 1.488604884812669127e+01
1.714367560857357420e+00 -4.581998764163742521e+00 1.434291552730395125e+01
-4.299908512010981454e+00 -8.771573983873984792e-01 1.121508739257218679e+01
-3.692591681845227125e+00 -1.791220727608844321e-02 1.081313093569636052e+01
-1.157128719090931568e-01 1.875745497640576742e+00 1.608665300140858534e+01
-2.010311073275109717e+00 -1.378351039495870012e+00 1.230244374179243749e+01
1.328761612676925274e+00 -1.271774270442320720e+00 1.347529136626121726e+01
-2.239160119142494576e+00 -1.536871251940054695e+00 1.244536332118991595e+01
-2.011549271984660159e+00 -1.153633611007168547e+00 1.207355655009930473e+01
-6.236007115275135959e+00 -4.949015145400067262e+00 1.599298876468332509e+01
-2.938842961637786022e+00 -1.051654136942847151e+00 1.178127340170638249e+01
-5.719588340440219909e+00 -3.463069309589217326e+00 1.251329293253356667e+01
-1.918252570118533340e+00 1.933765612417166713e+00 1.661964660547751294e+01
1.419172495029473735e+00 -2.588374766304348817e+00 1.543397153984483339e+01
-2.468509476389084689e+00 -4.046686802874589484e-01 1.120786544805213580e+01
-1.509317661631535801e+00 2.058098451794466044e+00 1.650970611964196877e+01
-4.652157610321205894e+00 -9.120886946539008555e-01 1.130551241458697476e+01
-1.227731415199798448e+00 1.076958845598013026e+00 1.020663692437021908e+01
-6.247086260293169602e+00 -3.829659734460658882e+00 1.316035311870871283e+01
-1.153536969068916562e+00 -4.797321535224409850e+00 1.664676022677308964e+01
-9.282964808937464729e-02 -4.195259041863860006e+00 1.651846823314762958e+01
-3.709883980716461860e+00 2.523278268394808066e+00 1.648675019453842339e+01
-2.033769535210723234e+00 -2.801211138362879716e+00 1.344463051568634171e+01
-7.956609274692282296e-01 -3.658499592230094466e-01 1.660807196916291417e+01
-5.286695872810746266e+00 -5.181042276331249141e+00 1.403219983975350971e+01
6.010837518934001311e-01 -1.258148216683962595e+00 1.211099253867922698e+01
4.974149636854905410e-01 -9.625551757454168245e-01 1.201170877226932987e+01
-5.025922482529541213e-01 2.248140189887781304e+00 1.604651808759263787e+01
-4.691163619197668666e+00 -2.915365832699693627e+00 1.227198056116431246e+01
1.216241636925310621e+00 -7.068523059200059189e-01 1.369918252061368236e+01
-5.097717009512830799e+00 2.570235487078923242e+00 1.584769627882989340e+01
-5.344624185050932397e+00 -4.012265039392645782e+00 1.667222292672759920e+01
-7.610318650367107196e-01 4.268384257797808168e-01 1.654865066804490681e+01
-6.292517626827150323e+00 3.133564719481973793e-01 1.446158454076871180e+01
-1.477869617977700889e+00 1.063155004999574160e+00 1.003790102387272754e+01
-3.918874563206069084e+00 1.421376067201295390e+00 1.108564227144715275e+01
-1.645162733598692473e+00 1.248164407291316058e+00 9.854217547967138557e+00
-1.504327333789038157e+00 1.704646372074812399e+00 1.659803540026550195e+01
-6.616803278851147496e+00 -3.937302270123547387e+00 1.455635659495359846e+01
-3.086509020975164219e+00 1.752613253188662901e+00 1.679372704787543569e+01
-7.588503127371445389e-01 1.241361906223481526e-03 1.657282013129010778e+01
-4.040319999334732515e+00 3.798888312157626679e-01 1.065321976490014322e+01
-5.057765701994409113e+00 -2.836647391145928232e+00 1.671568694914256525e+01
-4.282154973427676481e+00 3.440631978735246843e-01 1.077392655131852450e+01
-5.076550645687989416e+00 -1.899083997491229248e+00 1.174476723819184087e+01
-6.130842159793115087e-01 -3.848772938476185956e+00 1.374092906516153789e+01
-5.342199833177319945e+00 4.096143229000803743e-01 1.643041877309634913e+01
-5.249365392168542144e+00 -1.856415577788320004e+00 1.178850242632148593e+01
-3.829567531338645470e+00 3.744225505466134418e-01 1.059755253915999518e+01
-2.560244266694050030e-01 -3.039670324316319672e+00 1.275632348085399315e+01
-4.507457923987260529e+00 2.139940764973946585e+00 1.639945959180857926e+01
-5.910592281710972173e+00 -3.671136121570460098e+00 1.272437431402104124e+01
-4.085814756526796820e+00 2.735758104058294560e-01 1.073502659500351086e+01
-3.942147568326675788e+00 3.047149971375826993e+00 1.608388154857245667e+01
-5.468767685727191630e-01 -2.903400203493346154e+00 1.284658092049335210e+01
-6.485031178287677278e+00 -2.660480820843313943e-01 1.429152725768506116e+01
-2.685779030994777106e-01 -4.920762484962689420e+00 1.422533968318891340e+01
-4.787210760590028258e+00 2.202786351437712398e+00 1.450458426891357533e+01
-4.644835437052613258e+00 -6.846423503523864085e-01 1.122843216302879910e+01
-2.970892227674458930e+00 -2.816480506536023221e-01 1.696763116065670118e+01
-3.643763673475547193e+00 -2.631320437982475280e+00 1.685591502119763163e+01
-6.714982672908902828e+00 -2.696670116182887433e+00 1.484974418049819178e+01
-2.226243111403162001e+00 -3.417392503707300300e+00 1.383262152917009757e+01
-2.359973004600325108e+00 2.096410004375246494e+00 1.177296048166281395e+01
-1.954776602316975476e+00 7.048469586038299539e-01 1.686794627341033248e+01
-6.393046168894208847e+00 -4.728523093779345210e+00 1.577022292062412134e+01
-5.880775669746880041e+00 -4.373225036618501704e+00 1.647284661157165431e+01
7.875039713248448425e-01 4.137020235470114660e-01 1.553886114222315484e+01
-5.159448188199299068e+00 -4.860708890550784922e+00 1.371859969302051496e+01
1.095586968479246082e+00 -3.221134905167849283e+00 1.623873683941056356e+01
3.023840695440017101e-01 -4.394565205287001675e+00 1.645643090359111937e+01
1.530987907677642479e+00 -2.162986590114250873e+00 1.342104667291869191e+01
-1.396375914722029821e+00 -2.193188559527927239e+00 1.282462282360776840e+01
-2.842084599991796079e+00 -5.328269576358440673e+00 1.534657810525101951e+01
-2.527496838135137924e+00 7.372547663912936144e-01 1.694683890362681211e+01
7.561644742268590624e-01 -1.712042595424381197e+00 1.224485595304339114e+01
-4.750251254612061658e+00 -5.691711755015349539e+00 1.594312990304042899e+01
-2.716600334547131901e+00 -3.899272678557752947e+00 1.686160112318935234e+01
-3.023894010129552612e+00 -2.812529279981379027e+00 1.339479507377959777e+01
1.067954814336560920e+00 -2.605351323810155328e+00 1.617588712631852133e+01
-4.963565941659028979e+00 -4.274053397249171660e+00 1.315173466062270080e+01
-5.111521380286106364e+00 -3.679213534987682444e+00 1.263075947093840767e+01
-3.130631212107057859e+00 2.255449903527822819e+00 1.239432223142049594e+01
-5.683626443474045331e+00 -5.934703596602135534e+00 1.547070711816980548e+01
-3.146948268887167721e+00 2.009620563588186748e+00 1.160038703588299214e+01
-7.954620080811265481e-01 1.663961288915142278e+00 1.292769334927656644e+01
-4.563832087718646235e+00 -4.804110675842087730e+00 1.677019577626814595e+01
3.286703914475504473e-01 -2.405037121507128672e-01 1.174923266446570835e+01
-6.694150837337321747e+00 -3.299356226004955595e+00 1.479877737957320960e+01
1.539131984629269922e+00 -2.967288151800491214e+00 1.484202470040466437e+01
-3.274908929785909084e+00 1.519869248958647168e+00 1.016918166504608578e+01
-1.927925247194571146e+00 4.735448832835027488e-01 1.686952248018092604e+01
1.204128709869174196e+00 -5.391131795228403245e-01 1.391832692245980496e+01
-4.545554299202155590e+00 2.266944962102913408e+00 1.634238942403787576e+01
-1.106826742891949378e+00 1.619579001091271175e+00 1.652732461513918594e+01
-6.368920222387608021e+00 -4.938958106910818380e+00 1.573348103526444675e+01
2.376887156868832118e-01 -1.251467987419239591e+00 1.183320639985885236e+01
-2.489541640712529702e+00 9.423316417175182647e-01 9.919887953545380554e+00
5.606193748194179260e-01 -1.786980481636623264e+00 1.635572642186417625e+01
-5.052954462630200316e-01 -1.652319415205214970e+00 1.192850380409627320e+01
-2.824375737954263332e-01 -1.629083651842882619e+00 1.188555479087690969e+01
-5.453458252940249551e+00 -1.650848267709345008e+00 1.185094978591271442e+01
-4.524887923367423070e+00 -4.630741148398740847e+00 1.677504780094927384e+01
-6.216946496783254617e+00 -1.241440374615754738e+00 1.238607092568308587e+01
-1.488513363250750343e+00 -2.959138635922977656e+00 1.677495560946100994e+01
-5.536406866613445388e+00 -1.672433307490602594e+00 1.190338471647345031e+01
-6.422432955396331522e+00 -2.862680147310346257e+00 1.319316709856025227e+01
-6.485659403783548882e+00 -2.864274802633116845e+00 1.343060465167747708e+01
-4.659462009884236977e+00 -4.447614046460540704e-01 1.117774619939147485e+01
-4.418261472365523801e+00 7.361208500473319649e-01 1.101519384885158104e+01
-6.546949199120977170e+00 -3.900111881678358650e+00 1.557819943426132880e+01
1.686478835486691752e+00 -3.763709238332712204e+00 1.376698466348751992e+01
-2.440810737180682199e+00 -6.292665090209077494e-01 1.143772214886369198e+01
-6.173297293886677028e-01 3.695225655749587723e-01 1.077626161431135898e+01
-4.905079999785767697e+00 7.531395960836009262e-01 1.657821183233042461e+01
4.096509944465870356e-01 -5.381497344267087257e+00 1.619421218046699096e+01
-2.662162179849309473e-01 -3.918540656490392848e+00 1.360663027284039117e+01
-4.534964153252309060e+00 -5.045946034628467025e+00 1.676312240923044072e+01
-1.976559337695448892e+00 -2.318757018234661516e+00 1.309020162305316859e+01
-6.296986941728581755e+00 -2.020602619891975316e+00 1.263746866473978514e+01
-5.281191434113242877e+00 -4.107371105613549567e+00 1.290902073470315514e+01
1.264939497587663997e+00 -1.981007842487771953e-01 1.468540404016360412e+01
-5.198894558807491961e+00 2.247866413830944765e+00 1.596443481366942052e+01
6.602025553747333797e-01 -4.021771604834769587e-01 1.602687229207728592e+01
-5.140605557121746827e+00 2.017839575009912956e+00 1.609852460638240501e+01
1.623471161435538379e+00 -4.347222901842943799e+00 1.368180112943726812e+01
-5.918336324207242427e+00 1.405807439877614806e+00 1.514770036856241830e+01
-1.447302504591827743e+00 -2.075846114017544153e+00 1.274818928941417795e+01
-4.972121227963230083e+00 2.201258259146839258e+00 1.614435151523391454e+01
-2.864090354674441397e+00 -3.133402639830159764e+00 1.365952046524238739e+01
-5.190081043155444718e+00 -5.821307465491179833e+00 1.581373856062498362e+01
-5.372521718953894521e+00 2.289198679267319569e+00 1.570401916264495412e+01
1.044545287344259332e+00 -1.090128806294604402e+00 1.262792389033830176e+01
-2.782375996272879348e+00 -5.422208260661146362e+00 1.615535421676440819e+01
-4.189243406340478870e+00 -2.050457888426976183e+00 1.682869058471402468e+01
-9.001006529503203790e-01 1.176099228773257677e+00 1.070288835995520316e+01
-2.590719644707041858e-01 7.760390668882366505e-01 1.144516792326423626e+01
-3.505563599026299659e+00 2.144448085881495381e+00 1.665323855953634791e+01
-4.946256263358426608e+00 -4.790053487404228427e+00 1.673688786420781582e+01
-1.775092340544272673e+00 -5.194447821134137833e+00 1.573901793923256065e+01
-3.840383476614965819e+00 3.059060204420601004e+00 1.580336376946304711e+01
-1.023069599855979339e+00 -2.157926109740249565e+00 1.671244462584915169e+01
-2.592022689271871183e+00 1.629681535440650419e+00 9.735911212334833920e+00
-3.959428780789353119e+00 2.827394013855070831e+00 1.526136469796288253e+01
-6.651806043586583783e+00 -3.684917859096896287e+00 1.479197834327479910e+01
-6.678200087423086018e+00 -3.313907775339297146e+00 1.462466450622690672e+01
3.560576399895887256e-01 -4.368227086214039878e-01 1.179191635498030521e+01
-1.524969209066173947e+00 -3.913029474720933543e+00 1.675515122670618950e+01
-2.550172281785804795e+00 4.940702651016253277e-01 1.695497295228243928e+01
1.269369866565548843e+00 -3.021258623978709146e+00 1.601696992383357099e+01
1.120347101983565796e+00 -3.021067815135225487e+00 1.619201527050507394e+01
5.587056637330947151e-01 -1.184063948522586784e+00 1.627461354333987487e+01
-5.242838286265438796e+00 -2.384907231855283305e-01 1.159274148211870070e+01
-3.281517649215158983e+00 2.276283104804626589e+00 1.260982980866861425e+01
-4.201486978897749580e+00 9.354185078161743050e-01 1.082157343200857014e+01
-1.797629710294544214e+00 -3.041606304232426616e+00 1.360353794636107239e+01
-5.478658826134557458e+00 -4.938410354543019132e+00 1.369120635329311853e+01
1.963183767962884962e-01 -5.244448509764502830e+00 1.576340071542885823e+01
8.666847151591603460e-01 -4.607956745388754882e+00 1.634513858309916401e+01
-1.185808846517298232e+00 -5.295345809169872631e+00 1.647578026966161246e+01
-1.556282948363021834e+00 -5.277979619871381090e+00 1.662016973792131580e+01
-6.397401177237568959e+00 -4.665117784207717833e+00 1.394997997974860482e+01
-2.668076605532017531e+00 2.141687898877913554e+00 1.666118469575853567e+01
-4.123033271535803124e+00 1.183720282886062458e+00 1.675866730684106898e+01
-5.072855138767896621e-01 1.519208311612758822e+00 1.305232323986294318e+01
-6.530247199075180475e+00 -4.270633909009491802e+00 1.413919255422922561e+01
1.515984576320418054e+00 -5.102787458761556927e+00 1.418083924972032150e+01
-5.385288271591226916e+00 2.493186304023804478e-01 1.642877528561891154e+01
1.944037568601145738e-01 -4.289542396259439450e+00 1.350121182550350341e+01
-4.402367462760592431e+00 -5.698101830089771447e+00 1.621528682145144984e+01
7.156891836358539871e-01 -4.009766161032311871e+00 1.640763544776324068e+01
-6.636693629714438103e+00 -2.693543651813039119e+00 1.421704024985093895e+01
-6.369078651575323491e+00 -4.150821907182139725e+00 1.596833096825935172e+01
3.222825483685299308e-01 -4.507833077592329651e+00 1.364823311695358399e+01
-1.306184403697716157e+00 -2.943173257962050648e+00 1.673914931064047096e+01
2.647922963192276824e-01 -5.220124281664373811e+00 1.639533966663453413e+01
-3.872956253180997344e+00 -1.063983927579498001e+00 1.134652809784884653e+01
-2.906045534789132745e+00 -2.339086879044550704e-01 1.099115704157967244e+01
-4.672946666582371122e+00 -4.129055591684568149e+00 1.327287305817527141e+01
-3.391118992503403096e+00 -5.535577676193376817e+00 1.621835045399431863e+01
-3.506265625300736488e+00 2.277126673690893277e+00 1.660904907322767343e+01
-2.612608886727485924e+00 -1.530235841741929281e+00 1.695554914605901331e+01
-4.721284211933031827e+00 2.591545764905842653e+00 1.612937678684266274e+01
3.093350829008993941e-01 -8.481558868399378115e-01 1.181783080754193094e+01
1.677587381333871308e+00 -5.124111279759839377e+00 1.474139947693534225e+01
-4.651107016398023930e+00 -3.929555217621238938e+00 1.306021821953120821e+01
-2.854417175632826265e+00 -4.254251944987220924e+00 1.424922533293302962e+01
-4.281231964311206895e+00 -5.626381550350300742e+00 1.502269238518381655e+01
-6.033318712955285434e+00 -2.605040956537179486e+00 1.246104018328232854e+01
-2.046201582349840842e-01 -1.972372434972453625e-01 1.643711592842237934e+01
-6.613025202393664204e-01 -3.073717939487199402e+00 1.313612506168671246e+01
-1.508049787481297921e+00 1.431924014971776904e+00 9.910799242008721421e+00
-6.085303454754457775e+00 -2.857125209810351230e+00 1.258458882483226660e+01
1.112897524329355292e+00 -1.830910509484999116e+00 1.599467615711619572e+01
-3.407954476938005683e+00 -5.360329621367021957e+00 1.557651325701985456e+01
-6.108835384036302329e+00 1.378655473813605870e-01 1.575328613203515715e+01
-6.139169181032794853e+00 -3.056120915044818531e+00 1.270380918592874764e+01
-6.506153387036215818e+00 -2.326528123235097834e+00 1.584023223693515092e+01
-2.299810523877003465e+00 -5.223285774613042332e-01 1.134296432601890459e+01
1.441788270012656303e+00 -2.417746030472097019e+00 1.522645891539661278e+01
-2.788895436682203854e+00 -5.427060607577111284e+00 1.654494188492000717e+01
-1.292034717640805352e+00 1.856377468227084160e+00 1.229279278760738947e+01
-4.825741445269601471e+00 -1.607487981911521091e+00 1.675519974267532319e+01
-2.447015363445446567e+00 -5.408941285457063763e+00 1.647467377135483702e+01
-4.835879001905292185e+00 -2.112167040922026118e-01 1.668820223321322516e+01
1.084803079506130752e+00 -1.297604266860408639e+00 1.264906070761958290e+01
-5.474320371147909370e+00 4.727425680487689075e-01 1.635064838230633910e+01
-3.078441182228613959e-01 -1.985538226702428188e+00 1.663736259450461574e+01
7.528680212018502571e-01 -1.279215298491015229e+00 1.227347456844535145e+01
-4.335498898462891049e+00 2.853154638178013514e+00 1.616124903680157843e+01
-1.640338791981812649e+00 -3.219217063431004888e+00 1.370414642176837816e+01
-1.285537227952468831e+00 2.425064833055021740e-01 1.067518980753709457e+01
-5.296162507296260813e+00 -3.022459901175211350e+00 1.221169722804510371e+01
1.241354406009118061e-02 -5.330105166853122967e+00 1.635193941034376763e+01
-1.336354003700481963e+00 1.851203798838317871e+00 1.210903348288079684e+01
-3.942413461485225756e+00 7.261391745148173538e-01 1.686280456028412544e+01
-5.294067880547348892e+00 -2.756819954208575396e+00 1.207600082222543136e+01
-3.440554030761031612e-01 1.786187925524456377e+00 1.436669383876933637e+01
-3.417431393756872993e+00 2.551567303883362392e+00 1.365956148947351068e+01
-4.003614487884600059e+00 3.723230571883067164e-01 1.687040317921115928e+01
-4.698092049995809205e+00 1.765636539803769889e-01 1.115589011355908156e+01
-8.071209359328031241e-02 9.889428527169732419e-01 1.238094749352671897e+01
-3.743567083193350520e+00 5.344028106071607720e-01 1.691146323854550104e+01
-3.702076522491978938e+00 8.597315450060580844e-01 1.689654203788214204e+01
1.545019682959925200e+00 -3.358680744398703233e+00 1.341035553401144398e+01
-3.632467336173016648e+00 -5.422860699211643265e+00 1.537658206578159792e+01
-3.783157385134896078e+00 -5.598928494543301326e+00 1.636584266392282672e+01
7.230452539887141095e-01 -7.793249575508410798e-01 1.607975348158539930e+01
-2.381444947227835396e+00 2.843102955942744536e-01 1.693987086653857688e+01
-4.902056399338011516e+00 -2.877444851273477155e+00 1.219120677235595451e+01
-2.040713348214318046e+00 -3.638090957083853105e+00 1.395276289451136620e+01
-3.052438058395527953e+00 -2.954011392971814587e+00 1.349993695867929233e+01
-1.406684974437987234e+00 2.054055550829026799e+00 1.306582179156941237e+01
-6.208238222944659768e+00 -3.250298158350472200e+00 1.284273219984294201e+01
-6.491437363734654298e+00 -4.106486780452224039e+00 1.572094642442393564e+01
-2.057622169235349130e+00 -2.788010168467666139e-01 1.111257248225187055e+01
-5.130405411516077763e+00 2.189209781566423096e+00 1.495090696816053111e+01
-1.321157551007139830e+00 -2.322874764433742190e+00 1.289792275757725548e+01
3.892108130186336945e-01 1.595393094880102280e+00 1.540097206378719363e+01
-9.772118602122229492e-01 -5.280470971591225471e+00 1.606929155435419432e+01
-4.430698636924997880e-01 -4.131588014430223055e+00 1.657125369079460597e+01
-3.940928572046383582e+00 -3.046195847401318879e+00 1.313614772501844641e+01
-9.979828719937532400e-01 -5.205673835765865398e+00 1.584991418663879870e+01
-3.497185439337731072e+00 2.274535890514324699e+00 1.284033915630112688e+01
-5.916924159514251880e-01 -5.211964558151789717e+00 1.584751153516263855e+01
-5.477588965516677177e+00 -4.760817587828966246e+00 1.348769332588016567e+01
-4.145130539771936462e+00 1.461668142985283803e+00 1.162526478318339684e+01
-5.567186309230370611e+00 -5.343938650605316809e+00 1.649567076888924788e+01
-2.115774697860635101e+00 8.235851703186147788e-02 1.690765284430540305e+01
-5.167734221873812928e+00 -1.443447097030544857e+00 1.669128015816416877e+01
-4.294751224527946221e+00 -4.054049017328100746e+00 1.678364359689936691e+01
-4.525821639599292290e-01 -5.305163682368383427e+00 1.462639474266069328e+01
-2.655496749747714436e+00 2.910018799184133087e-01 1.052377422302825494e+01
-4.261935274249742389e-02 -5.257809890836934841e+00 1.457949606314622315e+01
-2.676456585551986844e+00 -1.186353090584951975e+00 1.201964120427665605e+01
-1.097199728173098077e+00 -4.350929362074372087e+00 1.666248661238370232e+01
-1.215802751615755017e+00 -1.610665365724895270e+00 1.220039052714204786e+01
-5.459305174819965245e+00 -5.893681851442057251e+00 1.605788721908891148e+01
-2.646136378663093591e+00 -1.020074284921490104e+00 1.183497314966167124e+01
5.091792585579943964e-01 1.045163750677138959e+00 1.417606516939270733e+01
-5.699805404789207941e+00 -1.443942709021052373e+00 1.196846425139357351e+01
-1.162024801263501050e+00 1.632857316264223035e+00 1.149334335678307539e+01
-5.634901954585123107e+00 -5.903708987119999918e-01 1.640966162233890202e+01
-6.033512099088524039e+00 -1.357811298904905595e+00 1.626101569806697711e+01
-4.507348055218953320e+00 -2.266195674376680902e+00 1.195344977268594278e+01
-3.643284644741863421e+00 -2.359298364616065236e+00 1.268992455572254840e+01
-3.676392415397070845e+00 -2.758928732839216025e+00 1.310143340121852873e+01
-5.652203867697885187e+00 -2.587367016808924891e+00 1.657192029801181121e+01
-2.214981034142249783e+00 -2.662681654774165629e+00 1.334751742678542996e+01
-6.326120469242688671e+00 2.933629893546565448e-01 1.467457113485647824e+01
-3.933396855568647155e+00 -4.824898884670991706e-02 1.688882798547113850e+01
-4.532576395181770579e+00 1.291563758878522039e+00 1.205292063849886119e+01
1.210151354050649219e+00 -2.728690629621556951e+00 1.282635913190218702e+01
-6.711155368191370485e+00 -3.101541929254262087e+00 1.477599094850095440e+01
-4.754490166572765020e+00 -3.877892972842022168e+00 1.291908702005159881e+01
-4.299706394289582789e+00 2.963709529649744212e+00 1.605879489998655174e+01
-1.870200350213343798e-01 -1.028273736881874179e+00 1.655364991802355945e+01
-3.928316295200841690e+00 2.577014778263129635e+00 1.641409829967784617e+01
-2.987411126627871560e+00 -5.390054076506401337e+00 1.597229656366136652e+01
1.284920118683481327e+00 -3.850614861076478990e-01 1.514441784348691300e+01
-5.530916724543095242e+00 1.586762819317549367e+00 1.455037205316287441e+01
-5.295626720156894507e+00 1.102187125783472998e+00 1.327704943976253560e+01
-1.311252560093589592e+00 8.491918569726757404e-01 1.668436026295484709e+01
-4.244769959761685030e+00 -5.522149261571311030e+00 1.532712544523099041e+01
-5.620634942486272934e+00 -5.461269338631380421e-02 1.243542577715135167e+01
-1.896456014008827129e+00 -3.557458492037830489e+00 1.682767457744279227e+01
1.384563247743124448e+00 -3.493073581171588060e+00 1.592772184554246451e+01
-3.603605227740760419e+00 -1.781752577951834171e+00 1.206967023094117053e+01
-3.676568162294315378e+00 -1.694769103971034419e+00 1.190664593772870816e+01
3.914934896985898805e-01 -5.122664951043985226e+00 1.521026776353355814e+01
-4.257836906566987878e+00 -1.698007798687068748e+00 1.167317301477400093e+01
-2.919493018348409130e+00 -1.715196651232312908e+00 1.250876004177857226e+01
-2.553935219610498741e+00 2.084071577635723038e+00 1.158207613868657049e+01
-8.561467458155619381e-01 -4.278791618726851542e-01 1.116671552566528547e+01
-1.047223081003985534e+00 -1.004071239742711619e+00 1.159928118236361527e+01
-2.845934529029845450e+00 -2.787855781939909239e+00 1.340403004162066480e+01
-4.080921115082753126e+00 1.622076493356801707e+00 1.188825678314347201e+01
-1.486125160055858485e+00 -4.151274156948924876e+00 1.673783991063297094e+01
-3.776279978585637132e+00 -5.579415207240467467e+00 1.657091193564468057e+01
-7.382315293148097313e-01 -1.074001055414008921e+00 1.667060503563820362e+01
-2.538403270445589666e+00 3.031659291818933788e+00 1.631626064384101227e+01
-6.381707237098094510e+00 -5.298571985373767834e-01 1.545444822991819223e+01
-5.069452730152438136e+00 -3.046994971383187867e+00 1.225389401732358863e+01
1.616224541561229744e+00 -3.738721620372336574e+00 1.357866335724180118e+01
-6.257588953851726643e+00 -1.279685416756682681e+00 1.259110350619193497e+01
-2.494881424233116984e+00 1.156802556676110205e+00 9.738929215006830731e+00
2.381023319522739823e-01 3.368126064952632337e-01 1.197855342635230258e+01
8.856742100202505963e-01 -3.407482000670989386e+00 1.635064147161731540e+01
-3.662675877326600382e+00 6.687374660934031212e-01 1.033309224708518315e+01
-6.523451556914128702e+00 -4.707077097348654426e+00 1.533242688121588060e+01
9.044065456467966779e-01 -3.802524272166313501e+00 1.635935319215441552e+01
-2.105865387631022934e+00 2.871565287761654872e+00 1.632385804911533000e+01
-5.364474685194162262e+00 -5.602561083500750883e+00 1.654008251199812918e+01
-5.674056450197218382e+00 -3.271806082376875757e+00 1.240190667211796693e+01
-1.831554707306135787e+00 6.699971340545003429e-01 1.025108293857253017e+01
-3.628187288755307716e+00 -3.760166125648468416e+00 1.386988628823385028e+01
-2.052744962169175569e+00 4.319889728437200649e-01 1.044164488127437806e+01
-6.709252905240801201e-01 -3.962806192033981212e+00 1.661252719464184224e+01
-6.314647722833784727e+00 -4.753697254422672991e+00 1.592801290004849335e+01
-1.229501540813429328e+00 -3.970861742471819333e+00 1.402369471056374550e+01
2.378740204352330911e-03 -5.943070113682182853e-01 1.642787687003214359e+01
-2.411419103337974490e-01 -1.257563617649216425e+00 1.169050062171620752e+01
-3.312383777093125925e+00 -4.662840872535445769e+00 1.680491912907817920e+01
-2.525215774010021730e-01 -1.469135743709212516e+00 1.179725251235291950e+01
1.368165410071038535e+00 -1.541236530540542216e+00 1.292213604488271272e+01
-9.641358252478764157e-02 3.846586331823045324e-01 1.125746928005877123e+01
-5.573278090666741846e+00 6.432677987555115440e-01 1.624692224404678598e+01
-6.247312659656774514e+00 4.945004318765480189e-01 1.512624334141668214e+01
7.232672839915744722e-01 1.036281216574706621e+00 1.476743013923005066e+01
-3.530737670933461470e-01 9.920333501265667930e-01 1.161395066726771930e+01
-6.259562483452189241e+00 -1.326520361923338553e+00 1.601536585838841376e+01
-4.412074562660253108e+00 -1.839725476965441420e+00 1.680822053606787847e+01
-6.324635647984733211e+00 -4.891678320703329863e-02 1.405923262725197276e+01
-4.463571443667090577e+00 -2.851640764690568375e+00 1.677635424942376119e+01
-4.636419920963144037e+00 1.981165946661008315e+00 1.639915527484803448e+01
3.082645925642277795e-01 -1.767238395488690106e+00 1.198748827467129630e+01
-6.257975339281269811e+00 6.976437118870637555e-02 1.547376423628500675e+01
8.307211063059255496e-01 6.087255127753381512e-01 1.537729429576522477e+01
-4.783711130160916980e+00 -1.209622340627351855e+00 1.145582753723179437e+01
-4.904120354677548477e+00 1.774338866979518814e+00 1.633260059963972566e+01
-4.869859495636561064e+00 -3.222149108190333067e+00 1.673734342196847535e+01
-1.031724395238060366e+00 -1.935280080057695251e+00 1.671775000718969295e+01
-6.417757361202777844e+00 -1.124402602731540357e+00 1.565848700940927785e+01
-3.886792089423305008e+00 -2.813821781678725875e-01 1.093585791463341295e+01
-3.841263663873535350e+00 -1.370006908277677793e-01 1.087940365801076581e+01
-6.346729309840439370e+00 -5.338946472682115640e+00 1.463046683928185843e+01
-2.597463370816928574e+00 2.647609456096822633e+00 1.418084480281384430e+01
-4.522519932104611229e+00 -3.006731786906088111e+00 1.676946753508511989e+01
-4.198967135332232203e+00 1.983205872598876818e+00 1.312004821380827480e+01
-5.654302603512664227e-01 -1.910799134619259876e-01 1.653814147599223361e+01
9.694919994832522647e-01 -7.347460027704086905e-01 1.251513814874819985e+01
-2.858699697113114002e+00 5.089616351880144052e-01 1.031597799484960376e+01
-4.811055215943115471e+00 -5.746336143111457240e+00 1.603805308654610684e+01
-2.922129974170182276e+00 3.025256300623214045e+00 1.561153804403078738e+01
-6.639787487063443905e+00 -1.126741981238800427e+00 1.466094442322211933e+01
-3.549798272279399480e+00 7.497492622262684758e-01 1.692797396825454825e+01
-3.223950413346240662e+00 -2.062125385480434225e+00 1.691755569741224008e+01
-6.475326639791243011e+00 -5.118103912786700072e+00 1.514079423016273296e+01
-2.401667206990282244e-02 -2.254313316123480959e+00 1.215883547805806586e+01
-1.428681825773182146e+00 -3.434891491040755973e+00 1.379406272825369939e+01
-3.702335815260703100e+00 -1.887714404595038253e+00 1.208272945236999618e+01
3.682567978114255069e-01 -1.365465342886917011e+00 1.639778705480203769e+01
-6.564025170786715435e+00 -2.856339750096419827e+00 1.381549223528479331e+01
5.337615920294884742e-01 -2.050589540661466259e+00 1.214734632504593037e+01
-3.965054872023001664e+00 -8.666118296605476168e-01 1.687822074617660917e+01
6.405829815445566178e-01 -1.613163032047995049e-01 1.596406249577700720e+01
7.433603958233824249e-01 -2.147631566632245415e-01 1.588333281904460392e+01
-4.302801849478163021e+00 -9.671272456241445381e-01 1.125787218863079175e+01
1.196583870573927344e+00 -2.179892727589967549e+00 1.594663165042307185e+01
6.033796788875528394e-03 -5.326031485229495210e+00 1.600633543873170339e+01
-4.377679306162519879e+00 -3.078657705489220575e+00 1.254266379360214501e+01
-6.098330641492587745e+00 -3.175772920569262858e+00 1.634511739533057550e+01
1.508682588884200593e+00 -1.991681028390555719e+00 1.403516747322218805e+01
-4.746735062369653591e+00 1.408736069873365304e+00 1.650311470203322273e+01
-6.187532704584528531e-01 2.193420965912717513e+00 1.533184829682289774e+01
9.558616207036336743e-01 -4.603127769930084767e+00 1.373438997797845929e+01
1.401593427663818670e-01 -1.166511339169485684e+00 1.647341684070260470e+01
-1.921115628252632879e-01 -5.299382855863025377e+00 1.599597572985182126e+01
-5.140978537413689153e+00 2.001060110707629569e+00 1.452214155240930893e+01
9.427335964646754718e-01 -1.506853486543878518e+00 1.246102214542418807e+01
-5.649636023253650663e+00 1.757057735285380007e+00 1.508590698961157983e+01
9.303266380207881880e-01 -4.493595683181745848e+00 1.362412194918857011e+01
-3.077552807730906004e+00 -2.499247893678242072e+00 1.313322749455526406e+01
6.793778170748658862e-01 -1.451335029877879101e+00 1.217834897167525554e+01
-2.019140967370497419e-01 -5.101909323378059913e-01 1.648151954826400356e+01
-6.282049020779700399e+00 -5.527732532369261875e+00 1.552736752167086109e+01
1.104331570874563573e+00 -2.030582158096317258e+00 1.603946486857330456e+01
-2.115242517444962722e+00 8.800410243338838701e-01 1.688963769991628538e+01
1.542139888378923684e+00 -2.256823428100804385e+00 1.414452365219248264e+01
-2.903923548733294613e+00 2.521255293941202069e+00 1.654566341812764563e+01
-1.054041344890824128e+00 -4.806204809085387275e+00 1.434919846832039525e+01
-6.360345389849689113e+00 -3.409620161700152030e-01 1.541158982559047530e+01
-5.325888103221558367e+00 -2.116200821947640254e-01 1.173361146704209901e+01
-6.318731783824901527e+00 -3.264006661109928320e-01 1.551700488277876389e+01
-6.969285361210879604e-01 -5.543454044265361258e-01 1.125743212525405212e+01
5.120394368547689923e-02 1.081963512315252229e+00 1.301672577840875533e+01
-2.309172311837221603e+00 -3.945927882825023936e+00 1.685809512811960786e+01
-1.066285653362643027e+00 1.823929482484083708e+00 1.286388689352584436e+01
-3.093223849032682438e+00 1.521048705784768140e+00 1.685041510664532893e+01
-3.248262959046295251e+00 1.510127106337279423e+00 1.684257039596072758e+01
-2.151249286879020506e+00 -1.642316166031159597e+00 1.253795833909573076e+01
-1.503209072785679057e+00 -3.333074354146214446e+00 1.676905431357742060e+01
-3.036736280325403659e+00 -1.539856499165670467e+00 1.228655865157529092e+01
-4.475997845637191830e+00 1.973166868139295316e+00 1.646328966364504254e+01
-6.104683305141021421e+00 -4.173876949300753481e+00 1.632081492019273838e+01
-6.200477974239031909e+00 -3.975835302267371141e+00 1.624222373857670476e+01
-6.097288763090642494e-01 -4.222492898206510858e+00 1.394571200370469910e+01
-5.914149652840027471e+00 -2.553563448096364485e+00 1.644950320893315876e+01
-4.049807812422298037e-01 -3.449763326195727231e+00 1.328226290388310815e+01
-2.412643216900466347e-01 -3.657031015393457984e+00 1.330851411642330362e+01
1.372489323443011555e+00 -1.389452702510692195e+00 1.527193058080433730e+01
-2.308184798026587270e+00 2.882748565381890060e+00 1.634274287914237078e+01
-2.601410466761147067e+00 -9.033403707510273550e-01 1.695750359273577601e+01
-1.106210879244755807e+00 4.939852366010222262e-01 1.052748732877716265e+01
1.405468996585403696e+00 -2.999956252105595134e+00 1.559177595233083480e+01
-6.905086882875877130e-01 -3.943382236882833070e+00 1.381632409163860586e+01
1.670267865909690563e+00 -3.387459021226732148e+00 1.419688474242849452e+01
-6.287844133570766658e+00 -4.694378470297521311e+00 1.373762257820307298e+01
-2.321767072800737353e+00 -4.694060759993456955e+00 1.682246442004243647e+01
-6.443534352894991102e+00 -2.510470793071384321e+00 1.596175209397453898e+01
-6.275195304653431450e+00 -2.839525882097634124e+00 1.278915934006607813e+01
-2.698878859041027312e+00 -2.689996678648298278e+00 1.690231089799100062e+01
-6.063654120041244155e+00 7.049701465836761827e-01 1.429990094600276507e+01
-8.677895910784744204e-01 8.335961866868233372e-01 1.048488833036500267e+01
-9.030296394171384300e-01 -1.470155797958144550e+00 1.191886315670250696e+01
-8.728343102800759645e-01 -1.806341686237600719e+00 1.215583815162871417e+01
-5.203745580226328826e+00 1.219082907866496646e+00 1.633213751156365845e+01
1.345003962871613723e+00 -7.777512923828990843e-01 1.450618711057548893e+01
2.208226999207216212e-02 -4.056945408869381264e-01 1.147812754501246957e+01
-5.656574601363637100e+00 -5.659210807822328881e+00 1.637216732701468658e+01
-6.607813109230383120e+00 -6.608311736664836955e-01 1.440796035834584643e+01
1.080447584098919833e+00 -3.025967667822255791e+00 1.271839103352944278e+01
-6.452035760005509601e+00 -5.125536644375574546e+00 1.531983272534420593e+01
-5.918939848180782004e-01 -5.018116556495651359e+00 1.434952555622481896e+01
8.031454665748460897e-01 -5.380970339821113058e+00 1.576952108331076374e+01
-5.938137431592849680e+00 9.919697312407285139e-01 1.443031202356438314e+01
-4.143629964588216197e+00 -3.278122779005456344e+00 1.308944948066410774e+01
8.076280633326277103e-01 -1.401813032335277986e+00 1.616269009222485664e+01
-3.431294936475902890e+00 -5.465331804936673699e+00 1.595211258390489917e+01
-6.157436453064075721e+00 -1.084387395751403638e+00 1.233975282602679613e+01
-2.644700879625318635e+00 -8.449360191571608780e-01 1.163420398150879365e+01
-5.941781216083286132e-01 -3.179048078019527601e+00 1.318937227424903114e+01
-2.776651517702202199e+00 -8.809448637419016181e-01 1.696219665885988803e+01
-1.723443506171229656e+00 2.597197804497829665e+00 1.512503184417096946e+01
-5.441963209576765326e-02 -2.042421303879232042e+00 1.206686325262986514e+01
-6.401053754926973482e+00 -4.195380103428648866e+00 1.365094407934493148e+01
-1.485696857102265289e+00 -2.705089796948276337e+00 1.329178008663515698e+01
-5.464000402465744699e+00 -1.974434892945820197e+00 1.662848582072048487e+01
-4.882892644045293551e+00 5.857889636267978872e-01 1.173471912511774917e+01
-1.649251794974903929e+00 -2.643196782791244814e+00 1.329605430416237510e+01
-5.808590420540429733e+00 -3.643593344431806713e+00 1.264283291094273665e+01
1.343719443850343698e+00 -5.176888950215221996e+00 1.433785054573451845e+01
-7.481877335804262286e-01 2.296902743110103451e+00 1.550318155830476030e+01
-8.540514720329921428e-01 -2.977553057399712877e+00 1.667133187004919392e+01
-6.277242517441982139e-01 -3.492528932909278794e+00 1.350351135611514053e+01
-1.995226857252170305e+00 1.727811678852127608e+00 1.028481361636777081e+01
-5.866565913497218787e+00 -1.784161138881338760e+00 1.644000407168747557e+01
-2.828596059362727733e+00 -2.677298158008589724e+00 1.690092289380677926e+01
-2.247266318801431684e+00 -2.454195720944102987e+00 1.319324151082472696e+01
-5.928335772874840259e+00 -5.021663136095833035e-02 1.305913417287473521e+01
-3.156006843498436520e+00 -1.325242562640940980e+00 1.695697957677424483e+01
-4.841660551146272695e+00 -5.007800055277529694e+00 1.416143879687082574e+01
-6.526234238011470623e+00 -2.551726271081266706e+00 1.581229311995727471e+01
-6.192003341640225145e+00 -1.218216804089562455e-01 1.569919977674821610e+01
-6.616149323319246989e+00 -2.752206323758565443e+00 1.556779257533464289e+01
-3.265715430721575885e+00 -1.325617101997487834e+00 1.187553652683154581e+01
5.869615812103389230e-01 -1.068209964401401590e+00 1.210555500430090348e+01
6.360383229454362741e-01 1.260128285249233260e+00 1.519531464671481302e+01
-4.355039138764038142e+00 1.964527382636325870e+00 1.335528323969383990e+01
-6.261989121020667071e+00 -1.436600759421918561e+00 1.244017542449419977e+01
-1.705740383211726385e+00 2.263345269803996196e+00 1.648877222180289692e+01
-2.482392642578489017e+00 1.631221889377224121e+00 9.744674755310825276e+00
-6.335186687129567673e+00 -5.128187123595521868e+00 1.429818100408360237e+01
-5.797584817181974159e+00 -2.549329275257543159e+00 1.650799449767593785e+01
-1.931419127896908394e+00 2.736219636679521727e+00 1.537983335469223078e+01
-3.128864445229343705e+00 2.308588533722810254e+00 1.259601240063898331e+01
1.576385409189759113e+00 -2.543096887919661597e+00 1.360143634511715760e+01
-6.391657910972513790e+00 -5.042737188340533194e+00 1.436633122777310945e+01
-6.214767524783008312e+00 -4.453231583349800182e+00 1.341309264604206675e+01
-3.188006108909075209e+00 -1.659504703717348040e+00 1.694476883909144505e+01
1.593092014409908996e+00 -4.608685307703241030e+00 1.555249707719251973e+01
-4.021405455305258059e+00 -4.452735708279299764e+00 1.416105504756041000e+01
-1.716575858672851229e+00 1.678484161475531478e+00 1.664898317336803757e+01
-4.528192373601378051e+00 -3.002609017828238080e+00 1.239387957573502064e+01
-2.564567917009938025e+00 -5.373518860517650708e+00 1.609855725925692838e+01
-6.209046683803650879e+00 -4.185777562742631019e+00 1.620954052093208020e+01
-6.040555464033868560e+00 -2.170202238748738743e+00 1.635143851841683471e+01
-4.830099008263797344e+00 1.820107152782305393e+00 1.369137069877248081e+01
-1.858546858555385761e-01 -5.232595946884020854e+00 1.583597017385828565e+01
6.273088383901703757e-01 6.341965827772844122e-01 1.358390677365190413e+01
-5.730232867613855419e+00 -4.953491069752678833e+00 1.367204452225026756e+01
-2.643452960269121021e+00 -3.142451393635771417e+00 1.367014023564507141e+01
-3.797072862681422745e+00 -5.458084668713782506e+00 1.578635734079431074e+01
4.837023145009525793e-01 -1.298319369441241600e+00 1.200067059690942273e+01
2.311896252998025814e-01 1.639844452864843261e+00 1.520115577777276883e+01
1.112235151489586960e+00 -3.890692535830716281e+00 1.306789101556011445e+01
9.455699108892839932e-02 1.419049129665404640e+00 1.406141645427175035e+01
-2.225986731319095746e+00 -1.997478307406240772e+00 1.282917117982548660e+01
-3.761296090075475718e+00 -5.088184411789407058e+00 1.676946852341085759e+01
-5.301639271032939860e+00 1.810310779230604128e+00 1.605948056986411387e+01
-1.521096696887389799e+00 1.736509735368260587e+00 1.088266913843246186e+01
-3.940193097708968306e+00 -5.042407815077348587e+00 1.677480956030338177e+01
-1.869461448307086160e+00 -1.670480752017612591e+00 1.254375935314745760e+01
-5.566460821678533843e-01 -4.963709520843681666e+00 1.653700900784397732e+01
1.138154620728389688e+00 -4.964194604384308818e+00 1.415636865684830781e+01
-8.931784606891502998e-01 2.430554632922942382e+00 1.609335751489461330e+01
1.444278102780733208e+00 -2.989800008707638845e+00 1.542461780494522117e+01
-2.441382614818411456e-01 -5.242725756084616329e+00 1.476434667866743666e+01
-6.469266669847280937e+00 -1.473602881901982631e+00 1.342588772307564682e+01
-2.484516655129688889e+00 -3.709608438379397022e+00 1.686959966526258370e+01
-4.069571483763700925e-01 -5.174090970274853873e+00 1.504041313619801912e+01
-5.434195640860771448e+00 -5.890679249739104506e+00 1.566285880692782939e+01
-2.291741891743710902e+00 -3.723147662726145057e+00 1.686279724269045488e+01
-4.077031378058928013e+00 -2.864693279447322993e+00 1.680927207430904247e+01
-4.786282245644480904e-01 -5.253425092518860140e+00 1.484115465766901565e+01
1.163107348578752642e+00 -4.707888838936954201e+00 1.379199851528721155e+01
-3.224845264771275755e+00 -5.372051762367806127e+00 1.581080327660958318e+01
-3.167897692595889048e+00 -5.421230871670348783e+00 1.668417395914697465e+01
-4.060984049462911472e+00 -1.926793544599278096e+00 1.188154596856660916e+01
-1.629094199434144574e+00 -2.889773458826648600e+00 1.347006563323951411e+01
-1.119990796478743444e+00 -4.165911861510247505e+00 1.667502239259945185e+01
-6.610024118547549676e+00 -8.555994168927569810e-01 1.485524708205682742e+01
-6.689854883177412503e+00 -2.066578393444069128e+00 1.525568115746838771e+01
-5.545322361279477974e+00 -3.435971762986466338e+00 1.661595525492269587e+01
-6.407129758947609499e-01 -4.098345750308038049e+00 1.388799566043520173e+01
-2.337070160527744189e+00 -5.095317330615039886e+00 1.678494409781477259e+01
-6.295384659568865615e+00 -1.423208458055825298e+00 1.262909677624575977e+01
-4.159973123481346402e-01 1.938109043395359610e-01 1.095963004206820912e+01
-2.277896692737455986e+00 -4.144608920376809946e-01 1.123490633906928693e+01
-4.135270142591949138e+00 -4.669201369893542619e+00 1.678809226710043134e+01
4.334182259521632830e-01 -1.755062942491586453e+00 1.203228190307028100e+01
3.450360132704914928e-01 -2.459818842959207164e+00 1.225171233614845789e+01
-3.853435793410436627e+00 -4.964604842649988470e+00 1.447327711105172199e+01
-3.741804204867948958e+00 -3.078276218285232346e+00 1.335044989427628082e+01
-1.648851234573004199e+00 -5.226083836286933959e+00 1.530104380931116026e+01
-1.247362425709004574e+00 1.442572053782001928e+00 1.049682302853285876e+01
-3.200293279148703540e+00 -1.500985788374243457e+00 1.695202588134844035e+01
-3.012611796455397339e+00 -1.693759051084987588e+00 1.694899856410164318e+01
-5.704946092837387184e+00 1.649260017762147035e+00 1.569633512778407436e+01
-1.069705560280952705e-01 -3.991889924016334135e+00 1.652987843618625163e+01
-5.640775537967417819e+00 -1.971300886270913155e+00 1.656335777758084760e+01
1.003874997095945298e+00 -5.429326157676643838e+00 1.575909355951625201e+01
-6.481618083891387272e+00 -2.127848073738331625e+00 1.586093938359996258e+01
-3.229763654145031193e+00 -5.364312357941677156e+00 1.538655212998840227e+01
-4.705400858189690894e+00 -5.265786375203534320e+00 1.673391396502364614e+01
6.705011444184959535e-01 6.597578213205752551e-01 1.377505866560487391e+01
-2.626207381597621016e+00 -3.265814026589124452e+00 1.374612651372454764e+01
-4.293684176044417100e+00 5.438966884612783659e-01 1.074905566102254539e+01
-2.608663902472342588e+00 -1.781315218887268959e+00 1.262474259600359261e+01
-4.131406741258096815e+00 -4.063040918731642748e+00 1.679055550213854531e+01
-3.029735233285100193e+00 -4.848578443420777262e+00 1.450316106775893132e+01
-2.847311764743593265e+00 -9.091714941254495086e-01 1.165326461647174838e+01
-2.587411392440805424e-01 -4.314517201338974317e+00 1.388815928424684643e+01
-5.503040201822944510e+00 -1.072137864493583503e+00 1.175645087284671675e+01
-2.253877429484535178e+00 -8.752629869997297085e-02 1.091671050840367485e+01
-3.782292632259025122e+00 -3.639678213178222599e+00 1.375497091522834125e+01
-5.231747519598908269e+00 -8.476466159461555350e-01 1.155220268042784326e+01
-1.838233610126890571e+00 -4.046180798434647841e+00 1.414562771449313061e+01
-1.640787764755085032e+00 -3.894855385621626809e+00 1.408470233017987994e+01
-1.022067587487158313e+00 -1.340926434908704223e+00 1.187136107598072599e+01
-1.491709236548294237e+00 -3.894901677195022671e+00 1.406985085712096151e+01
-3.516400112934893407e+00 1.327955012997583450e+00 1.685173131458650886e+01
-5.295829652575781310e+00 -4.727910082656027413e+00 1.350492824432038219e+01
-2.189074264632004496e+00 2.844795302824597805e+00 1.539725234750939364e+01
-1.024799643712285935e+00 -2.224310149345895216e+00 1.260148198870928837e+01
1.602953437477586895e+00 -3.986147355147007687e+00 1.357170899762356697e+01
-3.759997240276329755e+00 1.898769006151650673e+00 1.202204173278454391e+01
1.593500403923081565e+00 -3.174347401570179805e+00 1.460554994688605035e+01
-2.941404670340102889e+00 1.103445557813476086e-01 1.697454058798512477e+01
-5.295723464306407280e+00 2.203731565510054224e+00 1.589361045662116112e+01
-1.727549098480677614e+00 2.042095341874869519e+00 1.212539672796945212e+01
-5.074960734395473239e+00 3.425515756806607470e-03 1.155323636845466595e+01
-1.456963399605994525e+00 -2.334947861066368979e+00 1.678397777527131041e+01
-4.287290918019868613e+00 -1.891295021125979803e+00 1.682188897745140821e+01
9.445091058642158810e-01 -3.705426019805757143e+00 1.294814271241714465e+01
-2.465189185677751027e+00 2.705307804449740061e+00 1.643824036276323852e+01
-8.758022354662191311e-02 -3.493799121433029953e+00 1.301297793648510748e+01
-5.759416798719831476e+00 -5.185689180485493210e-01 1.212011646294532596e+01
-4.723386987837203677e+00 -3.663683408099216443e+00 1.276375080468248058e+01
-4.195451231431656325e+00 7.281654740775924672e-01 1.064086393781745699e+01
1.598208545811869996e+00 -4.045820449922689299e+00 1.520301617320050269e+01
-3.281890407579339808e+00 -4.076222082960130777e+00 1.412973321137835825e+01
-8.380365272303419433e-01 -5.089483923298058876e+00 1.443893320312514561e+01
3.344995731539809336e-01 -3.679627605708093441e+00 1.300858327812171922e+01
-6.499112064814180911e+00 -3.724558550227619946e+00 1.576383482703881356e+01
-6.554962482882979558e+00 -1.467587120871208128e+00 1.381516744273346831e+01
2.679919523087030409e-01 1.333032223411689809e-01 1.178495276810138748e+01
-3.609928995914704619e-02 -5.253501256451702517e+00 1.445371914410444703e+01
