-5.169438140911340795e+00 1.971947666356611784e+00 1.319028361868087984e+01
-5.509621715339518389e+00 -2.338765111795155782e+00 1.753910193033041054e+01
-4.590122536393284491e+00 5.563320248123849510e+00 1.715838343038933544e+01
-4.149899120894502857e+00 2.178295196544671519e+00 1.888016363359128746e+01
-2.423805652465133242e+00 2.449284171544856559e-01 1.396518943076360841e+01
-3.547905276188239920e+00 3.021828912032129111e+00 1.862187555602864819e+01
-1.980398020167128958e-02 1.671673705293723833e+00 1.733657699308766809e+01
2.694965524011651570e-01 -2.979922398279095663e-01 1.546798139481522583e+01
-2.478790200350064588e+00 -3.532899373660931541e-01 1.521968286416412752e+01
-3.996378079923963433e+00 -1.214502533470451784e-01 1.466179456971956085e+01
-8.615220420356266562e-01 1.949997804857019901e-01 1.398130366321981910e+01
-2.967226800601696635e+00 2.167820234089026243e+00 1.888007610982336359e+01
-6.418272110336047831e+00 4.543060451066073924e+00 1.638549182420418759e+01
-7.278064690503576628e+00 -1.683851636631936710e+00 1.934142291428005933e+01
-6.752333961256161032e+00 -1.340902303987390631e+00 1.496079909037543132e+01
-3.230229365432130351e+00 3.692208968401101465e+00 1.482201229444951451e+01
-6.113414998747733975e+00 3.253835576936832563e+00 1.812744304666772877e+01
-2.363586185964310360e+00 -6.427617539074497177e-01 1.568504902275549284e+01
-2.585256989237394443e+00 6.252103852463022360e-01 1.329404515099315631e+01
-8.164524994460578000e+00 -2.735757198372892329e-01 1.667549255288110288e+01
-6.583662842235157520e+00 -7.331740113618387955e-01 1.437475881345180539e+01
-3.560126660045305869e+00 -1.499692386722155213e+00 1.977114030131173195e+01
-1.180202204919291731e+00 -3.040566183262884525e+00 1.773817233182832354e+01
-1.360113192598028098e+00 -3.093859139535509950e+00 1.784911139483770626e+01
-1.483976927446235994e+00 1.862292291097783714e+00 1.882581654618674349e+01
-5.079306625589287139e-01 1.712643384454544782e+00 1.586423975281350351e+01
-2.832841000126656184e+00 4.201897822740075505e-01 1.368595730317701964e+01
-6.787695130422589429e+00 -2.565533986233929920e+00 1.737316530867629183e+01
-3.733045995814064710e+00 3.233207121659710470e+00 1.853922468469764340e+01
-4.363797744591394689e+00 4.110331662188340118e+00 1.810459682885126398e+01
-4.365983388294484513e+00 5.704289087431140715e+00 1.683415408987868744e+01
-2.799654336909106700e+00 -5.349485402854825544e-01 1.567762014865834175e+01
-7.675729609334575265e+00 1.460761160165109374e-01 1.484869339315927306e+01
-3.808327825500825270e+00 -1.812363990323602181e-01 1.949972229894381570e+01
-3.586198551803743584e+00 -1.711490422216417340e-01 1.948042038418140010e+01
-7.164015919500301699e+00 3.723953118691252229e-01 1.415777493019243138e+01
-2.819555473921261157e+00 1.769030652756687694e+00 1.260788086526847707e+01
-7.375674094385781920e+00 -1.931271358744711453e+00 1.585346837483541549e+01
-5.004696345714090278e+00 3.258805849710637581e+00 1.846023369109757084e+01
-4.983723250605274657e+00 3.070656351343982848e+00 1.854653044985150956e+01
-1.613403960641203394e+00 -3.325575000349924704e+00 1.951554149078192779e+01
3.963891626075394248e-01 -2.169495173845468639e+00 1.802303821039735965e+01
3.390281815096722329e-01 -2.123945130900284806e+00 1.824103754089684770e+01
-2.985610922421146007e+00 -1.314032778628861919e-01 1.486545612943423578e+01
-3.576629254772544009e+00 2.186018925466855389e+00 1.256441425384311117e+01
-4.373170614337645645e+00 -3.765963355481893871e-01 1.955961159313170583e+01
-3.963174484866252456e+00 2.292922540326303160e-02 1.945527278308533425e+01
-6.794424653313641649e+00 8.669727144015285658e-01 1.899927488036875900e+01
-4.769953973283443283e+00 5.905857662844391509e-01 1.932523329590636507e+01
-2.384531538511882598e+00 1.183600605866786726e+00 1.906846042001703267e+01
-5.768084148946813094e+00 -2.024163670075418420e-01 1.956562960576944477e+01
2.534429442314763969e-01 -6.271224059446274257e-01 1.828532097419824254e+01
-5.567699275606480036e+00 -3.784064942465021897e-01 1.961441031526568679e+01
-2.341274692854788508e+00 4.639042185770400728e+00 1.686473167812577856e+01
-6.769925275262657749e+00 1.441870065509117449e+00 1.873261912757244829e+01
-1.230287015451609900e+00 7.491615335502073147e-01 1.354446604387886310e+01
-7.545515738634854586e+00 -2.652307887020908250e+00 1.763844461587692081e+01
2.168843336865529658e-01 6.334462949066870241e-01 1.771647198362574471e+01
-6.585171354794338683e+00 1.030452677812192297e+00 1.900181391020313981e+01
-2.552730465923332304e+00 -1.007324795288143227e+00 1.950839779634148385e+01
-2.134572338957997584e+00 1.861217861835974263e-01 1.923159632107797279e+01
-6.355171810419755651e+00 1.422164578356995168e+00 1.890124058826025077e+01
-2.580000300563642046e+00 1.229414438709782731e+00 1.907176481258459688e+01
-2.045948906143121082e+00 1.349878424344063577e+00 1.277708983408108878e+01
-4.350229452728759938e+00 1.216882306907272060e+00 1.914663833101437262e+01
-2.212094541714520357e+00 8.132253894677936579e-01 1.912634130062304649e+01
-1.145989788033938472e+00 3.234355719239101923e+00 1.799668650379462065e+01
-7.781392552573575649e+00 -5.252724667564112604e-02 1.508828615934648809e+01
-7.201035753116935112e+00 3.310147647425929041e+00 1.637930388231260537e+01
3.737531829894344404e-01 -5.332572782433386838e-01 1.607061892488408006e+01
-2.016796820313258465e+00 4.605391426933479693e+00 1.722047323233638139e+01
-3.147406602044259039e+00 5.492159646531604267e+00 1.709944449860986282e+01
-6.462369281924882358e+00 3.427270173075243953e+00 1.551098122618342501e+01
-6.934857767172214471e-02 -1.402931908863093824e+00 1.549136888227785391e+01
-1.536016506814412708e+00 4.071007535559628465e+00 1.716704077401044515e+01
-2.754116524432518531e+00 9.819525958474348837e-01 1.913323976138303095e+01
2.492402271101482047e-01 6.537171459948809549e-01 1.708951791509662854e+01
-1.164004740665261606e+00 2.221901494777433150e+00 1.855671306513372798e+01
5.445224082565933155e-02 1.443884529922410342e+00 1.735478007609609108e+01
-6.070210637495099704e+00 8.034598664649097444e-01 1.327695640534497556e+01
-7.587148691536576006e-01 5.461387561140869096e-01 1.406497044051440781e+01
3.685673592278482236e-01 -3.546945281776834324e-01 1.607151216916278713e+01
2.363543356419865182e-01 -1.185144252236927098e+00 1.849301037378441492e+01
-6.625606524967125210e+00 1.799906821077613239e+00 1.451719602188945402e+01
-8.094431321647505229e+00 -5.092911821594607868e-01 1.610917932551566167e+01
-7.713165215606434089e+00 1.303381898786438509e+00 1.538852812013143989e+01
4.355474745950441706e-01 -1.143726794314358308e+00 1.703855712555917279e+01
3.252350067441996950e-01 -1.690663145870159312e-01 1.747089571552926657e+01
2.240213708341536325e-01 4.695569761195966252e-01 1.607434216217317413e+01
1.488964091077958907e-01 1.051204553988396961e+00 1.673686984951466172e+01
-7.309973184678980829e+00 2.698873223186743164e+00 1.599714690529765448e+01
-3.224609498068742308e-02 1.648579761144879141e+00 1.714550175220353623e+01
1.387513842871521685e-01 8.254434130709138451e-01 1.611062311532648295e+01
8.281260235649534618e-02 1.265960361391459621e+00 1.674268041512917904e+01
-2.107776092204615703e-01 2.050703449162357472e+00 1.715501185730537514e+01
-6.547766346717081909e+00 8.094268242531083013e-01 1.378481860982684992e+01
-6.154542538728626333e+00 7.897271222550050762e-01 1.336396270215702486e+01
-6.584007590200892324e+00 9.862633148192352373e-01 1.391825482604428288e+01
-7.295612062797595776e+00 2.526380150188812124e+00 1.582793562043271862e+01
-2.554260061152072048e+00 1.025363428567678925e+00 1.911087927947170328e+01
-7.013748056924431040e+00 1.999969473829430910e+00 1.510949370264101788e+01
-7.034771933286451784e+00 3.145852700781159417e+00 1.594152185220025331e+01
-6.946623121680082669e+00 2.536507241304610805e+00 1.540321807549178601e+01
-3.389619762502917855e+00 2.980443104291102152e+00 1.372806756831977282e+01
-5.922823129367088768e+00 1.002855512179447572e+00 1.319118713086999861e+01
-6.782184666992448818e+00 1.568134022922079041e+00 1.453793861644918906e+01
3.545380961193680958e-01 -1.371905020360093541e-01 1.667600817351827658e+01
-6.381660962452141206e+00 1.381940921625738561e+00 1.394197841446860053e+01
-6.532562814411067009e+00 1.753575842502216098e+00 1.437553462112232694e+01
-1.249349418033840475e-03 1.308960751301789349e+00 1.635305717259139868e+01
-6.078352852800389394e-01 1.300245530486345391e+00 1.514246221502754963e+01
-8.162995394788371328e+00 -4.932161978126399227e-01 1.649106892913086853e+01
-2.382709286400647164e-01 2.027943512866519082e+00 1.694009506580113822e+01
-4.217745181048624392e-01 2.455147565071952975e+00 1.714961645727562711e+01
-2.909215903634033706e-01 1.925572356284040998e+00 1.657414644851983354e+01
-5.433500707347858061e-01 2.436460248831078257e+00 1.677304075092161639e+01
-2.021320693355364462e+00 2.108314086897099315e+00 1.378073078804185769e+01
-6.012789314412578356e+00 9.966581384456546511e-01 1.329006229936948813e+01
-6.182864601676343774e+00 1.395574706224083306e+00 1.372101216758035491e+01
-5.728471018015509841e+00 1.387537829113339338e+00 1.320274100543512930e+01
-6.767903797979877289e+00 3.111870908319756879e+00 1.559855632032592609e+01
-6.413353900460202262e+00 2.179678584088303062e+00 1.453558609144621272e+01
-6.578717033895936872e+00 2.552941485701632374e+00 1.498941757955299181e+01
-2.335654302319444930e+00 3.939139080893788947e+00 1.598414895404997793e+01
-5.391932297806673047e-02 1.209046035148987563e+00 1.597447727633090864e+01
-5.724244443224507650e-01 7.396305971600721785e-01 1.451240877586896261e+01
-9.723272807749838709e-01 7.686185272969725535e-01 1.390882495532010665e+01
3.332681414903940209e-01 -1.935702099778507268e+00 1.825109521649372368e+01
-3.574012904573081739e-01 1.105535227345524341e+00 1.531301717414145003e+01
-5.333005372471624206e-01 2.078155364513562198e+00 1.629960966220551200e+01
-5.932400956730499164e-01 1.892039414883532000e+00 1.594292787316030058e+01
-7.833960427984054675e-01 1.534438985383225873e+00 1.512983271486967141e+01
-1.249494413416404770e+00 1.102044059839313972e+00 1.375095285741803508e+01
-1.040773383381403017e+00 1.317926140045889483e+00 1.437255457841271067e+01
-7.699058855383154043e-01 2.473345122409234875e+00 1.636482910289373649e+01
-9.391453432732927986e-01 1.919441568391346609e+00 1.533312589096993150e+01
-1.187479649932946524e+00 3.414053876034871315e+00 1.682899498685141282e+01
-4.567458335145772708e+00 4.529620546575736206e+00 1.542436287162593800e+01
-1.100160942628420457e+00 2.938315533015233072e+00 1.634930178576807691e+01
-6.743077519088138239e+00 7.518246990668506768e-01 1.395907862733022853e+01
-1.119020745051579668e+00 2.493123681158507576e+00 1.573875924814127814e+01
-1.149447474216009013e+00 1.931039346088908371e+00 1.495271138022592083e+01
-1.338014151728294632e+00 1.601525777211419310e+00 1.416901870081805015e+01
-7.163952241628369855e+00 6.084007682100175396e-01 1.430320721926386085e+01
-1.576801522894639263e+00 1.573918386036671002e+00 1.370515804032081775e+01
-1.344116496575541886e+00 3.454974321195418696e+00 1.658783522838249525e+01
-1.234934701116647160e+00 2.084029454047507279e+00 1.499119739592043032e+01
-1.164137347194484917e+00 1.665233807824341827e+00 1.880708544488567924e+01
-1.366652297795849513e+00 1.755765450939074102e+00 1.431511617146662019e+01
-1.417334378844500087e+00 3.430901010404710849e+00 1.643224058044151548e+01
-1.576244090125426212e+00 3.888861456900951641e+00 1.682060863869070033e+01
-1.755619182860520766e+00 3.885081776422400157e+00 1.658935987743031149e+01
-1.514261945928894848e+00 1.803374486512155039e+00 1.410784351979972229e+01
-3.449440223041544851e+00 1.976275942792484086e+00 1.240621248781356201e+01
-1.644974948741282583e+00 1.560389614685833815e+00 1.356795188271781427e+01
-1.894461566587272383e+00 3.963880279776796911e+00 1.652077068883896516e+01
-6.724835639416145483e+00 3.513412300233043073e+00 1.584905830616655464e+01
-3.388243906871478917e+00 4.719325972797728141e+00 1.601492884308415654e+01
-6.603708332579254048e+00 2.966313347377395715e+00 1.531684435027698044e+01
-6.430684962070526645e+00 2.418437082279822903e+00 1.473048479184875958e+01
-5.640292408082273390e+00 1.605611158073507738e+00 1.328017299565379261e+01
-5.179661127546456356e+00 1.420270466898169159e+00 1.271035004026255422e+01
-4.615285555171549703e+00 1.624405868858903812e+00 1.247538309533991452e+01
-7.833165110887276406e+00 1.154857110240924412e+00 1.551999628679173071e+01
-6.575648328025606837e+00 3.911881470453850707e+00 1.599791159338445112e+01
-1.595927167594448193e+00 4.049637949671138770e+00 1.702462085037399220e+01
-6.410705017626723290e+00 3.343485841655391422e+00 1.539604050756352649e+01
-6.214408543792575124e+00 2.758288273904491383e+00 1.476360297483662976e+01
-5.243589340429893220e+00 4.801570721686315935e+00 1.594410100704772049e+01
-5.957506517896937304e+00 2.322198297430657199e+00 1.418325609703020262e+01
-4.526379677696928283e+00 1.618355155927638567e+00 1.241880781328561767e+01
-6.307341446228804216e+00 4.303642352852275366e+00 1.603073439717798720e+01
-6.252987433317825250e+00 3.174380346033962130e+00 1.511223993468717453e+01
-6.115994602584980733e+00 2.721141705232402508e+00 1.463845662130969316e+01
-4.948907858191386566e+00 1.967575058206196603e+00 1.299666936684194951e+01
-6.205934020639605642e+00 4.157688969277108626e+00 1.580747767532130865e+01
-5.955811249670162510e+00 3.152379290604310658e+00 1.480966458261112706e+01
-1.056166320763010313e+00 2.274223743328659175e+00 1.557229921318761257e+01
-6.153694622360077027e+00 3.732740428039466263e+00 1.542939401535421950e+01
-4.550171643586947923e+00 5.294155842786604893e+00 1.640175012815188893e+01
-1.953608054995030319e+00 4.085046356522313182e+00 1.660539493873269379e+01
-2.545698573552538591e+00 2.846654196214288834e+00 1.863873094510787354e+01
-1.712759073575807811e+00 3.352096823849586738e+00 1.596542271018210357e+01
-3.388940108040066068e+00 2.847428861086165774e+00 1.354473548282012985e+01
-1.797819793564528812e+00 3.457285324113478886e+00 1.599749633728026765e+01
-1.743632776129839357e+00 2.932052981093712152e+00 1.534842449997000813e+01
-1.645541108710400824e+00 2.448924197101232991e+00 1.480584311694482125e+01
-1.958504487375407166e+00 3.310085287765487383e+00 1.557889329358184938e+01
-1.815902413206440080e+00 2.878288107810910379e+00 1.516568547483075946e+01
-1.758851945010696749e+00 1.965427034740088619e+00 1.393692167228343948e+01
-1.924781684050415720e+00 1.822171917177911826e+00 1.349834548996715711e+01
-1.940878405375308535e+00 2.565787522827981171e+00 1.454592708021503000e+01
-1.964455218801225644e+00 2.168006563270634679e+00 1.393904096532085646e+01
-2.915995350873275882e+00 4.721978767816474409e+00 1.641479510214720960e+01
-2.203494192528529183e+00 1.799532673707993968e+00 1.314973776011593287e+01
-5.726067878683446466e+00 5.218096366051614865e+00 1.652125973625297206e+01
-2.166905946809956962e+00 2.193074467470811584e+00 1.374304072247826980e+01
-2.198238045704318466e+00 2.684212183388597239e+00 1.440572182314384975e+01
-2.187242736887372807e+00 3.097485618499436377e+00 1.499715184081900077e+01
-4.938079616484793100e+00 3.844513488130281598e+00 1.816853849537169907e+01
-3.155034297945695787e+00 4.888667130388482107e+00 1.642638420388446008e+01
-2.774665805274563635e+00 1.662092551240806459e+00 1.252349068016709310e+01
-2.401835091642011921e+00 3.280304066962975273e+00 1.501061028150808596e+01
-2.363473685658657342e+00 2.758698520742338012e+00 1.433729370828281446e+01
-2.566189779629203471e+00 3.701535302792335003e+00 1.541407091306571431e+01
-2.758424896660512271e+00 2.023793541957403797e+00 1.296391234094296863e+01
-2.527130103877097689e+00 2.415093857218503892e+00 1.370945008629414730e+01
-2.980496101364858763e+00 1.805510711691370451e+00 1.255306963343581828e+01
-2.741421571099806886e+00 2.433071201602483580e+00 1.353258717763902297e+01
-1.868562874980198796e+00 2.657058407454106597e+00 1.477269665351892058e+01
-3.109868958889052237e+00 4.543466235470946302e+00 1.599934852994325496e+01
-3.354530714980532125e+00 4.902115457027393930e+00 1.624925175172590031e+01
-2.967867911856392649e+00 2.168431572033069799e+00 1.296378824120924378e+01
-3.148902680630868200e+00 1.841699746799799975e+00 1.248127845495702815e+01
-1.192157676673568423e+00 3.006626264415916516e+00 1.815833243209461756e+01
-2.725216592588694642e+00 3.385712559709654457e+00 1.482668033159809795e+01
-2.935318614482400168e+00 3.964524766533660927e+00 1.539629712013917384e+01
-3.175322219310260152e+00 4.463620533365054044e+00 1.584137724641126255e+01
-2.802615209453058753e+00 2.524638270824325126e+00 1.359823713213418017e+01
-2.830587941841181010e+00 3.464852015440312627e+00 1.482975514221415381e+01
-1.286476542142007018e+00 -1.181188484153806506e+00 1.535578105134822380e+01
-2.944266744330245267e+00 3.180816510183965828e+00 1.434687086178825410e+01
-2.996967267229481369e+00 3.543882831044775639e+00 1.478824966602088153e+01
-6.020400531390854404e+00 3.795769765146169927e+00 1.534895655210347343e+01
-5.174242919115640049e+00 2.197285649139518071e+00 1.337417646975357144e+01
-4.369370061725694754e+00 1.777821542435797042e+00 1.242486254126883694e+01
-4.453719608613477376e+00 2.285965919011204051e+00 1.287084585101335676e+01
-5.753614635679945799e+00 3.137890023382400972e+00 1.460994091078637780e+01
-5.431136898042645988e+00 2.613514021341108329e+00 1.392218765201167230e+01
-5.117653848600199673e+00 2.337221169003876664e+00 1.343476554326954187e+01
-4.799124413624993757e+00 2.026322899332532401e+00 1.291664849169418972e+01
-5.056476992330890319e+00 1.696799882274931504e+00 1.285689575761553982e+01
-5.368743364723514766e+00 2.771189336322728902e+00 1.398876916337886911e+01
-6.188313447027963043e+00 2.534004950308260007e+00 1.847274632209457224e+01
-4.974086144147341848e+00 2.607944982800807665e+00 1.353408133419522841e+01
-3.357305646598003346e+00 2.046412625055439971e+00 1.251683966959210181e+01
-3.169815668451156920e+00 4.121783342613486667e+00 1.541633171907527355e+01
-2.969644980426616510e+00 2.609486715161703607e+00 1.355483135925771165e+01
-3.202824068723979067e+00 2.337330018267669729e+00 1.298102009233148380e+01
-3.758724486114654262e+00 5.076681382530107811e+00 1.627196795781991767e+01
-3.971849940903442899e+00 5.101770496991832715e+00 1.624705188229729913e+01
-3.743334342788854130e+00 4.678134071014806494e+00 1.582328146453086504e+01
-3.164113350044409856e+00 3.347556673588989451e+00 1.439844190322691730e+01
-3.178037291612655135e+00 3.522999564612062873e+00 1.462765048808532242e+01
-4.152930093047977778e+00 5.054320255866352696e+00 1.610876591470287877e+01
-3.751729653992549096e+00 4.528063854531674259e+00 1.562549058688252757e+01
-4.471770223514415221e-03 1.460525606390405517e+00 1.670975097407560384e+01
-3.369795619742467441e+00 1.789542808961136267e+00 1.232578912749553979e+01
-3.561573982766474522e+00 4.149662655568749692e+00 1.523027839686825757e+01
-3.260764165155041638e+00 2.708683084132606833e+00 1.344421955207520369e+01
-5.175314148166446415e+00 2.990716838779143849e+00 1.402527204008933381e+01
-3.577921512216530875e+00 3.688352055289099152e+00 1.458557074700210876e+01
-3.927793480526400316e+00 4.655168954433702488e+00 1.569604155121403721e+01
-5.717390738615332424e+00 4.622860804431524251e+00 1.589073581416437975e+01
-5.566877583317785927e+00 4.154412941117564984e+00 1.539126218552048897e+01
-3.625013948340907177e+00 2.869085316191437585e+00 1.867485378723673506e+01
-5.161403087368587883e+00 5.090143376489772109e+00 1.622766554772445602e+01
-8.709844585410271289e-01 2.208936866070519756e+00 1.583225632896395751e+01
-5.360019179179309923e+00 4.585000221064090553e+00 1.575763043155136245e+01
-5.166171003418256191e+00 3.563386113389350296e+00 1.460629256689574618e+01
-5.132712787765553841e+00 4.511339965788900841e+00 1.561167154180613181e+01
-9.236669613272645574e-01 3.257145597257623759e+00 1.718769692256942960e+01
-4.961870243990290419e+00 3.124986021311933371e+00 1.403510436275765016e+01
-4.954286515548100844e+00 4.170404466405287280e+00 1.516650191013205529e+01
-4.963942588467462613e+00 5.034420672385598650e+00 1.610357501855153828e+01
-4.776504633407411049e+00 2.582958062292858958e+00 1.337341800855049456e+01
-4.601318780203231817e+00 2.669058734076545036e+00 1.335191880469637482e+01
-4.766862793584325964e+00 3.169620732600757052e+00 1.397938040837604490e+01
-4.757350684568574906e+00 4.882949626657168807e+00 1.586093425408357405e+01
-4.225000547228657588e+00 2.361618905199873719e+00 1.281988195755508997e+01
-4.758732903771847766e+00 4.325468541790930210e+00 1.524316857489723276e+01
-6.160483859202178003e+00 1.425237158643281266e+00 1.894942335413828971e+01
-3.393921449428007886e+00 2.749434942775783153e+00 1.340550035885735269e+01
-3.401476997362574917e+00 2.421073330466477103e+00 1.293580507391664014e+01
-4.394588996120354807e+00 5.074881266231406229e+00 1.606762232560146231e+01
-4.181224663704970368e+00 4.654270571870300799e+00 1.560936323642011558e+01
-4.586007316351860652e+00 4.360001849573433397e+00 1.523073040804180778e+01
-1.229884065482886202e+00 3.039780043850227598e-01 1.919842959894220513e+01
-4.346156458512080434e+00 2.709242089589712243e+00 1.324972232090912883e+01
-3.938378476832538055e+00 2.392273331010575710e+00 1.279554719148751474e+01
-5.346631656839437419e+00 4.302000463756272097e+00 1.546387770076488266e+01
-4.172737543537587968e+00 3.006512081193507324e+00 1.360485197525947854e+01
3.450075615067569323e-01 -1.558822562513034526e+00 1.808433656661162559e+01
-4.182435882453133580e+00 3.519701521570022251e+00 1.423867782405491056e+01
-4.356784241414264791e+00 3.982933728456226952e+00 1.478706791219504169e+01
-4.364548165676094271e+00 4.528383577564659035e+00 1.543136870476957512e+01
-1.724969531499197295e+00 3.512463360083601938e+00 1.615767150070382741e+01
-3.602895448544822354e+00 2.480189722012360320e-01 1.394150690676790560e+01
-5.561866025679084835e+00 -5.082113477321206219e-01 1.467035396156077809e+01
-5.623980594750557671e+00 -5.699919333290262013e-01 1.472734021062534993e+01
-4.593644722224610177e+00 -5.680020303881083699e-02 1.431535917015476400e+01
-6.005887089739227136e+00 -3.410328484139090843e+00 1.838907343737560041e+01
-6.782369029940745975e+00 -8.475130774692329894e-01 1.450793629315257505e+01
-6.162953461140931566e+00 1.842054717726267166e+00 1.878556880241674776e+01
-6.552010033459727545e+00 -3.273345175497588411e+00 1.827331153332668379e+01
-7.300147036711055470e+00 1.429672206059259487e+00 1.831284540507856207e+01
-2.972755139413379322e+00 1.232415240101538689e-01 1.430926064315278268e+01
-2.983220239558681985e+00 2.277957251700657437e-02 1.452451887717999313e+01
-2.997325949100985376e+00 6.816689001904108203e-02 1.442774067162805807e+01
-5.180520325776020840e+00 -4.154655696391835740e-01 1.960649464274879961e+01
4.185959817829720819e-01 -1.358733433325354234e+00 1.747333969412301968e+01
-4.995651999832361412e+00 -4.098620109006489987e-01 1.959521973312649834e+01
-2.580319064993732425e+00 4.831014023171235294e+00 1.685897633240247018e+01
-4.377086833898259144e+00 -6.336186308801838862e-03 1.947226412881709479e+01
-6.525051212855056626e+00 2.175644785448323404e+00 1.849158145207486115e+01
-1.584478891656618149e+00 -3.653332712944610261e-01 1.930607405927567299e+01
-7.273477005136385287e+00 -3.032395559585459477e+00 1.868072795982060796e+01
3.697824440574896676e-01 -3.388076051247532749e-01 1.623517843115947556e+01
-5.785698838407855149e+00 4.063645868275872486e-01 1.936707220437999410e+01
-5.917351258466358566e+00 7.656988816329294290e-01 1.923112093242433929e+01
-6.791264672673656300e+00 1.055661365028008891e+00 1.891056517401501225e+01
-6.969216872120574280e+00 5.743376060102325376e-01 1.905101092684321884e+01
-3.449849690668947311e+00 6.965314208050014111e-01 1.302524680900213383e+01
-6.560697398319396356e+00 3.714595764611003048e+00 1.743934789628843163e+01
-6.509385845746458621e+00 3.876796343185644478e+00 1.735772283584213227e+01
-4.355979197026729643e+00 2.730896776686922989e-01 1.940179085761770494e+01
-4.137763390264015406e+00 6.165711922859604677e-01 1.930915479283520853e+01
-4.958721321790935832e+00 4.065204584158763623e-01 1.938109139704602057e+01
-4.988582559283820217e+00 6.055435248948988214e-01 1.932448009749445106e+01
-4.399636858950375817e+00 6.197524233116129544e-01 1.931166146668662265e+01
-2.386685206008225979e+00 1.449452884200781444e+00 1.901598319212744315e+01
-7.502832604436178165e+00 2.048007217680011038e+00 1.753927711254132760e+01
1.882516601499223952e-01 -5.896791033831552120e-01 1.845306480516431691e+01
2.153792336933929574e-01 -7.983463775909180882e-01 1.843788631026833258e+01
-1.246471929578800486e+00 3.031161592659825210e+00 1.620320983089081324e+01
2.656503446864101337e-01 -7.880710591647075436e-01 1.827459799312402566e+01
-2.989078758246286771e+00 -4.933178493506207296e-02 1.468352773218047957e+01
-5.391824942818866262e+00 -2.052721872617542243e-01 1.956254446125625179e+01
-5.348298172277924145e+00 -4.057483251553946069e-01 1.961258109983474185e+01
-7.643980349838063404e+00 -2.377113446982264566e+00 1.703257541868732972e+01
-4.389308051134113597e+00 -5.939094758779459582e-01 1.960816247883223440e+01
-4.405978624359002005e+00 -9.805477876833836870e-01 1.969055471663359924e+01
-2.906729214569984787e+00 2.816948494253173507e+00 1.389031442167184593e+01
-7.134890582893447686e+00 3.081613993180422284e+00 1.603851057228647647e+01
-4.186467332085892501e+00 -8.145732187179204331e-01 1.965133662719485841e+01
-6.382025427699542064e+00 4.133840869465609913e+00 1.727370465972417435e+01
-6.267338771019693944e+00 4.190819619197434065e+00 1.734792471690703763e+01
-3.422069724457138307e+00 1.350577146346509938e-02 1.451061948547187797e+01
-6.754651767502739546e+00 3.507035502849289887e+00 1.738405763194392506e+01
-2.572455695596120417e+00 -3.287624077034251524e+00 1.822796841647632959e+01
-6.966436927637179366e+00 9.884792408924465423e-01 1.885276443691044790e+01
-6.752674125820889550e+00 1.178063080336337221e+00 1.887180054387582828e+01
-3.591220610153521342e+00 -3.762193721047579764e-03 1.450945965566808127e+01
-5.827076544383724688e-01 2.857998721514066087e+00 1.757222598399572888e+01
-5.017379806261592634e-01 2.698612473141604795e+00 1.756540830257409169e+01
-5.956838725183055239e+00 -3.933064398534478201e-01 1.961693266980800843e+01
-5.064472986898619356e-01 2.262713776701088086e+00 1.801569747077591899e+01
-6.218350081906395488e+00 4.533205946810352494e+00 1.709034682429550855e+01
-6.337418063132207457e+00 4.470925052511885767e+00 1.701305610125788803e+01
-6.770388028851456852e+00 -6.066529665219628775e-01 1.953264451431502380e+01
-1.310538577397273086e+00 7.756108292292777096e-01 1.344693082381149196e+01
-8.476330116416845861e-01 5.252418606462517792e-01 1.394903081429324487e+01
-1.247807067958294436e+00 5.933730529191052483e-01 1.355369826415542889e+01
-3.558261231223268428e+00 4.551142821447437647e+00 1.575096632066246372e+01
-4.554050795587567535e+00 -1.877297653936775834e-01 1.952020656976169732e+01
-6.680797469036209080e+00 -2.561807432517348992e+00 1.970559720023774020e+01
-5.996007447083858466e+00 -3.301401110334052813e+00 1.824162455499635627e+01
-6.390913885128525429e+00 -3.206501076005178863e+00 1.815036653431943847e+01
-5.781983619894388582e+00 -2.797578907995665887e-01 1.406436068950695528e+01
-2.484964093538413188e-01 -1.016427438849919707e+00 1.511695075021042811e+01
-5.386184094875909878e+00 3.100285257608808909e+00 1.847128697127993746e+01
-3.991191905563532316e+00 3.764370269641287847e-01 1.936692949528116259e+01
-3.765741933480526882e+00 5.880741671155216288e-01 1.930682447573838090e+01
-6.673552712839546430e+00 4.242873779654857458e+00 1.644469181474844532e+01
-7.621534673849330588e+00 -2.581431155841924507e+00 1.759934855393704822e+01
-4.193268357914243794e+00 1.412837913068275775e+00 1.193017858661161767e+01
-5.124304584774566962e+00 3.814906210869173364e+00 1.815212398747559064e+01
-4.156906233854412713e-02 1.617761139323767861e+00 1.693605153509741967e+01
-3.188003214084178527e+00 -3.230436429555942457e+00 1.816098630157735272e+01
-4.142021997456747151e+00 9.129789486617513328e-01 1.923027211333375419e+01
-2.971962306286369593e+00 2.625459799969031005e-01 1.401341589220267281e+01
-2.124276614181915157e+00 2.407525754093332804e+00 1.409387218564540234e+01
-7.346187770411417794e+00 -1.674848954017642555e-01 1.904917210134745176e+01
-1.570311181930901023e+00 -1.012375158278353338e+00 1.941948816669626154e+01
-4.471597286133264681e+00 2.684134936735829591e+00 1.329197677758381957e+01
-5.787099120122880969e+00 2.058501646041185573e+00 1.880255543049882050e+01
-6.578227580940747110e+00 7.810775302671937315e-01 1.910957945400541291e+01
-2.771549710158880409e+00 -7.907173178146404968e-01 1.949614846813333457e+01
-6.167571513052885201e+00 3.950104542970997556e+00 1.560827840963263213e+01
-2.780000039492502406e+00 -2.484120168871770673e-01 1.509434904511698505e+01
-1.143383611341682426e+00 2.817395643309905218e+00 1.823427727765592721e+01
-1.776702964520045835e+00 -8.351929904498178736e-03 1.924726374075895308e+01
-7.665875374982916490e+00 7.443089619992264705e-01 1.820826532200402426e+01
-2.172019259475551411e+00 -8.193241907336612506e-03 1.926809470565508775e+01
-5.596542868133886017e+00 -3.425449431434224312e+00 1.837524966991474429e+01
-5.572498738621931125e+00 -5.895995149317649897e-01 1.967312149111154440e+01
-5.773294538927354225e+00 -5.893745652934125889e-01 1.967596437837402590e+01
-6.500883345584257178e+00 4.251668329780012634e+00 1.701643349641731362e+01
4.104223131965331617e-01 -7.033729551088339083e-01 1.681920449674503715e+01
-4.777227220050153100e+00 3.682156394808599575e+00 1.827833583480294521e+01
-2.025202483915062857e+00 3.261637410082347088e+00 1.542531513145633681e+01
-4.929130941356143047e+00 3.562368153133974591e+00 1.832121796874711350e+01
-4.745039925169788120e+00 -1.187802112415549116e-01 1.440296613244110802e+01
-4.609361138706047356e+00 3.689626932275813065e+00 1.829091451914372612e+01
-5.978847717093677794e+00 1.226964250098582010e+00 1.905982791652019159e+01
-5.785702568475934449e+00 1.202639777041242253e+00 1.910040903257178257e+01
-7.791568618049560691e+00 1.055037111742284317e+00 1.771239789714465473e+01
-7.696566498380609467e+00 1.424837769392575781e+00 1.765600095573139328e+01
-5.806653673918858338e+00 3.266400541534332014e+00 1.826459761756200351e+01
-5.926392595543861219e+00 3.406158795607032275e+00 1.813636190306339557e+01
-2.737546189047503464e+00 1.329822731674490388e-02 1.451279040365259476e+01
-2.894816567955327269e-01 2.289154435855532022e+00 1.751396506905976480e+01
-3.769644450589982654e+00 2.618300714583262412e+00 1.875436436718796074e+01
-7.523575161921381316e+00 6.204536246829668311e-01 1.849168929888927693e+01
-1.016264187763764593e+00 1.903407970086194556e+00 1.516759985961686397e+01
-1.813178067989161590e+00 2.486750502575580501e+00 1.460906161166973760e+01
-1.273663351632274288e-01 -1.589249769979153459e+00 1.555484848448079305e+01
-3.632719531497187848e+00 6.921253716254482935e-01 1.297980602326705224e+01
-1.387304423853129798e+00 -8.558925163855239937e-01 1.508372474285556564e+01
-3.564967351606705304e+00 3.857815362064509923e+00 1.826040153484125739e+01
-3.704838949013860461e+00 4.592090513411855923e+00 1.573472851425508168e+01
-1.165389437061929323e+00 1.371449977140987819e+00 1.891680228452519685e+01
-1.372086917910329662e+00 1.604443910599700374e+00 1.888667014780191522e+01
5.127486373210610182e-01 -1.604279864028972380e+00 1.685086198993418805e+01
-7.955324415087667411e+00 6.566697637508683849e-01 1.751606740218266367e+01
-7.775362726141019643e-01 -6.614987089273660636e-03 1.924074599756527704e+01
-6.593526889463255714e+00 2.424022610960280266e-01 1.931453064102280592e+01
-6.475291660078021039e+00 -1.571973943691555853e+00 1.549668316470966545e+01
-1.956652734133926153e+00 -8.061055786269046841e-01 1.939193246725499620e+01
-2.480122446653004742e-01 1.988523962714637161e+00 1.681325820462485154e+01
-2.160943205933351763e+00 -8.041728485859278575e-01 1.941131869586904202e+01
-6.376103824125149977e+00 1.223711430541386980e+00 1.897710633991335527e+01
1.307581493530058647e-01 1.170916940665665429e+00 1.732773285365376381e+01
-1.382605128377937032e+00 -6.685087508835065861e-01 1.936874820271249575e+01
-2.164621010850567462e+00 1.387439384352778582e+00 1.270134786545622063e+01
-2.032169776392550364e+00 2.687471215404448444e+00 1.460306553924954898e+01
-6.991912769065974365e-01 3.079532576769821173e+00 1.755309085403605707e+01
-6.424565436410283326e+00 3.350216507657204357e+00 1.785485326363154712e+01
-6.600706471694972599e+00 -1.379266531377678184e+00 1.973317942358842458e+01
-6.760870882215485267e+00 -1.195851674413019428e+00 1.964375294943378236e+01
-6.787730047465580618e+00 -1.405644909264064601e+00 1.965706036570483661e+01
-6.532749405801963505e+00 -1.579126131087340568e+00 1.978312885527181919e+01
-6.581272537711580384e+00 -1.781873122369960871e+00 1.978692217640561779e+01
-4.956846213930639955e+00 4.276368078817821328e+00 1.528351654183383346e+01
-7.686661246677549464e+00 2.044349842867716482e+00 1.695546758640205098e+01
-3.962566677439540719e+00 9.332643547983061616e-01 1.244775373570571730e+01
-4.396277506332463503e+00 7.602551895638799406e-01 1.269590978682583682e+01
-4.961237039488541001e+00 5.680934720835905338e+00 1.674480939620210052e+01
-7.252678215939705630e+00 -2.971189872157891099e+00 1.884138715184783308e+01
-4.761342465327344620e+00 1.033713113093363667e+00 1.920139689336387079e+01
-4.354146424613857924e+00 1.433817435411730568e+00 1.908559528568866881e+01
-4.562634414974042762e+00 1.416723028293208841e+00 1.909033269633636820e+01
-1.795190801935516944e+00 -1.405787204844034743e+00 1.949048106913315337e+01
-5.880975530378692362e+00 4.827901761868639952e+00 1.714339482064534792e+01
-8.111233723339896784e+00 2.833532608582839396e-01 1.692976806150862501e+01
-2.783812780805098530e+00 1.598195522259210577e+00 1.900649506491853913e+01
-2.954220505406653263e+00 1.420182318041308900e+00 1.905497575499560980e+01
-7.597770696939032398e+00 -2.067453909963216319e+00 1.623376909356632325e+01
-7.010723374180074963e+00 -1.118788177507417103e+00 1.478779539661546494e+01
-2.006519746341188792e+00 1.037123914565368121e+00 1.276091607984695742e+01
-6.789673274129756742e+00 -1.795010362963431305e+00 1.968184968267048873e+01
-6.980894231668187899e+00 2.681862484261738011e+00 1.779529390567019931e+01
-6.813181278580636935e+00 2.877268487848032130e+00 1.783507651218202028e+01
-2.149403456801053380e+00 4.496208500394641150e-01 1.918583294470082024e+01
-2.376257133430430546e+00 6.379545600931160187e-01 1.917095307182974295e+01
-2.781159192565094251e+00 -1.609051735823303630e+00 1.968313454730250101e+01
-2.558647208410660845e+00 -1.267079364461828117e+00 1.956570026746017987e+01
-1.358612646553385650e+00 3.440892391004024997e+00 1.800632731436873968e+01
-1.176553968401166106e+00 5.407397977878651840e-01 1.364501187766459367e+01
-6.160261436925967837e-01 -1.441268310176484491e+00 1.529205146409812954e+01
-6.388740616472475153e+00 -2.193912886590463351e-01 1.392464499527068256e+01
-7.713906569389992640e+00 -1.879087730923945099e-01 1.496993167046435502e+01
-5.994201467260833915e+00 -5.619290567684278592e-01 1.433921081250199592e+01
-7.114345753612284717e+00 3.515653524188935730e+00 1.641445547513468739e+01
-4.754185533170600664e+00 4.497589559458216257e+00 1.782008279239160231e+01
-4.833118967305793490e+00 1.252265906664916439e+00 1.229255754503797959e+01
-4.572601323324870570e+00 4.074008008298099170e+00 1.809313886899868606e+01
-8.139317696131012525e+00 2.965904913883307126e-01 1.671137351237457835e+01
-6.624352228338734605e+00 1.188742321528139190e+00 1.408990455040852652e+01
-6.456913600242293327e+00 -1.161043703942653327e+00 1.975222855458686411e+01
-7.338994403402003819e+00 -8.203008749257514332e-01 1.921952899364978862e+01
-1.785041269318291324e+00 -1.835886555170711087e+00 1.956080123441432761e+01
-7.801146503253447939e+00 -3.353053315941350032e-01 1.847518456217515848e+01
3.847941887616587731e-01 -7.276401681086090978e-01 1.605813872649875407e+01
-4.771048250307190486e+00 1.646611389240172585e+00 1.902569560936672843e+01
-7.382345793128108014e+00 1.464210148378822574e+00 1.817519875008874664e+01
-4.190426147932315715e+00 2.056234580487884323e+00 1.251119543333305018e+01
-7.236409488699449888e+00 1.943292523480884437e+00 1.804584079081704573e+01
-1.986629478078001387e+00 -2.022703961643199655e-01 1.928470827448379765e+01
-3.762899569777065523e+00 5.178376509026179075e-01 1.330138484947686806e+01
-2.164808528009327215e+00 1.426594241469891333e+00 1.900846549720834133e+01
-7.871303929305688563e+00 -8.524217094600066158e-01 1.540740610679324618e+01
-8.142845987455512358e+00 3.115916576374030411e-01 1.631769108891088393e+01
-9.608850633784022932e-01 -1.626365226516760298e+00 1.954924672350288262e+01
-4.496059577501844373e+00 4.007781966806344798e+00 1.814226493525239903e+01
-5.182381609610289708e+00 6.300959398578107606e-01 1.931882392457186626e+01
-3.550853109672162944e-01 2.256867204334228827e+00 1.696258632631726471e+01
-4.964519267463598950e+00 8.094040001686919616e-01 1.926608313388391736e+01
-7.714799915176942413e+00 -3.910980664166585630e-02 1.494344448979467188e+01
-2.565521974341601119e+00 -7.837649016638279509e-01 1.946305176181469676e+01
-7.435625421181329742e+00 1.070523008045545899e+00 1.834961140427450488e+01
-7.205947749929422219e-01 1.752330936042338916e-01 1.917925351884448304e+01
-5.697189168743265197e-01 -3.951624972696496929e-01 1.930326117529894248e+01
-7.442901325300523396e+00 1.311949030700174657e+00 1.818977418408506708e+01
-6.787320568484350503e+00 2.075627746103216431e+00 1.838482352619364946e+01
-5.757493463538946088e+00 7.921781835306256347e-01 1.924111422235416313e+01
-5.579887265811663610e+00 1.023629242129048489e+00 1.918216207845003396e+01
-2.783650902796706461e+00 1.217917636111149893e+00 1.908677831018465554e+01
-2.405863757609372211e+00 8.142965852218962963e-01 1.913978939783713429e+01
1.194157322187802128e-01 -1.007140057029898950e+00 1.550264778883061467e+01
-9.545289276404997914e-01 2.016319503134394786e+00 1.855379921649772257e+01
-1.220101104189283303e+00 2.397304075384929956e+00 1.849646722820151723e+01
1.391272666129999003e-01 6.944254739669228904e-01 1.591680681207139259e+01
-1.191909166348067428e+00 1.963169262132087090e+00 1.868814197689037115e+01
-5.196298749511223392e+00 3.751182927622762620e+00 1.482109402638025131e+01
1.911258693270754816e-01 -1.204128849281850933e+00 1.864071337858157307e+01
-8.164510702006166909e-01 -7.587957791496384718e-01 1.476447999461835536e+01
-9.650324092279130017e-01 2.274748437873941320e+00 1.574236215544269157e+01
-7.002886792856126696e+00 -2.061530599010053866e+00 1.621158099536737751e+01
-1.439812846626469245e+00 3.999219891673060800e+00 1.723386719884850748e+01
-8.770568154022684304e-01 2.738180234287759696e+00 1.650639286581282050e+01
-6.336176477907333293e+00 -1.549010380001849541e+00 1.564749312083242927e+01
-7.968377609002815554e+00 -9.563790211774474415e-01 1.827910073653477241e+01
-7.894353999636217090e+00 -7.280403569872848646e-01 1.841650462454696680e+01
-5.394788615356294947e+00 3.508248931530248083e+00 1.826411128429148789e+01
4.087664043294081395e-02 1.423276887992149575e+00 1.754890466679976413e+01
-5.838630375836530106e+00 7.964757295597677533e-01 1.305974130479421547e+01
-9.338381835396956099e-01 5.511823160430786572e-01 1.386044920053798535e+01
-7.626066127950090312e+00 -1.765810885191787527e+00 1.885497782979901871e+01
-5.569764201833097950e+00 3.459175528856217596e+00 1.824318439171764084e+01
-5.359836839595880420e+00 3.659461397022076845e+00 1.818862299258681503e+01
-4.542216594589651990e+00 4.656099077640777573e+00 1.776559368966975683e+01
-8.671506912556194990e-01 3.344119944540986822e+00 1.753036767056924106e+01
-1.204538949496602118e+00 3.771998522116990049e+00 1.742657403534168026e+01
-4.402940822104500995e+00 -9.978350759056064945e-03 1.426918425299442816e+01
-6.017887710308034599e+00 4.727151778088806822e+00 1.711322719646855006e+01
-1.336881042700704958e-02 2.665632630644544365e-01 1.495648260387812911e+01
8.537078570028031055e-02 1.366758689821526707e-01 1.502675364236087319e+01
-1.696186277624341265e+00 2.940551519502682121e-01 1.919337536764074770e+01
-4.565421224733431371e-01 -1.849373125256288830e+00 1.953996681154637116e+01
-1.980311661379238419e+00 3.811292094736909442e-01 1.918914297131514957e+01
-1.949195407522750223e+00 5.860659242443804207e-01 1.915297902856930534e+01
3.151581215672764058e-01 -2.048322126437037483e+00 1.834674636166154471e+01
-2.718580065697541848e+00 1.427177462986352730e+00 1.226209727464266308e+01
-5.541732819666060905e+00 1.004141040066791390e+00 1.277716978599017494e+01
-7.102248442288650487e+00 2.609400853196036429e+00 1.770361036637667951e+01
-1.433499492344925796e+00 9.545587006134317321e-01 1.334466039835865558e+01
-1.833252916999198678e+00 1.195900946246849283e+00 1.293418524902372724e+01
-1.881219927690724436e+00 1.321855412486869774e+00 1.295721601366579989e+01
-7.656233013440937540e+00 2.212983630093050991e+00 1.615188569868253410e+01
-7.622613076611225225e+00 2.313404881151092329e+00 1.615748310868500681e+01
-4.168037170011293036e+00 -2.622068481334338230e+00 1.773818033582907816e+01
-6.827545615711361648e+00 3.984815569849255557e+00 1.640031512771675892e+01
-5.346593740956093299e+00 1.338176611427176255e+00 1.279033505852518005e+01
-1.748495566466311324e+00 1.933573365161038060e+00 1.884904229168414957e+01
2.676064330673827985e-01 -1.370205018207049985e+00 1.844799639325317742e+01
-3.493515157255780990e-01 3.130350140224739119e-01 1.445614616191788571e+01
-1.352900405107199111e+00 9.820621594233568397e-01 1.348978608306764926e+01
-6.755732977481357260e+00 4.111041740788449417e+00 1.643481163749546425e+01
-6.585860351348927111e+00 4.339521261070821367e+00 1.640054781371435411e+01
-2.378620739132625950e+00 -1.063945990740432945e+00 1.632884383408362794e+01
2.414593364390525132e-01 2.366558920574413083e-01 1.788140650426438327e+01
-3.752333282811682658e+00 2.806537921450742878e+00 1.869321223417686895e+01
-2.940372268198544692e+00 2.023007611993776322e+00 1.891536980718919381e+01
-6.511737069450460602e+00 4.298001667649195667e+00 1.625156522289990590e+01
-6.444100469217758365e-01 1.673271229892667966e+00 1.556373650583213220e+01
-2.832744797340618348e+00 2.643382219305091541e-01 1.400761100540287885e+01
-8.040558806712258644e+00 -6.806110893589398803e-01 1.585746551868858489e+01
-8.085101462181061294e+00 -6.816695922499946825e-01 1.599982985084963616e+01
3.849934433814252155e-01 -5.284949549291155790e-01 1.629810677602873170e+01
-8.126913251392533510e+00 -4.766591278960972122e-01 1.629372273982222907e+01
-8.080712446218832667e+00 -2.567482018848676883e-02 1.602276320246360086e+01
-7.993556878251818709e+00 -4.653591977194606599e-01 1.570576352063671521e+01
-1.847540419011611146e+00 2.829204464529420093e+00 1.504824523899705468e+01
-7.922279125190548221e+00 -5.447035912283515469e-02 1.550234464940798773e+01
-8.050688354439522243e+00 1.343083915197615941e-01 1.591311092784276582e+01
-1.476156892788352604e+00 3.563201518552944869e+00 1.652687189556255021e+01
-7.854463792175264025e+00 1.572587944334321586e-01 1.530301815100555984e+01
-7.989518854533391057e+00 7.494138112207420210e-01 1.570387440051509742e+01
-7.986212470996961521e+00 5.470121669296585942e-01 1.570797421296232699e+01
-7.795554404650297364e+00 1.540076432234835924e-01 1.513083379441984277e+01
-7.555959645763064891e+00 5.347010179921232176e-01 1.473606047675009023e+01
-2.317910773524753054e+00 3.757839327914989536e+00 1.576184600497241917e+01
-4.590981069424067584e+00 2.345990018176222769e+00 1.302374889345060183e+01
-7.397318613799866327e+00 5.314818778374328367e-01 1.450783251939028418e+01
-7.731731958059651966e+00 1.503229096970424283e+00 1.558837157576875398e+01
-7.286505635862627450e+00 6.208825650760594339e-01 1.441740821977371922e+01
-3.355840918481678870e+00 4.343644240146900870e+00 1.559146017804304307e+01
-7.414411649328350506e+00 7.820895104948982768e-01 1.470220750434510393e+01
-6.579589538652444780e+00 5.812222496547632122e-01 1.371420292266663665e+01
3.062774305464136537e-01 -1.787557891440266111e+00 1.836865757781383479e+01
-2.636972794738483561e+00 2.130307929147271295e+00 1.321419867842173090e+01
4.278803644748946367e-01 -1.962597012919894190e+00 1.778357031011694289e+01
4.303986281490628230e-01 -2.182604160141755845e+00 1.783899505549376130e+01
4.467893855907630885e-01 -1.741694896126480430e+00 1.761193707935537844e+01
4.320286397482224205e-01 -1.531513828374291730e+00 1.758672040852776064e+01
-1.566480984181097269e-01 1.868293796307999077e+00 1.694717482552932353e+01
4.426045993362535680e-01 -1.150087795009594238e+00 1.664216207328038877e+01
-4.965657478286910731e+00 -2.849009079422938129e+00 1.789602677472817049e+01
4.699521491654428118e-01 -1.327196410399813065e+00 1.685005086065175561e+01
-7.558444780533656093e+00 1.528843953550047097e+00 1.537425348582087992e+01
4.662940738163292020e-01 -1.355291524874158160e+00 1.706876273016161605e+01
8.017452620970705324e-02 1.077134081059768711e+00 1.629223152422895282e+01
3.033220590464528188e-01 -7.449391323345062599e-01 1.806060591070202292e+01
3.012283372162290473e-01 -3.972135929398497023e-01 1.791449708728208634e+01
-1.466232560854917377e+00 2.840915985456504700e+00 1.562315216892510961e+01
4.088901083689979732e-01 -7.214919222901219342e-01 1.663737860782307365e+01
4.226909632282014884e-01 -9.373240084977731978e-01 1.703115956374539053e+01
3.930012855792867632e-01 -7.478619591821054069e-01 1.727309866765209989e+01
2.685954806022644026e-01 1.904908865876646651e-01 1.765678500222519176e+01
2.859590738205507465e-01 2.104120378546506798e-01 1.748152126183808264e+01
2.848738409091559065e-01 -5.799144862257410438e-04 1.772026069878901211e+01
3.315842125343781421e-01 -3.819906206212717592e-01 1.764454905428525677e+01
-2.422423923925693057e+00 2.710503474796616352e+00 1.421285272533213373e+01
3.743563748019663739e-01 -3.577613131481742759e-01 1.645339063885431585e+01
3.978106462235577179e-01 -5.485400879150910125e-01 1.686030734894004723e+01
3.427361668977956244e-01 -1.230068654528139183e-01 1.703654261128011171e+01
2.503713530789077324e-01 6.143720602186772961e-01 1.728541329683303474e+01
3.116559994394286770e-01 6.532713410210078120e-02 1.731921855933286736e+01
3.314902914034769665e-01 5.172054629544609039e-02 1.688190555982367869e+01
3.482083603776397474e-01 -1.042698231449843416e-01 1.649762695788624711e+01
2.102767278392109751e-01 8.475736818150586549e-01 1.710908880204744520e+01
2.783158063949612848e-01 4.594054253361278262e-01 1.690375795492678890e+01
-5.776911283571776856e+00 -4.009303629161391491e-01 1.962266993670187532e+01
2.906400585352351129e-01 2.203145064355598315e-01 1.623520661748288774e+01
2.531017715916684119e-01 5.194461867672430788e-01 1.651556761781515803e+01
-1.074789142281011300e-01 1.872138201392072432e+00 1.732453304138920913e+01
1.706327590478283751e-01 8.691615898299677179e-01 1.649138384948265212e+01
9.771628269056129024e-02 1.112442802367043182e+00 1.647991900786033881e+01
-5.141220182067961275e+00 3.423016742621248110e+00 1.835920237246381959e+01
-2.540064960270628225e-01 2.180278210512206272e+00 1.735490752410171922e+01
-6.429571823814558051e+00 8.006454386574636262e-01 1.365851193029710231e+01
-6.642114500778980357e+00 7.909603965204341502e-01 1.387458308502343129e+01
-7.649279246760078088e+00 5.723040436441975132e-01 1.492570850848717612e+01
-6.313050653274332902e+00 9.606844069033145805e-01 1.360547378241486172e+01
-7.147014714944295299e+00 3.278005474532872832e+00 1.622700588986819525e+01
-6.985036383876401800e+00 3.526094675732370565e+00 1.618524354874049465e+01
-7.205479702647034301e+00 2.916216608258030973e+00 1.601138331905900003e+01
-7.107275356577866354e+00 2.918433864832697289e+00 1.586958166812483029e+01
3.382528052279695219e-01 -1.887916353759697685e-01 1.728903343016739313e+01
