-4.131915897263757742e+00 2.618300958311654547e+00 1.696556351100001336e+01
-5.759405855984776501e+00 -2.821598537473999357e+00 1.731737020948545336e+01
-2.542633975138734570e+00 2.333097588014505952e+00 1.357243151103784129e+01
-3.615846877735810594e+00 3.012407888839215619e+00 1.681301383208177214e+01
-4.606169355647736552e+00 -2.248342837749286893e+00 1.614982377835506355e+01
-4.205632405495880022e+00 3.769510769839127029e+00 1.642880335789927670e+01
-3.949707796783483715e+00 4.003517917962547301e+00 1.479070242832504789e+01
-5.366022810657510078e+00 -1.360291460684425413e+00 1.517815556893514639e+01
-4.283839602418614056e+00 -1.738950757266982450e+00 1.564610013540106337e+01
-7.417251886218212853e+00 2.637447591174511441e+00 1.489810878369375047e+01
-4.569800141897692569e+00 -2.445679073192006392e+00 1.633802682573789866e+01
-5.731269129895823156e+00 -8.992436457449093368e-02 1.157944709408839401e+01
-5.387157906409270502e+00 3.313062549378289923e+00 1.353236174734566077e+01
-5.956922792876911288e+00 -1.532483531693170864e+00 1.526431951022281908e+01
-7.147801361652733831e+00 -2.500200464090582386e+00 1.571699894871099445e+01
-7.580817529996832782e+00 -1.831782095244919084e+00 1.427603699920873481e+01
-6.766583795443539273e+00 -2.830706551305679497e+00 1.635380115142243795e+01
-7.462905147355665569e+00 1.784863722879559189e+00 1.417917061924867994e+01
-6.958533680028022417e+00 -3.098229578534217765e+00 1.712515910405345210e+01
-6.429042221039383165e+00 -2.607903537705147379e+00 1.618000626731195268e+01
-5.987315032052375585e+00 -2.815989439540230066e+00 1.654524812146773627e+01
-2.751130160384201329e+00 9.363764990406142630e-03 1.804020436217987822e+01
-3.575947750649810963e+00 -2.590548544957902877e+00 1.667370194385834736e+01
-6.984115436332460902e+00 -3.045465660570950917e+00 1.791565123578480723e+01
-5.786725629126157955e+00 -2.342043125787249380e+00 1.612794447851631219e+01
-1.171403563746975962e+00 2.749408859221402324e+00 1.583261352890673379e+01
-5.921005720414878937e+00 -2.349404805304637911e+00 1.610630825101018360e+01
-5.813749392330699983e+00 -2.446137422763178471e+00 1.621451583995678902e+01
-5.785491671505310407e+00 -2.552821410518724576e+00 1.631821393630543326e+01
-4.942840997113250978e+00 2.513610200956000629e+00 1.691132549050858813e+01
-5.795194080773180545e+00 -2.652141452617098771e+00 1.640607888825542204e+01
-6.951750166189939684e+00 -2.979736918725913952e+00 1.658147796494162662e+01
-5.422606781492458339e+00 -1.067853439769788082e+00 1.466039491175530429e+01
-6.468714678438577614e+00 -3.031975982458074093e+00 1.729110056155663955e+01
-6.554004276407017215e+00 -3.019221426901641081e+00 1.754332469444725007e+01
-7.207468419759292644e+00 -2.990126942712474367e+00 1.655899108713862944e+01
-7.212321766013914726e+00 -2.944947683567220587e+00 1.646178457293021324e+01
-6.526430872081485646e+00 -1.616003745862436780e+00 1.497043098520338589e+01
-7.581405816357711380e+00 -2.694242756313807163e+00 1.591762889071325304e+01
-7.797373373075930481e+00 -2.746577430696917510e+00 1.601250207604668674e+01
-5.562840525446178574e+00 -1.129107632628715052e+00 1.479162238281913488e+01
-5.780465391244401729e+00 -1.432037582289531485e+00 1.518801273596331924e+01
-5.158663299590013906e+00 2.554488088907413967e-01 1.773211239876850698e+01
-1.580564942651236926e+00 1.852036216952532399e+00 1.416117698964869476e+01
-6.127866554317618508e+00 -1.464077493960360687e+00 1.512403800718070102e+01
-7.175778791931458400e+00 -3.102785209951559153e+00 1.711473904500853394e+01
-7.752574004356842075e+00 1.309292322617483961e+00 1.656586544760553892e+01
-7.582836341742489772e+00 -3.073982640353088769e+00 1.689082978920041000e+01
-3.169557420734588682e+00 3.877563971689742317e+00 1.647224217368989230e+01
-4.615888391363691667e+00 1.619434388667758462e+00 1.123418380976277575e+01
-7.219844957304719202e+00 -2.089116022664025074e+00 1.481427129664561448e+01
-5.918626012325706398e+00 -2.860175421819240782e+00 1.791047521962034494e+01
-3.848632387386329512e+00 2.874319073470913644e+00 1.334412669674323126e+01
-6.348054415463646905e+00 -1.399578394161205885e+00 1.480418323774493672e+01
-5.581026667270711172e+00 -1.319945991454321010e+00 1.508992097480474115e+01
-5.859566174107428083e+00 -1.310410971339147412e+00 1.501121925761674447e+01
-6.341405044168352489e+00 8.734681406411124449e-01 1.731832799956069380e+01
-4.372978169660948211e+00 -2.664501025608794649e+00 1.686492492491219508e+01
-6.652177974608231459e+00 -1.895080145655724024e+00 1.523770441243553364e+01
-5.193204886763736816e+00 -1.829026873107201467e+00 1.573711604780583428e+01
-6.893998351526064994e+00 3.741138726733496789e+00 1.545089239253503877e+01
-5.211623875580622567e+00 -1.593678347748942681e+00 1.548108741335783378e+01
-5.025510976886710779e+00 -1.572346685492377549e+00 1.547226788730288405e+01
-4.993926650420297264e+00 -1.739012872175370816e+00 1.565761250659632253e+01
-4.378063555848236810e+00 -1.885628401099946672e+00 1.580200590311913089e+01
-3.388174223863428924e+00 -1.172077839511701747e+00 1.477905340023426817e+01
-3.556022531751320770e+00 -2.483821358782640765e+00 1.771135659887622893e+01
-4.044121641732852268e+00 -8.492367092227821601e-01 1.325534653152241304e+01
-4.149603886544680265e+00 -1.029763703587065926e+00 1.405626055173308941e+01
-4.180246870150698513e+00 -1.070686631086469554e+00 1.434318014059581259e+01
-4.037588795045828682e+00 -1.178920676366808529e+00 1.479013724859368750e+01
-2.370866368231371535e+00 -1.487740774126379062e+00 1.554132874302221268e+01
-3.419842605398176971e+00 -1.282002176391098036e+00 1.509663419125371320e+01
-4.246515577340209902e+00 -7.770218799330068649e-01 1.302747642544545670e+01
-7.408544012949040081e+00 1.902918424987000146e+00 1.420712865942523706e+01
-7.188731798041438026e+00 -3.096822887848417416e+00 1.749366639863826833e+01
-4.131844702615770082e+00 -1.574989390439209380e+00 1.850741073273996307e+01
-2.588483611570572052e+00 -1.371856675766975897e+00 1.540142098471594068e+01
-7.318308696987910089e+00 3.194019057443309606e+00 1.537146889128584348e+01
-2.397089538929251251e+00 -1.636658083984734446e+00 1.569989381106087478e+01
-2.212565002447193674e+00 -1.582676812314255610e+00 1.562349767283601665e+01
-3.104011636391185824e+00 -1.514837703597889718e+00 1.548756408814895025e+01
-7.526019472860088655e+00 2.244974681000759364e+00 1.468232149526743058e+01
-2.630305731755337995e+00 2.280130617993614273e+00 1.341930867911003844e+01
-3.449150382001856752e+00 -1.444581559658487002e+00 1.534122716547494747e+01
-4.240445320712466604e+00 -1.105855495210023687e+00 1.460665503867035397e+01
-4.193171947253441445e+00 -2.607271943915505652e+00 1.657122304613789510e+01
-8.522299324392236031e+00 -2.646216826302758562e+00 1.636200917889375006e+01
-5.981592588378602748e+00 -7.519481385171418175e-01 1.317316272306152314e+01
-7.531364497962909965e+00 -2.898080275229046876e+00 1.804279253459102250e+01
-7.354528515628603991e+00 -3.080207732135828991e+00 1.773747844319255051e+01
-7.576182566259910267e+00 -3.045583916569063021e+00 1.782341978305562691e+01
-5.730262890620022809e+00 1.932295618089481248e+00 1.209095947509155877e+01
-8.119114538535040282e+00 -3.018847651778310492e+00 1.730479755817670195e+01
-7.680541827261264665e+00 2.499787456129602958e+00 1.579739247869543561e+01
-1.189477489258999432e+00 -2.287841889434337972e+00 1.592303926637966072e+01
-7.946086733404569280e+00 -3.042590614225087364e+00 1.753011361580357885e+01
-6.165951480096781623e+00 2.827090204047406630e-01 1.758858585420057352e+01
-6.378660575966439872e+00 3.096695470041378240e+00 1.391779410477802514e+01
-1.773088627893682823e+00 -2.279756945889791275e+00 1.653891035449662894e+01
-3.759107313683926144e+00 4.370187608871349383e+00 1.614442499340172077e+01
-8.342455885291034434e+00 -2.758557942437140476e+00 1.623343643314968432e+01
-8.344140661886378041e+00 -2.322176919416360619e+00 1.543265892671399087e+01
-8.219226754243283750e+00 -2.981901682309459289e+00 1.691829573945904741e+01
-1.984253405658322755e+00 -2.238273835451460414e+00 1.632113820336092402e+01
-8.034169208028444586e+00 -2.026478378288593341e+00 1.472710186305695146e+01
-3.874511314890792590e+00 -1.300672941870134824e+00 1.509143645164652270e+01
-5.772476530722059351e+00 -2.970439989870579112e-01 1.194168411149351527e+01
-2.380740795219756567e+00 -1.779824753606757959e+00 1.584241747100445252e+01
-4.428861125253956033e+00 -8.336743180930743513e-01 1.339500863772565253e+01
-2.305055257139855041e+00 2.920916446054147908e+00 1.455972911742568954e+01
-2.778097129215546524e-01 -1.052065575816523157e-01 1.451735798630393504e+01
-5.811302273491188330e+00 -6.688957251813847371e-01 1.306277962352264410e+01
-8.186084352690343735e+00 -2.918979533957680950e+00 1.656042767086034218e+01
-3.531611622255159233e+00 -2.479245319514809864e+00 1.749857417482186861e+01
-4.577956782919359036e+00 2.290208573267131342e+00 1.707901838797862837e+01
-3.346793342171613173e+00 -2.439477816676202337e+00 1.756886792965465816e+01
-4.621977452072720816e+00 -4.905902336947334241e-01 1.172638557388504665e+01
-4.190109739320762472e+00 -1.242508046390575327e+00 1.500257767518212404e+01
-6.570481470727701279e+00 -2.920503664159135759e+00 1.814800987650000508e+01
-6.475527494043497034e-01 3.587950095466378997e-01 1.741610285288155779e+01
-5.225869811270337451e+00 -4.226391306978944939e-01 1.186918940327323924e+01
-5.068308022350232811e+00 -4.866172997622260077e-01 1.193644617819677478e+01
-4.388725753987898770e+00 -2.139590833631851652e+00 1.605185994622399193e+01
-1.410333069341582979e+00 -2.342681196207997196e+00 1.690529412494667127e+01
-1.223746579748290264e+00 -2.416117438765503778e+00 1.678387981373021631e+01
-5.402044041367116023e+00 -5.130163431433598653e-01 1.233718844764967315e+01
-5.867696333886655680e+00 -7.794072520548507299e-01 1.330731279908109599e+01
-4.157907475747339099e+00 -2.577498553247968616e+00 1.732476565884813624e+01
-2.003822114562192613e+00 -2.218327208865345845e+00 1.667262066212327198e+01
-3.998676241748619020e+00 -1.364210435820937928e+00 1.519401103200880243e+01
-2.598259508018568642e+00 -1.885260674641930478e+00 1.592673930829530349e+01
-6.648122835615673409e+00 -1.434165517294444747e+00 1.404715169957541576e+01
-4.453417560376345286e+00 -1.027388914247687079e+00 1.437408749910935768e+01
-4.583817684078839605e+00 -2.717324477917735237e+00 1.810461509900304122e+01
-4.857863302574521036e+00 4.510321016196860100e+00 1.588871133245856981e+01
-4.348744817291074760e+00 -2.644541655165919103e+00 1.787682277433455624e+01
-7.316489561181880319e+00 -3.107212020650232276e+00 1.734684830218529328e+01
-2.811338935966249952e+00 1.236456030718567911e+00 1.192159874280209664e+01
-4.206919160554413395e+00 -6.421100841330944498e-01 1.220694605895155860e+01
-3.829617308768475503e+00 -6.406198160926002139e-01 1.221265138823124374e+01
-8.171847095244562098e+00 -2.777874810648243376e+00 1.614952427943600810e+01
-6.809752085120706511e+00 1.556746536033680739e+00 1.300149884394458866e+01
-2.565517928782585333e+00 3.338435708778058952e+00 1.668214380074228131e+01
-8.002723955093713926e+00 -2.978550965814932283e+00 1.662435951229291220e+01
-7.396298045068696148e+00 -3.102592123829148285e+00 1.711369028864252329e+01
-6.369847498106262940e+00 -2.907589001123076500e+00 1.808558213769939726e+01
-4.596038028702271738e+00 -6.837126163550366620e-01 1.262912353324601611e+01
-2.949906171004071709e+00 -1.433740320356112097e+00 1.855188041869985227e+01
-8.160917011703599400e+00 -2.472556792341886300e+00 1.553091345161242742e+01
-7.801603728877869237e+00 -2.323188988951339518e+00 1.517391772131913541e+01
-1.413651681066386834e-01 -6.879841466716798415e-01 1.555785084727278900e+01
-4.759308071690934838e+00 3.995991636746052400e+00 1.462225116726600760e+01
-4.146716022421680137e+00 -2.640600646706100285e+00 1.806216008115805494e+01
-1.092115191894993842e+00 2.609057101534265399e+00 1.577064348912823277e+01
-8.462701685447537869e+00 -2.509207608611797369e+00 1.590205477004762713e+01
-4.237400589696607156e+00 -8.244754455290483897e-01 1.323981143806836513e+01
-4.165967822116788177e+00 -2.455076918225804761e+00 1.863375933842638688e+01
-5.525753091848081056e+00 -5.282695122423448630e-01 1.254660891168227010e+01
-7.155263586116083374e+00 -1.969644628419220389e+00 1.818194737023609520e+01
-6.401288045453403797e+00 -1.237300769216659546e+00 1.392437076538731588e+01
-9.512005664116851555e-01 -2.459041149330324139e+00 1.690093398905047195e+01
-8.018689951148711970e+00 -2.557291226965531017e+00 1.776947854698767060e+01
-3.138177208736854240e+00 3.728708300536633491e+00 1.653866270591269227e+01
-3.968066802394026205e+00 -2.587299431514455961e+00 1.792132631884357608e+01
-4.603763963143489235e+00 -2.718813872398236242e+00 1.845390229932997528e+01
-1.188966234414248424e+00 -2.352574679072062303e+00 1.729448873630406069e+01
-5.594410986947685238e+00 -4.978306093127051746e-01 1.243227732830920473e+01
-3.628340851374529219e+00 -8.066954404552677538e-01 1.302183239505912127e+01
-4.057747258878804608e+00 -4.813294509303180924e-01 1.165194266503402076e+01
-3.205799903677960527e-01 1.136525063865589491e+00 1.571716315090400684e+01
-4.160566367429530565e+00 -4.539565536308525218e-01 1.157333309948239730e+01
-3.785476702961319440e+00 -6.889092777985346139e-01 1.244356656535427419e+01
-5.754813470577840206e+00 2.915978231699543066e+00 1.652714975424358101e+01
-3.971293174338242693e+00 2.889089861165419215e+00 1.684278695481351207e+01
-3.870621335862100665e+00 -4.502390246951248898e-01 1.158445527351679516e+01
-3.610867282329702110e+00 -5.173962303549308750e-01 1.180113485171963106e+01
-3.444690867328853212e+00 -4.378886439974172262e-01 1.162810001942101223e+01
-3.625916365271564246e+00 -5.808745096862426571e-01 1.200344780119714017e+01
-4.621163816190790641e+00 -4.528562222001575321e-01 1.162275204442543242e+01
-4.410022153785716270e+00 -4.579768967602602103e-01 1.158309269774186845e+01
-1.160495969209137668e+00 -2.425446077999992234e+00 1.650925236095934423e+01
-1.369739245555774865e+00 3.179143985230088454e-01 1.286323145575519789e+01
-4.776197546209319356e+00 -2.728804249258027781e-01 1.130983483564617842e+01
-4.864305689022782708e+00 -1.867874028870195602e-01 1.120774416287437703e+01
-7.061159135928900987e+00 1.019529970826141385e+00 1.710977396299730202e+01
-4.453843090792964254e+00 -2.390754947339255310e-01 1.115350425532555789e+01
-6.708383688420506807e+00 2.080408772003482287e+00 1.332720227312903916e+01
-2.076502219288137940e+00 -1.522375324947837782e+00 1.550932464594106364e+01
-3.388921121142426607e+00 -2.085221361712932264e-01 1.120599294714521932e+01
-6.736165796872604083e+00 1.270867126907614608e+00 1.709887152870030746e+01
-3.947275625111578812e+00 6.464639141351000706e-01 1.769759465879234028e+01
-3.626832353977556433e+00 -2.427561774383755200e-01 1.120593757229487863e+01
-4.037693073045932834e+00 -6.846781060600561908e-01 1.241038391277604092e+01
-1.038009419256098687e+00 1.768083071296517428e+00 1.481657256138883128e+01
-4.241007935720561228e+00 -7.217837788498147056e-01 1.265336222923451004e+01
-1.476083368977050947e+00 6.898919808873102966e-01 1.293145625506701180e+01
-4.066223422222163819e+00 -7.233686419775846588e-01 1.261375512869373239e+01
-3.945019507069747355e+00 -7.424703459124670779e-01 1.270305256332519406e+01
-7.604692325427070188e+00 -1.642166363616064384e+00 1.403286391092431984e+01
-6.823209627337179839e+00 -1.195849089727291314e+00 1.351287763388053520e+01
-6.785678100424725301e+00 -1.364239103188675806e+00 1.377452997226550480e+01
-5.614872190519867523e+00 -7.601370601878505440e-01 1.340595503012336565e+01
-4.526168118133063523e+00 1.252696601506510188e+00 1.748406050343021434e+01
-7.227046450969233149e+00 -1.592497228873264614e+00 1.396260988741330067e+01
-1.639422351291292879e+00 3.462874364314589837e+00 1.610686710875219063e+01
-6.136283963716766543e+00 1.132446375428157515e+00 1.726268996955595725e+01
-7.408369393415510373e+00 -1.666584173127652946e+00 1.404341733538633719e+01
-6.109460981527448098e+00 -7.668404004658309070e-01 1.312925845083182708e+01
-1.096460164758508382e+00 2.074248489141437002e+00 1.509162079567949633e+01
-7.707606717603595392e+00 -1.824502716222673016e+00 1.427299531641109098e+01
-7.022331001737359024e+00 -1.388264921754229775e+00 1.372360148382551159e+01
-5.209654240835464911e+00 -2.130205846170034611e-01 1.142589269221916481e+01
-5.233995982588514728e+00 -1.163075329879390551e-01 1.130323281162182525e+01
-3.211264416369866925e+00 -1.119556793140465967e+00 1.462709797042199966e+01
-3.587797829653774251e+00 -2.518359105169744261e+00 1.792629268958029343e+01
-1.774056190955484613e+00 -2.211682623103333967e+00 1.699672699194533010e+01
-3.141043471264717279e+00 -2.470966418047086499e+00 1.731785375233215518e+01
-3.789862574395009176e+00 -2.232331538592685405e+00 1.614820422952281831e+01
-2.819950603357048280e+00 -2.445162248546928652e+00 1.705226129634365151e+01
-4.806996169780059169e+00 -6.297332951861278616e-01 1.244067281718556472e+01
-7.386939547750318802e+00 -7.776614788662343791e-01 1.781854413017826033e+01
-6.040331766814198922e+00 1.106247069866888699e+00 1.151521128134019278e+01
-5.850866322886998816e+00 -1.075742388411204509e+00 1.445677240309519362e+01
-4.988494167106761523e+00 -2.686728725076287461e+00 1.752340434013112969e+01
-1.700307406862459070e+00 1.227046663528522874e+00 1.321878729163329069e+01
-5.992152103582603750e+00 -2.877938575485806005e+00 1.769100789297782228e+01
-5.606240990518460698e+00 -9.848332936178283425e-01 1.422247749357174484e+01
-3.706495357938151436e+00 4.628671985753207707e+00 1.576101471530692066e+01
-5.323809076891244274e+00 -2.762966493660899303e+00 1.771353307838108293e+01
-9.130883431108158810e-01 1.653577301607864758e+00 1.701079767362731587e+01
-3.677616970410559016e+00 2.986029351977270707e-02 1.079876468329992889e+01
-4.374868518260366379e+00 -2.599453681093295110e+00 1.733751836603392604e+01
-4.751533908315590971e+00 -1.366068021790028286e+00 1.522312384495116788e+01
-5.174148012718661427e+00 2.702060833365192316e+00 1.273643951004108743e+01
-5.042856100569564681e+00 -5.933218036903520343e-01 1.244774998466026261e+01
-4.842368181961255402e+00 -5.904531258864671450e-01 1.222857118671889509e+01
-3.939553209929313127e+00 2.427757576912648041e-01 1.784928344244573140e+01
-7.755400725892001024e-01 1.185760108692162085e+00 1.472102210790652066e+01
-1.788662603593801581e+00 2.792089487831446615e+00 1.504553344480872568e+01
-3.743852695578864243e-01 7.900257074103935739e-01 1.612857128033413545e+01
-4.399006320587528940e+00 -1.541104491916736041e+00 1.543301575762031774e+01
-4.524541226700113938e+00 -1.084689514749916039e+00 1.471072990886453624e+01
-2.735443753540820477e+00 1.650793406158574506e+00 1.252373251341646210e+01
-6.230449001099506390e+00 -1.113729551925515260e-01 1.195160910727986447e+01
-2.825147598512815605e+00 -2.000798653247614745e+00 1.601027271599646440e+01
-2.601198093425200586e+00 -2.393937606182728217e+00 1.673748251053109470e+01
-2.061122779666826332e+00 -2.214413111389859523e+00 1.677981124738129637e+01
-5.481300079454065610e+00 1.148651229379954897e+00 1.107325590081551780e+01
-5.198842970992748391e+00 4.030423551709732877e+00 1.458317490145272899e+01
-7.748134864840021230e+00 -2.482851913382342346e+00 1.548295442312485903e+01
-7.163137920462463448e+00 -1.396034699567901161e+00 1.370663003937394819e+01
-7.987966357913225401e+00 -2.413406922276797317e+00 1.536656495412201906e+01
-2.038187504561211227e+00 2.756404120779002653e+00 1.468928858321487496e+01
-7.564438711300544682e+00 -2.044228143040248469e+00 1.461472702968471538e+01
-3.059367728149908316e+00 2.994808958745473593e+00 1.394652667603006080e+01
-3.003558569948418633e+00 -1.616777210802234244e+00 1.561546936944134956e+01
-2.814781070567858645e+00 2.291793797231281182e+00 1.326256635309917442e+01
-8.255899398348518048e+00 -2.722170782854366422e+00 1.607118429421011285e+01
-5.009819875172758508e+00 -8.017599642278567806e-01 1.360424930965289292e+01
-6.814257653089799582e+00 -1.759147583156006611e+00 1.454995191270271704e+01
-6.160817690755989062e+00 -2.880234135510899129e+00 1.804191307808075351e+01
-3.265185808842111292e+00 3.958555769148953463e+00 1.502454393782571884e+01
-2.592800262177124448e+00 -2.223082489257948602e+00 1.790084337445674123e+01
-6.853411959645170803e+00 2.362106697132420940e+00 1.380445146360681719e+01
-4.370262847447139443e+00 -2.627760153935268406e+00 1.709915703420253408e+01
-4.029321040049282487e+00 -2.616169781958085139e+00 1.709019069584307715e+01
-5.029888261728510557e+00 -7.047736343021244743e-01 1.322687233500434445e+01
-4.808870775319851631e+00 -7.367772086892974137e-01 1.323681287779846372e+01
-5.240824338349558076e+00 -6.128294433209626746e-01 1.288695206680573335e+01
-7.659630580594051885e+00 3.666053726186639938e-01 1.331765605685755105e+01
-2.166034179413048211e+00 -1.318240821743675628e+00 1.530049041343599470e+01
-2.194426415765006411e+00 -1.118068369912430082e+00 1.496995712403487033e+01
-5.517766677493479044e+00 -2.566209372631460539e+00 1.847520338248737914e+01
-8.647148164213525945e+00 7.859149352307248648e-04 1.556066768997963834e+01
-5.520548811939801626e-01 -2.511623840497529514e+00 1.706910042891598067e+01
-1.032018696535925040e+00 -2.369883917230111159e+00 1.609380431985463389e+01
-7.007782830190060430e+00 -1.207500309724524712e+00 1.349383152669209807e+01
-7.628170519336344491e+00 -2.650672000102002990e+00 1.805381339088376080e+01
-6.631257673522858553e+00 -9.271316188927785085e-01 1.319956357700356619e+01
-3.622228556348314310e+00 -9.530359653000939346e-01 1.362138596718379802e+01
-3.560122836964067616e+00 -1.021517515859017955e+00 1.394078459871057163e+01
-3.374745791763134051e+00 -1.019619519312179534e+00 1.398927100028013371e+01
-4.637577069546595432e+00 9.136992351562314152e-01 1.052022945058900660e+01
-3.811028282402551426e+00 3.021590982497476041e+00 1.679524154872460429e+01
-3.348146225769794260e+00 -2.491522917547484894e+00 1.815437418206271758e+01
-7.948080078266741566e-01 -2.472674522445603706e+00 1.648380423509068038e+01
-2.966737994395991507e+00 4.407025605741226038e-01 1.784312271437224240e+01
-6.267799326595740794e+00 -1.274649578459552846e+00 1.460583586956270352e+01
-8.455018977213498488e+00 -9.535977754623390368e-01 1.461320622190518748e+01
-3.078057421284785544e+00 4.360003052211596231e-01 1.052509835407093419e+01
-1.706777601349702467e+00 4.897291422564769015e-01 1.235009246984667186e+01
-8.758296590867924891e+00 -1.029498217935502336e+00 1.585881334361372552e+01
-1.959942756891460469e+00 -1.347539947077635247e+00 1.520030509749464898e+01
-4.372114278885375072e+00 4.399585386639920159e+00 1.516620267395683896e+01
-5.062461480028993321e+00 4.892904428633648717e-01 1.047203326719477445e+01
-2.072813648341377046e+00 1.291020843387163497e+00 1.281570836058702412e+01
-4.097675217870467179e+00 3.302939112392392129e+00 1.664171488834993085e+01
-3.613196786275188810e+00 3.962097393921768518e-01 1.031250360461526583e+01
-3.809242503812014569e+00 2.541798123275187393e-01 1.046516540257096040e+01
-3.457518189218474980e+00 3.760311970268830351e-01 1.038730676319496382e+01
-3.477906127379472689e+00 3.095077559373673459e-01 1.045741298954921916e+01
-5.438921101913484435e+00 5.016624093629358239e-01 1.068148198874006027e+01
-1.647789165757083563e+00 1.626458289195838569e+00 1.379066920482640768e+01
-1.894362972182166427e+00 -1.305454233620761961e-01 1.214115687853295356e+01
-7.187098414629248921e+00 -5.271039187132209314e-01 1.776294951425954594e+01
-6.331695952071275890e+00 2.719163616109435022e+00 1.643125731741005069e+01
-6.760032054003882074e+00 -1.190319682489290987e+00 1.807254573346131110e+01
-1.317633554814358066e+00 -2.149854482446931669e+00 1.864609070183530548e+01
-9.955271427466196865e-01 -1.673558803370196024e+00 1.495775215607919506e+01
-3.553738280318019083e+00 -1.603127327220551734e+00 1.854312962638858409e+01
-6.120796691258426847e+00 3.818143067925721557e+00 1.441967922422040260e+01
-4.588801918776111322e+00 -1.862765717010689492e+00 1.578409256545371875e+01
-6.947138366155691802e-02 -1.836195621290849900e+00 1.743806869068219356e+01
-6.050357068163531027e-02 -1.954801450000552165e+00 1.729929392227858642e+01
-6.411650014826268063e+00 9.131127323792531669e-02 1.189459327723773896e+01
-2.068937663130539395e+00 -6.203015238124294228e-01 1.345876493454007061e+01
-2.582291430256063336e+00 -2.028082884306248168e+00 1.865700779967554723e+01
-2.431511990984001503e+00 7.914187994329753284e-01 1.172601753200953567e+01
-1.132318785026082297e+00 1.457857177041743224e+00 1.431854806611311659e+01
-1.964339344172778001e-01 -2.279317792927649577e+00 1.608144085972067927e+01
-6.876139278286574896e-02 -2.089783392206093104e+00 1.648449064044513790e+01
-4.552077877627775493e+00 -6.535334441520515014e-01 1.819514647752367154e+01
-3.889123589026427519e-01 -2.522587292734765008e+00 1.731785969377595791e+01
-4.573261483439193142e+00 -2.558453754793384327e+00 1.645715621430885278e+01
-2.611336683338885134e-01 -2.495737451106045057e+00 1.761010286248314571e+01
-1.092788957016102569e-01 -2.351327068672709686e+00 1.709484662166877911e+01
-7.142053018433160538e+00 1.709388037649340220e+00 1.364865448046503360e+01
-4.413848086356758627e-02 -1.956601328361701420e+00 1.675944487280216322e+01
-2.602360823564839887e+00 -4.944007945964115081e-01 1.217095351805338055e+01
-3.049765960994279990e+00 -8.041876027056549248e-01 1.323888478461126539e+01
-3.114601420598693160e+00 -7.744387534062622258e-01 1.305976923008126533e+01
-3.133161991992790441e+00 -7.470115919478712563e-01 1.292241552622157030e+01
-2.287748360792084323e+00 -1.045134703730408177e-01 1.167598250789085057e+01
-7.762857559953853404e+00 -2.177847049038215133e+00 1.797804988781776814e+01
-7.995870235346708377e+00 -1.344715546810685947e+00 1.770113683153475392e+01
-3.554030363234484291e+00 2.858540895729860143e+00 1.689213664019148098e+01
-7.528803859736478366e+00 -2.368579785143343663e+00 1.810902589865713708e+01
-3.597670987176023516e+00 2.731767823310230270e+00 1.325693418583493610e+01
-4.395448960281838069e+00 3.109162341684333253e+00 1.349001281577751854e+01
-7.208499757420712584e+00 -2.353382667441993092e+00 1.821842207688005999e+01
-7.541831269033417051e+00 1.520188082863593859e+00 1.658077783266424632e+01
-8.713405025194791875e+00 -1.016529151927951347e+00 1.545523596738191685e+01
-1.562710297714698049e+00 -2.157076123182730676e+00 1.831633045692350237e+01
-4.774632270044099513e+00 -2.197318791234150304e+00 1.856457893798248193e+01
-5.618980107243572775e+00 3.371904074328194945e+00 1.633281583858162378e+01
-7.914222790058599522e+00 1.150078684502360060e+00 1.653947074662085726e+01
-4.751923841638688195e+00 -2.417502455623236735e+00 1.859456304309851049e+01
-8.547737407046430036e+00 -1.509550399358170036e+00 1.707729542077981932e+01
-6.911796869532604859e-02 -2.036165235060373391e+00 1.746937207564469929e+01
-7.400768323858440745e+00 -1.387303579535504650e+00 1.800286476693337079e+01
-1.151514129187322766e+00 1.281276681774992099e+00 1.409294651158118228e+01
-8.469122674212879787e+00 -1.837487208651078952e+00 1.513910102452777551e+01
-4.968098545286544265e+00 4.764621001254498722e+00 1.546194547463094437e+01
-8.686757346380133527e+00 -1.432456123748868659e+00 1.675679514625634425e+01
-7.480686820466142528e-01 -2.416665371148623009e+00 1.809275509258501557e+01
-3.193020303510840652e+00 -1.003786874579130295e+00 1.400235102569870094e+01
-2.906662181473634643e+00 7.591915323269242677e-01 1.119431365484445706e+01
-4.190662315394666493e-02 -1.919922577709153089e+00 1.694429692370989926e+01
-6.740313311517129868e+00 -1.579198448199686133e+00 1.818788004233478262e+01
-6.153585647490089627e-02 -2.119058340277765851e+00 1.710912457822041688e+01
-2.328005059667952903e+00 -2.112043258923354649e+00 1.838121650949578623e+01
-3.576531744373538935e+00 3.309970637748029798e+00 1.404520357393980134e+01
-8.288218055607408985e+00 -1.185177008934678700e+00 1.440021679018538237e+01
-8.297601498359135519e+00 5.047806281134814554e-02 1.436523310023158473e+01
-8.319393753078784925e+00 -1.551625490852309941e+00 1.465843658297724517e+01
-6.556141023275290358e+00 3.829559691494747398e+00 1.497390866909189810e+01
-5.990052831966670155e-01 -2.460370563927296139e+00 1.627239793292611836e+01
-7.404219776082705540e-01 -2.402193592152554125e+00 1.609532633340693053e+01
-3.164414882080770042e+00 -7.278921050209552490e-01 1.279401143473546654e+01
-8.567696435826061219e+00 -2.290324701746917491e+00 1.700124565883615446e+01
-8.503361659479072188e+00 -1.108084146007945137e+00 1.471799794674892325e+01
-8.377137460288189175e+00 -1.726946495110506241e+00 1.737718530489870972e+01
-5.506329286045582805e+00 -2.248943859146338653e+00 1.848152209597024864e+01
-5.773281472512015178e+00 -2.169679365333268883e+00 1.842728814327751508e+01
-3.324615673337321553e+00 2.390998502520587543e+00 1.715414473453830624e+01
-7.333402099941902286e+00 -1.810118869900801286e+00 1.810994349748460763e+01
-3.567901383686491901e+00 3.776815496639979841e+00 1.461837674530529796e+01
-2.359726336863553264e+00 9.058642861043963990e-02 1.126813916374567270e+01
-2.623813619700056332e+00 -2.110073399965761709e-02 1.125876454274610694e+01
-6.143354978853341919e+00 -1.986566295660337822e+00 1.835149760799902197e+01
-7.568215017422842195e+00 -9.583130208239647452e-01 1.781923969740186209e+01
-8.435976340875310342e+00 -6.355954749694316952e-01 1.695944604612495255e+01
-8.353983608919133275e+00 -6.832150165906476502e-01 1.711939689297184231e+01
-5.344696907881608006e+00 -1.309469886175396169e+00 1.830551142437413858e+01
-7.878509381541676682e+00 -7.134626442506943889e-01 1.760677027632754488e+01
-5.072891959104121051e-01 2.573571487698624871e-01 1.439485403612451364e+01
-8.086681474807473791e+00 -9.726740163640719139e-01 1.402497987452966299e+01
-6.524022736958890789e+00 4.193136588769397655e+00 1.536753164296745666e+01
-8.132294677281176831e+00 -7.675421524231116344e-01 1.743421525333330635e+01
-7.615938871274409827e+00 1.115717268779020888e+00 1.381357723353472977e+01
-8.702078959666046387e+00 -1.373528966262655970e+00 1.548026545806332166e+01
-8.760936649826348344e+00 -1.231936861474270728e+00 1.582739236070701594e+01
-6.039458124833073427e+00 1.428705208563692430e+00 1.180765034618897147e+01
-8.773384987302726756e+00 -1.437738860766451854e+00 1.603056317090665317e+01
-8.686448041307421875e+00 -1.448608825719433835e+00 1.546000022208085767e+01
-4.951072187892848753e+00 -2.003673830055663352e+00 1.851218665826510090e+01
-8.451770048506869415e+00 -1.912619893390310466e+00 1.727314670346615344e+01
-6.057842014973970457e+00 1.976644538673344442e-01 1.145385533572101622e+01
-2.298806540865328873e+00 3.093578729720052767e+00 1.478170401713315840e+01
-3.015538812819439585e+00 2.550810149690327933e-01 1.067219816124042353e+01
-1.992860886456401470e+00 -5.112022226092984845e-01 1.833859044253004100e+01
-8.697216180549993680e+00 -9.452955183194564626e-01 1.534767357085105743e+01
-3.236767698196156839e+00 2.530792406461306321e-01 1.060490393983290147e+01
-4.762498702632733227e+00 2.072729880306756645e+00 1.715824045379455498e+01
-4.532341363042348803e+00 -1.814424901753773689e+00 1.852508213844927809e+01
-2.407922493151757770e+00 6.209370512637564232e-01 1.152240287468034552e+01
-2.860932753233113246e+00 2.051086539841122658e-01 1.079434418671304741e+01
-8.840143931109605280e-01 -2.116671486582110795e+00 1.546807358307201952e+01
-4.034951607331756840e+00 9.348470910850581461e-02 1.066217266687667120e+01
-9.923880800995650286e-01 -2.389099738576659249e+00 1.748860820300822638e+01
-1.213638044602823873e+00 -2.299465907919169716e+00 1.764834371009729352e+01
-8.754834656332626253e+00 -1.655396222687143926e+00 1.641850107230311551e+01
-2.614084578504786371e+00 -5.563777490675896331e-01 1.244634186041827917e+01
-5.032101102770651480e+00 3.017326813678198327e-01 1.065144273809985975e+01
-5.042505256445257267e+00 1.671097143236230931e+00 1.140692740973222641e+01
-8.062141355520790142e+00 -1.656288153843073374e+00 1.771093002295414465e+01
-3.758741506660584264e+00 -2.030381483777696339e+00 1.860347979143487152e+01
-3.933965228227091160e+00 -2.500379910922624127e+00 1.861525598472607612e+01
-4.129010118051851919e+00 3.753411453377257789e+00 1.444325344607693040e+01
-2.693430430925366714e+00 3.294897237291761982e+00 1.464321808433459893e+01
-5.548969405281694023e+00 1.222694814692244725e+00 1.733474301651805405e+01
-8.299477230599052291e+00 -1.354131504180645873e+00 1.742331280667088578e+01
-4.413691464500199224e+00 3.830283420953555229e-01 1.033396346409413269e+01
-5.223967863335663431e+00 1.299498184482223984e-01 1.095346861473692712e+01
-2.478026544824475152e+00 1.328669752180420049e+00 1.239069483844750152e+01
-5.342592207754827349e+00 3.375890849779841218e+00 1.640299279741111604e+01
-7.656892698194066149e+00 -1.071687521349176109e+00 1.361405278713771594e+01
-3.452135415092708826e+00 2.795449392681437217e-02 1.084902416258070446e+01
-3.380165040125071130e+00 2.936706459604538466e+00 1.363892888092071587e+01
-3.430903461355767181e+00 1.389093563457577396e-01 1.070483506131138540e+01
-4.612765584645088346e+00 4.125292103110305142e-01 1.035960012305710620e+01
-4.637877805782768981e+00 3.025523853467508850e-01 1.049895314222190734e+01
-3.015907452759038598e+00 -2.333835082334717370e+00 1.850054221082525174e+01
-7.540432848981185820e+00 -1.029856970386979764e+00 1.349436519581229277e+01
-7.154551996031233152e+00 -1.350508727428536560e-01 1.271583554992800202e+01
-7.739748098424736433e+00 -1.182912524341765970e+00 1.781615238311227500e+01
-8.044640861027076539e+00 -1.524458830141488974e+00 1.770328145075209392e+01
-6.280304496515388024e+00 4.472357890483424914e-01 1.149482576502623488e+01
-5.350564335241528191e+00 3.909872883960960444e+00 1.435701046395648461e+01
-7.186005619924160648e+00 -6.502480432748969363e-01 1.304794833018347333e+01
-7.895141225249379779e+00 -7.184567599655724557e-01 1.365021812000207291e+01
-7.055823345041164707e+00 -6.854711599138001432e-01 1.301124673988621794e+01
-1.467475172766419478e+00 1.962454498991897722e+00 1.444349728020164036e+01
-6.684217276533638952e+00 -4.487099025811858155e-02 1.223186944227910544e+01
-4.402030228252960420e+00 -1.468963447455192028e+00 1.534406645673021785e+01
-3.579157037051434731e+00 -2.183879830869596361e+00 1.863028152776684720e+01
-2.361740606330172021e+00 5.396964235416543687e-01 1.783600874618463905e+01
-1.823640852303202387e+00 3.666215793271688561e+00 1.612606627572016293e+01
-3.559554160483261676e+00 -2.273464591751029218e+00 1.863600807610321652e+01
-3.976649521866570502e+00 -1.498883533482060937e+00 1.850041701122898274e+01
-2.580374096868650824e+00 1.849782738768746881e+00 1.743361144904815063e+01
-2.857471581054586984e-01 -1.162373054172770370e+00 1.505576101277115697e+01
-5.747535515957455488e+00 -1.777717268161124409e+00 1.836216539083605426e+01
-5.588937160239339619e+00 -1.394219788991289288e+00 1.828612693550037704e+01
-7.159162304502447505e+00 -1.033627548077244995e+00 1.795859845969847868e+01
-6.960031163764559103e+00 -9.016327730634485782e-01 1.794487675446771391e+01
-7.570588457075418276e+00 -1.935999922263079931e+00 1.804651538624882079e+01
-7.711400084735783089e+00 -1.765484060629145979e+00 1.795775683636287567e+01
-3.177808988265696577e+00 4.257294003262368953e+00 1.549141524260488012e+01
-3.727648672001778962e+00 1.994492527720478581e+00 1.733036589793236004e+01
-6.648286523559938210e+00 -2.572427565981150188e-01 1.246538144722733676e+01
-5.927903668742156462e+00 1.198008833745459967e+00 1.147014622595560240e+01
-1.976375607433638937e+00 2.636232488704634669e+00 1.461884764174529749e+01
-8.084021622836431220e+00 -1.313503181836458644e+00 1.420065484699124880e+01
-3.012244093079743834e+00 1.583445310093637648e+00 1.217180303193840984e+01
-3.788038788663891765e+00 -2.042922319043815271e+00 1.595279225668254952e+01
-8.118975449346979900e+00 -1.461290779415038266e+00 1.432347425319262868e+01
-3.750252689662752381e+00 -2.578320247229811457e+00 1.834300548345292015e+01
-1.846721059184540437e+00 2.912861568171488447e+00 1.512151083924896255e+01
-8.696219610369425368e+00 -2.207453336399206378e+00 1.642469522635011714e+01
-2.375854695572789943e+00 -2.530865573896847742e-01 1.819634748701621163e+01
-8.723881090517370041e+00 -1.871319469557754189e+00 1.660295363599926333e+01
-2.557477343070883258e+00 -1.082985759579051077e+00 1.489630532015802089e+01
-2.838912205337624783e+00 -1.099027454288302064e+00 1.481734278632326607e+01
-3.301071587698820142e+00 -1.056879424592776839e+00 1.421650423706162059e+01
-3.127485303989122833e+00 -1.038482186155716747e+00 1.421646167692240681e+01
-1.927266869539645100e+00 2.469809641566904634e+00 1.702246818779036630e+01
-3.220705899083050383e+00 6.386480601607091856e-02 1.086574195889553351e+01
-3.447790872270825702e+00 -7.695377406042611668e-01 1.287607864014339043e+01
-5.983546995214378050e+00 -9.907762137397613245e-02 1.176513655400323444e+01
-6.258079633590335256e+00 1.935295935236780451e-03 1.184688549653739642e+01
-2.407696704873765192e+00 2.074936943257369215e+00 1.339752895378877184e+01
-2.601344791789646393e+00 -1.022374277495656791e+00 1.458534697897123067e+01
-1.712311541709585772e+00 -2.117300709628914035e+00 1.790519393655450386e+01
-2.828654440000511805e+00 -2.319055081210290581e+00 1.825670229476673967e+01
-4.614695076320033174e+00 -6.159530902254095608e-02 1.093297563453979393e+01
-4.850522321467880538e+00 1.296276477742606126e-01 1.078131550442225972e+01
-5.765701481453978872e+00 1.487653122665677508e-01 1.129625895790851331e+01
-5.156622079498454525e+00 3.872295260491549040e+00 1.435888690668033973e+01
-4.363524939798394620e+00 4.053494176739391719e-03 1.078837734306124929e+01
-3.608985281941013312e+00 -6.465405447854788434e-02 1.094344319869593818e+01
-8.528615548452325612e+00 -1.994565708712997321e+00 1.542890064331141531e+01
-8.145491665790430602e+00 -1.906260260875938251e+00 1.469692928166603707e+01
-8.080025035513628495e+00 -1.611470654837233951e+00 1.438462405559647550e+01
-6.350755962427375501e+00 -5.606977214545056931e-01 1.271612024350677217e+01
-3.195263894906616553e+00 -9.156157283151862281e-01 1.360273166725765748e+01
-3.253731186412722742e-01 -7.989021798614546199e-01 1.472235055688524596e+01
-1.143645595720771624e+00 1.845235987571312020e+00 1.474443275977272094e+01
-1.794065426049712197e+00 3.349399945347397711e+00 1.570320869763169469e+01
-3.420042497420713090e+00 -8.000634676398861167e-01 1.302513985626465143e+01
-6.865296983444019396e+00 2.363469512276692441e-01 1.226924464304539697e+01
-8.685667532840387395e+00 -2.001237988649874566e+00 1.677434110305173220e+01
-4.586133752751702986e+00 2.745175538573416230e+00 1.286967113557835773e+01
-3.199073714884767217e+00 -4.960216915460273768e-01 1.184791756055039258e+01
-2.988300932588894288e+00 -5.382586729604001974e-01 1.204066576551468870e+01
-4.872836829242832568e-01 1.127216248331072590e+00 1.653306529511123557e+01
-3.372983153401606593e+00 -1.925767892902596756e-01 1.806864173621851677e+01
-3.044726920271066728e+00 -5.046615062236154969e-01 1.192008676129491107e+01
-6.466164270707784212e+00 -8.347457316117079529e-03 1.200671349843178604e+01
-8.487598357572249341e+00 -2.588302265985153561e+00 1.707052452933304210e+01
-8.665542649358037863e+00 -1.679590859566584271e+00 1.556573956316933049e+01
-1.417579868998555481e+00 -1.756799517728451221e+00 1.518722021500213515e+01
-4.575737638273130514e+00 -1.556317085415544810e+00 1.847589983500050437e+01
-1.377827401286953579e+00 -1.242158709968158359e+00 1.454978210499899660e+01
-3.826963872294873781e+00 -2.926929043838253364e-01 1.126386676399020104e+01
-2.832467433799341183e+00 -2.325832561628802253e+00 1.816002670320163048e+01
-4.348687601246215451e+00 -1.246777608129180148e+00 1.841985686390329846e+01
-3.949471377325799004e+00 4.626981330382921698e+00 1.555886498277826746e+01
-2.624174318409310480e+00 -5.189327056545582906e-01 1.224917929823487839e+01
-4.747477987903366170e+00 -1.590752168190520344e+00 1.846184326081078098e+01
-2.173859918695439486e+00 2.572815268686583501e-01 1.143796127692333187e+01
-6.555199097941787123e+00 2.734422440690676304e+00 1.632765255363149492e+01
-4.750405535070116869e+00 1.897075174970884959e+00 1.724153963319429295e+01
-4.391796674995269711e+00 1.664747434268284643e+00 1.739293777660852669e+01
-2.556399683136656442e+00 -7.925546515090071686e-01 1.360543046226928965e+01
-2.339933233110191413e+00 -7.931275161007942387e-01 1.374817197039501337e+01
-4.749444503681798047e+00 -2.577472453179789014e+00 1.646068169722989438e+01
-4.667777040708104508e+00 1.546054805019416722e+00 1.114355972359286540e+01
-3.759999435079537378e+00 1.459872309587228578e+00 1.750396455961175946e+01
-4.903849464573903028e+00 1.695529831301025858e+00 1.729271498966306098e+01
-2.164797911675565345e+00 1.023500903305128773e+00 1.767657371156227697e+01
-1.998157285947034900e+00 3.527589159315327016e+00 1.567423356046077032e+01
-6.337394331117851998e+00 1.535299173682530327e+00 1.227990321063299461e+01
-5.528511766711146969e+00 -1.451430575089828423e+00 1.831152875631403276e+01
-4.953124845045515201e+00 2.004208987127106045e+00 1.715595493071258204e+01
-1.557620601733796573e+00 6.064930115551419032e-01 1.778458296930024574e+01
-9.748680902884305777e-01 1.399681728291192417e+00 1.451699787538166220e+01
-6.134624837094048821e+00 2.497866004860656020e+00 1.662395883989471912e+01
-5.754322508775591594e+00 2.046148529049530040e+00 1.696988778669043541e+01
-5.563026975527608720e+00 2.338968588248655500e+00 1.687160330933550512e+01
-7.437432806661516516e+00 2.252477822543455410e+00 1.613436160461978375e+01
-6.913882208340472957e+00 2.295582234966902391e+00 1.641902830094792876e+01
-6.562320777079582612e+00 -1.579461971299466860e+00 1.821148231057517108e+01
-1.550756962527271687e+00 2.829540677620032696e-01 1.794282342295113608e+01
-1.338355945224805499e+00 8.021618867940727426e-03 1.806284041096423465e+01
-2.880941523040239538e+00 4.082246734074814754e+00 1.545786727835491092e+01
-5.922374580644410580e-01 1.916953437595521059e-01 1.743833263647690046e+01
-6.942362035360190475e+00 3.517995139493980794e+00 1.568419796978564307e+01
-2.969319055423075504e+00 4.364500899096503517e+00 1.579664581484684760e+01
-6.750059736741546024e-01 -1.612248227449697424e-02 1.771290090259819294e+01
-6.810594151098287696e+00 -9.445723968417008010e-01 1.320023353166573088e+01
-2.983410702681401627e+00 1.700167542283602895e+00 1.747957314323717526e+01
-5.802840550172776446e+00 6.766869497676382128e-01 1.096954548385432560e+01
-6.989719740446900254e+00 -9.156636389433865375e-01 1.318768803071321827e+01
-4.674540968028824572e+00 2.671623684898864592e+00 1.272086555090364612e+01
-6.374996077866955879e+00 -3.119344691603913589e-01 1.236684171266769283e+01
-1.871088492384898050e+00 1.973595844818465395e-01 1.185865757545145982e+01
-2.993302344086818056e+00 2.880135352709264573e+00 1.385796472418105907e+01
-2.090348602291882685e+00 -3.516922933799047080e-01 1.243984936974629818e+01
-2.722656896894767975e+00 3.600141703558803918e+00 1.657932722041167040e+01
-2.482793726068240669e+00 -5.812289369206729006e-01 1.280622876028270696e+01
-5.153906897871521231e+00 4.097249411624266813e+00 1.470148115236153075e+01
-2.506571333861282280e+00 -5.639146263694341243e-01 1.265487687251277293e+01
-2.071467147155237498e+00 -1.903113634124817821e-01 1.205457909330480959e+01
-2.216128089930430534e+00 -3.327860645076032853e-01 1.220342869455287627e+01
-8.402682463745374974e+00 8.459363552773446759e-01 1.478672009234211515e+01
-4.149450484191267385e+00 1.392544388076255579e+00 1.749134962655602266e+01
-6.742636965667973215e+00 2.147512245368638162e+00 1.660121395819218293e+01
-6.945086503481194384e+00 1.936853745198441779e+00 1.664350377364818456e+01
-1.444871355602092233e+00 1.661343354818693996e-01 1.799187654549038484e+01
-2.173039834379610458e+00 6.837770689199664798e-01 1.778299440513611529e+01
-4.138260485946066325e+00 7.601855793651497439e-01 1.764388815925350684e+01
-6.578407261291180141e+00 2.240664892451714518e+00 1.661354253898855404e+01
-6.140032628594504160e+00 1.976657423460439267e+00 1.690975423140894662e+01
-7.126766931966954211e+00 1.292549798227789370e+00 1.325693076480101240e+01
-8.524607851211865039e+00 1.008873662020972617e+00 1.537922368172858256e+01
-7.805754091857724397e+00 1.730333864702481739e+00 1.623840056781251917e+01
-8.160762825258828457e+00 1.783176577318827949e+00 1.581589904912275557e+01
-8.449510692515865173e+00 1.302886927768684089e+00 1.540258599497980185e+01
-8.483525852276898149e+00 1.139690873383566005e+00 1.526110884587784255e+01
-3.544776384034472372e+00 1.584258452073966872e+00 1.748660915865808363e+01
-8.499651842449164718e+00 8.102908028666013784e-01 1.505199821939881133e+01
-5.029487904751879235e+00 2.272018076655315522e+00 1.216706704562975006e+01
-7.536951514609428138e+00 2.446030688928961361e+00 1.489335483179277020e+01
-8.113483750573813325e+00 2.684249863425853810e-01 1.383078275095158460e+01
-8.491757299528092773e+00 6.707027318572262864e-01 1.500862411400824925e+01
-2.378655092937472570e+00 3.573410807996022065e+00 1.529080436162878698e+01
-7.546201771921261514e-01 -1.549376601607606041e-01 1.789227521685312183e+01
-3.987490206828210315e-01 5.149072569853574421e-02 1.703463690299598454e+01
-2.317014481928777458e-01 -6.006843310131806390e-01 1.498533111127475337e+01
-2.796321389039256866e-01 -4.008881905863468376e-01 1.464869586875492757e+01
-1.337356218215198345e+00 2.248811501952243663e+00 1.694005883185801764e+01
-1.179845297512817748e+00 -2.397217984351360798e-01 1.816422448947038504e+01
-5.757529482599931470e+00 1.453547715091373815e+00 1.722565038979203678e+01
-7.965683651202405180e+00 1.289022274482407360e+00 1.441752682599801716e+01
-4.132652340514523237e-01 -2.112602316482026232e-01 1.738895359988705280e+01
-7.564451844384472157e-01 -3.903756345067477262e-01 1.804348467940788225e+01
-5.948333362034325056e+00 -1.161438768098912000e+00 1.817048899781469373e+01
-6.375705415130992648e+00 1.912899729110621339e+00 1.687578001563539942e+01
-7.198157049318615996e+00 1.748297097133365785e+00 1.664268195714289078e+01
-6.739013397321782506e-01 -5.655087571521590917e-01 1.808032072614951602e+01
-8.044702958820728611e+00 1.412520581849291190e+00 1.625304927537521849e+01
-6.169828195123065129e+00 4.254341667861842424e+00 1.512690958650892270e+01
-3.797727352342250562e-01 4.558357597472160183e-01 1.648864171993322714e+01
-3.353763635589099845e-01 3.576479123335782884e-01 1.607950264088398029e+01
-2.333456118732228468e+00 1.230968210593710310e+00 1.762171224252151802e+01
-1.153172926663510234e+00 8.710118671076310104e-01 1.757992860481563469e+01
-9.272261749312602497e-01 6.644237207665559808e-01 1.753335882150837222e+01
-1.136417351847601953e+00 5.047489057114313837e-01 1.773827936347903744e+01
-8.349845670133873021e-01 1.275402570474604147e-01 1.777301218898332991e+01
-8.667671022317890994e-01 2.982392377578277909e-01 1.768972633108761272e+01
-2.283254909467173910e-01 5.588070962158424582e-01 1.528825721951199768e+01
-4.511714762133496315e+00 2.471908852744109542e+00 1.699506599694838371e+01
-5.735119069562532035e-01 -7.980872887423533513e-01 1.434627324755562938e+01
-4.821908078597570979e-01 8.396519047125383661e-01 1.673237077844162712e+01
-6.250508038794360122e-01 5.985841338154442859e-01 1.723135187830476411e+01
-1.965361274682627446e+00 2.222703750777694776e+00 1.718913396659328896e+01
-6.390299383652675580e-01 8.647460511990725518e-01 1.709451116289829287e+01
-2.780980791704136257e-01 1.067314117095148340e-01 1.543579470381420293e+01
-2.960207610511448317e-01 1.531685045735642348e-01 1.582433107975555941e+01
-7.526422808416320720e+00 2.331289454102920100e+00 1.602494926656604690e+01
-3.946378708208526653e+00 1.859174680720064643e+00 1.736999582185138280e+01
-4.933920876915238729e+00 3.204017350979437850e+00 1.342224499014477601e+01
-1.743034874353816654e+00 1.170726748811128592e+00 1.308866836963272817e+01
-3.538474029424309997e+00 1.689351488749494923e+00 1.745901382372720434e+01
