-4.539683806537360589e+00 -1.394945620640006378e+00 1.849118307443353615e+01
-2.215542431218977537e+00 -2.965022404060440930e+00 1.838536984886976455e+01
-5.882955220361411719e+00 4.800879214408668716e+00 1.589479825854817818e+01
-3.130173464541532891e+00 -3.613850133799935360e+00 1.667502462003157149e+01
-2.525727313275632824e+00 3.728880141719259189e+00 1.727012528449265005e+01
-7.816081135272462177e+00 1.475215020724514048e-01 1.501403026082776648e+01
-2.154671849856728105e+00 3.540363898722576508e+00 1.728897308989076720e+01
-3.632696790062092340e+00 -3.677128701457996751e+00 1.853942606996669440e+01
-2.335728310311966816e+00 3.813550155156019361e+00 1.720638827303739760e+01
-6.710256561281709997e-01 2.439130625483219461e+00 1.548232750765583887e+01
-4.952201460380919684e+00 -8.719818803735006618e-01 1.449921591924997699e+01
-7.404980990573642785e+00 4.663750853075834257e-01 1.402068503961007195e+01
-4.711983831016847368e+00 -4.020890522597476036e+00 1.744954454797714760e+01
-4.606020574155873959e+00 3.361642251089870026e+00 1.740512711868946383e+01
3.896756682392923943e-01 -1.847338382588619599e+00 1.736628394271330222e+01
-2.213003228863219096e+00 -1.682991851854615195e+00 1.479757553167909379e+01
-1.134272097290353609e-01 -2.471870710398957005e+00 1.487085899002484979e+01
-5.714935569975488905e-01 -1.024908160630741083e+00 1.904155412497836863e+01
-3.966039966187260291e+00 -9.815954634692114489e-01 1.489889260091396039e+01
-1.556610297860450354e+00 -3.725792293800437971e+00 1.623378593423221616e+01
-7.206702598885132538e+00 2.693105680776397115e+00 1.584151626021764514e+01
-7.133202905409150141e+00 2.653263324534078649e+00 1.607487383652359370e+01
-7.944113437233935038e+00 -1.824662342430265038e+00 1.661332114676820026e+01
-5.191364804140649269e+00 -2.427963539687751915e+00 1.879778029784264248e+01
-7.934932576689314843e+00 -1.588085762734875228e+00 1.661869197714561608e+01
-4.424591847152215429e+00 1.606923590694943282e+00 1.086251425782298696e+01
-7.852422115336030295e+00 -5.275368562387865445e-01 1.614692766600857254e+01
-2.284626500167193264e+00 -5.608899551147277229e-01 1.825835290010646617e+01
-5.163309347394487325e+00 -1.172046994120457430e+00 1.856856679812506883e+01
-6.976858713671688861e+00 2.659089307060227725e+00 1.644448410525093607e+01
-2.409260418111676127e+00 1.796428955869711297e+00 1.232764894214367501e+01
-2.342117101795113676e+00 -1.150466529254522197e+00 1.823449418151132306e+01
-5.529085722954889981e+00 -2.220089770861977119e+00 1.884553001289347662e+01
-2.141149558489730875e+00 -1.374765425592407997e+00 1.844389625350228812e+01
-6.114694985290943130e+00 -3.454198020663623137e+00 1.745865121928473940e+01
-4.216283251190614756e+00 5.075068926521633550e+00 1.650953053609622145e+01
-3.799934133679412351e+00 -1.174711071631115100e+00 1.511000365481113761e+01
-2.347371434265794310e+00 2.355810510319000350e+00 1.768653292342611394e+01
-1.745279230450314190e+00 -2.921873408741283651e+00 1.571288214955136198e+01
-4.180275499379033199e+00 2.961113029523697371e+00 1.753331664198005058e+01
-1.980248377570262619e+00 -1.410526309966888991e+00 1.862774127549552361e+01
-5.548051977424933057e+00 -1.661473006575441946e+00 1.876321468229330236e+01
-1.816467791135736753e+00 -2.985180394399387094e+00 1.587617091434380967e+01
-7.514568700077696839e+00 -2.792527566492381208e+00 1.830193339792842977e+01
-4.169364823305145684e+00 -3.290380240598396178e-01 1.213979891623228013e+01
-1.822687091512709578e+00 -2.754828433903699025e+00 1.567027547396302367e+01
-2.302337546855628858e+00 1.090663074787956432e+00 1.799243709008592162e+01
-1.803912764735175811e+00 -1.599825401392303004e+00 1.878481564839122342e+01
-5.575241217025840967e+00 -9.626036119734195928e-01 1.424117277605567011e+01
-6.441043855098737225e+00 3.999671659975283067e+00 1.531263226537646460e+01
-7.460235497481627398e+00 1.909729038734940376e+00 1.580438027155555858e+01
-1.762635260944540816e+00 -1.833697407153816794e+00 1.880171321001350293e+01
-5.760610857541873742e+00 2.307586290763257608e+00 1.757389848166668145e+01
-7.705186687741824025e-01 -1.958693871906669326e+00 1.396112422415693999e+01
2.018641592259974582e-01 -5.102141912258209011e-01 1.770758506858695824e+01
6.694555986333923514e-02 -1.379772519115590956e+00 1.863303342065737667e+01
-3.967147973352418866e+00 4.652973147475562676e+00 1.681086073782594781e+01
-1.370021544296738669e-02 -1.428058826397046399e+00 1.878910219855637820e+01
-7.736749146323164794e+00 5.349381554443528586e-01 1.544231804623354520e+01
-7.636341614489898788e+00 -1.766166489207915635e+00 1.809227316664225782e+01
-7.935910005259922961e+00 -2.072587092583069168e+00 1.699740965518667224e+01
-5.570474552446166960e+00 1.826421046654882474e-01 1.126112174075511518e+01
-4.793559505260479803e+00 2.227334903488985329e+00 1.180190976932261293e+01
-1.969026467149911586e+00 -4.461681237009043954e+00 1.791425879441255375e+01
-1.761906459011165937e+00 -4.418995669669124382e+00 1.800011104545282592e+01
-5.106836548937662146e-01 -3.557237608690857034e+00 1.787994825005483079e+01
-2.566670121044628328e+00 2.384501483491345830e+00 1.768447028067070903e+01
-2.200426872101491682e+00 -6.129367146672373146e-01 1.249925503048062581e+01
-1.369529022974998567e+00 -2.227236280543930302e+00 1.901015636273697851e+01
-3.974155119781677126e+00 -3.995125422058339648e+00 1.855065332185358784e+01
-5.432792087323946362e+00 -1.340885649697786786e+00 1.519682266281651550e+01
-2.982811191127735739e+00 -2.382819346313933107e+00 1.592614780540037600e+01
-5.054676762113284205e+00 -7.847896188822329755e-01 1.322261364591367538e+01
-2.673081318513076954e-01 -9.352077306299255710e-02 1.337378746783470973e+01
-9.402869090246064321e-01 -3.750115769726356074e+00 1.851496996618131874e+01
-9.425710292267336365e-01 -1.981448517190753211e+00 1.394343093062544625e+01
-3.235486260886248022e+00 5.572838204319174871e-01 1.016733045147545766e+01
-1.775894201244158976e+00 -4.186309653742203984e-01 1.227267156522735547e+01
-1.798134667607784509e+00 -6.035457164961139931e-01 1.248749781138046444e+01
-2.560853708470313350e+00 4.922237627769904478e+00 1.637640821506326461e+01
-5.570819310210276321e+00 8.731011084034765446e-01 1.806236560107225131e+01
-1.144528008295652599e+00 2.555457572523082810e+00 1.745607435651452732e+01
-3.976759689414129273e+00 -3.800600810934895435e-02 1.134599159101118460e+01
-3.985388035952793562e+00 3.539778062628089472e+00 1.367022951452811697e+01
-7.888356845426299557e+00 -1.227732623791708999e+00 1.688047824118336138e+01
-7.508787880977378038e+00 1.389668834644370854e+00 1.475710053081706974e+01
-4.591516277934026391e+00 -1.298583676820397326e+00 1.527105182244761750e+01
-4.278020900650165714e+00 2.203209934517392998e+00 1.166426677319399374e+01
-8.677522013289615810e-01 1.922417758821606260e+00 1.460917052501514490e+01
-2.864593401078914248e+00 1.277525837389279939e+00 1.092888562795161533e+01
-7.916871137838266570e+00 -1.170483693834620365e+00 1.634115335415068415e+01
-6.353081052087941050e-01 -1.939743308107333863e+00 1.402285775668539713e+01
-5.586203916824133975e-01 -2.221663895966459190e+00 1.430135705340465790e+01
-9.812470011730725084e-01 -3.896524765794329159e+00 1.623382237054906341e+01
-4.798599372053934609e+00 -3.947720689526295512e+00 1.738497873532448779e+01
-6.772424255998076070e+00 1.104845229830027087e+00 1.771985374654523326e+01
-3.211500408684903718e+00 -4.835119326276964280e-01 1.288231418092343006e+01
-5.965987702766271106e-01 2.213552572880960412e+00 1.717450736440075332e+01
-3.646634766872746347e+00 -3.551297056238449379e-01 1.288967464716647271e+01
-2.419653901852770961e+00 3.166533343104135589e+00 1.433366061759020482e+01
-6.298439682457257494e-01 5.809563785123468271e-01 1.815745896202363241e+01
-2.388743302635174981e+00 -3.605137126488746180e+00 1.655976393589401852e+01
-1.049914064808059155e+00 1.792996382819237455e+00 1.416345194305412036e+01
-2.569492951752515797e+00 -4.116286208261794144e+00 1.694392168252695541e+01
-2.380881978625820405e+00 -3.765435931181029705e+00 1.665113929888056532e+01
-2.918783658586195262e+00 -1.583789253542199571e+00 1.830186338611706276e+01
-2.334571674527731844e+00 -4.391976738770525301e+00 1.735050930441115469e+01
-6.060715870305394937e+00 -1.588875677460879654e+00 1.501820743498678468e+01
-3.541196461017153130e+00 3.143274403357821267e+00 1.748065282123179998e+01
-2.652903229333500423e+00 -4.376552172344227998e+00 1.752426082004565444e+01
-5.363941710773774574e+00 -1.991119874960282754e+00 1.595060109045221708e+01
-2.133247625888750498e+00 -1.487663762572497550e+00 1.400345078798855525e+01
-2.022563834393630078e+00 -1.588225716337487992e+00 1.399636437491436425e+01
-7.718928849722420438e+00 2.854705184013628383e-02 1.661261473596528049e+01
-2.600172186237280858e+00 1.558201276099198118e-01 1.114689679561963942e+01
-5.948214369252784017e+00 -9.678284838724526828e-01 1.864430243056757064e+01
-6.721911665744123354e+00 2.749039986886281817e+00 1.433756928042679135e+01
-1.067293327238833855e+00 1.443774223248405431e+00 1.374525229968810436e+01
-5.970285978912150071e+00 -2.983627039866572073e+00 1.693535129278249229e+01
-1.162631505396870546e+00 1.154297177345556147e+00 1.326282494155340430e+01
-6.393953995640184296e+00 -2.784702835850219937e+00 1.673707265423829682e+01
-1.567685883655623336e+00 -4.495452185958107805e+00 1.754261097176180328e+01
-6.611699937503884072e+00 -2.887459009369456542e+00 1.688292713171396286e+01
-1.250512636361170715e+00 -3.871291358345652078e-01 1.253711064879692572e+01
-6.845588071159634858e+00 3.537572032394659782e+00 1.592865410743795707e+01
-2.766693384577207926e+00 3.966524450765014809e+00 1.511469467408624467e+01
-5.564048295364887764e+00 2.165735986505644917e+00 1.766946540150929934e+01
-5.966137786676340760e+00 2.123328359980599878e+00 1.759911257793576311e+01
-5.914019506167957019e+00 3.958119496890350586e+00 1.670915899266514515e+01
-3.803603459606732518e+00 5.076805553152860639e+00 1.652391871494729259e+01
-6.134047057059303754e+00 2.375842602367467471e+00 1.741779332552934534e+01
-7.313870904516449833e+00 1.145382723141139536e-01 1.383494640908788398e+01
-2.383378733528992655e+00 -1.474998088436211052e+00 1.462166267584615298e+01
-5.611409334850325337e+00 -2.084046151902171129e+00 1.604121381478501718e+01
-2.961644212345691862e+00 -1.762907866824181102e+00 1.833447922686209353e+01
-2.417787216682109275e+00 -1.514674909996503782e+00 1.479669469402347914e+01
-5.024314221684842430e+00 -1.291631967833602790e+00 1.520688104512495187e+01
-1.966401145869265399e+00 3.348907313764868388e+00 1.733189059073099969e+01
-2.538962215444315884e+00 -1.069261249308098183e+00 1.365496733433145948e+01
2.376451768197552217e-01 -2.153492272284875941e+00 1.612637789806192501e+01
-6.445902819146513529e+00 2.932366108770626312e+00 1.420192500012563386e+01
-1.759147075573655128e+00 -1.916035377277278684e-01 1.854747220751310266e+01
-3.241612836283533916e+00 1.052810213828860864e+00 1.798753198386632590e+01
-1.577448274690151475e+00 -1.458872575099849911e-01 1.861178320187287483e+01
-2.873024376845580097e+00 9.715431914539407465e-01 1.048706596386082168e+01
-7.822232731579485510e+00 -3.461513744148638771e-01 1.618366221357982937e+01
-9.809202372858193408e-01 -4.002625255083476219e+00 1.637821119018980198e+01
-4.833798916759062259e+00 3.278442916536885576e-01 1.058879047112703375e+01
-7.329040813077897454e+00 -1.757344413677552009e+00 1.841905584286060815e+01
-6.618437942815124764e+00 3.410274202199519600e+00 1.486869125973628059e+01
-7.269651917293124654e+00 -1.992530050270576059e+00 1.853215790999467316e+01
2.646728696876256559e-01 -6.727747544118121148e-01 1.768519066839063925e+01
-5.764546209342424454e+00 -3.953262390933248493e+00 1.843273268871949000e+01
-5.398456513472524421e+00 4.209001627775632137e+00 1.458777476686266539e+01
-3.171417864685670107e+00 -4.285865875098256339e+00 1.795916115656101653e+01
-4.419436927289734030e+00 5.399998295521974967e-01 1.014901238788424109e+01
-2.630060868594361612e+00 -4.513141318732656337e-01 1.227014596248250200e+01
-4.742605979846666209e+00 -6.382319679385468625e-01 1.407401690767792246e+01
-2.787902175578990338e+00 -3.012572379558555724e-01 1.195316405360437528e+01
-2.799840076640113473e+00 -4.392386399785581652e-01 1.231399595952844805e+01
-4.807449186011420572e+00 -5.676496132669073269e-01 1.370233788631908567e+01
-3.374767264723214311e+00 -3.417075903860355535e+00 1.850473768035460864e+01
-5.548207457522759789e+00 2.380823007130818958e+00 1.259413750279898636e+01
-3.775500364479241089e+00 -7.695178885455615791e-01 1.449099664657715181e+01
-3.193463673295467320e+00 -3.187708769969677114e-01 1.215131845091342200e+01
-2.980765432947066973e+00 -3.398596442344321122e+00 1.844679389576476325e+01
-2.362610930284949617e+00 8.160068470474386437e-01 1.097557030965937486e+01
-2.779776522591035359e+00 -2.993554828122094502e+00 1.841778085964035228e+01
-1.635962081910806498e+00 -2.269518701609688716e+00 1.450953573569330501e+01
-5.564589958045838003e+00 -3.968064960814943642e+00 1.799638213421855681e+01
-6.920052128382000234e+00 6.461447289178572362e-01 1.781734397681250925e+01
-5.934509068497209938e+00 4.673417482491115216e+00 1.565297754670012864e+01
-6.401030868921282924e+00 1.356299141116437124e+00 1.780624763636109265e+01
-3.069616799813462471e+00 1.822021807343402910e+00 1.158961068268879302e+01
-6.362815127741737520e+00 1.534629615690410454e+00 1.774118829225066207e+01
-1.047784972197484565e+00 1.883337869009613641e-01 1.258516734727316333e+01
-4.755473671960032789e+00 -2.941633606305996462e+00 1.660085660173389499e+01
-1.754194727576964707e+00 1.000074458392354870e+00 1.818585314444112555e+01
-7.493334851230765814e+00 -2.921700082852435099e+00 1.826505005227277678e+01
-3.933512001938332059e+00 2.856137905956138923e+00 1.756493529715760360e+01
-1.594490736340838710e+00 4.220955981841772342e+00 1.674531742923272759e+01
-2.989579106885656756e+00 -1.874897951567828791e-01 1.171686598177976890e+01
-1.799133196834946435e+00 4.357400163690089201e+00 1.674298204433371495e+01
-1.750562706362243759e+00 4.553430159075744221e-01 1.834439271448525943e+01
-3.185507948183587068e+00 -9.740240975522591604e-01 1.824510159292557177e+01
-1.948739715152790319e+00 4.479392644542826041e+00 1.635799035548577507e+01
-3.448100182529481028e+00 3.423996671157248262e+00 1.393248597527066579e+01
-6.645208085815506927e+00 -3.201760471750310089e-01 1.287795018710092165e+01
-4.155917241327210299e+00 -2.068400268016606258e+00 1.587912033704205328e+01
-3.137055627478525288e+00 -1.160813214317069519e+00 1.827015960475689837e+01
-1.916225400470297435e+00 1.413555432117019617e+00 1.802931265901248281e+01
-2.922320687322829791e+00 -8.995008683520402393e-01 1.817813413339497686e+01
-2.970971348459984451e+00 8.370028669228721796e-01 1.018651701510522400e+01
-7.854923028019560327e-01 1.592379894454265532e-01 1.295605632595519552e+01
4.095223340074206908e-02 -8.047609420347225928e-01 1.449675995314391486e+01
-7.159148211849514887e+00 2.466516460126925825e+00 1.620666115559127007e+01
-9.690835902180833239e-01 -1.826681942786110735e+00 1.921273155045205527e+01
-3.346112052142877769e+00 -2.947599757939197485e+00 1.632105494094906106e+01
-3.626292583203463593e+00 6.015018890878054414e-01 1.000942892262599315e+01
-3.662966122963848270e-01 2.448596261559251808e+00 1.657254325354291069e+01
-4.756851497495728331e+00 2.663705509576588248e-01 1.814351044136887481e+01
-5.016934145441906523e+00 2.860186449959098987e-01 1.072327811150213961e+01
-5.472443152014764278e-01 2.590341946181058397e+00 1.683340903187217208e+01
-4.784044561839130516e+00 -1.218456173589342217e+00 1.849472793140333238e+01
-2.243102849829217593e+00 -1.342550063998516396e+00 1.384965191416012686e+01
-5.762885229152442612e+00 2.958474040218778800e+00 1.728946667876530086e+01
-5.226717619066090670e+00 4.275240069593511549e+00 1.453168610343348632e+01
-9.664744788691808086e-01 -4.394023001784844951e+00 1.713707561287648673e+01
-6.199854425902493027e+00 -1.589637285609728945e+00 1.881260228535227697e+01
-3.775560603758692846e+00 -4.074087629648417419e+00 1.719405380841665476e+01
-2.773839764088656956e+00 -4.158658297587715325e+00 1.825025044447204436e+01
-4.985641891344897658e+00 3.331044461787043165e+00 1.329785994758919543e+01
-5.268023659246057200e-01 -3.926243317392981158e+00 1.761439213920482416e+01
-3.183718995801506413e+00 -3.165019158958920276e+00 1.642341889731472548e+01
-1.771209904118917100e+00 -1.536986328573350047e+00 1.358680380659451004e+01
-6.258059213203664983e-01 -3.890946762197525555e+00 1.776748226776700790e+01
-5.615077775684842010e+00 -2.001589614386560800e+00 1.595702462008133438e+01
-5.560403744773020129e+00 4.587229143512865370e-01 1.079193549142239306e+01
-6.554465492290815654e+00 -1.156663684159602301e+00 1.866485140639500173e+01
-1.460120729783204174e-01 -3.119772823741327361e+00 1.764963806791589462e+01
-5.161739950039149427e+00 -2.740006390952594462e+00 1.657140122828229778e+01
-4.176668065325942258e+00 3.127100593963748842e+00 1.748672113540317952e+01
-1.367501760064053995e+00 -1.243217114528416989e+00 1.904036493304566591e+01
-6.352127917667295343e+00 -7.594182346710129927e-01 1.856816129713651264e+01
-6.087729094407488439e+00 -5.217899758763988594e-01 1.307016140237556812e+01
-4.022337738383368944e+00 1.194928827274090999e-01 1.091266207938700461e+01
-2.976980358129286852e+00 1.333463616343796510e+00 1.088182246463065894e+01
-6.542012690007580566e+00 3.637136374126131777e+00 1.634319585436691114e+01
-1.973122516078977595e+00 1.513258935706959019e+00 1.798732095384675489e+01
-1.180327670986716093e+00 -3.526626237734461267e+00 1.578459078359951917e+01
-3.804218985386117691e+00 -3.035188747018908728e-01 1.274636108188271777e+01
-2.175313779660565050e+00 2.163388450706241084e+00 1.313992242167815050e+01
-4.199178496247281345e+00 -4.218835450777618234e+00 1.763296390746268827e+01
-4.754121720987198429e+00 -2.600126146749760725e+00 1.872719462376070965e+01
-7.872754440781945640e+00 -2.377625978623042702e+00 1.737483715650738958e+01
-4.608822065285433922e+00 -6.217492640252788583e-01 1.412171957211074869e+01
-4.600457393697112707e-01 3.689041690013281638e-01 1.814692882970456367e+01
-4.995839997469221139e+00 -7.994060117143351185e-01 1.429967872118577077e+01
-3.858963495006363598e+00 3.799497905375098572e+00 1.420137949566412061e+01
-7.371249074468156692e+00 1.272864385947749533e-01 1.760045724419285307e+01
-6.953476605946791622e+00 3.526209225258800206e+00 1.553847728109698068e+01
-2.557192894578883990e+00 1.028440212401987353e+00 1.095763721781242594e+01
-7.548946933368639201e+00 1.588456388615608894e-01 1.724548791021506133e+01
-3.415295586148381801e+00 -2.276309320331724173e-01 1.195049566659294271e+01
-1.635164582998944516e+00 -3.227397683367024595e+00 1.584612807881032381e+01
-7.715163294825760687e+00 4.690489535669697396e-01 1.583378681343957339e+01
-6.339426179603641742e+00 -1.183936713610351799e+00 1.870592793925624164e+01
-3.379082304195383912e+00 4.791022697047878864e+00 1.575203068179921928e+01
-7.770791500275374908e+00 7.884920612693147035e-02 1.601952835837949607e+01
-7.685729276149226408e+00 6.353831489398866772e-01 1.585440766759252540e+01
-2.827663878816349285e+00 2.517996209947614972e+00 1.302378422924533652e+01
-7.744564382875535280e+00 -1.530585663200336288e+00 1.785978947916784421e+01
-3.347924562824623695e+00 3.549541408466278636e+00 1.736386825244117205e+01
-1.302074151555091541e+00 3.531217975032473255e+00 1.582874643300611694e+01
-1.158311655559153941e+00 -2.065636068940681636e+00 1.405126058899132602e+01
-6.792540820996907591e+00 -2.014988624383687199e+00 1.478807618059141760e+01
-6.778286792734742328e+00 -2.113526933168953459e+00 1.498042838218477613e+01
-7.661316654004868276e+00 9.412161248074815134e-01 1.548333213407408948e+01
-4.025899526930071914e+00 4.152336575075786129e+00 1.463690550483662633e+01
-3.411855435576524265e+00 -8.716027552839604731e-01 1.450146620967013433e+01
-7.515046138801636744e+00 1.931258189901219779e+00 1.541322125359478434e+01
-7.163225889638876076e+00 -9.777791327822709100e-01 1.830469020268684233e+01
-3.749663351902714048e+00 -1.790378283334757459e+00 1.846153039793698980e+01
-5.918648953336704821e+00 -1.509933085837914302e+00 1.515165515718399547e+01
-5.795336678904794425e+00 -1.489789034600927931e+00 1.525323826878678091e+01
-7.614506910498086256e+00 1.650116634054388243e-01 1.704288558002024700e+01
-4.157510084146991858e+00 -3.416364853422998227e+00 1.865700616302380155e+01
-3.186410571933486757e+00 1.928245627104120619e+00 1.784686132493492750e+01
-3.958589701193658605e+00 6.703114365048890022e-01 1.803519077352063249e+01
-5.543058448679150096e+00 -2.183564049777226845e+00 1.614145383280640544e+01
-7.547233954247928978e+00 -1.322593064153210651e+00 1.804833504171276104e+01
5.250818484905327155e-02 -2.044112087541310796e+00 1.514875592235978274e+01
-5.509113992385695546e+00 -3.381942378028742535e+00 1.882458554807052309e+01
-7.112651636792653775e+00 3.097863884196423001e+00 1.552248234953272998e+01
2.294734273213050457e-02 7.490750738977949297e-01 1.723622031587811421e+01
-5.948206733320772877e+00 -3.232344343548506860e+00 1.886753443190544033e+01
-4.128078425701477094e+00 -2.408794018090906430e+00 1.859368538211106880e+01
-3.202134757601441173e+00 2.739835878556578397e+00 1.302088701974630425e+01
-3.785337116849395445e-01 -3.529386647653181885e+00 1.764691303100637754e+01
-5.621963609900403336e-01 -3.703554436537428440e+00 1.780079316936920009e+01
-7.191557005929271051e-01 -1.842349682573451997e+00 1.387389353686439364e+01
-1.375588344755972692e+00 3.405248326547642979e+00 1.559120141626286227e+01
-5.548454921425562958e-01 -8.033805177789115071e-01 1.891860163066432676e+01
-4.416810515313084551e+00 -1.590725155280004355e+00 1.555408069451463149e+01
-4.954068964583947299e+00 5.416040514581307974e+00 1.609069335687072311e+01
-3.766783785048090749e+00 -3.392812084988852117e+00 1.858110532502490031e+01
-3.517320657257262173e+00 -3.594219277490918518e+00 1.852165213178431458e+01
-5.187375316154278160e+00 -3.429558479821861017e+00 1.706846108048548416e+01
-6.894395175245930929e+00 3.678822834719493340e+00 1.558337140452970715e+01
-3.548270319044593002e+00 4.837590078058830123e+00 1.669143499714115819e+01
-2.024208789669093012e+00 -7.651915207930826135e-01 1.269829498395437639e+01
-5.936052289071043653e+00 -1.386006745566732423e+00 1.875472734614226766e+01
-6.463711093359859383e+00 8.150703436439368232e-01 1.242465717795556657e+01
-4.369997842241859942e+00 -1.907009399800711602e+00 1.579319636037618579e+01
-2.003325349229990504e+00 -1.059517382152412868e+00 1.306981247926115230e+01
-4.786702644702481635e+00 4.267698227726508087e+00 1.438330390483825738e+01
-1.662248801686643240e+00 2.041765503226174783e+00 1.359123088783939437e+01
-5.582321078494353550e+00 3.651157967430664453e+00 1.413191590967842615e+01
-2.493611572332643078e+00 -4.414881006744520775e+00 1.756974169450070633e+01
-9.918008986523577653e-01 -2.258535725444233311e+00 1.429448841318830432e+01
-2.505596706315983191e+00 -1.607031834858849262e+00 1.505910682810866774e+01
-7.844843656319370195e-01 -2.606914980704380991e+00 1.470753993652254366e+01
-7.605584152985933599e-01 -2.444429096102511689e+00 1.451627352545050798e+01
-6.162568752389845805e+00 -5.999737636485433789e-01 1.852738666280212954e+01
-3.415420397143576370e+00 1.717844414198811620e+00 1.116863013695597573e+01
-6.168672111879073050e+00 2.414339178716669032e-01 1.823706238225695131e+01
-6.735878823854250186e+00 -3.215624399175314618e+00 1.738945860345200600e+01
-5.313372343899713357e+00 3.059612944646453947e+00 1.314170974274783532e+01
-6.148562964251170548e+00 -3.200038080320128930e+00 1.716393149884974889e+01
-3.424307614117884757e+00 2.375657140356646213e+00 1.221630072887920448e+01
-3.954863416460108638e+00 -2.805105996493217457e+00 1.859948704024185417e+01
-7.941351552756859888e+00 -9.597241536170995069e-01 1.590038808856117214e+01
-1.370392328267359350e+00 -1.814245649163193530e+00 1.377103645511533614e+01
-7.035140470023104164e+00 3.285830001645379639e+00 1.570054485705455249e+01
-3.357313692895885993e+00 -1.195628355266586951e-01 1.811050386076246355e+01
-5.562466765781350908e+00 4.053521398559756683e+00 1.684204941744616946e+01
-2.603396011273301447e+00 5.569312577169776013e-01 1.055681887076999459e+01
-7.128311823967790062e+00 8.475639389003415403e-01 1.369171828758530296e+01
-5.331200218965759241e+00 4.337488702685604380e+00 1.466841830739480201e+01
-5.356960813258259790e+00 4.000904390916478093e+00 1.695017682146973215e+01
-4.627735451486951312e+00 4.699167201718752906e+00 1.672622389255386821e+01
-4.955092475180242317e+00 2.501395446007286694e+00 1.763433035106636737e+01
-7.824076264419189464e+00 -1.915096696594658976e+00 1.783221730018468776e+01
-1.468890373719787812e-01 -9.792139094500096341e-01 1.405366006789087407e+01
-1.325256120578672814e+00 -3.254455563345494351e+00 1.549941442879757858e+01
-4.813717461069212611e+00 -5.373984871998502832e-01 1.208848766213141346e+01
-4.050683794268305493e-01 -3.359348458391163472e+00 1.803015160110957282e+01
-5.583363702332663436e+00 -1.170172539997704764e+00 1.865550425781056276e+01
-4.187946022179757755e+00 -7.177338765345497862e-02 1.133166987507752310e+01
-5.770899088012541256e+00 -3.455398103668354093e+00 1.730760993879005127e+01
-4.949589999514599548e+00 -2.110933844558969152e+00 1.602888905006512488e+01
-6.180090363007209042e+00 -1.358894828547924316e+00 1.876083731060138859e+01
-3.392591622072348212e+00 -2.399825738086587723e+00 1.847348972341561080e+01
-6.757108837521045963e+00 -3.543414885146164206e+00 1.808534201990368473e+01
-3.963749163876820081e+00 4.906065601263026821e+00 1.567892174764224933e+01
-9.711982723456860089e-01 2.861964450235716662e-01 1.846360379211510150e+01
1.279056511642495120e-01 7.111213563727858400e-02 1.557659076197039383e+01
-6.606997870973141396e-01 1.380975273129156911e+00 1.434026660497671202e+01
-7.840878629348741136e+00 -8.146640909504481165e-01 1.670153462670114664e+01
-5.635154363528783739e-01 -3.414179219218298922e+00 1.865112072063212878e+01
-7.517299282143830474e+00 -1.639557821952065897e+00 1.819188668315491242e+01
-1.462840827627511997e+00 2.895300140317695003e+00 1.492058234011890505e+01
-4.984726591177510713e+00 5.107677175806326630e+00 1.571581262290926162e+01
-3.872424166596421635e+00 -4.198102950323709948e+00 1.743966955070845160e+01
-4.166739613951466303e+00 -1.177645114063615939e+00 1.840407370669230147e+01
6.096296752597491625e-02 1.137313244742768070e-01 1.757196953544054452e+01
-5.297639582893326704e+00 -7.818510952981267970e-01 1.330850757036186849e+01
-7.913707412244034956e+00 -1.664290373314023963e+00 1.742196671782303952e+01
-5.145919606948746505e+00 3.596690510508923744e+00 1.721730825064565806e+01
-4.218428588735889662e+00 6.420472307864848460e-01 9.988308323011686696e+00
-5.371370206853345763e+00 -1.066989359633804479e+00 1.470042076504964257e+01
-2.371616692727964271e+00 4.821981658747431787e-01 1.801733052224728482e+01
-1.979716974558402010e+00 4.430105005705864407e+00 1.676197519387316959e+01
-4.154253902174148472e+00 3.751461274640979671e+00 1.388402528682458836e+01
4.092403526493461619e-01 -1.717989986045718620e+00 1.759229377833973018e+01
-5.009158501360502669e+00 3.661100825860139629e-01 1.059718328195965142e+01
-5.405655128106435781e-01 2.522289577812990569e+00 1.576563265378962342e+01
-3.777474141472220825e+00 -1.494772083291769693e+00 1.541765493779677598e+01
-2.566482770636954847e+00 -3.162892756949307493e+00 1.840175919163028340e+01
3.722189801468480108e-01 -1.888471652158325131e+00 1.777425158463621102e+01
-7.041858668448884195e+00 2.678855020075746829e+00 1.628207352030467092e+01
-1.245449626805962551e-01 -1.204936951289447666e+00 1.421572983084816144e+01
-2.040804076125992239e+00 -1.859789034009980302e+00 1.477283492502676410e+01
1.205765711060421963e-01 -1.040461471215210931e+00 1.510956255021219619e+01
-2.193822158807594125e+00 4.783879220019968237e+00 1.654979349314893255e+01
-2.797887695983223733e+00 2.055862721605890009e-01 1.097516161844671956e+01
-1.365036162044358736e+00 -2.675129787604779263e+00 1.891210589952512322e+01
-6.796838992588384976e+00 -2.317241281072508929e+00 1.580051221370099768e+01
-3.587154176633242209e+00 2.200699665075545930e+00 1.183332037610797016e+01
-2.172659326599232776e-01 -3.133551550204304537e+00 1.784837311157028239e+01
1.567894902801929002e-01 -1.297458136877689849e+00 1.543358815056092936e+01
-5.783920876520889820e+00 -1.877755702643380875e+00 1.580070502605811100e+01
-3.350808294330274606e+00 8.944743092324816125e-01 9.961716141366991906e+00
-5.139946931092028493e+00 -1.404269268101300039e+00 1.533927165048855557e+01
-7.555617865801749211e+00 -2.801247211290111228e+00 1.712797618803501365e+01
-2.555506034404865900e+00 -2.067346151396536325e+00 1.559296616914350864e+01
-2.246492219151040359e+00 -3.032752787962749164e+00 1.617975195155249679e+01
-6.655750172820678934e+00 2.618016792536346671e+00 1.694018142060240706e+01
-2.547665841889006355e-01 -2.177722222606204294e+00 1.455321663561389300e+01
-1.965176613493614388e+00 1.071077219551436865e+00 1.810423873902363567e+01
-2.209443119247832321e+00 1.283719432017017326e+00 1.799118104034002386e+01
-4.185983410675900629e+00 1.045810271724143536e+00 1.800271268202762087e+01
3.616268470951614078e-01 -6.835516083307822122e-01 1.752757090244760008e+01
-1.506599939452008652e+00 -1.417767702207854530e+00 1.898640649350100063e+01
1.291920018059300457e-01 2.118758758440875134e-01 1.581163520582954618e+01
3.987884388383892698e-01 -8.674146948901895193e-01 1.727193740687092571e+01
-4.563964376435523995e+00 8.764547305495509200e-01 1.803617954834999892e+01
3.545231761314158736e-01 -5.538114912912592835e-01 1.742750119740311021e+01
3.010542851854390300e-01 -2.412342059129248817e-01 1.733763679328032481e+01
-1.746717840024371915e+00 -2.609547030780426713e+00 1.871285335105490333e+01
-3.170014955636399012e+00 2.935067560471193993e+00 1.754087262468604536e+01
-1.934005347361633431e+00 -4.451223144423176237e+00 1.736348138965838928e+01
-6.155316297361308919e+00 2.749721768717597215e+00 1.721167531189118449e+01
-3.239885461418434254e+00 -1.673903794344981932e-01 1.810181307433655462e+01
-2.173328907570143187e+00 -4.459081340541112937e+00 1.754028402822896737e+01
-3.310182749810140823e+00 1.156819769825200073e+00 1.798260916659121023e+01
-3.198807804807973554e+00 -3.758895162528785860e-02 1.136209218493132767e+01
-3.783337010171381909e+00 -2.858778094419101024e-01 1.255613391990721794e+01
-6.118512008195824414e+00 -2.629803160940280993e+00 1.891787742720294574e+01
-3.774337755639001202e+00 2.487630041630165323e+00 1.768397509294230474e+01
-5.205885665434816012e+00 3.910135495822161467e+00 1.409742093023018583e+01
-5.144833214057525694e+00 1.771614899003385313e+00 1.784856956207794099e+01
-3.972862642829718016e+00 2.699850189499800379e+00 1.761363723088530264e+01
-6.664655078379515984e+00 -1.022287189540452612e+00 1.371164731965264139e+01
-2.631736591506057987e+00 -3.227242828114952555e+00 1.638402498322317768e+01
-3.492404483887800115e+00 4.083457289903749121e+00 1.487863704505114981e+01
-2.990292015743907239e+00 -2.126197250673466765e+00 1.575646468291386526e+01
-1.997044914890964140e+00 8.986491732120742704e-01 1.813088749947441158e+01
-4.981669955045690656e+00 -7.172168800470202221e-01 1.841710304314443647e+01
2.611694113461770494e-01 -2.316822918839176904e+00 1.793807582560840785e+01
2.736522857733709180e-01 -2.503623334496111408e+00 1.769722537627342263e+01
-4.336243879004509694e+00 5.355998648304569620e+00 1.605304019919287839e+01
-6.927256311020061119e+00 -5.567539075629137635e-01 1.830866601958529571e+01
-7.337199469449909195e+00 -2.808944361832180991e+00 1.851791913413320145e+01
1.854121730588120520e-01 -3.458124153624322350e+00 1.684248252361284415e+01
1.689932569525003925e-01 -3.292026592682702368e+00 1.726952243377304086e+01
-1.496412391041811452e+00 -3.286824182854200860e+00 1.568945928092956166e+01
-3.653593698528953215e+00 3.658531527029054153e-01 1.042525062296378735e+01
-2.377767447255583200e+00 4.589352415449327260e+00 1.676542145631812275e+01
-2.770825276726577080e+00 2.969440539401317025e+00 1.752326862368387594e+01
-5.969085405314222825e+00 -2.222937466141946761e+00 1.615752726284183183e+01
-3.612473381347570012e+00 -4.168932129649830287e+00 1.730962095317498495e+01
-6.322313552775628231e+00 2.971508565311354655e+00 1.699924525590366642e+01
-1.265734270956320184e+00 2.158729675074645193e+00 1.424732695432749807e+01
-5.998824920894750612e+00 -8.969874540443050215e-01 1.371929477547032405e+01
-7.738876974143485965e-01 -1.500603313493375612e+00 1.359508488893910538e+01
-7.861963592369199283e+00 -7.522190924209586349e-01 1.636479806545336402e+01
-4.997854256695827502e+00 -9.577432381944759321e-01 1.465823410777697688e+01
-3.254752113244434586e+00 -8.466618087684243399e-01 1.426350614340221057e+01
-4.687816529557661482e+00 -8.638997712519880245e-01 1.460654936522072944e+01
-4.645135765585404336e-02 -1.835858123644861895e+00 1.474929048777504903e+01
1.461472059361167419e-01 -3.589846211148871813e+00 1.695013018588777953e+01
-4.303731980212583075e+00 -1.712096584371140207e+00 1.851570005750170367e+01
-5.359284294301267515e+00 -9.847357314203590839e-01 1.856624482827301392e+01
-6.922064337018714042e+00 2.386204764149071345e+00 1.678423412092352152e+01
-3.354872042660072662e+00 4.855212479204776166e+00 1.667964070191906245e+01
-5.927014650793742678e-01 -1.531262411488576891e+00 1.378649395038590342e+01
-4.168180417593605469e+00 -1.421449773317537968e-01 1.815896022685409861e+01
-6.170636284059253462e+00 3.338274641135422716e+00 1.439090160024439768e+01
2.601055104381391203e-01 -2.707742275176038493e+00 1.755913015483375261e+01
-1.804126710343581630e+00 1.298226121935219801e-01 1.157028956827281974e+01
-5.184816038337346278e+00 -7.817907316146244234e-01 1.311475927094369354e+01
-4.269058119938555329e+00 3.412410526919267717e+00 1.740897164973529243e+01
-4.018021866979220924e+00 -9.156155308529307923e-01 1.481504263330584337e+01
-2.394553132305965892e+00 -7.123957912002287785e-02 1.158030091402431339e+01
-6.957326984403152004e+00 1.669064783619174985e+00 1.395721048971137890e+01
-2.168645530680314071e+00 8.786487504548006200e-01 1.806321081064363199e+01
-1.019281622231894974e-01 5.179399753232778458e-01 1.761291773741662325e+01
-1.012065694100153096e-01 -2.042598858661697658e+00 1.472094957982969277e+01
-5.556086389321690078e+00 -5.503771583796797096e-01 1.847981601948174557e+01
-2.243362579654376798e+00 -2.788020548597889281e-01 1.193134471256681195e+01
-9.603854558091000637e-01 -3.203532244870872514e+00 1.888085658131070943e+01
-2.407551792836968296e+00 -2.371146713177081367e-01 1.183040027775530234e+01
-6.399162837931300807e+00 1.749146770718560395e+00 1.762607190364081333e+01
3.440014688782099816e-01 -1.043245678088549067e+00 1.684461768809827475e+01
-1.774904817069726137e+00 -8.107066414487422712e-01 1.873230097469762256e+01
-1.407567211713847799e+00 -5.449012165230233684e-01 1.256424580511905020e+01
3.620090101763678153e-02 8.451340739467330110e-01 1.582744661235552286e+01
-2.793785259347912664e+00 -1.959902135893534680e+00 1.558857774627664128e+01
-3.345224538833561301e+00 -3.982657282969289891e+00 1.838727727549403568e+01
-1.775595592007050527e+00 5.016074945333000024e-01 1.158393795003756566e+01
-7.788573744258969533e+00 3.282533988364790822e-01 1.542107262691676794e+01
-3.610580930419884371e+00 -2.032270977071801710e-01 1.193213090520742270e+01
-2.093859309776377575e+00 -1.720590302324997989e+00 1.459286182452255787e+01
-4.958075163260737384e+00 -1.158880471442127469e+00 1.851746554525594490e+01
-5.749746030869576252e+00 -2.899922758265970568e+00 1.683126939582840720e+01
-5.362144492340964241e+00 -2.389098228123831547e-02 1.142831440823715639e+01
-2.773326880946674677e+00 3.120406001164001353e+00 1.399081291776479929e+01
-7.834869758700976128e+00 -2.142836163269453476e+00 1.601247252218744421e+01
2.263503466051388080e-01 -2.989733335762823074e-01 1.753524286612878313e+01
-1.992791877210017271e+00 3.129826389322062585e+00 1.741615414159159059e+01
-5.152053238026035320e-01 2.854144115495631517e+00 1.663602971381947526e+01
-2.312933142300458655e+00 -3.587776849695547110e+00 1.836959054430942473e+01
-5.788056884341479247e+00 -7.572190161782530460e-01 1.346126859504020246e+01
-5.195816874517659834e+00 -2.003437566107054035e+00 1.595765712334597453e+01
-1.728575734125518126e+00 2.662671517556733480e+00 1.756263661287569278e+01
-2.673549391120583874e+00 1.118074147786510597e+00 1.093014315472476028e+01
-1.752224266293999966e+00 2.111703338485019010e+00 1.780255126003358157e+01
-1.592472302937239848e+00 2.283268868842439403e+00 1.771883394093484299e+01
-7.027464848668032893e+00 1.100157730194804451e+00 1.367874067032632013e+01
-5.347162631103606678e+00 -3.969617181192429900e+00 1.860338800394519154e+01
-6.589191139113656170e+00 -8.380533030560806118e-01 1.352624355965640746e+01
-2.063937747665887112e+00 -1.669570485959714023e+00 1.435519158531031536e+01
-3.569303317291798727e+00 -2.255250964912494549e+00 1.848927225081914116e+01
-3.765503910868460036e+00 -2.163531949333115545e+00 1.851096318670300178e+01
-3.984455603303582727e+00 2.636051119575717472e-01 1.059754900844026793e+01
-5.585393646711271920e+00 4.015835398828183855e+00 1.456359761385331097e+01
-2.196113106271632365e+00 9.420960589506588434e-03 1.821953251007030161e+01
1.784520915570862176e-01 -2.337004645947276860e+00 1.810415288326532135e+01
-3.748289657281836273e+00 -2.073012764400123498e+00 1.849886870975247888e+01
-7.115757490037130317e+00 2.788146977600718834e+00 1.599112466464400484e+01
-6.786813749261532358e+00 -2.232014915629021434e+00 1.535321440287604844e+01
-3.975413653966769711e+00 -2.397953611510393213e+00 1.607421381835279561e+01
-5.980949787912854809e+00 -2.299766664297691943e+00 1.623816542044582434e+01
-3.943778272082671510e+00 1.927369951494318112e+00 1.784695715125840820e+01
-5.587314574654050681e+00 -1.196763874796087368e+00 1.485008436321059833e+01
-5.735881494304540418e+00 -3.916476415841027237e+00 1.857551928788245021e+01
-1.398404934505884212e+00 1.166066380260174729e+00 1.286964047576162073e+01
-1.587673126454408390e+00 -4.032298122424742282e-01 1.869758051136481214e+01
-4.351099018704659649e+00 6.903807710940434994e-01 1.804514230575887979e+01
-7.499386094014429460e+00 1.474338317145477362e+00 1.615034148097966948e+01
-5.243486017356089768e+00 4.700335411992131895e+00 1.653502700205720544e+01
-6.340705514714890079e+00 2.538522318372524733e+00 1.722474687667419602e+01
-6.263397459664493461e+00 3.306001373755770967e+00 1.443392060785528486e+01
-4.740387793743227718e+00 -5.496353524394188561e-01 1.351422107917355930e+01
-1.921022257851167092e+00 2.300569070398519322e-01 1.832806455240169186e+01
-5.162908448757425717e+00 6.625710073776827080e-01 1.810589992472440457e+01
-5.742661501550800018e+00 3.403969759488027602e+00 1.710440072808941636e+01
-1.758850284774176709e+00 -2.431547613277476039e-01 1.206979344020449219e+01
-4.874390802852920146e+00 1.421909491032979478e+00 1.081969683190446574e+01
-3.586015541508558169e-02 4.612644947012514152e-01 1.752431434773351526e+01
-5.367673243004008832e+00 -1.846441545533286099e+00 1.875860958682291368e+01
-2.140907381595495540e+00 3.367017947675215339e+00 1.735297961641330744e+01
-6.500677442762530234e+00 1.845580258656196682e+00 1.325432516377225056e+01
-7.198190970599854133e+00 4.973778464917288922e-01 1.361439471572631277e+01
-7.395536750976381413e+00 -2.773835100746260718e+00 1.692265819505605862e+01
-1.960849178149586924e+00 4.130732127265898335e+00 1.589929674982500529e+01
-4.556442694011953343e+00 -1.770479416948977924e+00 1.856088086056027464e+01
-4.369579939969543858e+00 -1.563966985000216692e+00 1.849993511251708611e+01
-6.587453406553728463e+00 -3.381474792160467313e+00 1.759116748767596761e+01
-4.334729224130440706e+00 -4.232886190296621720e+00 1.779364082569645689e+01
-2.944561591749753848e+00 1.940063445402683717e+00 1.782952015993659955e+01
-4.953454315977696254e+00 -4.166002331058701103e+00 1.800492201833195338e+01
-2.738753813913135104e+00 -1.619953055081433835e+00 1.524032521716475230e+01
2.984841502439337102e-01 -9.851958040406025852e-01 1.647328284244808572e+01
-2.408155776160176398e+00 -1.736631521316150728e+00 1.515684497290084209e+01
-4.180095248515341311e+00 4.429103996844417246e+00 1.496839542262005551e+01
-5.491112133617121138e+00 3.319528166274611003e+00 1.723311661575586839e+01
-2.961719287315361715e+00 1.689751678216876440e+00 1.788916320686765715e+01
3.520082870685746490e-02 1.003725255999181609e+00 1.706882496300590191e+01
-4.402978701680094753e-01 2.753300585233771969e+00 1.656301892441036472e+01
-4.800936886844221263e+00 2.325144945707172006e+00 1.193499880155999904e+01
1.073192728393406459e-01 1.865010857161326641e-01 1.742293904914697578e+01
-7.410714088585717008e+00 2.110701821362551023e+00 1.578561391760147359e+01
-2.351994469765229301e+00 1.521085136680966343e-02 1.146245360251877088e+01
-7.704892823501433341e+00 -1.447722729403360109e+00 1.515378831245833879e+01
7.047414243031251135e-02 3.549987939069980669e-01 1.738579320998857014e+01
-1.541413216996027291e+00 3.337488924257917322e+00 1.723356899776836570e+01
-2.233679601299274342e+00 -9.439043294199342959e-01 1.835079008490340868e+01
-2.863554667860680691e+00 -2.620593298816631389e-02 1.138534237996690734e+01
-7.721309879096542872e+00 5.137959114305514774e-01 1.561020432159815385e+01
-7.704039265797110403e+00 -2.687432255223253907e+00 1.794635395416178625e+01
-4.578293529442564846e+00 -1.014489212222171144e+00 1.841824658461923292e+01
-4.679340695292406038e-01 -1.712688108759577776e+00 1.404045944285198999e+01
-2.561074171910858954e+00 -1.122253110937671661e+00 1.385840347391562233e+01
-5.984456427478830776e+00 -3.457466525185803885e+00 1.882188354050470025e+01
-2.196545905008012500e+00 -5.739190551032575804e-01 1.834711208908441193e+01
-2.979183475395965619e+00 -6.356122266173351854e-01 1.310716705162608520e+01
-2.790997388558028369e+00 -3.367823985899823125e+00 1.649090542995435271e+01
-6.704981049713916619e+00 3.237345320039830998e+00 1.643076936165226698e+01
4.065022841630724360e-01 -1.284715235404727540e+00 1.725182279675657782e+01
-3.651003169685457794e-01 -1.872667432806678800e+00 1.917551205258411073e+01
3.744570367774679442e-01 -9.497484682239618614e-01 1.767349772384885398e+01
4.046321511902420398e-01 -9.322538949174457024e-01 1.747447530285221262e+01
-3.366790839722197948e+00 3.186288500096663423e+00 1.361412842505022525e+01
-1.723272448184793415e+00 -3.314097874319249737e+00 1.605456656686219929e+01
1.748941379731339119e-01 -6.950657040393601882e-01 1.551457590671825670e+01
-3.795018730903393589e+00 -5.421713140991015756e-01 1.393083928837134522e+01
-3.793571965854376504e+00 -6.086777473497897439e-01 1.411501181764791113e+01
-2.777679605969507914e+00 -1.117054054409002628e+00 1.428463195600151892e+01
-3.348155389149385819e+00 -3.762070175763470470e+00 1.846468084611834115e+01
-1.996594665895013776e+00 -2.393193261776441982e+00 1.855298908523020174e+01
-7.206907236650426540e+00 1.251459836141417981e+00 1.410255342422257741e+01
-5.569881301355817271e+00 -8.435585963650802377e-01 1.370898625557209272e+01
-9.824166360920330021e-01 -4.112621411896646428e-01 1.278040727096571061e+01
-5.146271348134620283e+00 -1.515954554263858167e+00 1.546988174465575128e+01
-5.513468969416575938e+00 -8.110855565362622421e-01 1.359677006559142143e+01
-5.778128962742218100e+00 4.191535461823637121e+00 1.497484693133052502e+01
-5.249670751518713097e+00 -4.390932917039402916e-01 1.209705873318122116e+01
-3.365404301665154918e+00 -1.077277838092373319e+00 1.486654349923787066e+01
-5.610898931807986934e+00 1.165810650632869816e+00 1.126668606753886337e+01
-2.419846170659896156e+00 3.938580837793792533e-01 1.083580866063579862e+01
-3.876850076223445907e+00 3.955818262358827830e+00 1.444144602996922799e+01
-2.786545052620939877e+00 5.909990356627115027e-01 1.036037971974595706e+01
-5.950857552381628501e+00 4.722861795170667953e+00 1.601724328597761371e+01
-1.473140021939111532e+00 -3.924689840113404493e-01 1.238801066988465038e+01
-7.890355589295365846e+00 -1.704940188477821916e+00 1.759392466243789244e+01
-4.406613397429128831e+00 -1.234180111294298499e-01 1.134855301081893941e+01
-6.195125719211710624e+00 -2.984839059092941671e+00 1.695120077493810129e+01
-1.977318806426877185e+00 3.394759322473607455e+00 1.505112879886422661e+01
-4.767880584299941660e+00 -3.992414475531172346e+00 1.860440384754925702e+01
-6.178280213469530935e+00 -3.101003459407500440e+00 1.707148166015132063e+01
6.091398299823030590e-03 -1.651003257439051186e+00 1.481435120715839560e+01
-4.711626237924304128e+00 -7.261638063120661180e-01 1.293002916270577884e+01
-6.236878448924869645e+00 9.755579991342031576e-01 1.799218685704184395e+01
-1.179720662796130082e+00 -3.441269789980327953e+00 1.567885438888767879e+01
-6.165879542492047172e+00 1.277265894436441673e+00 1.789620575179897344e+01
-4.809929849777693001e+00 -6.907578252033288457e-01 1.326799924145387166e+01
-9.597854276226720494e-01 2.120549201974819553e-02 1.859142905285773395e+01
-5.170222176287002647e+00 1.455293508183862716e+00 1.793008480048519004e+01
-5.749281412401799685e+00 -2.811634505539196471e+00 1.889966785101678681e+01
-3.176009691679810398e+00 1.501988195351943389e+00 1.793386781409979847e+01
-3.170485107493984156e+00 1.672462224827808264e+00 1.790383864733663444e+01
-6.815035450764328928e+00 -7.134949295939461145e-01 1.348990192386720111e+01
1.542227997782593951e-01 -3.624799940508145912e+00 1.678881406096817130e+01
-6.603682215822002100e+00 -3.660407395711708922e-01 1.291513491308977279e+01
-9.250584027518660157e-01 1.502621137594545964e+00 1.405012148572629371e+01
-3.999718815020028018e+00 -6.591798219894227095e-01 1.433289779841026501e+01
9.350400356848187489e-02 1.033182796840205864e+00 1.662863794546796470e+01
-2.757560165399664420e+00 -2.780435461745908388e+00 1.839877226834884993e+01
-2.572491014970199164e+00 -2.957582231499773950e+00 1.839007680933096367e+01
-4.546025242454122761e+00 1.073989948903011804e+00 1.800786148950604115e+01
-7.087222539781543595e+00 1.163372535519497042e+00 1.383311992382306244e+01
-7.928519558603536410e+00 -1.629115508759537700e+00 1.704613485684279084e+01
-6.588594758056605549e+00 -9.676681545054512945e-01 1.368171538663787601e+01
-4.050383048523412688e-01 -3.705700564237963679e+00 1.604804553690763669e+01
-4.272942963142864592e+00 4.165044068485162398e+00 1.445613385001973228e+01
-1.190500871633744406e+00 -2.599717584748439503e+00 1.470775693337922974e+01
2.296310822160956000e-01 -1.548874905047279871e+00 1.822772675657536467e+01
-2.338197001354934912e+00 -2.142375148787642569e+00 1.831374535552408389e+01
-5.375177573862339742e-01 2.330409221470455705e+00 1.556155134706857979e+01
1.138350115118652722e-01 -3.616221842838139633e+00 1.635747993363926156e+01
-2.431754089181858459e-03 -3.545016085861787847e+00 1.603215127892927683e+01
-7.649737626557479020e-01 -3.861708182204615536e+00 1.620718828415813562e+01
-2.265981759805123730e+00 1.728471047375202962e+00 1.239217329821313740e+01
-4.582672370678491980e+00 -4.706143447373540845e-01 1.371237961785657689e+01
-7.136387949068863534e+00 -2.629476158237414207e+00 1.869444516074108975e+01
-5.942109121650533510e+00 1.559825269548498206e-01 1.164509735207715835e+01
-4.796073251648350855e+00 -1.035729832843894638e+00 1.487307095105542487e+01
-7.126940596002769190e+00 1.818000951315169367e+00 1.437380938629929261e+01
-4.591296870063362512e+00 -9.911014675395333207e-01 1.486126456903048876e+01
-1.601569860339883578e+00 -1.902875744146223180e+00 1.397526414892001156e+01
-1.802929433404495407e+00 -1.261958540902619053e+00 1.323567307311363095e+01
-3.023997876363798909e+00 -2.592052455658297117e+00 1.606364700077363494e+01
4.058442343738396518e-01 -1.700519852169172008e+00 1.778648427732512971e+01
-9.085887878040699306e-02 -2.773196579142509943e+00 1.850878898450172017e+01
-7.934237820292604049e+00 -1.358814377889983493e+00 1.632495259767969742e+01
