-2.520178561712405507e+00 2.885453337981624955e+00 1.274212774471475029e+01
-7.663035691016145678e-01 -3.739646860282737517e+00 1.670021350731435916e+01
-6.132396740001773594e+00 -2.532169665199256681e+00 1.786513903258866520e+01
-1.266568627569071570e-01 -2.168157615918421932e+00 1.688559486766256867e+01
2.496900305986566870e-01 -2.730687914648675108e+00 1.597129595633930421e+01
-3.991472689147109509e+00 -4.502197771364301104e+00 1.705131694047282309e+01
-6.569055125979749832e+00 -1.548744213930189684e+00 1.793307281519714991e+01
-1.997545793145283133e+00 1.355761057602848041e+00 1.228892471838457112e+01
-1.749914772548368802e-01 1.063335110432829467e+00 1.660368988570836990e+01
-5.736410494076596978e-01 -2.865732176876180315e+00 1.498480888325227056e+01
-5.907627934860160135e-01 -3.718565873538999700e+00 1.666044279373915771e+01
2.356687746603727263e-01 -1.311739401042356867e+00 1.565294841809559756e+01
-5.392071908101692124e-02 -3.869969214900728982e+00 1.593660102170382231e+01
-1.780055573674532710e+00 -7.345212025126035549e-01 1.349752280034673646e+01
-1.031514869874126106e+00 1.767190806083870358e+00 1.365073620215060402e+01
-7.626607560185322043e+00 6.529428746815568729e-01 1.420066635017580836e+01
3.295705026026765627e-02 7.441125221721911487e-03 1.654608771898761432e+01
-1.622735127929761267e+00 -3.386518676122376004e+00 1.625826642961476409e+01
-4.317918451910403022e+00 1.238940894746269450e+00 1.803472254428162813e+01
-5.937653885956242661e+00 4.862254939025887346e-01 1.326593788499010884e+01
-1.443756640916549872e+00 -3.013792992236629775e+00 1.515441159049719744e+01
-4.113439373071689609e+00 3.307412693305407103e+00 1.218811140109387736e+01
-3.912741836803629525e+00 3.160318609085082997e+00 1.177834700149214342e+01
-7.162221735263445410e+00 -6.698574452291339298e-02 1.380225702885624628e+01
-1.299845716140209273e+00 3.294417936561060856e+00 1.697296699759804994e+01
1.208240713445138392e-01 -1.205577559200980087e+00 1.478575151559668654e+01
-5.082299805768650813e+00 4.089590415917522037e+00 1.608005141973197283e+01
1.197557916307209203e-01 3.806882902674755265e-01 1.451135116853667029e+01
-6.287691601689022747e+00 -2.526372849765495143e+00 1.490103611678959794e+01
-5.991423877167170176e+00 3.482509951140708715e-01 1.335898340127410222e+01
-7.450991009750504546e+00 -9.567377356141437694e-02 1.410649932098706216e+01
-2.643989097108856878e+00 4.010414147925257744e+00 1.593155375267706120e+01
-4.605705654731693244e+00 -4.308807048095129488e+00 1.665096528632145123e+01
-2.119267917315172944e+00 3.851082177241744287e+00 1.620964864366088420e+01
-2.765842197810750580e+00 -3.869099335710006748e-01 1.369813005705216113e+01
-1.589976095455396532e-01 -3.367333293826165086e+00 1.478028474351582133e+01
-4.158192795873537406e+00 -2.338960612365128977e+00 1.779691587970800981e+01
1.212453689707861382e-01 -1.054890103888005637e+00 1.477632531330566934e+01
-7.763742509413882331e+00 4.987464277373829802e-01 1.462714198208496441e+01
-2.842350217086148101e-01 -1.708431057530376940e+00 1.370317267456290011e+01
-3.739837957843092919e+00 -5.915565181932995742e-01 1.793345287368072150e+01
-6.527493822506810872e+00 9.969727928626802571e-01 1.311677710258407359e+01
-1.716380378653337813e+00 2.988954972705411439e+00 1.474339153974128180e+01
-3.382191072550215338e+00 -3.605783800044340293e+00 1.573255865220568950e+01
-5.681904226642195965e-01 -2.593852041239939066e+00 1.400423002048869847e+01
-6.542920264418471632e+00 2.792276369421895055e+00 1.576440486506733407e+01
-4.377466234696871794e+00 -4.479558064894769487e+00 1.674019613664690098e+01
-2.399436352815454310e+00 -1.210124066137467036e+00 1.442925657996401156e+01
-1.018888746325294026e+00 -2.773599434605073188e+00 1.454584679898778177e+01
-6.305564922781405457e+00 3.053966646864505918e+00 1.735778165266242468e+01
-6.792924794753647078e+00 2.635195532723697109e+00 1.663554901129429453e+01
-6.783318072951121991e+00 -3.541665500119727472e+00 1.742499815616267256e+01
-1.858868901931654438e+00 -8.515222596082820949e-01 1.366548482147498333e+01
-1.978216708797637668e+00 -1.410756161980605494e+00 1.429865071820981370e+01
-5.855022990976552322e+00 -3.182262811251273416e+00 1.547320784021003703e+01
-5.479310243591784868e+00 1.453308437461575231e+00 1.801768033363988053e+01
-7.391016521941265793e+00 -6.989157876074738596e-01 1.413299845323741977e+01
2.426525421770852620e-01 5.134544455014011799e-01 1.581672114960064590e+01
-2.414017746674443909e+00 2.341985396116978535e+00 1.175445180610959994e+01
-2.184445145711738867e+00 -4.124439246179797181e+00 1.649209379466358882e+01
-1.421339943838242637e-01 -3.348088028863412280e+00 1.658325941470428688e+01
-2.593548570156224642e+00 -3.599050048502091759e+00 1.719126263498505836e+01
-5.746046779061607879e+00 -3.236041352863497256e+00 1.551848632503295278e+01
-4.407162862189021979e+00 -4.538891794987245376e+00 1.712304962680614295e+01
-7.112925735699816343e+00 5.078852917791443211e-01 1.740062140372891264e+01
-5.995604841071758173e+00 -2.985001421894017515e+00 1.535812920252076452e+01
-6.408205943119183345e+00 2.344884820665973812e+00 1.430938627654563078e+01
-5.577108213951655458e+00 1.355537104532942294e-01 1.362214805887833791e+01
-7.606742226672380980e+00 -3.626971491365508005e+00 1.616934549342842331e+01
-4.588308441562942264e+00 -3.122316728004256081e+00 1.769240267515794329e+01
-7.913876748373885661e+00 3.518317945200633012e-02 1.537654266389528601e+01
-5.844975945754681490e+00 -3.994744670935460373e+00 1.643138675190751741e+01
-1.353539858289534603e+00 -2.178725912868299197e+00 1.723233350086647420e+01
-7.865347375109595918e-01 -2.921084119868139428e+00 1.555096694619253839e+01
-1.619218863828050692e+00 3.029065191532767543e+00 1.506236615895287656e+01
-5.980716847456020169e-01 -1.754715911465198452e+00 1.359387109102336666e+01
-5.097304911550816442e+00 3.818226324636085245e+00 1.521574257621945492e+01
-6.679225406326812831e+00 -5.104408837548426447e-01 1.787237023533243985e+01
-7.016108730246056524e+00 1.183606977625806911e+00 1.383391457778760980e+01
-5.285640753776075229e+00 3.821427761065329776e+00 1.754201618458085221e+01
-4.752520867698271090e+00 -8.191552422199990247e-01 1.469090668541419120e+01
-7.220821321684915972e+00 -3.605806329833252999e+00 1.576915390398726657e+01
-8.020104507950486239e-01 -2.821633910227702824e+00 1.518728552175888780e+01
7.463416241031278764e-03 -1.756651997251272856e-01 1.374485917025056381e+01
-2.152687327597533340e+00 -1.166187215427994861e+00 1.750779697235943644e+01
-1.981280235087341968e+00 -3.318895528308180243e+00 1.534190817791721173e+01
-1.999298336678163368e+00 -3.378050618912723291e+00 1.514683591330790335e+01
-2.978239885527124819e+00 -2.223873503483248637e+00 1.762452272066457226e+01
-4.436251932038947743e+00 1.075470433501148015e+00 1.234812785299268967e+01
-1.119690524274475241e+00 1.243933816126868930e+00 1.729473733833473403e+01
-5.708903634980538655e+00 4.102609296916739368e-01 1.807870342269323061e+01
-4.709284696593007524e+00 4.277910638764519824e+00 1.747780369698099889e+01
-3.122935935520232853e+00 -2.598508778505435046e-01 1.360665500694106811e+01
-1.230037942552882457e+00 -2.982637275782836550e+00 1.479981051971932260e+01
-3.085961851106091114e+00 1.708572287785666610e+00 1.777282437505709822e+01
3.816690930193572528e-03 -3.717521604220351161e+00 1.548662421466729455e+01
-1.341576633069221369e+00 -1.373243929514724737e+00 1.729540845220358136e+01
-5.070100892600521547e+00 4.253462124628171637e+00 1.739183942924757531e+01
-5.510106019685567791e-01 -2.737299522557086195e+00 1.422929939522619236e+01
-6.171005105935027046e+00 -5.395489037244720620e-01 1.801506013757801838e+01
-1.984587686785980187e+00 -3.653326174948463567e-01 1.330168009142683871e+01
-4.367089746367094905e-01 -2.788479567454743790e+00 1.417793036927284334e+01
-3.007758033614764681e+00 -3.341963982289137824e-01 1.369228120492114442e+01
-4.867712419426634796e+00 3.217913277066449140e+00 1.779067459625596115e+01
-2.577439139604200680e+00 -2.392182188393261466e+00 1.486287483843167223e+01
-1.756958657389009915e+00 -1.380529694833244836e+00 1.406835532287220047e+01
-5.380286091780371649e+00 1.130635586039864471e+00 1.257258106391699926e+01
-3.275510547787491955e+00 3.627851776276580065e+00 1.754851082516233163e+01
-6.468799598156190100e+00 3.148117892270328788e+00 1.657701857168860471e+01
-1.968851543532725179e+00 -3.151373951019399211e+00 1.717069998417947119e+01
-6.166226568094032245e+00 -1.539756530752554919e+00 1.448851318624472384e+01
1.372989091516756410e-01 -3.434557007349550606e+00 1.530576088092501408e+01
-1.423764031935256913e+00 -3.849734405452023278e+00 1.680841962220979724e+01
-4.929579961349782380e+00 2.292282529117656509e+00 1.137449140142572190e+01
-7.324807797277644639e+00 -4.871197992623335082e-01 1.735434231902088698e+01
-7.726209902792712469e+00 -2.601666453474695384e+00 1.522356918576582530e+01
8.575297166625214795e-02 -3.054372226024853365e+00 1.473097464019864589e+01
-6.219746644490875553e+00 1.991578863404277921e+00 1.308244902809705934e+01
-4.275445592431308839e+00 2.026548078072254899e+00 1.793371984887660631e+01
-4.990808049118070855e+00 -2.018323588697440663e+00 1.521772109965937148e+01
-6.193684746981167777e+00 3.484861692125529320e-01 1.335749662267820526e+01
-1.558826751746187789e+00 -9.315031729319800391e-01 1.352048238147278880e+01
-3.978554433491035436e+00 -8.066862765014275460e-01 1.794771318581799591e+01
-1.474223261228455373e+00 -4.102370855526784155e+00 1.663229582047409139e+01
2.414093790929467964e-01 -7.422704108015172331e-01 1.610879349648055836e+01
9.046664274359733637e-02 -3.167656987929015511e+00 1.619364984880048297e+01
9.004947409985691875e-02 -3.557295997528400644e+00 1.528461098005025320e+01
-2.407793433377813486e+00 -3.293919939819978548e+00 1.509604561301077297e+01
-4.754945335076433466e+00 -1.225624174905756369e+00 1.492048801910416955e+01
-2.967142068838590330e+00 -3.139554382090640861e+00 1.742981493979075225e+01
-1.294689171274783224e+00 3.304367742392035456e+00 1.675159793154087851e+01
-7.042132019177614888e-01 -4.080069333595464087e+00 1.619382522945326741e+01
-5.191818378916106980e+00 -1.874084765937086949e+00 1.518567949372788917e+01
-6.416050465565588112e+00 2.914480828415069169e+00 1.730663264184606476e+01
-4.148887805374469551e+00 2.879256232239929769e+00 1.108121228011746240e+01
-3.367885507888280783e-01 -3.487879669761471124e+00 1.529013764118374041e+01
-5.023073510744948678e+00 -3.282675269519473193e+00 1.549933141316440555e+01
-4.537310380498350781e+00 1.197864066978898467e+00 1.225623972264203587e+01
-6.822646650886669661e+00 -4.015808631596616607e+00 1.619657680853823933e+01
-5.898487839350250450e-01 -4.061584215397978426e+00 1.607135486146526659e+01
-3.345305139773848691e+00 -1.500569075525056029e+00 1.477167781836980254e+01
-1.918734012799985456e+00 3.818201753197226545e+00 1.658884801625937655e+01
-6.244499700353909333e+00 2.427822177461645303e+00 1.396432361846713377e+01
-2.373353734243570212e+00 -3.910371299094036690e+00 1.639419097479573395e+01
-5.711106385037914013e-01 -2.753021479348055411e+00 1.440704303879298465e+01
-3.589805644943613316e+00 -2.925058821442079182e+00 1.761514975630561253e+01
-7.878932706969859368e+00 1.263843877154924300e-02 1.581374276620690722e+01
-1.213399514699835119e-01 1.283775880765164690e+00 1.641436046959957906e+01
-3.648047899888736678e-01 -3.701355038301878064e+00 1.555302010247324773e+01
-2.115501346494307600e-01 -3.550264804238046690e+00 1.654397479204313726e+01
-4.043958138617393061e+00 4.668249435984363593e+00 1.738733727667369067e+01
-5.129712842931937189e+00 -1.369009060433343361e+00 1.797990392430678241e+01
-4.992486404482293638e-01 1.585299596443641379e+00 1.462161934090330817e+01
-4.250927921499191298e-01 1.229441949347289231e+00 1.686231525655395558e+01
-4.699455590295805507e+00 4.140860834501442156e+00 1.563422230626407838e+01
-1.724615048379666060e+00 2.477134313462959536e+00 1.348903306686695913e+01
-3.187269703911709939e+00 -1.395220265977071161e+00 1.470264396254221850e+01
-1.141355950312795464e+00 1.996585194978068412e+00 1.718997782838852117e+01
-2.757410630698844844e+00 9.064040179800130215e-01 1.237515756953519031e+01
-7.808624695798197735e+00 -2.670948837962171307e+00 1.608666468688506512e+01
-4.774676874912266555e+00 1.338201040456598712e+00 1.218779175613044430e+01
-4.407076746026132585e-02 -3.756216566016273628e+00 1.609999816225293756e+01
-2.380562429509025968e+00 9.575228719375011854e-01 1.238669977486451756e+01
-7.716955684607864185e+00 -2.492007900460313952e+00 1.506562107030109132e+01
-1.218648554979305798e+00 -2.597924120524789604e+00 1.714771835432008373e+01
-1.687729412836147525e+00 -1.562032849624994668e+00 1.410113891999118607e+01
-7.417858523430400197e+00 6.241255934013727469e-01 1.687114618953589940e+01
-3.581068078327946491e+00 -1.180086018934835668e+00 1.466136697125058674e+01
-2.503955061130204163e-01 -3.937780604026721587e+00 1.628544028923534626e+01
-5.517283835878943776e+00 -1.582450767919583612e+00 1.797440921406793279e+01
-6.367642885644837492e+00 -4.107354054011581823e+00 1.739112503933021259e+01
-5.747153536182469935e+00 -1.600228714285254927e+00 1.504490444777049163e+01
-1.640427188713708295e+00 -1.231566894242576371e+00 1.380758265872833590e+01
-1.479916613534269787e-01 -3.936182078634852477e+00 1.611889052770448671e+01
-9.884530485351413764e-01 1.455405714857340715e+00 1.327286397336053625e+01
-1.199789339342008043e+00 8.701916009227280702e-01 1.288476359047370323e+01
-4.117841160589744476e+00 3.526227957709500593e+00 1.299127130464588475e+01
-4.174160244318800395e+00 1.681281071180713571e-01 1.323510669581464327e+01
-1.664885718900012801e+00 -1.433058053254400832e+00 1.399643435266511915e+01
-1.541212150455273600e+00 2.473457369143519102e-01 1.289115850194674096e+01
-9.352123644798482349e-03 -2.834161901468462030e+00 1.437602692971547214e+01
-3.899801649687203220e+00 1.614950040476220039e+00 1.793529989807307601e+01
-5.995340447660737482e-01 -4.093657297547776963e+00 1.628369092407876195e+01
-1.380837685654157099e-01 -1.394668167850640739e+00 1.692314816863965632e+01
-5.784853542339600807e+00 -3.389890483492834949e+00 1.557804424164532264e+01
-6.972390957823611402e+00 -7.052402952780894019e-01 1.388595181484888741e+01
-5.398423824399094073e+00 -9.836284531020393906e-01 1.474302500134626825e+01
-6.166806082337002337e+00 -1.142839021553538004e+00 1.799738899305984319e+01
-2.293025247906675945e-01 -2.355187369619255566e+00 1.691530284520425909e+01
-3.976124997997103616e+00 -3.745689388008193621e+00 1.630721727715353353e+01
-4.970690738398053199e+00 4.998194946240797076e-01 1.318887115840183810e+01
-1.750973573748672463e+00 -1.769142812726997693e+00 1.429671698876956754e+01
-6.000852430634653345e+00 -3.204638059914885151e+00 1.543826782838267775e+01
1.601009539362320266e-01 -2.547506221779355595e+00 1.636372059186738426e+01
-1.394035444007486690e+00 -3.316209138885262142e-01 1.312353817629394115e+01
-6.195714587405934282e+00 -4.416657179822935930e-01 1.380280667172252862e+01
-3.971461541168480824e+00 -2.621167501870114602e+00 1.519573968280862175e+01
-9.957740560478499647e-01 -2.883138141168415824e+00 1.557228809128680069e+01
-4.067192313380374458e-03 9.480311936708396559e-03 1.370827909709129244e+01
-4.568950610548785818e+00 -2.934629316150501932e+00 1.772919659523112301e+01
-1.805737485158017019e+00 2.918574676197369655e-01 1.287452521391983140e+01
-7.885545962446924406e+00 -1.097101279506085270e-01 1.539860599566405597e+01
-7.874325789533919817e+00 -4.141440732987646811e-01 1.595364473232935154e+01
-7.574289112779238664e+00 -2.874930429251156827e+00 1.681516573670446490e+01
-2.651254268017229521e+00 2.661317022795369081e+00 1.192783522047291456e+01
-5.818815583180153794e+00 -1.070445782196121520e+00 1.460707660552171916e+01
-3.239734811291363759e+00 -3.576937222476638478e+00 1.556539444156508267e+01
-2.245982347609476459e+00 2.610132169095930266e+00 1.264469923474489121e+01
-9.692036981207350355e-01 -2.168320009470884990e+00 1.384646301872231788e+01
-1.387638554004209102e+00 -3.081629308550394963e+00 1.596876207669978243e+01
-6.224850088270159176e+00 -4.553174009134451694e+00 1.687838717404810751e+01
-7.791270607522733371e+00 -2.801507572446032324e+00 1.584934317081989974e+01
-6.038553009000112937e+00 -3.770075446865031932e+00 1.605081194656377619e+01
-4.327044357077896919e+00 1.607629266888144004e+00 1.798942011501423366e+01
-3.797633915122034853e+00 -3.482765774677389015e+00 1.748669387892403648e+01
-4.611113381961244428e+00 -3.770815459444293527e+00 1.594255309613820515e+01
-2.225155184604754588e-04 -3.448791633763226283e+00 1.491994870823602781e+01
-3.164185820128263327e+00 2.297055080122567539e+00 1.136194782073565790e+01
-7.126751811075997978e+00 1.173561653017606954e+00 1.711871453911118834e+01
-2.591488821162183598e+00 -1.576854290552827109e+00 1.463000573852818320e+01
-4.487461807773668099e+00 4.553998588140803605e+00 1.701324788669551680e+01
-3.384981873487574955e+00 -2.836737048314256437e+00 1.512318336145970221e+01
-7.595058903927620619e+00 -2.500289230953277819e+00 1.490241304449494919e+01
-1.285698029720331981e+00 -2.969559242104609087e+00 1.464265324455526240e+01
2.479282122817584866e-01 -2.915199394039621250e+00 1.557138496010585271e+01
-6.838437692382331790e+00 -3.354686781015237873e+00 1.746812041286628414e+01
-5.569438733643837125e+00 -2.335270492304419410e+00 1.533407315901798285e+01
-5.763727309427745027e+00 -4.256098230083908973e+00 1.743545608926866208e+01
-5.787978543734634940e+00 -3.578406762814008157e+00 1.573565870371614039e+01
-3.797298752121129439e+00 2.412272777431246240e+00 1.782278361228031827e+01
-6.225585504187161945e+00 3.306955961946878908e+00 1.731144687902446577e+01
1.369895917335491875e-01 -5.990031453292736785e-01 1.470937908637738190e+01
-6.519397302606899203e+00 1.608460315302344679e-01 1.347442628871341697e+01
-4.367944597419079145e+00 -1.130737475973664807e+00 1.483066256334641508e+01
-7.768684226947963012e+00 -3.033980547851963916e+00 1.605216736596018023e+01
-4.512643901151820458e+00 3.738661117250126509e+00 1.400216489064589354e+01
-2.829134210047270503e+00 3.049755243625903223e+00 1.260162550301370032e+01
-3.054379835707812685e+00 -1.668255940493142297e+00 1.476379984167917314e+01
-5.031001144507918355e+00 -3.736480242660182416e+00 1.589850376924378139e+01
-6.347524142741855613e+00 1.146223729264658431e+00 1.291943459278415673e+01
-6.548817520988508889e+00 3.195709930023771239e-01 1.342642143711018576e+01
-2.705963523542409099e+00 8.222216730079257019e-01 1.778493644391783590e+01
-1.345995219418489430e+00 -3.187965901324720353e+00 1.704112718556419992e+01
-2.436134385304839167e+00 3.305467105231864267e+00 1.407515141809686554e+01
-7.080667761904519963e+00 5.078180712557316401e-01 1.367161073081660305e+01
-5.994443406405304486e+00 -4.966345944411436619e-01 1.393797613081557074e+01
-1.016439012191640012e+00 -3.559710418370282792e+00 1.627486919172132929e+01
-1.393141402516635097e+00 -3.074306258022004190e+00 1.478207058389319428e+01
-7.866673273420106138e-01 -3.520766188587213019e+00 1.617095139060597830e+01
-5.186155549202448256e+00 -3.729525880008190075e+00 1.589101179552218923e+01
-3.741853680233378832e+00 3.351545080056025583e+00 1.769790781703370897e+01
1.403927367913186952e-01 -8.218003451111499658e-01 1.488648401993097536e+01
-4.221918438065346280e+00 -3.692440908950350487e+00 1.571870914814774522e+01
-1.469750759381314997e-01 -2.974426114050402692e+00 1.673047994598307042e+01
-1.376151367498036793e+00 1.865257114091179114e+00 1.305758226717568249e+01
-6.199953784127741230e+00 -2.961291133220683935e+00 1.521702703654575828e+01
-9.866820721320065379e-01 2.661052113605165470e+00 1.573057270415365139e+01
-5.816564352589095321e+00 -4.307102185382877479e+00 1.667887804675528685e+01
-2.940314662909890409e+00 1.008679003121792483e+00 1.783499864079033159e+01
-7.381225885885845273e+00 1.082336460355781682e-01 1.397354558175905481e+01
1.178726616489175760e-02 -3.713442911311055195e+00 1.568525888606743734e+01
-2.578179978890002833e+00 -9.709355406527917509e-01 1.432908001133272791e+01
-5.284913493206763846e+00 3.976823690757818053e+00 1.601618571754935516e+01
-1.460127956178450148e+00 2.467412501295853211e+00 1.409754396695807088e+01
-3.323066865393930591e+00 -1.772994079079392993e-01 1.789479117900913252e+01
-1.853804575301612134e+00 -1.449350769716582832e+00 1.422303364159691341e+01
-5.862314733130158828e+00 3.498109679337882305e+00 1.746496537789897019e+01
-2.979829132724592267e+00 4.357683510965303597e+00 1.704999966576258430e+01
-2.015034121136817014e+00 -1.036684695190106975e+00 1.403318197044184501e+01
-2.175816647110020430e+00 -9.726166944280398852e-01 1.408547269626239995e+01
-3.094079977188893604e+00 3.841063966321743184e+00 1.479731149005765900e+01
-2.690405748379911977e+00 4.107521637016114724e+00 1.619940771014877612e+01
-9.016332050739473969e-01 2.009255991608548619e+00 1.446137365390989515e+01
-2.639671838809967142e-01 -3.758699567604933289e+00 1.646766509190207017e+01
-6.722439076047834305e+00 1.465989194809666829e+00 1.746979761544118048e+01
-4.010776339985843819e+00 -2.603755177825139988e-02 1.340597971162726054e+01
8.746910073349412063e-02 -3.506763286272385205e+00 1.554197609555700410e+01
-4.350532144173909543e+00 3.207343174151208398e+00 1.194410900371915574e+01
-5.020249765499428918e+00 3.974825735070340649e+00 1.754603293552083443e+01
-1.373664933268933463e+00 -9.243631216359151637e-01 1.343599501504274230e+01
-2.775062958399284074e+00 -3.600072770784791043e+00 1.723427317171214668e+01
-1.983330029891718693e+00 -7.607347865733569137e-01 1.367038784233428572e+01
-7.475322889224717215e+00 -3.701042253364980272e+00 1.661222713274442953e+01
-2.486151887228835289e+00 3.883502366599707045e+00 1.728766409710671326e+01
-4.367541123253825930e+00 2.012819967606664484e+00 1.148261186243014009e+01
-4.597002885635699698e+00 -2.386276802449093015e+00 1.783101502663434701e+01
-6.129720191491720982e+00 3.541264183564781121e+00 1.724680168439512329e+01
-7.610715910116308436e+00 9.334383566865178672e-01 1.464426382861339704e+01
-6.939426415572008011e+00 2.838652963802432705e-01 1.760640606726053647e+01
-3.815292553113082130e-01 -3.289775207760520903e+00 1.535744809326374849e+01
-5.963140252200579638e+00 -2.322927970349533577e+00 1.789797825674659038e+01
-5.523385656851020897e+00 4.154001604878759579e+00 1.723624185519157237e+01
-4.788018530738783696e+00 2.443902536126558722e+00 1.124278252820399615e+01
-7.793173094701288051e+00 -2.386193286225224863e+00 1.546739766469002575e+01
-2.403017362643751653e+00 -3.319744889350017214e+00 1.614559213008032401e+01
-6.036610006448306365e+00 -4.007952173769421478e+00 1.640123176172305364e+01
-6.594754226059389879e+00 -1.315316345925096275e+00 1.411738377293388425e+01
-7.196874138810157362e+00 1.161465798593261933e-01 1.379211329394598806e+01
-6.176299595644856311e+00 3.257871762023158535e+00 1.577867724902919377e+01
-3.214697837158200233e+00 -3.577555438099254470e+00 1.568524080140883825e+01
-3.159068444486643035e+00 -2.151787002495424428e+00 1.492638907831452855e+01
-4.213408546383096365e+00 4.774845148700822328e+00 1.731285741372713005e+01
-5.964463306603857262e+00 7.728001037736592638e-01 1.304076031822651061e+01
-4.176461898006898821e+00 -3.193904888169767364e+00 1.762491634149295550e+01
-7.356722416350324423e+00 1.258243284010010399e+00 1.486675782923510525e+01
-5.374274904225702088e+00 1.009809786291326450e+00 1.268844229950431668e+01
-1.616853469912744812e+00 -1.352203559037057357e+00 1.386731450188779746e+01
-4.888130626313456517e+00 3.449752706017513493e+00 1.772399943597177696e+01
-1.499385996930315823e+00 3.039561502922994762e+00 1.718899220391053717e+01
-6.400479361476850926e+00 2.534144957746433224e+00 1.469185422950019415e+01
-3.222539828137795048e+00 -4.101511201333570611e+00 1.649711749303640573e+01
-4.296699119759194829e+00 1.405418356496505039e+00 1.801310552086938799e+01
-2.122697885779010196e+00 2.689194793338262723e+00 1.309714547460853140e+01
-3.795714369317014780e-01 -3.918206150881455851e+00 1.572552606849724555e+01
-2.276108748795249159e+00 2.000597839467862737e+00 1.753980538607174822e+01
8.749338710565116028e-02 -2.632583977025734878e+00 1.474882505749334882e+01
-6.625663012260696760e+00 -3.396861343465576777e+00 1.555850876232208435e+01
-1.689528175243321106e-02 -3.690209781623627006e+00 1.532405663840737731e+01
-2.705682620089064905e+00 2.663075601059782471e+00 1.757522813888904523e+01
-7.837534217916761747e+00 -1.595535400998479680e+00 1.634469690611408765e+01
-3.384119309030005907e-01 -3.417514518706867843e+00 1.514544620740910119e+01
-4.174035141692945317e+00 2.477766854590706114e-01 1.804455790322658260e+01
-6.419299841780086169e+00 -2.882021926497337905e+00 1.508180252890190332e+01
-6.962914949849743351e+00 -2.134870972130759714e+00 1.771524371927993258e+01
-5.308734243531030295e-01 -3.260372676466337882e+00 1.576080676309931761e+01
-7.367017013198310593e+00 -1.849603629574088970e+00 1.432790421512035550e+01
-5.818732093071343314e+00 -4.367367098582057849e+00 1.738048236046220296e+01
-4.997580913464545915e+00 -4.080283761987203661e+00 1.656916478191272546e+01
-2.541010861988683533e+00 9.144935863887675431e-01 1.239609053041102271e+01
-7.396132651395028290e+00 -2.536739416374328204e+00 1.485291650432834842e+01
-2.803647454548149565e+00 -3.239202284502034512e+00 1.513221099268210423e+01
-4.736080650453564189e+00 2.968249359707587409e+00 1.157682481141189612e+01
1.104205243218265298e-01 -7.173340979586555477e-01 1.651498312066132712e+01
-1.424699213191668479e+00 1.489567517283516107e+00 1.269526094627024548e+01
-7.141702840342770031e+00 1.549401438737521897e+00 1.683825494511565068e+01
1.398661082719522275e-01 -3.298722989604300881e+00 1.557153002423109456e+01
-7.200889355472211761e+00 -3.796494363827268348e+00 1.594423486676675594e+01
-4.881690852841046535e+00 2.936618533150022969e+00 1.785753776407090498e+01
-3.483640469129060779e+00 2.230065404520251260e+00 1.778288911328193933e+01
-2.726165620198677808e-01 -4.058417108896064107e+00 1.587806376463904456e+01
-4.134104781052116095e+00 -1.958044830041741236e+00 1.784813719464982285e+01
-5.021745493728317911e+00 -4.304442636497268992e+00 1.667431823549868852e+01
-5.769690857335710632e+00 3.234659242756341424e-01 1.340702046272619441e+01
-3.822386695553893765e-01 -3.546316710351588686e+00 1.667532644420671062e+01
-1.934092641931638989e-01 8.633408905632798946e-01 1.379394224091306853e+01
-6.574694313662996947e+00 -4.116747856470666989e+00 1.729528429353264585e+01
-5.188706884094534288e+00 -9.441569719397944205e-01 1.474490591090740566e+01
-5.283784627722104332e+00 7.936761586642138155e-04 1.808912446244518435e+01
-2.493347038574267760e+00 4.051086853417015021e+00 1.721856950970114042e+01
-4.373161866740463921e+00 2.878377421003159853e-01 1.317011764945151953e+01
-6.484109852125948592e+00 2.077300593713439447e+00 1.746490926772995067e+01
-2.795301326714804802e+00 -3.444513043051723233e+00 1.535239387881257045e+01
-9.951084078845279235e-01 -2.948798856795283196e+00 1.571987503487456905e+01
-4.628544893563449891e-01 1.965815377355333737e+00 1.564616245067607991e+01
-2.525746728005024977e+00 3.449452005295415624e+00 1.436791678061906197e+01
1.626110048740656566e-01 -3.289854498755066192e+00 1.515478635154667586e+01
-6.211720494519598290e+00 -2.243243819481559598e-01 1.366331807150940136e+01
-5.132700729334995771e+00 1.605125968550152438e+00 1.205030542306058550e+01
-1.527908712195712226e+00 3.445329933268546085e+00 1.639102847658583073e+01
-7.761892490031895298e-01 -2.794951991436609884e+00 1.495582933839897066e+01
-4.427001727179844082e+00 -3.939086442336409366e+00 1.647993356258811559e+01
-3.120927225134739746e+00 2.018794120217102694e+00 1.773207715781327209e+01
-1.218003610197119224e+00 -2.383198348452555404e+00 1.718027718021729555e+01
-1.222584108491006516e+00 -2.781465226143457148e+00 1.442566639542385332e+01
-1.416791665281265988e+00 -3.084075649664117069e+00 1.497688312695677126e+01
-2.547091373410574455e+00 3.562823339735121664e-02 1.772746705358174069e+01
-2.206264484644868240e+00 -3.691955863496561907e+00 1.635497736932578050e+01
-2.850235474549344672e-01 8.562061785956338600e-01 1.682165070912291327e+01
-5.220008607018904456e+00 -4.696535698903396394e+00 1.711444714464630579e+01
-4.408719887716520347e+00 -1.564005523565123568e+00 1.502593567119474471e+01
-2.532883093146500730e+00 -1.402037773619543959e+00 1.760135598183757821e+01
-2.002316336349991843e+00 -3.758405609253818280e+00 1.698206582206090332e+01
-7.360361889313804085e+00 1.380637076206282510e+00 1.651103195951746017e+01
-4.488951478169843412e+00 4.028493091538186022e+00 1.757801689543928347e+01
-5.359534825435892103e+00 2.270225206289968600e-01 1.809845696836980267e+01
-5.506236388648041213e+00 3.734039039619404754e+00 1.751088113543514169e+01
-6.025203298883772263e+00 -4.620744926589921420e+00 1.696873105020576133e+01
-4.359757774930734242e-01 -4.107330254521691870e+00 1.610582246603117085e+01
-7.707715306832485069e+00 -2.242483055881876908e+00 1.663755430440438232e+01
-3.403556424878218856e+00 -7.009025839419913417e-01 1.416287418731921832e+01
-6.942254619941845561e-01 9.808225771260556947e-01 1.714841104253623172e+01
-6.208141901306470700e+00 -3.824773336391500411e+00 1.613322246947051042e+01
-7.344285147708513595e-01 8.133994031346503117e-01 1.719571417285809645e+01
-1.963456177178423689e-01 1.337233324499151887e+00 1.522202266320449127e+01
-2.912030284756940368e+00 4.126211430776006495e+00 1.601284115734309665e+01
-6.774602334796393066e+00 2.555480101150694239e+00 1.693858837754867608e+01
-3.383723461127725152e+00 -3.530123868517666796e+00 1.595688183376939406e+01
-1.765325651488560688e-01 -2.780082458771504950e+00 1.680737415709690197e+01
-2.396080078333430396e+00 -8.309702716232250097e-01 1.406508307858275941e+01
-1.774566656301242995e+00 -1.554495820315439758e+00 1.737705665866639038e+01
-7.359849798940949483e+00 5.018237763540354113e-01 1.704527408968432667e+01
-1.903889976989673327e+00 3.836562495485507984e+00 1.700356206612369903e+01
-2.049205242170396346e+00 -3.238096643604285507e+00 1.549049161005520148e+01
-7.540890465449203717e+00 7.232407813857890666e-01 1.405765845058723329e+01
-6.560971228960706725e+00 -1.912526468870432428e+00 1.790602082652655724e+01
-9.536721478013028275e-01 -2.168284650692277715e+00 1.714567688992570993e+01
-1.056845354485697941e+00 -2.754192389503322236e+00 1.708939892319089182e+01
-9.970253983329271374e-01 -3.728583288811170515e+00 1.677304655228990526e+01
-8.045541789976523583e-01 1.222417142021273939e+00 1.329723920738371135e+01
1.063200712508371171e-01 3.175106442541806295e-01 1.495741295404673110e+01
-1.794912486646487837e+00 -3.376758864113583503e+00 1.625784471188942604e+01
-7.566130430298825260e+00 -3.395016325837632021e+00 1.661139936481901458e+01
-3.728773396933204864e+00 3.422841336044704974e+00 1.271506252653189506e+01
-2.985378159854868763e+00 -4.326075158457037162e+00 1.686831175325502841e+01
-2.212636928556370286e+00 -3.266491614045471170e+00 1.556651283071328606e+01
-3.743532301519607586e+00 -4.223948868678077950e-01 1.794697176253340842e+01
-7.310275053312361493e+00 -3.029551775302530281e-01 1.734714960144947327e+01
-3.040230059845924426e+00 3.368682602528339842e+00 1.327046380308603801e+01
-1.586805525099090453e+00 -3.308615880029571077e+00 1.621320503563394055e+01
-1.858941113852802474e+00 -3.500780182412251751e+00 1.705028815554737065e+01
-3.753276952419231538e+00 2.014109675911848640e+00 1.144731870038368982e+01
-4.120020777888750985e+00 3.575061021231137559e+00 1.318288204875403125e+01
-3.014196112237568226e+00 9.942979964365886714e-01 1.227475975620676252e+01
-3.335883700445493982e+00 2.854828777775511028e+00 1.130963968487255755e+01
-5.353886103640039806e+00 -1.473164790031178395e-01 1.395818788625078355e+01
-2.182818589660163067e+00 -1.172484021326126058e+00 1.429151747272644002e+01
-5.972692582429713681e+00 -7.407990277416214298e-01 1.416211851622854567e+01
-4.312723870204603571e+00 3.893980225832981645e+00 1.441098058637114576e+01
-7.135426206718586073e+00 9.615275559139602191e-01 1.369078209411433278e+01
-4.547219637840036910e+00 3.002352428038324028e+00 1.151991292708531489e+01
-1.008034432417969306e+00 -2.424917533110070966e+00 1.404000596265673551e+01
-4.711140456702478385e-01 -3.091334033690755323e+00 1.686887756055590870e+01
-5.651032513157361326e-01 -3.553612895895201351e+00 1.674357332220402839e+01
-1.788952883050251852e-01 -2.825064642985247065e+00 1.413619069205333290e+01
-6.669524965315039466e+00 1.364237924702558669e+00 1.336673869597368025e+01
-1.667508768273706921e-01 6.231733659804832293e-01 1.365170783940587285e+01
-4.357880808061953104e+00 3.146172953177288178e+00 1.175787247905933697e+01
-7.547887706676064568e+00 -2.301967227111322511e+00 1.468606066188853987e+01
-3.297175995661899783e+00 4.271083103368384037e+00 1.607286162526010997e+01
-3.923916087929989249e+00 3.425990207220359629e+00 1.770427446176793040e+01
-1.542879018880913389e+00 -8.109187612711390436e-01 1.342931612328884228e+01
-4.985367324803020139e+00 -3.953749785846037756e+00 1.646697691736316216e+01
-6.604164743337545218e+00 2.523185936624788184e+00 1.531057973567243380e+01
-2.192057964319470642e+00 -3.228977131246409282e+00 1.500877131210377513e+01
-4.928596522797837665e+00 8.082606523840895063e-01 1.810482834509509331e+01
-3.582741772223668963e+00 1.301774955992305305e-01 1.317786686304469157e+01
-2.693821888485089300e+00 3.937389578570931636e+00 1.561006483557291347e+01
-3.093729344637448975e+00 3.780941528522781425e+00 1.459416302200619953e+01
-4.622813938775767739e-01 -3.335905714807795075e+00 1.571034304348631849e+01
-2.580947503738054927e+00 2.545312451987219227e+00 1.178729383191145530e+01
-2.596418403970417899e+00 -1.132957535775675595e+00 1.445787584035974049e+01
-7.763082312449986588e+00 -1.261871640354118806e+00 1.650683460308438555e+01
-3.694959263966194118e+00 3.801330575908276277e+00 1.400201204599536453e+01
-7.904750674423093315e+00 2.459401598693982116e-01 1.565350309797955930e+01
-7.319570653883214817e+00 -3.818619993622406117e+00 1.678278244904384309e+01
-5.619922861524557334e+00 1.953726424171965848e+00 1.200453209102778374e+01
-4.289957866902250672e+00 4.403424017702689319e+00 1.603866934639115271e+01
-8.022844719314216055e-01 -2.418299222865487597e+00 1.395578059857420072e+01
-4.972913225904891377e+00 6.720165547882652746e-01 1.297027107590935913e+01
-5.383256970470483793e+00 -1.756152733101793650e+00 1.795421228252407531e+01
-8.341424238096589727e-01 -2.575963071541413907e+00 1.420125043735839654e+01
-6.092298957149175354e-03 -3.292021426629158309e+00 1.471202134435979048e+01
-7.015216541221450441e+00 -3.107675517100815465e+00 1.743493886488771238e+01
-4.961155205098023657e+00 5.969667160738689748e-01 1.306264297027735921e+01
-1.337460539718052233e-01 2.054317795829823101e-01 1.358591061446921344e+01
-3.397766685756692606e+00 -3.922901653728703142e+00 1.647579239396470996e+01
-4.165802206715909506e+00 -4.136903142662076149e+00 1.728147023523487036e+01
-1.614278336770241129e+00 3.215515205421633382e+00 1.552879030121622606e+01
-2.965996342127517948e+00 3.251833125875136510e+00 1.299944057291442334e+01
-6.787723221311360078e+00 -4.445636185778932159e+00 1.675720581588012692e+01
-5.346309001871540900e-02 -3.831534680272866478e+00 1.552241373085848863e+01
-7.868405944379562200e+00 3.952190833455704322e-01 1.563391404152412179e+01
-7.661914184375207881e+00 -2.667509691078946421e+00 1.665929916565660562e+01
-7.691976204296144815e-01 -2.659069692776301341e+00 1.438213167693301386e+01
-2.348698037451584231e+00 -1.173449711624643399e+00 1.756657443943246477e+01
-8.970404695729169431e-01 -2.716211703614761053e+00 1.456701947987697565e+01
-7.116896258582487533e+00 -1.961223765289081822e+00 1.762913106786547957e+01
-6.023740647217701749e+00 2.772779298453659891e+00 1.408726914083041493e+01
-2.515736833914061332e+00 2.414015120899665856e+00 1.168603333256771037e+01
-9.824040767363750870e-01 -3.328626718593466816e+00 1.617195988267874895e+01
-5.994936938230905898e-01 -2.235100093627349072e+00 1.376699232957257379e+01
-4.936307339651891724e+00 -1.326758516443837799e+00 1.496416442239376465e+01
-7.839717711580078685e+00 -1.592946920607045680e+00 1.569480298166433840e+01
-4.979010843157556820e+00 -3.408983969140189974e+00 1.766712971909726804e+01
-2.300481646865513152e+00 3.049167243728797771e+00 1.742925145196957715e+01
-6.960931209123376817e+00 -1.126640310248018029e+00 1.775292497545229509e+01
-9.787848591518033547e-01 -3.133285831933825261e+00 1.598491866568441111e+01
-6.847264738318733279e+00 1.260621099820026458e+00 1.742975965363163482e+01
-1.789403431089492180e+00 -3.051335762108905225e+00 1.554960942902872034e+01
-6.838838722281746385e+00 1.988846169173624556e+00 1.494847501662267319e+01
-5.265835885756953161e-01 2.265579139722710966e-01 1.712724241509527445e+01
-2.507960634075061979e+00 6.071899321524205639e-01 1.773811483186996441e+01
2.587104130058854867e-01 -2.132645334886764221e+00 1.581550768200505530e+01
-5.007072144432141769e+00 3.570443473210702656e+00 1.409691518953312084e+01
-6.146538907541698293e+00 -2.809366103915505786e+00 1.518397559519056017e+01
-4.177009483706333626e+00 -5.230422016393250217e-01 1.414183619372068534e+01
-5.918157308374430770e+00 -2.212432433694161649e+00 1.520997738595922044e+01
-5.491534519157644567e+00 2.425231690529969786e+00 1.177481404991210212e+01
-7.733644822625075577e+00 -2.838664794564392135e+00 1.643605922755074999e+01
-7.106440359461434042e+00 1.300667411736011969e+00 1.706932636989542829e+01
-3.163093673714713727e+00 -3.569300700797611636e+00 1.628810628913781500e+01
-4.085701136590709659e+00 -4.549218481562844474e-01 1.397075017811412323e+01
-6.650082186797654060e+00 -4.382166207986168516e+00 1.661620886418140941e+01
-5.766177677284272107e+00 -9.611737191731233310e-01 1.802538945354538669e+01
-6.921297848387567342e+00 2.028222254697618965e+00 1.532075196322403343e+01
-1.302020744378641903e-01 -2.025958061214315542e+00 1.398168051733359363e+01
-2.369670669424009724e+00 2.550065105131171794e-01 1.295757996506567622e+01
-8.043239278614497945e-01 -3.583747892751392161e+00 1.679694097229526051e+01
-1.472910888230967608e+00 2.828609469278792865e+00 1.490397611224846486e+01
-3.501009186422767261e+00 2.810103070354881272e+00 1.773909886135558622e+01
-3.691671730520695416e+00 1.462919836094964676e+00 1.792483387713819099e+01
-3.267231663626051663e+00 4.287549805073534337e+00 1.623635013323062282e+01
-3.916897685334035373e-01 -4.047594574625302144e+00 1.587392932744598539e+01
-4.206773150006304363e+00 -4.583141676382512131e+00 1.687961529912179515e+01
-1.635106051615245748e-01 -3.772337085455029548e+00 1.632779306787860207e+01
-6.234014009764237585e+00 -3.751567865534749746e+00 1.600083485379107628e+01
-7.620245303728346187e+00 -2.379078773349880382e+00 1.481862364716944569e+01
-4.039476066562928125e+00 4.726225906872388194e+00 1.724000237778184186e+01
-5.563714383741602987e+00 -4.149035391713130849e+00 1.747527988432523216e+01
-7.303239346617260708e+00 9.478674819896096837e-01 1.388497536527681575e+01
-2.762262465216700491e+00 2.763407146159251759e+00 1.197374542658882746e+01
-1.630643115831276746e-01 4.520276001732705939e-01 1.359771051451060941e+01
-2.021486735591283335e+00 -1.241435883215936897e+00 1.422888577388574305e+01
-8.085963160511683290e-01 6.953202523410777491e-01 1.318574455891110375e+01
-3.389089482298191847e+00 -3.233482100947285165e+00 1.522476858442275471e+01
-2.755555245707148604e+00 -4.805409207672801664e-01 1.380564199786508794e+01
-3.966762512766888182e+00 -3.786845261943513119e+00 1.739785862857232246e+01
-5.387190212380764009e+00 -4.632926956125457352e+00 1.721402256579698786e+01
1.880024746353835541e-01 8.296225888158260675e-01 1.584468145154632879e+01
-5.706681011069237641e+00 3.487233717643346331e+00 1.754139480825156738e+01
-5.768504168759047701e+00 -3.309200210703799883e-01 1.395498239571864474e+01
-2.392314712954942024e+00 -3.736066282850131426e+00 1.708973140826239501e+01
-5.817287574751397017e+00 -3.706705018447471911e+00 1.592639317067338567e+01
-2.230064304593502911e+00 -4.236631841882630312e+00 1.665485975590159029e+01
-9.980138590430379653e-01 1.249787094331254789e+00 1.305792515720771263e+01
-4.878650592747231229e+00 1.035706077220754029e+00 1.252168342924110078e+01
-3.949862521357270229e+00 1.782657860883983592e+00 1.163258145934501187e+01
1.560846719279337935e-02 -7.563514693485604568e-01 1.670474361719241330e+01
-5.790664410919655225e+00 -2.110838539273043324e-01 1.383401909342730107e+01
1.322126268717740416e-01 -4.804832893991850540e-01 1.449001561003701255e+01
-9.949034634099369612e-01 -2.491399267930310746e+00 1.410725940130612344e+01
-5.329285149490452511e+00 -1.605540470732592873e+00 1.508442365772333460e+01
-5.314940213530103819e+00 4.494697629321917631e-01 1.331844423380795917e+01
-6.004069109072862176e+00 2.388620594277287790e+00 1.310788264326495778e+01
-4.481624304810944537e+00 2.639091154871244793e+00 1.789129144004913030e+01
-1.001071921002669951e+00 -2.560408609134708247e+00 1.420680419148560958e+01
-1.378075571102794106e+00 -2.518160443719246633e+00 1.423428222459141068e+01
-3.393742674269081050e+00 3.430928937901122300e+00 1.300880508592793205e+01
-5.324264267723275879e+00 2.791045328376973167e+00 1.214994933758828211e+01
-6.618428001357559154e+00 2.285398374909382913e+00 1.727151546275801763e+01
-6.171097872927328254e+00 -1.206268875246072625e+00 1.430824570319135347e+01
-4.954300928901220757e+00 -5.200823628313924196e-01 1.438791836247882117e+01
-5.175509900881376524e+00 -1.603533226926813882e+00 1.508484450076542771e+01
-9.659191429180383759e-01 -2.652726930026807484e+00 1.436441234728023630e+01
-6.483934471288838708e+00 2.473864283030756006e+00 1.736453607119003806e+01
-6.683729008743823030e+00 9.196171009904523519e-01 1.329008053202995399e+01
-6.049218572334065236e-01 1.438337894753265234e+00 1.697609549374909221e+01
-4.239788909185291388e+00 4.635273006201228618e+00 1.740836567386316602e+01
-4.781370904485031659e+00 -3.771698955120819097e+00 1.598336307661271860e+01
-5.776759844426029744e+00 -4.423745642580911408e+00 1.676355628277935494e+01
-6.382252429164944729e+00 4.872291088714744145e-01 1.790741645455665321e+01
-6.613885309423874759e+00 -1.962811448151052574e+00 1.440462473237742103e+01
-6.872685887605140209e+00 2.025006683508544292e+00 1.513705476591532317e+01
-4.406276964565561727e+00 -4.638566123536755015e+00 1.696231031261287114e+01
-1.189281244455434372e+00 -2.577714890169166662e+00 1.422647713132352010e+01
-2.114133193105697472e+00 -1.366538399976779949e+00 1.436754069868769790e+01
-6.467675399364957167e-01 -2.689450738690405185e+00 1.433377735171755774e+01
-7.756711954933873443e+00 -2.146510781699019432e+00 1.509727758613836102e+01
-7.023407701626304345e+00 -3.986710591718340968e+00 1.614512857931136836e+01
-5.432375110363013349e+00 -4.508008065857632474e+00 1.729826191826867188e+01
-6.638067300352877842e-01 -3.538731088877782316e+00 1.608496837303760429e+01
-7.173849831319381920e+00 7.231124625710629861e-01 1.726358950597454367e+01
-4.799808286790797851e+00 -3.224363400241234690e+00 1.545363296279966647e+01
-1.757068013919220073e+00 -9.391797251653919432e-01 1.366670318466503176e+01
-3.523171861757179446e-01 6.175964149144059778e-01 1.695459317282844580e+01
-6.167761454919396868e+00 1.017387857207938673e+00 1.291115416087944112e+01
-6.855335613855658039e+00 -2.885942109813572909e+00 1.510432863210228760e+01
-1.946465294745084451e+00 5.236753357802650388e-01 1.275187079914634580e+01
-4.173912729491056073e-01 -3.285216008746705274e+00 1.555237264234391859e+01
-5.787487838444700827e+00 -1.197496007550777897e+00 1.473472953895614523e+01
-6.192602707909479420e+00 -4.025808866988448642e+00 1.637571455482498806e+01
-3.662037171899300336e+00 4.514890620167537172e+00 1.684753306575743181e+01
-8.109445204710141741e-01 -3.171579362157936455e+00 1.596142275883929784e+01
-6.718020584028957742e+00 -1.316568147449908022e-01 1.781899541858374647e+01
-5.720615004829090466e-01 -3.424280503804344900e+00 1.680073320858961949e+01
-7.822696869104973416e+00 6.974121885518498321e-01 1.502984150262907548e+01
-5.487989327240951454e+00 3.031573714442241219e+00 1.775688604968836160e+01
-5.611579401145945667e+00 -4.300730406113306259e+00 1.668906238935558406e+01
-2.006477619228762332e+00 -2.618702324864165210e+00 1.477093196835368616e+01
5.173705929962030270e-02 -3.539099171544911382e+00 1.592295438585395573e+01
-2.213173885592656820e+00 -2.623170610586097684e+00 1.483900361133592583e+01
-6.266499166183415070e+00 2.824468022817486990e+00 1.746800299677359902e+01
-1.561798043558082050e+00 8.628788132330478255e-02 1.295404111543322756e+01
-6.136051448505627448e+00 -1.588987853796346439e-01 1.802110352632619339e+01
-7.767897089229981233e+00 -1.417319270697467992e+00 1.650761331250027553e+01
-9.754312657053284541e-01 1.800301802433327714e+00 1.384369309461566644e+01
-7.268453330682880797e-02 -3.878597641958100528e+00 1.568897167036747931e+01
-6.116131883508559852e+00 -2.618347474835525990e+00 1.515376964874634069e+01
-3.359003087309216262e+00 7.904288601481493926e-01 1.794216628054549290e+01
-2.110123942087104965e+00 5.860162410830471735e-01 1.763419376657770243e+01
-2.360291105893213892e+00 5.287796146655538987e-01 1.273390926334717221e+01
-3.095246199159122469e+00 4.049619914157373657e+00 1.740230521067644531e+01
-6.778093535466808817e+00 -4.108268208733615978e+00 1.629637145601066095e+01
-7.511036778583685347e+00 8.725986951373287948e-01 1.394790643672089203e+01
-5.311676168671292331e+00 3.657313406817325419e+00 1.759329898398287639e+01
-4.864601819039293673e+00 3.998540344046212613e+00 1.755807328639156850e+01
-5.764092976836767690e+00 4.340163334126734274e-01 1.331503182448438594e+01
-1.511243848850990057e+00 -2.089736551601789838e+00 1.411884124669185780e+01
-4.489308054547011650e+00 4.178864240833091159e+00 1.544434742029797292e+01
-2.978988029747080102e+00 1.210169380222417601e+00 1.210090266353250854e+01
-4.002769837859471380e+00 7.257843378016433089e-01 1.260441866126407717e+01
1.371949953165198521e-01 -2.952043528743142353e-01 1.637076261867887439e+01
-4.887627019626163971e+00 3.652057684693828410e+00 1.766053644076747986e+01
-5.082350947575470457e+00 3.770864292708866916e+00 1.501843150501262159e+01
-7.419418122018132777e+00 -1.970970913413952363e+00 1.440221116645637522e+01
-8.502817377496044160e-02 6.222801787548832841e-01 1.660083284441189022e+01
-2.338525510469781299e+00 3.202762125704067042e+00 1.395811169560307263e+01
-6.334821283172294315e+00 1.940764229770183480e+00 1.331562269631800177e+01
-5.464973951117260142e+00 1.608605053609263758e+00 1.799810162607811037e+01
-1.865231483560952697e+00 -3.354238105274702786e+00 1.515291646860706010e+01
-8.515989395876523149e-01 2.478489811212868155e+00 1.697668110153470167e+01
-7.279277457983400978e+00 -1.115102975032082888e-01 1.735181048025729922e+01
-3.707909241916114707e-01 -3.278182444453434652e+00 1.514963190501262602e+01
-6.163452326602120834e+00 2.522208495649417959e+00 1.391982339790445167e+01
-6.703667570899064287e+00 8.764792726982489901e-01 1.766897867041791415e+01
-3.535110893942117194e+00 3.341707834696390655e+00 1.256272107260118531e+01
-7.566602745844697608e+00 -3.624024591650250482e+00 1.598075376259123459e+01
-4.939755693504837453e+00 3.005478787720681222e+00 1.195695265976932120e+01
-5.566665260716959551e+00 -3.715147600614194801e-01 1.411248357744441506e+01
-7.196411066353523012e+00 -1.114866851804984904e+00 1.407007782118307659e+01
-3.527020127127286742e+00 5.997307329588310587e-01 1.266926101601089982e+01
-6.067773411616643742e+00 1.835472157531203852e+00 1.254578880498975479e+01
-2.267908924409313354e+00 4.068431599681455069e+00 1.682615357732408512e+01
-1.880834677164028745e+00 3.054256226950308850e+00 1.452789071863430337e+01
-7.549143951923031892e+00 -1.927158911177249578e+00 1.448673250665981982e+01
-5.079758166000514663e+00 4.017764640781681607e+00 1.583650575133812310e+01
-1.017212735474775309e+00 -1.989941354729118927e+00 1.377841534439298243e+01
