-7.865870579275147989e+00 -4.599023875044204457e-03 1.472256016984132643e+01
-2.774562520303808011e+00 3.661665834374416839e-01 1.762457979835909683e+01
-5.741622165594874261e+00 1.831844385485914772e+00 1.314487795242165546e+01
-4.744386101066787376e+00 5.519166175083342618e-02 1.240547478593614628e+01
-4.711844143189410694e+00 -1.546241123835209730e-02 1.249717260257983398e+01
-4.960385712780813527e+00 5.931800129908770813e-01 1.149891896634657584e+01
-7.926930295983829922e+00 1.464726199051676336e-01 1.667625439924955444e+01
-7.727802415673022729e+00 -2.588636805099771898e+00 1.539141641884284084e+01
-8.048987488982266569e+00 -2.564489311406249250e+00 1.561426274955169546e+01
-7.743877620412014551e+00 -2.686223590263660199e+00 1.550875794554778864e+01
-3.163099603363841439e+00 -2.291715724294865808e+00 1.832220126993743392e+01
-5.140370433904980274e+00 -4.789066400225460818e+00 1.838898057700903976e+01
-4.745964153722153078e+00 -1.716505768284682487e+00 1.837679012882216156e+01
-7.156680491192970450e-01 -3.505933208075300289e+00 1.560901212351333456e+01
-3.918879844422776593e+00 -2.770935984406155961e-04 1.230927076643201090e+01
-1.297391985866508834e+00 -3.824038572284054638e+00 1.806617741821085232e+01
-2.583603132661639101e+00 3.280995081806710734e-01 1.174641595912663306e+01
-7.568778652852202526e+00 -1.422299659966306029e+00 1.437165223320802099e+01
-4.079663195931372499e+00 1.423988075370090867e+00 1.182995239205846971e+01
-6.375520950719901769e+00 -3.894730623445390894e+00 1.706608979094620437e+01
-8.201678540889275837e+00 -1.868885768083914822e+00 1.679011634249569695e+01
-2.143692875949835042e+00 -9.285382533379141767e-01 1.301291934760930147e+01
-7.486696502949105714e+00 -3.622350119867213447e+00 1.718501362427439361e+01
-6.918626370243389445e+00 -3.321652294557889018e+00 1.882217878274543565e+01
-6.572043096847862920e+00 -3.178567495945594512e+00 1.885385696572997105e+01
-8.075004270496785708e+00 -1.251176076676572713e+00 1.509665459175726809e+01
-6.786449408951248152e+00 1.321791692918164118e+00 1.733437814729599680e+01
-7.927980422786836456e+00 1.544401157675781011e-01 1.503582425009948409e+01
-8.112906894651070289e+00 -8.741745270884605512e-01 1.682277144034731364e+01
-6.555074366902124972e+00 -4.813484751342472778e-01 1.324502782569137693e+01
-1.311505228528722644e-01 -2.408087088363463302e+00 1.718046420870765800e+01
-7.558524083943548355e+00 -2.727307193903653726e+00 1.853723406622869518e+01
-7.772063376922096367e+00 -2.906084597043318229e+00 1.838667093713334921e+01
-1.371250861783646080e+00 -4.790223066815212150e+00 1.783697053062732962e+01
-3.425230150727219147e+00 3.141785838515354534e+00 1.676365801296552505e+01
-7.875677863779529275e+00 -3.754887794763884790e-01 1.717081703199103160e+01
-5.746797393774210061e-01 -1.268851624916707665e+00 1.405940804143669354e+01
-1.609002668897671295e+00 -4.945422568598456081e+00 1.763901746765513323e+01
-1.903181288374586222e+00 -3.780926976919591453e+00 1.593996768646384865e+01
-2.841702501069035325e+00 1.966211182749632247e+00 1.518269885252523110e+01
-6.753670212630729530e+00 1.901665192033510587e+00 1.707849695764885567e+01
-3.145783603933447914e+00 4.248123742326104235e-01 1.154713500153387784e+01
-3.712623024624181478e-01 -9.606136087702537019e-01 1.689274073055655023e+01
-2.087228819361830467e-01 -2.066901618482318348e+00 1.714890684590147529e+01
-2.929908943469420546e+00 -1.015390679817506969e+00 1.367405153177823607e+01
-4.353561620879002447e+00 7.625122830549553588e-02 1.799128723702164123e+01
-3.919380318739238866e+00 -2.420548216443375811e+00 1.848448927492394134e+01
-5.724144704614563040e+00 -7.231237561018137860e-01 1.405800529099482432e+01
-6.087059215236629406e+00 -8.064449266595478116e-01 1.402748486617551649e+01
-8.101760683930860907e+00 -1.088374636919058336e+00 1.700478767746266229e+01
-8.126332316176121395e+00 -1.268744381274587774e+00 1.701307007362442292e+01
-4.726029508806289137e+00 4.763704265248960290e-01 1.164879884790289211e+01
-5.958658428458617706e+00 6.466149213960023512e-02 1.267527249183083526e+01
-5.941369560282089068e+00 -3.079254041010259790e+00 1.650684770311143623e+01
-4.962972732315668267e+00 2.386378465147445116e+00 1.381421463655013682e+01
-2.542932201754155130e+00 1.768192339188112694e-01 1.190102510516234346e+01
-5.361725174521266624e+00 -2.539291490788661232e+00 1.864663188089280865e+01
-6.388612388471027081e+00 -2.174479499285765005e+00 1.870823225483681185e+01
-2.685927022295006683e+00 9.444380290733673800e-01 1.365193189535654383e+01
-4.190968631312715909e-01 -1.203823707635492957e+00 1.704587459760594825e+01
-5.499707374926680714e+00 -4.575661761488965418e+00 1.719874096495217586e+01
-7.751712337613533954e+00 3.592039316441324459e-01 1.465018820153798984e+01
-6.575670422216780331e+00 2.169179076897199021e+00 1.477795478249936778e+01
-9.423142074421422265e-01 -2.552620511463240316e+00 1.789284183997263611e+01
-7.341349501550810785e+00 4.943970679294130699e-01 1.743405217313907585e+01
-3.452582611690374614e-01 -1.388090530040761994e+00 1.703120677046988973e+01
-3.323097565890777094e+00 2.433664601202151889e+00 1.552983044907309207e+01
-6.220829578453693998e+00 1.516617545267705092e+00 1.329313660336493896e+01
-5.594077151388428426e+00 3.313651289626580621e+00 1.677747175275791491e+01
-3.058486679204302394e+00 6.218894391817983980e-01 1.759703283113118388e+01
-7.287031904428002527e+00 -7.352271487622441537e-01 1.368463317414383695e+01
-7.335930596967393136e+00 -2.218582722562667531e+00 1.496597869818888071e+01
-3.952151667752107578e+00 -3.076888685069490759e+00 1.609160902266009074e+01
-4.972162939769216194e+00 -3.508813946788827964e-01 1.339693082222578724e+01
-4.918087736727061454e+00 -2.432729337388053636e+00 1.595464440080991508e+01
-3.928167847545551261e+00 -5.054066875233598211e+00 1.806207135156656207e+01
-2.938092374149537722e+00 -3.611796310802465104e+00 1.617665938543776960e+01
-5.972254337091577270e+00 3.107454130399629477e+00 1.688875822082026090e+01
-5.329791264811827745e+00 1.923994971672936261e-01 1.248863861293681410e+01
-3.960841000029613923e+00 -1.501520041876853728e+00 1.826286813447093849e+01
-6.317282737504385182e+00 -2.755421025191509887e+00 1.880884662593079426e+01
-7.907933815458143556e+00 -2.376461588489066301e+00 1.524307024604143734e+01
-9.277820721253275948e-01 -3.543040377638383198e+00 1.559769356423099040e+01
-1.973016572911907129e+00 5.577762863584835307e-01 1.749139490445233847e+01
-1.976078667206466744e+00 8.336391119190827981e-01 1.737077327459421028e+01
-2.750141652799924508e+00 -2.691840984375172552e-02 1.208171361979617942e+01
-5.788512611760204152e+00 -8.724828924120933693e-02 1.815456088955903979e+01
-6.315015673112736927e+00 -4.519318991524160722e+00 1.850036802467463204e+01
-4.548561645258645925e+00 9.604074991665303429e-01 1.087659638727695821e+01
-7.324459895400376119e+00 1.906843111879456432e+00 1.576367216085426648e+01
-9.503161213587121292e-01 -1.215544062881450449e+00 1.765154459663599695e+01
-5.942190631121753164e+00 -1.599882719326213509e+00 1.517476575585245158e+01
-4.575163984544932561e+00 -1.270742591401588628e+00 1.826395373711622128e+01
-6.138039432492078618e+00 -4.748791155315335466e+00 1.832536928449836822e+01
-4.767600909309268609e+00 -1.423172083662358700e+00 1.498629076956056494e+01
-6.383816123547137344e+00 4.858547702581914596e-01 1.796512673404565064e+01
-6.329475765373884677e+00 -1.031366998101089782e+00 1.423806588694376174e+01
-4.533480893461602435e+00 -2.744603737384799791e-01 1.284749444961375886e+01
-5.377232088110216246e+00 -1.306135490001818278e+00 1.837437297485709209e+01
-1.180686928339593988e+00 -1.279089463579704988e+00 1.347825751107115266e+01
-3.337437570541489595e+00 6.250579794094907049e-01 1.131105797241358957e+01
-4.558196822233028911e+00 1.389763023470721448e+00 1.167849954229250287e+01
-3.634385021521012948e+00 4.543464221293677663e-01 1.780044565208336493e+01
-4.736030127589590855e+00 -2.117599833471934367e+00 1.846546482552455970e+01
-6.703708839663749863e+00 -1.356908822722130870e+00 1.853135135063985572e+01
-3.769447310798886175e+00 1.402328665175929800e-01 1.792731497444525601e+01
-6.116625890866278503e-01 -1.190627512683248845e+00 1.609446511810526559e+01
-9.926164847679508352e-01 -1.691730582054905785e+00 1.774923070008488324e+01
-3.602261794404329809e+00 2.155279625984536374e+00 1.720586569340967387e+01
-3.978405862524421188e+00 -2.173345873766744152e+00 1.536214830800591713e+01
-6.780021861044615683e+00 -1.720201880858633015e+00 1.465315030557687592e+01
-8.168901945152242661e+00 -2.070220916037227799e+00 1.699539276949448308e+01
-6.790412057119730171e+00 -1.534132596817608274e+00 1.445645901097307373e+01
-1.492077594648550942e+00 8.562531776047944687e-01 1.588514330761518423e+01
-2.183334345516041441e+00 2.194687871416420410e+00 1.673345558179364545e+01
-6.738155230333603640e+00 -1.418229942928062259e+00 1.438077066242123081e+01
-5.420625028416903746e+00 2.869528405722080233e+00 1.711405070739595757e+01
-1.176250579004868568e-01 -3.987996146178423906e+00 1.631611743882907106e+01
-5.321616761555925557e+00 -1.393396033689888291e+00 1.504606554801489082e+01
-2.026213170114468998e+00 4.433335516167725698e-01 1.435242901506584090e+01
-6.671441775996449941e+00 -3.669502693505181767e+00 1.884795448462388023e+01
-1.540458098847799828e+00 -4.416614963576445341e+00 1.804660334200184835e+01
-1.962584871433393552e+00 3.807706485343135272e-01 1.756524626341729700e+01
-6.359604139265407241e+00 -3.950351851310724527e+00 1.881278993984979664e+01
-2.525448139212067566e+00 -4.028786077262036969e+00 1.629947198257918828e+01
-5.617326221711385514e+00 2.680027778889871204e+00 1.473534986450128415e+01
-8.307770118042056007e-01 -1.234399033722853201e+00 1.758302354916255794e+01
-3.456582592371211682e+00 2.555591402297792580e+00 1.561274858346161309e+01
-6.189226967306324489e+00 -1.737566770901233459e+00 1.527893408637914163e+01
-6.943964464808876969e+00 -3.141343766235751733e+00 1.881212161078743250e+01
-7.626349258139003773e+00 -5.212214047537051531e-01 1.770240724842278368e+01
-7.561239970443594416e+00 -1.084292900357956002e+00 1.805228097546014610e+01
-7.995174885067285686e+00 -3.357950172465862249e+00 1.795519957013202728e+01
-6.581660840112616206e+00 8.768236875383877971e-02 1.809431098135189941e+01
-7.061489370702616952e+00 -4.425013086045431976e+00 1.772495254306670276e+01
-1.892960635250544144e+00 -2.539371725306029060e+00 1.456144771751859324e+01
-4.935073424474243353e+00 -4.725507985977291270e+00 1.726969377165145048e+01
-1.788231538997883119e+00 -1.732242922988644684e+00 1.792604091402849420e+01
-8.167288672854043696e+00 -1.901909869172011769e+00 1.700745833547724928e+01
-2.035703246317420945e+00 -2.017326245035521382e+00 1.409287928214590480e+01
-8.194975297038876727e-01 -7.482700098453949344e-01 1.352765819167421668e+01
3.124634120987044433e-02 -3.423258616450699954e+00 1.679774828659154551e+01
-8.206904284611507450e+00 -2.251721379492098940e+00 1.597693505960993221e+01
-1.193707254365677928e+00 9.867524813734891431e-01 1.687931641659533355e+01
-7.314205452737472690e+00 -1.046979742136673108e+00 1.394991872089775242e+01
-4.602027182878127398e+00 2.364891981340536464e+00 1.732734030690320637e+01
-8.155396962023258922e+00 -2.514494267454908005e+00 1.698100402256382679e+01
-8.223092666137285178e+00 -2.045651572947015939e+00 1.655063769950978880e+01
-8.179117674510568037e+00 -2.262196395020603656e+00 1.679365788790117264e+01
-3.032391543698904179e+00 4.865028184510606923e-01 1.257631353727743928e+01
-2.335331063125932527e+00 -3.191202436840701484e+00 1.571056896025718075e+01
-7.079801419295925768e+00 -1.923756946706954851e+00 1.469259776181239019e+01
-4.346911409444411234e+00 -2.724369392550085589e+00 1.855498193939112284e+01
-1.983197129065160380e-01 -1.188698522458403684e+00 1.679402374662266695e+01
-7.341961856346659765e+00 -2.792559988645150870e+00 1.574292193833575126e+01
-1.347155419713552016e+00 -2.322649315138554105e+00 1.461774981577499588e+01
-1.822216749334129693e+00 -1.468154024857208917e+00 1.408708900265028419e+01
-7.720024197911199870e+00 -8.316621280683725304e-02 1.727061525932152009e+01
-4.320031760936204890e+00 -5.021865131276824101e+00 1.788037870622138215e+01
-1.929643097396232188e+00 8.710813080803256891e-01 1.509274325323330501e+01
-7.464073984622201507e+00 1.168530391301665805e+00 1.673668108502828389e+01
-1.679062445227570199e+00 1.110289385026756559e+00 1.584318599581419207e+01
-5.490325471729558870e+00 -3.504341345091741999e+00 1.669917198858875551e+01
-3.555527375317607763e+00 -2.136748363054056465e+00 1.837502739423846876e+01
-5.917484486398663535e+00 -4.925558992248949330e+00 1.806297181213616554e+01
-8.659912347555073220e-01 -9.024354841024825324e-01 1.577028923188742127e+01
-2.523585767161135696e+00 -2.253971907805497832e+00 1.816428685188039438e+01
-7.506266032139222055e+00 -3.320614401184021069e+00 1.675080585634450969e+01
-2.952169450971854570e+00 -2.270643764625073224e+00 1.826612797128850829e+01
-4.317109887081191921e+00 -2.114236212306472851e+00 1.543880834655341872e+01
-2.732696853423314920e+00 -3.668370620431009144e+00 1.834761945294345864e+01
-2.237416897270431360e+00 4.313667831860779067e-01 1.396711895498193101e+01
-6.003315297864743050e-01 3.847068323405554158e-01 1.650416709408870375e+01
-2.716680610308464416e+00 -2.355273534016394610e+00 1.519458868198185897e+01
-5.542471263277647608e+00 -1.683200889120149979e+00 1.848501144656654205e+01
-2.876475532864779971e+00 -2.513509361085836780e+00 1.542952775366467577e+01
-4.798453919991910510e+00 1.119771435151084793e+00 1.766586249171347234e+01
-5.931660297087329781e+00 -4.723438234221468135e-01 1.348297450132624320e+01
-1.384741645233067420e+00 5.781995709573894970e-01 1.726930041742532396e+01
-1.159447587595494156e+00 -8.526174464426644617e-01 1.329371097736723684e+01
-6.271174169391877662e+00 -1.228171579171124739e+00 1.456405048678150749e+01
-1.828379899733004299e+00 -1.337445611410505553e+00 1.411055873525320337e+01
-4.944245511768436074e+00 7.137662903835487738e-01 1.130921566885068685e+01
-5.549597161397553435e+00 -2.025620438838411086e-01 1.319000711432606110e+01
-7.494637290271100039e-01 -4.746675971220288837e+00 1.694286687516215650e+01
-6.152953213808207700e+00 -1.106757684228823368e+00 1.446618809902493652e+01
-7.594330252048677288e+00 5.108952352567274202e-01 1.706891045979468302e+01
-5.987384283789167760e+00 3.310764803176381998e-01 1.229720619530468539e+01
-6.113736621843041341e+00 -4.067996720734860183e+00 1.709345885249988939e+01
-4.353116325471867221e+00 2.976183060272051817e-01 1.188940728058044627e+01
-2.729583116546511867e+00 -2.463803938290617168e+00 1.825208437067011502e+01
-4.657608965384304467e-01 -3.161619179644179489e+00 1.597209010213193281e+01
-7.450174739175224881e-01 -1.231852682635631968e+00 1.749997281335773280e+01
-1.894154196616978370e+00 7.540809519018369933e-01 1.501434639794385006e+01
-5.039144230080281339e-01 -1.396876297204249218e+00 1.724370149280306563e+01
-7.538871796458095353e-01 -1.566822244753387494e+00 1.583373905747468413e+01
-2.290095643452309648e+00 -1.436810890475061608e+00 1.370971311495801714e+01
-7.379504440023562095e-01 4.247906043939597698e-01 1.667533767522736454e+01
-4.919384049402096615e+00 -4.691771428633868979e+00 1.844282531442000916e+01
-6.475216901649063495e-01 -1.959249346933525260e+00 1.592969160257340988e+01
-2.745758691643849669e+00 2.641880177553379117e+00 1.670269645427221050e+01
-7.284120096087540297e+00 -9.831292314684716427e-01 1.388916219494263160e+01
-1.892944830251715560e+00 -2.442101120512333079e+00 1.807354628091248472e+01
-7.103032908428987824e+00 2.495445707731937635e+00 1.624076181206426028e+01
-3.945909830237150917e-01 -4.012565219050920007e+00 1.769517889062035110e+01
-4.726070613362383988e+00 -4.440699251483303911e+00 1.693421666568184136e+01
-4.080512705580127353e+00 -4.402970032029939418e+00 1.675680869228242287e+01
-3.243415343249708371e+00 2.766807887847740677e+00 1.695788801176232496e+01
-4.144161639845485468e+00 9.738263238942805877e-01 1.085867621151442464e+01
-6.521619548646991227e+00 3.078567854405875437e+00 1.643184255426170282e+01
-1.507018498440510834e+00 1.066646387865306966e+00 1.610361891032050963e+01
-4.780101916630358438e+00 1.348210951807834457e+00 1.757629728417153459e+01
-1.765127358209445996e+00 -1.074036793844255655e+00 1.785473460054627637e+01
-2.154023724748866719e+00 -8.096104146622418174e-01 1.786761011099305207e+01
-2.242032523527852206e+00 1.577142880574744943e+00 1.539471338600479910e+01
-1.808774196463287964e+00 -6.595501641889111033e-01 1.781621169023820173e+01
-4.005362429037410799e+00 2.265813310643679745e+00 1.413980164447108123e+01
-1.766376935055310682e+00 -2.539357904156263057e-01 1.249707458112203895e+01
-1.574176174793256333e+00 -3.125845098462990967e-01 1.263050680147359728e+01
-2.569851334745784310e+00 -1.580940119880627659e+00 1.420537567802395884e+01
-6.916826961557818620e+00 -3.195671641880976299e+00 1.659003859822420068e+01
-6.107091777866308746e+00 1.849891744682149231e+00 1.747869414770129382e+01
-2.675946903996707871e+00 -1.686484387177854538e+00 1.443423530435951463e+01
-1.167944796423170173e+00 -2.638851437865425087e+00 1.795681842493128855e+01
-2.916536707685205343e+00 -1.523561684885543777e+00 1.443331956535286409e+01
-4.918877641791849165e+00 -3.270765457084463534e+00 1.647409157031708915e+01
-8.050599512031483940e+00 -8.523114043450061295e-02 1.654202151686017785e+01
-2.288697499986281247e+00 -1.701535428790604154e+00 1.401950230440537482e+01
-3.517153478882544704e+00 -3.810487699416881036e+00 1.635619599114145117e+01
-7.529131136662624790e+00 9.306240991479437508e-01 1.685292097187958760e+01
-2.917751540151704237e+00 -4.827247243838165502e+00 1.708572082785779500e+01
-8.094199597743973129e+00 3.687944479678038623e-01 1.584920151257513155e+01
-7.848390384404701159e+00 4.401146568422333316e-01 1.498605290951431712e+01
-7.113798663205162853e+00 1.003832326369684003e+00 1.392246649718800100e+01
-4.165910780546739467e+00 9.580189012580698771e-01 1.766692427939538490e+01
-6.288934163032554814e+00 -4.623517283685033341e+00 1.841920140686817930e+01
-3.670786358207343891e+00 3.346275296370872177e+00 1.667666212127035053e+01
-1.675249498837919182e+00 -5.229137958811059805e-01 1.460413778912412752e+01
-2.769947080940273310e+00 -4.433420769464844202e-01 1.783501354550534401e+01
-2.554483113673394534e+00 -8.540373752048256994e-01 1.789271358844819915e+01
-4.359175807793474355e+00 -1.162843134793347000e+00 1.442388339086445725e+01
-7.502307961743415632e+00 -1.172369084099658343e+00 1.814519655568610901e+01
-7.225276372750476739e+00 3.479992050221597522e-01 1.318618951207966106e+01
-2.559067220933169740e+00 -6.545807574514465044e-01 1.785941231020348496e+01
-7.831259560012087562e+00 -1.076513497909660888e+00 1.771410463968476634e+01
-1.151666281015081950e+00 -8.294108549619838566e-01 1.766957764992077884e+01
-4.540270568404897844e+00 -4.254791695224929282e-01 1.314652528272163678e+01
-5.898263543961893340e+00 -3.716874782704032043e+00 1.687503463178619612e+01
-3.132321297404137894e+00 -3.829078872724193339e+00 1.631100113501355864e+01
-3.544841643146797505e+00 -2.893913806028068247e+00 1.849865884689120676e+01
-4.187701929382360078e+00 2.939551016135535821e+00 1.696167840746747757e+01
-3.995310709890806500e+00 2.780281840278376659e+00 1.702594310230204755e+01
-5.775342910968942256e+00 2.618243229449128240e+00 1.476328312116957520e+01
-7.977310171260690197e+00 5.401074888895535109e-01 1.607824763216267527e+01
-6.545222983003561978e+00 2.684699402996286732e+00 1.692727855817249250e+01
-7.505250052279136552e-01 -4.258733241124082802e+00 1.788478946180646645e+01
-2.627754905280919484e+00 9.734748127174164267e-02 1.314802679104889549e+01
-7.308704821694221643e+00 6.285949287420963261e-01 1.368057331699811741e+01
-3.890323812827176653e+00 -4.962985438090218970e+00 1.818784878378677305e+01
-3.328221760445166044e+00 -4.510473453519399656e-01 1.289303622572188246e+01
-4.015463714247242244e+00 1.087549694047952764e+00 1.136064066470599343e+01
-5.603884859785431161e+00 1.547918704164147563e+00 1.758640799745389316e+01
-3.537825917572960943e+00 -4.020755540828364616e+00 1.645217511249821385e+01
-4.119085309357844338e+00 -4.912854911188439644e+00 1.825105329230472151e+01
-6.531793838472948366e+00 2.908158000624341710e+00 1.599916691399153379e+01
-1.345531078740573427e+00 -1.036575596358630058e+00 1.777209340368672130e+01
-3.314143770810316525e+00 -2.368200720557278149e+00 1.546355347816105663e+01
-1.933878523916183978e+00 -4.676782172386878322e+00 1.668245438184930762e+01
-2.782873768212859922e+00 -1.059384374466465356e-01 1.223095892165420295e+01
-7.849196903457784202e+00 -4.580593945878686513e-01 1.729190595957716781e+01
-8.307690197383433173e+00 -1.247285538770467328e+00 1.579347845397151318e+01
-3.342767925243335991e+00 -4.992784330495590339e+00 1.803598075361464836e+01
-4.226017904435611428e+00 1.328043968500013605e+00 1.751856600258944141e+01
-3.935138175809798078e+00 -1.839444126099512022e+00 1.835093583914472859e+01
-3.515645146813363375e+00 -4.664610707259518207e+00 1.828756560588562152e+01
-2.780809317020520144e+00 1.181934906619669101e-01 1.288263445671528373e+01
-5.705392133851619363e+00 -3.740131353590043339e+00 1.881433332666744818e+01
-5.627455641051919422e+00 -9.855391289138792921e-01 1.835011948195979770e+01
-7.361571281435155267e-01 -2.469978107937782497e+00 1.461190210555995961e+01
-1.126676094804197170e+00 -2.506466937880053258e+00 1.461397655094900117e+01
-1.286504268149184727e+00 -3.370458599538219246e+00 1.805947633857159573e+01
-2.925794319810894883e+00 -3.704303752409777495e+00 1.838094274576161169e+01
-1.782340634927861989e-01 -4.439142058244438083e+00 1.711812675656101490e+01
-7.950876603126677544e+00 -1.408263071538942146e+00 1.479516427029994574e+01
-1.310648770906709837e+00 -3.645570178244554427e+00 1.807468086241106775e+01
-5.899573991830178166e+00 -1.952195861839738644e-01 1.303419271613083552e+01
-4.950312020479154640e+00 -2.793118930126194499e+00 1.621264978178737337e+01
-6.719600539500406811e+00 -4.237993513691952208e-01 1.318192221209930537e+01
-6.701318055638522786e+00 -4.643402644999518714e+00 1.773543566695314055e+01
-3.105644602082708428e+00 -6.155925032810231207e-02 1.225352317015190451e+01
-3.159845266123312957e+00 -2.426380750673695630e-01 1.250391114527908698e+01
-7.644115817063191543e+00 -2.688910286060745003e-01 1.752286172257070618e+01
-5.140679417864958189e+00 -1.021567772642925753e+00 1.465638082435334510e+01
-7.550073902539461201e+00 3.147998931884312124e-01 1.727427571182818511e+01
-2.755649478516393636e+00 -1.792747648397559068e+00 1.462022395248442663e+01
-2.734271235359702512e+00 -2.151357796964884272e+00 1.499804282132130950e+01
-2.633547549866832149e+00 -2.260988652653801445e+00 1.505425759171904687e+01
-2.115640126025666312e+00 -3.152039173186021337e+00 1.555479149045981657e+01
-6.009533062384747382e+00 9.454509701911906205e-01 1.779593908027876736e+01
-8.088213320678828921e+00 -4.468293184298623433e-01 1.527421231886134834e+01
-3.183800169725526263e+00 -1.208713257330201518e+00 1.419840784083284646e+01
-1.844496927074060544e+00 -1.081072194569908662e+00 1.415472938286860582e+01
-8.139932430541207964e+00 -1.403288902073507094e+00 1.523719504833881544e+01
-6.295547924965127606e+00 -4.305069758368968103e+00 1.866483942364489579e+01
-1.634327760014639530e+00 -7.655724441784829137e-01 1.288576304606572265e+01
-5.198246434041950970e+00 -1.889287984709518753e+00 1.552689616729701427e+01
-7.855344202019768574e+00 -3.741563947567503323e+00 1.793607143402951110e+01
-7.956791207366443075e+00 -1.591743999059962444e+00 1.480185623466332245e+01
-5.130369299956989426e-01 -3.295888231240364785e+00 1.541709518029582782e+01
-7.856119660253725101e+00 -1.557218190748721254e+00 1.466917861865583106e+01
-4.591505588082845257e+00 2.729059959758918463e+00 1.713665746863211226e+01
-6.179858769910966387e-01 -1.495140411301150829e+00 1.409631151643227653e+01
-5.183200939846441813e+00 2.559630433832543517e+00 1.730561910512167501e+01
-4.357165887714036678e+00 -5.167131687239779891e-01 1.328775348008018042e+01
-5.942005643051257557e+00 -1.151236355116321386e+00 1.462240807492422690e+01
-7.800167727436295273e+00 -1.135932198577462193e+00 1.779413344076798964e+01
-4.778027342288685198e+00 2.136301288944935983e+00 1.742140277473366083e+01
-3.301488718222087115e+00 -3.210217212055811675e+00 1.604357056687124228e+01
-1.761446989942175412e+00 -1.323243112017571388e+00 1.423097416676208482e+01
-4.985803218857042474e+00 2.965291610556328727e+00 1.702644978351608884e+01
-4.596841158402149574e+00 2.574923978789466439e+00 1.722851942827207594e+01
-1.576496983535746743e-01 -3.182194764766541173e+00 1.737512506333909457e+01
-6.193824952707997156e+00 5.261145594430800543e-01 1.796563658110546058e+01
-5.246738022019415970e-01 -2.706727209537590273e+00 1.498853869218563162e+01
-2.767240813284387535e+00 -7.878115902188698172e-01 1.314084355648757096e+01
-4.183994478493109348e+00 -2.920811089227832724e+00 1.857431790603535759e+01
-4.886959203301727506e+00 -3.597955528105716727e+00 1.661839534345726221e+01
-4.321459200542135726e+00 -3.101645436782029197e+00 1.859635810190910732e+01
-1.560907710782446056e+00 -2.437248257079631220e+00 1.800581801654665171e+01
-4.143897757061769660e+00 -3.076815555362719667e+00 1.858681733162074678e+01
-5.940658799811058266e+00 -1.716806851935031908e+00 1.855567311560620780e+01
-2.465804781362963993e+00 -6.404893695857231117e-01 1.319665943004362063e+01
-5.778706191465839304e+00 -1.304150130499832416e+00 1.843692278326107825e+01
-7.125708525664212090e+00 -2.509306070615090256e+00 1.538796195215675411e+01
-7.712048526386115377e+00 -5.449825641850049029e-01 1.759743808012090582e+01
-2.628501664854121067e+00 1.378879328599553533e+00 1.440369312092004250e+01
-3.531303747204136201e+00 -9.971513319309035506e-01 1.397275468779343655e+01
-6.755560479433040832e+00 -5.105297870721337006e-01 1.328796917450789650e+01
-1.314784281424959289e+00 -1.109988637015494328e+00 1.504941205911795166e+01
-4.112495824587780180e-01 -1.946204582731330568e+00 1.628235496832116169e+01
-1.826771042267849587e+00 1.757639154948962723e+00 1.659262593869969393e+01
-2.943640822739236995e+00 8.760035730454227010e-02 1.204416703912721331e+01
-5.003795603069769449e+00 3.546729141230990923e+00 1.654369229900786209e+01
-3.933922545129475701e+00 -4.430159542756351709e-01 1.305736161904156134e+01
-4.342719336206498859e+00 1.096994042387629875e+00 1.110487565394585729e+01
-4.982359584985062817e+00 3.501272462802486274e+00 1.641891425912542601e+01
-1.930010707921969715e+00 -1.699642780392887742e+00 1.381748624295440564e+01
-1.514169569863024867e+00 -2.885861270796571620e+00 1.476397745495119906e+01
-4.354646346572800475e+00 3.040587568707161514e-01 1.793060536286040119e+01
-1.752329275933085295e+00 -2.785516160815900921e+00 1.473025563867930643e+01
-2.956101653956865860e+00 -2.193994941893552486e+00 1.516719614849046494e+01
-2.698054045296334191e-01 -1.386517562665579684e+00 1.660290755128192686e+01
-1.761982549392212993e+00 -2.674242015381624427e+00 1.459194094975783784e+01
-1.714551275019979837e+00 -2.495655698819895463e+00 1.439415173302933582e+01
-4.324781425954484781e+00 -2.769177828857604329e+00 1.601275272566011765e+01
-9.146172723727792331e-01 -1.088859575484244058e+00 1.362791485062087204e+01
-4.214211896340754215e+00 2.920802157493202600e+00 1.541809890308065789e+01
-4.993963787789477138e+00 2.857773023388604727e+00 1.497003341283541644e+01
-2.173053269531778131e+00 2.749277354730766953e-02 1.213325578244096548e+01
-4.358829337765077305e+00 -2.358930940837359991e+00 1.849495883550529030e+01
-1.563811446236526237e+00 1.012768243203430840e+00 1.593275148707223465e+01
-5.777286146276912504e+00 -2.320706830399748011e-01 1.314549833155290415e+01
-1.285899537800848424e+00 -4.863063902255817972e+00 1.711253954437465907e+01
-5.150321807644617778e+00 -1.172623113575649578e-01 1.809717218181011233e+01
-1.341162957243638987e+00 -4.907571916908763932e+00 1.727212778074004618e+01
-4.775131010619878325e+00 1.711148782106224120e+00 1.748019507313069809e+01
-4.549505015143139985e+00 -2.287295634920271770e+00 1.571342915768290638e+01
-8.167238486575513434e+00 -2.455863674610117897e+00 1.617194654621166094e+01
-6.565260472800581226e+00 -3.075156855162132441e+00 1.884656839826256558e+01
-2.315954792299348863e+00 -4.858490125505583457e+00 1.711462812682950485e+01
-7.119494319358889101e+00 2.096089754694956842e+00 1.561625995891574448e+01
-1.883005676169753118e+00 -4.771151206405461309e+00 1.687764147105583490e+01
-4.478602423557008549e+00 -2.746413475936833049e+00 1.605980501787604808e+01
-2.545780659793753564e+00 -3.063412008050378610e+00 1.829067207454615485e+01
-4.733087245243726038e+00 -2.800457016847431646e+00 1.618191764042996894e+01
-2.123651376661525703e+00 -2.330461043307866298e+00 1.459226194993419412e+01
-6.390767504412886879e+00 2.772589289671646640e+00 1.556397941647166405e+01
-8.753654234561142333e-01 -9.560879400149076002e-01 1.754141917079489943e+01
-9.195579410993703906e-01 -2.108479761995822432e+00 1.423162927080200646e+01
-4.354104926816225962e+00 1.137578135763614551e+00 1.131179852857770030e+01
-1.509270486958529389e+00 -3.111757486875005974e+00 1.499780262464974001e+01
-4.331738025636848732e+00 1.771648182153937046e-01 1.796427653885218589e+01
-5.557308071542964356e+00 3.580697613253738254e-01 1.225714051417415007e+01
-1.548728557780488124e+00 -3.017205812188310077e+00 1.489518097294171994e+01
-7.194479198345918647e+00 4.744911324550080689e-01 1.326262708253290512e+01
-7.435866118780361411e+00 2.847382690280018669e-01 1.341774627841814649e+01
-6.639862876474390774e+00 3.829607900343935944e-01 1.794890264353053411e+01
-7.110377045954412445e+00 -1.557864833000174754e+00 1.851703864128515065e+01
-7.156011416438785133e+00 -1.349842186241884345e+00 1.843784875022727832e+01
-8.233965589519842254e+00 -1.045364689033384753e+00 1.641135108225926231e+01
-3.334054015567022855e+00 2.101004483482279639e+00 1.471903624330347427e+01
-7.158910534092457034e+00 -1.751146445381577710e+00 1.854646271381913536e+01
-3.141726930359513226e+00 -3.484864490654304703e+00 1.843207351324626231e+01
-7.384119761038794749e+00 -1.716294075637187833e+00 1.843171488101577538e+01
-5.942331294724713331e+00 -7.552073114950669241e-02 1.285807805727599984e+01
-7.993157051747497022e+00 -2.101452034799291990e+00 1.509983859867405087e+01
1.577122462768492522e-02 -2.966346128570969576e+00 1.682879012431181920e+01
-4.321744637716869342e+00 -1.548904725270196403e+00 1.483709498497760038e+01
-4.333770800535719836e+00 -5.737196114879939968e-01 1.341468620371346177e+01
-1.128997579435244036e+00 -2.214423258100838954e+00 1.787503182103731447e+01
-4.532839508629677105e+00 -4.702188220246991124e-01 1.326146628772474756e+01
-4.103159427358009204e+00 -6.329609820308711443e-01 1.348350019682604639e+01
-1.756379584033985308e+00 -1.426609353284872483e+00 1.788110369098435015e+01
-1.374659130900248272e+00 8.079323228817280045e-01 1.713916420815988673e+01
-1.578949680895196162e+00 -1.246275496724205345e+00 1.783866919234681703e+01
-9.164709886941310168e-01 -3.736557091766911753e+00 1.579545367988622573e+01
-8.052864589103734261e+00 -3.124479801343826857e+00 1.788957751773351035e+01
-1.350515101539119023e+00 -2.496159909703774687e-02 1.751766762638733255e+01
-4.311509260589259540e+00 1.018413726958753873e+00 1.075123128034552522e+01
-5.717186092382828377e+00 -4.109363955908979626e+00 1.874015765957360813e+01
-1.012565226696072740e+00 -1.970743763226055420e-02 1.722624489468386955e+01
-2.253645656826988031e+00 2.307097906197246306e+00 1.678997365565144761e+01
-6.504652603334021066e+00 -4.695734681481874340e+00 1.827966141906658848e+01
-4.153244058008080053e+00 -7.065203431853350757e-01 1.365108357981349840e+01
-4.730541830336098208e+00 -3.867122298606791464e+00 1.669147330128997808e+01
-5.710239132810531970e+00 -4.132066477239276558e+00 1.703542050430952415e+01
-2.529209380984293709e+00 -3.802720420932379053e+00 1.618257384518724606e+01
-4.688187885261686283e+00 -4.186982480591587397e+00 1.681509868254694950e+01
-2.290582188788253148e+00 -4.727233691717342090e+00 1.678818171673351500e+01
-3.379307200944284162e+00 -1.343338918163047957e+00 1.442680170610838175e+01
-6.815151307307772299e+00 2.824514011000008318e-01 1.792934668761037997e+01
-5.920981737623225882e+00 -2.829410325637738310e+00 1.632419374887388486e+01
-3.744169101577878855e+00 -1.154227687710784211e+00 1.424430130276629924e+01
-3.740833687069796021e+00 -1.324334435996768367e+00 1.443258165005645921e+01
-3.674658424066945539e+00 -1.800955433045761112e-01 1.254844374543573693e+01
-8.020363193886923980e+00 -6.944384946970613148e-01 1.702250002667520690e+01
-5.138685136255869423e+00 -5.217262488381255725e-01 1.386389902883165703e+01
-5.143116178458186916e+00 -3.986163296672154965e-01 1.360432654223187043e+01
-6.508484429743547572e+00 2.125421895504596481e+00 1.461569192300306597e+01
-2.940048119185306508e+00 -1.348643543427044289e+00 1.423519100683924066e+01
-7.377636289062363240e+00 -4.153059769899746456e+00 1.834985192386726638e+01
-6.750913353089380564e+00 -1.123901669327245667e+00 1.846822058163442293e+01
-2.933250518193106782e+00 -1.813707810597183334e+00 1.476398177044481130e+01
-4.146860854818498865e+00 -1.293392969621935062e+00 1.822594082713713348e+01
-6.405592123470502663e+00 -1.525778494600926738e+00 1.486488298444033873e+01
-3.921418356480526946e+00 -5.488437615683215975e-01 1.326585575325848865e+01
-6.776214406652544930e+00 -3.516037288645462944e+00 1.883902520723749419e+01
-6.734133243948040359e+00 -1.532797404858381674e+00 1.856964424702044525e+01
-1.127482932267999560e+00 -4.421462037135121648e+00 1.795201282900437079e+01
-6.364176421470769895e+00 3.118177074459316245e+00 1.619633517064347572e+01
-5.346814364511883078e+00 -6.959685226170944095e-01 1.824931076635558114e+01
-5.158982337093651616e+00 1.848287949182038536e+00 1.257868265271081398e+01
-5.973098698550924901e+00 -3.693298445210125180e+00 1.884259978797435409e+01
-6.368982345116196875e+00 -1.324577440812670370e-01 1.283602789168624625e+01
-3.985168590149100076e+00 2.781501269219095018e+00 1.538002136883339332e+01
-8.181014954631370628e+00 -1.055445278761156125e+00 1.665542865508334458e+01
-4.936351736766754428e+00 -2.079194297234371991e+00 1.848108701708250479e+01
-5.768029142055942415e+00 4.733942961159718354e-01 1.206149207010320268e+01
-3.143745831110238864e+00 -4.454130860991927232e-01 1.792661946802519068e+01
-5.567238605185116818e+00 -1.209827934369407831e+00 1.480028409920250354e+01
-3.585460318486492159e+00 5.321954741290576552e-01 1.146197924442456539e+01
-4.042434653656556964e-01 -2.450902049556822337e+00 1.753974187288224940e+01
-1.137908249224701684e+00 5.912678673316961175e-01 1.703699359243907097e+01
-2.931575281341125994e+00 -4.400049346321320165e+00 1.655865886211594429e+01
-1.337096124368553518e+00 -1.307010378574188225e+00 1.341714288125671217e+01
-7.553979864917287124e+00 1.192543981617514959e+00 1.511460205655027877e+01
-1.139898076294431517e+00 -1.469051397656860880e+00 1.362103621033380918e+01
-7.175733830430409910e+00 3.163848544641192917e-01 1.768723988589925611e+01
-6.480907896140702285e+00 -2.093225587677725930e+00 1.554871241414183558e+01
-1.614290555824830609e+00 4.172074108688989535e-01 1.513710674869522776e+01
-7.099303160270520330e+00 -1.011432537563789813e+00 1.834526926758506349e+01
-5.173906665928241111e+00 9.228804038650031405e-01 1.777265340355930689e+01
-3.047359506870733981e+00 2.903178298945335634e+00 1.684589128128295599e+01
-2.733516563992929083e+00 -1.327224468473250818e+00 1.403356729100194045e+01
-4.557603998847650217e+00 -1.203490462074839007e+00 1.460744370263637748e+01
-6.286952560400400625e-01 -4.668912653021592085e+00 1.687669320999814104e+01
-4.977047941545146514e+00 1.119200259036342127e+00 1.768097562036763648e+01
-8.257585680818239737e+00 -1.253723501364652160e+00 1.557421237058296626e+01
-5.091759026026653423e+00 -3.847327190084920634e+00 1.677926822257715500e+01
-1.256255705862302285e+00 5.502838588392915398e-01 1.596087643039553328e+01
-6.663988007963997262e+00 7.853795462448909248e-01 1.296051720910729088e+01
-6.153316340264991524e+00 -2.110943283980912799e+00 1.867383858637173333e+01
-2.119845772946203244e+00 -1.210347768103908095e+00 1.332706032677510777e+01
-3.201646177720319120e+00 -2.269085234602381540e+00 1.535244363088350283e+01
-4.424561586415533654e+00 -3.935792989800784181e+00 1.662781780020797484e+01
-8.146328055390334555e+00 -2.497046972652706476e+00 1.717296396563038385e+01
-5.029225314415306514e+00 3.119536036087249276e+00 1.692095995170673817e+01
-8.164552409306038427e+00 -2.504015122933199944e+00 1.677960899898801372e+01
-2.408802530423384436e+00 1.620700056337711414e+00 1.516540853261839672e+01
-5.417875932509764958e+00 3.372800795535766838e+00 1.616694649773269177e+01
-6.944752870059229366e+00 -2.335715791574982880e+00 1.871527399935832747e+01
-8.084648188576375460e+00 1.319018416667974425e-01 1.552110567380281836e+01
-9.289633044941693063e-01 -4.207289877098968844e+00 1.794857851878363064e+01
-6.986672734782617411e+00 1.877373021420917443e+00 1.689715918962184205e+01
-5.924708163786481130e+00 1.450476429310080695e+00 1.273037881365506152e+01
-1.919115507988151892e+00 -4.545245390144438957e+00 1.651184243169707955e+01
-6.964889258838240949e+00 -1.326892511662018270e+00 1.848914071601102549e+01
-5.350673925404220377e+00 -2.093524802320194667e+00 1.854642047526085591e+01
-6.755954221337260535e+00 -7.705250974649547890e-01 1.836839919101464957e+01
-5.272978081185184518e-01 -3.554310091543275152e-01 1.645311059389213781e+01
-4.515753417311039186e+00 -4.220164197379843607e+00 1.677686280357041326e+01
-5.630052161536498900e+00 1.716425207183604362e+00 1.756698445142846410e+01
-8.562410232623687278e-01 -2.935243399361196825e+00 1.534744650802264587e+01
-2.641360421332403785e+00 -3.759205663458096147e-01 1.296461015009487383e+01
-5.116203356340143671e+00 -4.496653616006779153e+00 1.854612002659104419e+01
-7.795551700175251675e+00 -4.028276030265409147e-01 1.438469663375252949e+01
-8.085704580803874109e+00 -2.899357673634693988e+00 1.776875006906377408e+01
-6.947965268347833678e+00 1.640077674551289499e+00 1.702534920556605513e+01
-6.112414099378250754e+00 -3.864022794688287465e+00 1.699153473925251134e+01
-5.253611423918689738e+00 -1.683363208832549196e+00 1.533091615668449847e+01
-3.128104426970991003e+00 -6.323008550029241004e-01 1.310168032156748907e+01
-5.117692753977054032e+00 -4.677384650952344458e+00 1.846152977350557833e+01
-4.692803061752763405e+00 -3.490268023336985159e+00 1.866152696627440477e+01
-7.123422336048357728e+00 2.467099212777742245e+00 1.631301457423561985e+01
-4.990379937321716142e+00 -3.308338753251666375e+00 1.870209541426033795e+01
-2.966183737609019211e+00 1.563045233418459468e+00 1.718012946514401662e+01
-7.556448773831958121e+00 -3.675375915429902385e+00 1.729778330540301212e+01
-3.951676558073144996e+00 -1.084753050012128017e-01 1.248624338774482467e+01
-5.701182763983593915e+00 -1.667674850732032477e+00 1.850695764952000033e+01
-2.755757949611976620e+00 1.174603341887588082e+00 1.730223208293506687e+01
-2.956601532788062925e-01 -1.173315346871683040e+00 1.663129117871426033e+01
-5.921403993755038009e+00 -4.252466170190695394e+00 1.713576789037965042e+01
-2.012871767374218912e+00 -1.084252885462383631e+00 1.788599376865199631e+01
-6.818799624528451453e+00 -4.438620044774186368e+00 1.758919767886164820e+01
-7.649435896153963910e+00 -5.392409480953450629e-01 1.407696631631317885e+01
-5.417405666526901697e+00 3.491946609991171790e+00 1.657593740624314549e+01
-5.317195990265306094e+00 -3.215082101944246595e+00 1.652376514130894591e+01
-3.538128733361150857e+00 -5.009396585847963657e+00 1.806639203988688891e+01
-3.982596214294882309e+00 2.861317373932569019e+00 1.556500387069303670e+01
-6.753583137505497547e+00 -1.973049880570152403e+00 1.498773530841610935e+01
-3.567662467993423903e+00 -4.839539691114170594e+00 1.821969264738353544e+01
-8.143976262101020325e+00 -7.001453013325874553e-01 1.660023094409419642e+01
-5.915499296641651306e+00 -2.433451986085854113e+00 1.600259829158212099e+01
-4.372460841127363551e+00 2.744492997529835776e+00 1.709792004718204694e+01
-7.252817782702185578e-01 3.045020222199248949e-02 1.643447263005275616e+01
-3.887622761961354811e+00 -2.995338928751849039e+00 1.602677350816975732e+01
-3.437316738849988340e+00 -1.958058331677157149e+00 1.831038232953986622e+01
-3.353688820055892528e+00 -2.317153090942669635e+00 1.837181717274610193e+01
-3.187738803074800842e+00 5.876241531039140265e-01 1.135763295028240449e+01
-4.919024027288775081e+00 -3.832743360726243775e+00 1.673082153903878933e+01
-3.349883878211408206e+00 -1.158560685552914471e+00 1.417382474814094095e+01
-5.182269359252869911e+00 -1.325501143832926720e+00 1.835214799211199832e+01
-5.334482433780015853e+00 7.076680247569464011e-02 1.271101766713738712e+01
-3.365026670363983285e+00 -1.251464678550358922e+00 1.430519047859763404e+01
-3.762584901296761597e+00 9.831042497875326358e-01 1.759456146994571313e+01
-1.168397969200974940e+00 -2.193304507534630521e-01 1.747795418610907703e+01
-3.872784486193971976e+00 -4.543408436847041543e+00 1.680738114367889224e+01
-4.093504490192314549e+00 -4.590686312364165467e+00 1.691238893573676094e+01
-8.015171426228176799e+00 -3.371792634249433096e+00 1.776379464038283018e+01
-1.434146879283656917e+00 1.360966558483280853e+00 1.661760749815161731e+01
-4.979421807189057247e+00 -6.972189956625417240e-02 1.807132197671981899e+01
-5.753897643285166730e+00 -1.967279439801762564e+00 1.558326939130946798e+01
-2.765084683550627531e+00 -1.573176490677423711e-01 1.776803007143282187e+01
-6.481353112947552120e+00 -4.472566023790008671e+00 1.850346252689859838e+01
-7.845741049012095125e+00 -1.645749473805170338e-01 1.459092952873823990e+01
-1.524739448384672347e+00 -1.694890282848761087e+00 1.382636839499764037e+01
-7.846234862773376229e+00 -2.740586689911054030e+00 1.828606882852020377e+01
-5.509151333582783749e+00 -3.704233611342556021e+00 1.879892774497153951e+01
-3.530100407800136342e+00 -2.265477386027427986e+00 1.839757303112531517e+01
-4.550562635037791459e+00 2.331794854172124509e+00 1.369772178237929339e+01
-4.312029250596748575e+00 -3.909609905868266511e-01 1.301838547071053043e+01
-1.685107604004721260e+00 2.778720894177827971e-01 1.485658119354746631e+01
-3.325290314259951030e-01 -2.545070531593048635e+00 1.496399524178915286e+01
-1.311826702138950473e+00 -2.129700412361928308e+00 1.420674144094863678e+01
-4.143635400127144486e+00 2.766308921485622352e-01 1.188663082224767820e+01
-7.110513734287415843e-01 -3.437833911423896716e+00 1.791985102391674545e+01
-3.871545456027114973e+00 -2.743356670053849644e+00 1.586208918418884295e+01
-1.155102593370866737e+00 -1.005900185459083218e+00 1.770691882563690811e+01
-1.801134538559168441e-01 -2.813043933989114453e+00 1.738527626586102670e+01
-6.565915878130824446e+00 2.759786453282190077e+00 1.577721450943998960e+01
-3.152223787359053619e-01 -2.413991631200858912e+00 1.741937915515530833e+01
-3.108966950084641745e+00 -3.298691527286847780e+00 1.842890273717653216e+01
-3.770091231480189098e+00 2.219904250077445740e-01 1.192683199369857405e+01
-3.241722996162208492e-01 -1.823778785323610041e+00 1.718369979992690944e+01
-6.955265516936212755e+00 2.709697276928594856e-01 1.283822944372147035e+01
-3.351060713231570620e+00 -3.031727472981098348e+00 1.595380871812379198e+01
-3.519760330071987742e+00 -2.767123540871869736e+00 1.581327832266388000e+01
-1.620697497709006063e-02 -3.912445033567613972e+00 1.656590668247374865e+01
-3.153582926821409949e+00 -2.916956289275539849e+00 1.585055173450134092e+01
-7.897676690509704223e+00 7.067887092418768669e-01 1.551683367656010759e+01
-2.959620449967368394e-01 -2.912917102119172430e+00 1.520937006356069432e+01
-4.521114996813885512e+00 -4.955070556579990182e+00 1.768031839376910952e+01
-6.082071616143646331e+00 -1.037695368157372178e+00 1.440244183536132638e+01
-6.694109503484822810e+00 3.265053882284820186e-01 1.255818489210236422e+01
-2.515442212401855837e+00 -4.691721482369421103e+00 1.813451503454674096e+01
-5.531636084183787716e+00 -4.756664980250078223e+00 1.742981049768173207e+01
-3.511350456783866036e+00 -5.055792928194261293e+00 1.791129711102145095e+01
-3.516456432690720835e+00 -3.239549937268193514e+00 1.609420880959044453e+01
-1.299360163534934776e+00 -2.452465758521594541e+00 1.795563537941563581e+01
-5.549767127413345769e+00 -2.407532675446343085e+00 1.598537612577260703e+01
-4.887792348385890051e+00 -4.129878996939655877e+00 1.684857919376716140e+01
-2.542225335372829687e+00 1.318698085339521653e-01 1.767587784647258431e+01
-1.547438072299710310e+00 1.440384935323844040e+00 1.657656597085641081e+01
-1.671795718122248253e+00 7.348178015377679895e-01 1.542442736253268620e+01
-4.358432388506644273e+00 -1.655010059663951649e+00 1.497451619730665939e+01
-7.340820838290030181e+00 1.952364169452606824e+00 1.632555900479150424e+01
-3.905058206434815382e+00 -1.682668297043471428e-03 1.797081749455920985e+01
-7.940968876867309234e+00 -2.860962518995954884e+00 1.594502588243872410e+01
-7.226362076985010319e+00 1.952957273467828658e+00 1.653440710452191453e+01
-4.590172315444675633e+00 2.941350212363031957e+00 1.700460106292417706e+01
-2.744111170019653212e+00 -1.651779350012446912e+00 1.807235309475767693e+01
-1.912853666027374944e+00 -4.475321279913811345e+00 1.810355088605617269e+01
-5.110052707468496713e+00 -3.507859977712257216e+00 1.873454169414067749e+01
-6.031892232144513422e+00 3.238405479661147002e+00 1.613849772565910357e+01
-5.812509332824961739e+00 3.398699505098412565e+00 1.657957683658434078e+01
-3.924409310206103729e+00 -4.271124466943375886e+00 1.664048927669471212e+01
-7.303393991132282714e+00 -9.434789438152011432e-01 1.820329777515484082e+01
-3.866279572757598704e+00 2.368114087075980922e+00 1.458476258461918817e+01
-2.541184671224420821e+00 -1.932598464990722631e+00 1.459550096250617557e+01
-6.109522991689204652e+00 1.250118456340482131e+00 1.273155012749701243e+01
-4.951786836155840810e+00 -1.768011181745231086e+00 1.538236215358837100e+01
-7.149237153673074552e+00 -7.207299582224249157e-01 1.820556260766143097e+01
-2.903683909526283635e+00 -1.916826822836553479e+00 1.485614487215532975e+01
-5.814569410727489895e+00 2.497132303563509570e+00 1.454287567699684658e+01
-1.515840200464140031e+00 -4.900734410157763676e+00 1.773161678119195628e+01
-3.542543431360948514e+00 -3.488636554030802195e+00 1.850766510946196419e+01
-1.113482112279701619e+00 -2.225273333122887109e+00 1.428982341595652272e+01
-6.367281306429838139e+00 -1.936345406956159643e+00 1.544117866888209178e+01
-5.390663867931940523e+00 9.398522611717292641e-01 1.778149781033862453e+01
-4.550743295469738214e+00 -1.477804142313411173e+00 1.830286768576215550e+01
-7.078417482342608258e-01 -1.497653459893323102e+00 1.401143693623858510e+01
-5.225161491396496105e-01 -1.504419547573904170e+00 1.422641628356064913e+01
-2.978595484525355719e+00 -8.974504009276501604e-02 1.780324266073737149e+01
-3.141083402342789377e+00 -1.094524384381626803e+00 1.804298940547954189e+01
-1.748155251410791644e+00 -1.863989137942412722e+00 1.382187560444168284e+01
-3.350765013830772521e+00 -2.497557502742854041e+00 1.840092047010637444e+01
-2.772950693517168830e+00 2.236734247783277230e+00 1.593894902829788052e+01
-3.380927847225460692e+00 1.641322861826236268e-01 1.784516233176163169e+01
-5.834981766537271852e+00 -8.671771110624708623e-01 1.426085564154407237e+01
-1.146945639172906040e+00 1.045147270910638415e+00 1.671898969297437887e+01
-4.754400668508752759e+00 -1.997265027730166898e+00 1.552461100440709529e+01
-8.072832104678061782e+00 -1.427656083100723672e+00 1.505535030771356375e+01
-2.095241521411308039e+00 1.079295639005756202e+00 1.503776163035352553e+01
-3.613287715242534226e+00 1.699493292023198876e+00 1.725309425818828046e+01
-5.962337121870121770e+00 2.099857922198924420e+00 1.746509028146416043e+01
