-6.768032305231561629e-01 8.050688156582136434e-02 1.579638763420881631e+01
-3.407873221948619857e+00 3.291882352659507571e+00 1.531185517074515090e+01
-2.060114640534583597e+00 1.734479847058655322e+00 1.343526189973666263e+01
-2.735369399762931364e-01 -2.011357992737464961e+00 1.460136107813042727e+01
-1.934394138487842696e-01 -1.986556487306728291e+00 1.422006296741455245e+01
-6.753913828117288354e+00 2.446579349943325710e+00 1.637472257179591040e+01
-3.347974009144465413e+00 1.603611435368375915e+00 1.108702729115306695e+01
-1.620715182428002166e+00 1.131923066381368415e+00 1.660878141125243346e+01
-7.198806947457509153e+00 1.294200967413434489e+00 1.286644991889565759e+01
-7.113049653489336599e+00 -1.968020418069543531e+00 1.368539892907810795e+01
-7.308611027936379401e+00 -2.203168168776427738e+00 1.384340843878083760e+01
-2.484718705296081964e+00 1.905711241265219513e+00 1.306981055232638411e+01
-3.165320785388775260e+00 2.923356109091064248e+00 1.453516080843739999e+01
-4.717091790265954820e+00 -3.275609648963597742e-01 1.238746748879309578e+01
-7.281160412902540457e+00 -2.017412681384497475e+00 1.370163226775025223e+01
-5.372277111229126767e+00 -1.069975915359578478e+00 1.325681794881240094e+01
-3.620659796049135792e+00 3.708946063814088312e+00 1.671429031534119147e+01
-3.912513991389523937e+00 -4.063376388901763780e-01 1.232517671545813798e+01
-2.524218897277560103e+00 -1.945532133051412149e+00 1.645513546620361822e+01
-1.752456398033437335e+00 2.358019798876803463e+00 1.553636372167478541e+01
-2.570513625672057323e+00 2.765214538514421783e+00 1.488055967540498514e+01
-3.633333392506566284e+00 3.718238101391412531e+00 1.650513736271067344e+01
-5.778822313672653976e+00 3.298411202194678538e+00 1.644625440150744922e+01
-1.902362457568849141e+00 1.396127170256026284e-01 1.170544238370377244e+01
-6.007638807037707807e+00 3.103463253591633553e+00 1.604775455800851702e+01
-5.547628372759534798e+00 -2.617842658069119199e+00 1.421642776342901371e+01
-1.945087790503738923e+00 1.338395022920322530e+00 1.675581301190699790e+01
-6.456384350414493767e+00 -1.864358437053886819e+00 1.380755187051388688e+01
-6.062400416484319265e+00 3.146451083059026654e+00 1.644104018480884477e+01
-5.843344872025953762e+00 3.127860687257339567e+00 1.662707717098991012e+01
-6.518384620818626907e+00 -4.430763712899962847e+00 1.504476362099893905e+01
-7.708058454652679359e+00 -1.652568986442287891e+00 1.350633836156611167e+01
-6.191538934843651809e+00 -8.695911980510815376e-01 1.690786124741434193e+01
-6.400260140868043734e+00 -6.398883258820377007e-01 1.689827497869868367e+01
-7.001777276770653202e+00 4.419657740553822323e-01 1.665525198407729235e+01
-3.322743795788860588e+00 3.479864579682686032e-01 1.147401637144689701e+01
-6.403044537387249768e+00 -9.023762631424414593e-01 1.689070841223717068e+01
-1.603723235263699642e+00 -1.862202014428747443e+00 1.630395330654476638e+01
-4.344214697321273633e+00 2.743208951861035860e+00 1.386393502774634001e+01
-3.355926153279352508e+00 1.615043128462767319e+00 1.077991674897059582e+01
-5.313254477611986104e-01 -4.111178365619942987e-01 1.544639628709363066e+01
-2.805360975216644182e+00 -2.053029304792309606e+00 1.648020980527413215e+01
-4.108472572715434978e+00 1.781120104856731778e+00 1.113799818081816184e+01
-6.435851518394414938e+00 -4.983540438015650054e-01 1.689362404687677710e+01
-4.382041413645688444e+00 -2.291341908607769984e+00 1.663967271317963181e+01
-5.155268750354723650e+00 3.627547097100289886e+00 1.661563809201971154e+01
-9.867516426597890966e-01 -2.827849281610169019e+00 1.573833535132569139e+01
-6.084534877527707497e-01 -2.421214470862152357e+00 1.536589706188292936e+01
-8.506110669719195272e+00 -1.616497638458686659e+00 1.429179395476290537e+01
-6.904252534768891003e+00 -7.800048236984358230e-01 1.292829110599092601e+01
-2.121974672381650162e+00 -2.499045817401672309e+00 1.323609423257057571e+01
-5.102720331069535042e+00 2.007736661833054548e+00 1.223540840142929298e+01
-1.886558804310549231e+00 -1.242699881411903212e-01 1.186252194299941820e+01
-4.674363905260292995e+00 1.373154794115897803e-01 1.184314047683650628e+01
-4.206009896739481668e+00 -6.945922264429201798e-01 1.692495694843526977e+01
-8.064291874646116298e+00 4.748006931683618204e-03 1.314588044768168018e+01
-2.779748129181515814e+00 8.955636712161527679e-01 1.691235827168700823e+01
-4.361738322864292527e+00 2.670780929057231301e+00 1.365531626627680950e+01
-1.370267573026307417e+00 -4.625493954067086411e-01 1.640855955647294095e+01
-7.464751324866902848e+00 1.150791690604744844e+00 1.619595498340182971e+01
-2.798907331251500707e+00 -4.562143877303853623e-01 1.679631252305586386e+01
-2.726787074189328308e+00 -1.754518445986953834e+00 1.322796092664570367e+01
-6.981786241001695537e+00 -3.497316036401342476e+00 1.649123724208505948e+01
-5.931301282444839451e+00 -3.260101012587402369e+00 1.442381300523321030e+01
-7.533286739520246300e+00 -4.281064904939339222e+00 1.558287651763916060e+01
-1.623663270178683948e+00 7.447369635118308295e-01 1.179088785045424359e+01
-1.513368544384013248e+00 1.378996813361547558e+00 1.657161315668838242e+01
-8.096375447298376216e+00 -9.130712471572404176e-01 1.334735777286399028e+01
-5.799462619983081879e+00 1.110390987034781229e+00 1.695648824642991670e+01
-9.267289296899556827e-01 1.417508608864811448e+00 1.569226669833703269e+01
-2.835526926883800147e-01 -2.380217892573113669e+00 1.440161160810856344e+01
-5.609792223822084978e+00 2.309262650538690842e+00 1.689887049595654744e+01
-1.282364680883365748e+00 4.958433317640371096e-01 1.207011457486700223e+01
-6.037484208241468586e+00 2.103908847632600221e+00 1.685747575503294016e+01
-1.506153949254672053e+00 -1.359419581042529579e+00 1.251505003198944266e+01
-4.375428396748366922e+00 -1.279023816796976076e+00 1.682409954105767369e+01
-4.211500089604129471e+00 2.911065608512884761e+00 1.687400977550965209e+01
-1.373177109191851208e+00 -1.647857289617872922e+00 1.264369999290708435e+01
-7.193156513252891848e+00 1.983251016134900180e+00 1.457968893308024505e+01
-2.485089186375316839e+00 2.944154091618289115e+00 1.664160543261740699e+01
-1.257602642973817408e+00 -5.337272130963165440e-01 1.635615226327790950e+01
-3.977032384084641770e+00 3.435376770885987252e+00 1.679632166257132653e+01
-8.025532175170781990e-01 5.312886416773721088e-02 1.251079223192987300e+01
-4.082908374227385728e+00 1.724490466502327957e+00 1.047697311516360585e+01
-3.301043878422888600e+00 8.901821985747766508e-01 1.108644246904324504e+01
-5.598391190733805090e+00 -9.561086369926838358e-02 1.697209456698231023e+01
-8.279577566171042236e+00 -1.233154820601086277e+00 1.365938508036357391e+01
-7.724439505752271895e-01 -3.049446338030495363e-01 1.250983920211214340e+01
-2.323149203915014116e+00 -2.761654168809253296e+00 1.358898009096306581e+01
-9.673546068793685837e-01 -2.769071218290087288e-01 1.232872033382621524e+01
-7.721713114269224576e+00 -3.855421083510084834e+00 1.595205041051718453e+01
-5.318116999114599786e+00 -3.871976920796994293e+00 1.460149917901743422e+01
-7.872715989183298291e+00 1.143960613300251783e+00 1.394893148658173843e+01
-5.365106158982935192e+00 -4.285742561913620463e+00 1.618093020449829922e+01
-7.901962930502723914e-01 -3.957622830260955737e+00 1.451013585917153748e+01
-4.891393961514932442e+00 6.247928451868822730e-02 1.196909130093485985e+01
-3.104459680886033635e-01 -2.550948960040769986e+00 1.378857285508177100e+01
-1.460389949651015096e+00 5.074697697836920707e-01 1.183872645042589866e+01
-5.934113950490195855e+00 4.825968718396150270e-01 1.183234148823529708e+01
-7.798807303280096193e+00 -2.275760256350172206e+00 1.643471471893505864e+01
-1.368988822768433922e+00 5.228704386717448749e-01 1.194336885547054905e+01
-9.766469893157934123e-01 1.041302124980952648e+00 1.428982098476871343e+01
-3.598210566343616357e+00 -1.236586895655503032e-01 1.696704793288432356e+01
-4.625266911130442971e+00 3.245139460800895215e+00 1.677947296004699140e+01
-8.543792893523278309e+00 -1.261182236111481947e+00 1.462142696329183522e+01
-6.923542787834978895e+00 -3.647125655224758400e+00 1.465457073259956999e+01
-7.347657486885074363e+00 1.227079841269949068e+00 1.293530625703003878e+01
-3.639757473336719507e+00 1.234888059360585433e-01 1.698879861634077670e+01
-4.211152538472858531e+00 8.779648044281038732e-01 1.703362633807112658e+01
-3.821692333913703443e+00 -1.100463832677836651e+00 1.683874286153362831e+01
-8.388197834257024255e+00 -1.836093589815596783e+00 1.561925600854089780e+01
-8.247155631890466410e+00 -1.862357229450673390e+00 1.592911264555771922e+01
-6.923504300092395702e+00 -2.973854790624558486e+00 1.433413614121561963e+01
-3.609508305146811757e+00 -4.674275690112930093e-01 1.692817034041347668e+01
-1.856883456267901966e+00 1.348292250157091976e+00 1.282872381636056147e+01
-5.288808884062438764e+00 1.297166263758887883e+00 1.101449474440488885e+01
-6.721444410872750908e+00 1.634675483403740248e+00 1.296459790796290079e+01
-5.605874575595678699e+00 3.295854978815089709e+00 1.662661170399809052e+01
-6.082151164944488819e+00 -3.935855521172407556e+00 1.470746620065363786e+01
-1.915992282747616127e+00 1.479022853818141137e+00 1.307305552009346528e+01
-3.267661851064362466e+00 1.554817177950408302e+00 1.067242203319499438e+01
-6.532150538313258537e+00 -1.178236970950435669e+00 1.329439114890510254e+01
-6.314767247451472443e+00 -1.037255913562691312e+00 1.323991091998332692e+01
-2.730013004197787474e+00 -4.668915602174262602e+00 1.554916642477371980e+01
-3.802548580497766118e+00 3.587059364103478920e+00 1.630937456807642505e+01
-1.683373788302567675e+00 9.257033075050286053e-02 1.181018653718053102e+01
-6.128237175981132268e+00 1.270215656559593898e+00 1.689904181309551845e+01
-1.148156253500772772e+00 1.773265521076938800e+00 1.609154668084405060e+01
-4.405153214714461640e+00 3.520303109406046183e+00 1.608850774167745001e+01
-4.554563035056569120e-01 1.975634424835309710e-03 1.505499642224920720e+01
-3.420912248809297118e+00 3.431671982516657060e+00 1.571250446516768662e+01
-8.157229255558457126e+00 -1.694243930859935521e+00 1.607470025316179019e+01
-8.135682730668730045e+00 -1.294245396563091344e+00 1.608033131147822914e+01
-5.611790232277930279e+00 -6.910169529719341064e-01 1.693861576770977351e+01
-5.703934515269545535e+00 2.887421674299427643e+00 1.491448197491924432e+01
-4.800368095161038351e-01 -2.354543176371782121e+00 1.316290254634600743e+01
-7.921357963663359314e+00 -1.667100770240594443e+00 1.635745678413411852e+01
-7.986942210104778894e+00 -1.313162238285643379e+00 1.626028300982343566e+01
-4.299947166844743762e+00 -3.569332120628107674e+00 1.434500667112172678e+01
-8.217836029527097352e+00 5.621951096226578404e-01 1.431638323151177516e+01
-3.910479337909398723e+00 -3.445139950486649116e+00 1.424986805565058390e+01
-4.135539787579046944e+00 -3.595495982468658536e+00 1.434030184974676203e+01
-5.994321934356002579e+00 2.965688191209982616e+00 1.539930962874639064e+01
-5.370950681599943266e+00 -3.293365919205729853e+00 1.650817093359311016e+01
-6.981264025908606730e-01 -1.467324850908073630e+00 1.585585971379247283e+01
-1.109028569215678051e+00 -3.272955162448905053e+00 1.563406961458952438e+01
-7.771173198611782684e-01 -1.489364776480959662e+00 1.595706610900125710e+01
-7.307156841607262088e+00 -1.773349888934075969e+00 1.351965957792779349e+01
-5.549492748097507366e+00 -4.245195866270087492e+00 1.484397051678243074e+01
-6.409115005690684264e+00 -1.489767448026388275e+00 1.686597034420836039e+01
-3.931728866621001295e+00 -3.597544584944226020e+00 1.431850136935902285e+01
-7.723691213481556517e+00 -4.089151656607940666e+00 1.557161732195798365e+01
-3.466461007697662300e+00 -9.508270758060142214e-01 1.278974658422421484e+01
-2.666442805969615026e+00 -1.089532674190060835e+00 1.266540706949480111e+01
-1.415345453698364508e+00 -2.053152615876166820e+00 1.622001661750192980e+01
-7.753766757420128997e+00 -4.055289941817807886e+00 1.539113685421152056e+01
-2.079726367790531771e+00 1.090144452919708518e-01 1.167517235070934944e+01
-2.545146561996142420e+00 -2.778676060774599943e+00 1.373708990623844173e+01
-4.909667820949556116e+00 -3.644736707697893596e+00 1.444207456995616567e+01
-5.189909286198258087e+00 1.736513257702307911e+00 1.701576955313287343e+01
-5.596681413932506288e+00 1.709862690089620774e+00 1.698241448789152841e+01
-7.981535386992678838e+00 9.547812537677333733e-01 1.491197619339950720e+01
-6.791886960883610769e+00 -4.733304075279636258e+00 1.558267900520636218e+01
-5.608332761598044058e+00 1.512619485122394858e+00 1.698290384610240622e+01
-1.817704696402396181e+00 -2.983428524752108402e+00 1.606894165741840297e+01
-7.701985184379923410e+00 1.261690823337175305e+00 1.557161751429504548e+01
-2.783516726453542312e+00 -3.449704291078570684e+00 1.606728846980439229e+01
-3.063978723948380001e+00 1.034630042257399296e+00 1.099844199621401586e+01
-1.972443608857044506e+00 -2.432786046918018918e+00 1.624878371720597059e+01
-1.554072425594196449e+00 3.656083077054899655e-01 1.651189937122023466e+01
-5.943218757795906804e+00 -4.442774940560047625e+00 1.499388009991798398e+01
-6.551639560480227331e+00 -3.492572445983447516e+00 1.453125617084116428e+01
-1.107778247527233306e+00 -1.636933379390306531e-01 1.220435609180860226e+01
-2.170543834575421549e+00 -3.055677538412387761e+00 1.610099648438002973e+01
-2.439611865854766748e+00 -9.192229455024378826e-01 1.245831381359498025e+01
-1.883545638578592918e+00 -3.118034839563993188e+00 1.603910585696586466e+01
-5.799957855782079896e+00 2.475069585088669033e+00 1.398667999967959830e+01
-7.722973604612706211e+00 -1.182265433764100981e+00 1.327073728775848949e+01
-5.937212132849725155e-01 -2.653227767126195236e+00 1.321916500516081427e+01
-6.447079242059666093e+00 2.539205801450229671e+00 1.659397315648057614e+01
-2.918168427976607582e+00 -4.275803921560568988e+00 1.459862819751381480e+01
-4.329458111275516607e+00 -4.721913013321431762e+00 1.515756372424823795e+01
-5.987919782298500415e+00 1.702408362366500727e+00 1.692330190571736281e+01
-7.156448369691765343e+00 -2.239136695377925423e-01 1.263091332497491592e+01
-1.912054374777086174e+00 -2.505665847446634231e+00 1.319567505294705612e+01
-1.586114755758748274e+00 1.962419131265625172e+00 1.655384139784482400e+01
-6.589441197616679347e+00 1.731742809878163092e+00 1.670529066123921424e+01
-6.204227961312403394e+00 1.681990416718660342e+00 1.686408346126337321e+01
-7.282445860228206058e+00 -7.866513312310401407e-01 1.295581375730919760e+01
-8.093201711004160970e+00 7.007514766793696559e-01 1.548628180577407321e+01
-6.742544186139671325e+00 -1.128925346499710214e+00 1.319005780007033124e+01
-4.864791766224659142e+00 1.314818680937986928e+00 1.702517411980907625e+01
-9.867957267509712693e-01 8.365813632484366824e-01 1.371600065198704144e+01
-3.662359389672550369e-01 -9.838086232348013382e-01 1.308484512336604055e+01
-6.138033880886577087e+00 -4.232357883952763800e+00 1.488004554845037930e+01
-7.533446279442793880e+00 1.736568778739420615e+00 1.475129835928534661e+01
-4.409950704054187653e+00 -4.866821734011794742e-01 1.695489215562206553e+01
-5.865451939413182103e+00 1.508861399925192082e+00 1.695356387851056112e+01
-6.339706270430914614e+00 2.070827272213093817e+00 1.358182734688584858e+01
-6.942986405648661652e+00 -1.178535666362378942e+00 1.317190100329811386e+01
-3.930998005331182155e-01 -3.853261892401673716e-01 1.405310142374829141e+01
-6.103587091701530021e+00 -2.243101362471439375e-01 1.251756026472321182e+01
-4.036493992564294864e+00 7.212863026085376550e-01 1.703086706719055243e+01
-3.361195122073661334e+00 1.846687657907101432e+00 1.151685481534960687e+01
-3.061666674947790323e+00 -7.218955669239128792e-01 1.246104918897287561e+01
-5.692318337979021869e+00 -6.424705983068720316e-01 1.289364570634873886e+01
-5.129380472682869563e-01 7.660690567676247120e-01 1.548036025827708428e+01
-3.803890108862543862e+00 1.294904238901128934e+00 1.708282404079586669e+01
-4.970003454906020579e+00 -2.837120807094614339e+00 1.658789661086241907e+01
-3.621031876223142376e+00 3.309186059693767223e+00 1.532010547468935258e+01
-8.104536883105353695e+00 -2.090651251425217794e+00 1.615690996064258300e+01
-1.306043050490821367e+00 -4.031704261618235918e+00 1.540045215589480065e+01
-5.763890676590627038e+00 -2.894692384605416891e+00 1.664977947287575333e+01
-8.413586310045701566e+00 -2.265784623055025815e+00 1.436600703268126367e+01
-6.680235713011838605e+00 -4.763446681999118582e+00 1.555020544924614612e+01
-6.407485918401746972e+00 1.054324408754255815e-01 1.686675460112749292e+01
-4.633226238781277928e+00 2.541938479958380182e+00 1.694082855006992716e+01
-8.539932632530428336e+00 -1.878457815895193672e+00 1.458383053925882322e+01
-1.771797079205934100e+00 -2.825872569326008499e+00 1.610870261023991290e+01
-8.374596973082997664e+00 -1.246895670859918148e+00 1.561833762585208163e+01
-8.138731465933773279e+00 4.018310078730920609e-01 1.330247861039662993e+01
-8.152660280118626090e+00 1.845509030634782666e-01 1.331037375400235234e+01
-8.251350072000114722e+00 1.531049275670426368e-01 1.355990264689895852e+01
-5.225889668212027050e-01 -3.349319502565180517e+00 1.435451463366535663e+01
-5.089837013762006812e+00 7.106198893406212580e-01 1.140914583524135750e+01
-8.316488889833749454e+00 -1.918622232150307416e-01 1.368274335602936631e+01
-5.758786133338840152e+00 -2.461058819634207306e-01 1.250122384389057473e+01
-3.171663897259779485e+00 7.062313513257982844e-01 1.695743782869268657e+01
-4.014170332885689696e+00 -2.775078787474317688e-01 1.697355956205773353e+01
-4.036315587135446137e+00 1.484851984329650598e+00 1.710481108691773144e+01
-3.345613782580857398e-01 -1.378856443532116893e+00 1.465371939389789091e+01
-5.233413602713634205e+00 2.303976349852321803e+00 1.694725748751622874e+01
-6.498163113505038169e+00 2.182236443407460591e+00 1.667556009242975890e+01
-6.650723697124548472e+00 1.901428298304835618e+00 1.665339439954663092e+01
-1.892210371899775145e-01 -1.971656143011066842e+00 1.400219882120859083e+01
-5.761110000273969689e+00 1.712929544031104978e+00 1.696089319047399968e+01
-6.523840614446941188e+00 -4.285842484992915757e+00 1.494349072729079708e+01
-2.515450212415315523e+00 -3.031310087421674737e+00 1.384497365748645237e+01
-2.714873535732103882e+00 -2.992443539841355360e+00 1.389525619108515642e+01
-6.519078484717189426e+00 1.951218155831932144e+00 1.671086754883686254e+01
-7.094534727743687874e+00 -7.476423290304294866e-01 1.291147858657437908e+01
-7.062908428155313167e+00 1.546089165767306817e+00 1.318967778536356761e+01
-8.532248948439146830e+00 -1.249405115421288626e+00 1.487238635152467126e+01
-2.712419005249682158e+00 -3.367660746312366005e+00 1.404267480450196715e+01
-2.265881181370355435e+00 1.108228506611513176e+00 1.125203102326526405e+01
-6.214313266162642790e+00 2.700679340185162314e+00 1.663024900834720299e+01
-2.587150189801659561e+00 -2.463580085093441507e+00 1.633368813975743805e+01
-7.607287239997685191e+00 -2.915200001360964688e-01 1.646233431227195965e+01
-7.412273591048113452e+00 -3.062977038835427712e-01 1.658094142699714624e+01
-4.957237973692263822e+00 -4.235527580603211106e+00 1.480639363167213318e+01
-1.488450239767114214e+00 -3.166550227024649278e+00 1.359563943155794519e+01
-3.865265405224691087e+00 1.307158431477521976e+00 1.077449450541969966e+01
-3.531707826131227357e+00 2.267256902132117613e+00 1.246480484340154860e+01
-8.439340571941933433e+00 -2.114831145595342576e+00 1.548775917290126003e+01
-3.351449899794067822e+00 2.526858108336427766e-01 1.695973049593443349e+01
-9.347524650475758090e-01 8.401784445849835858e-01 1.387757383792287769e+01
-7.219406229994795865e-01 8.170628854988384315e-01 1.449451323306411510e+01
-8.174857467289646351e+00 3.366243995767465580e-01 1.551189257332596227e+01
-7.732376689403052339e+00 -2.643168459069164200e+00 1.419261878288026324e+01
-1.567822586454119094e+00 2.194546493835487944e+00 1.568367830308643462e+01
-8.407815033216012868e-01 -3.864495639577339325e+00 1.484046302064349376e+01
-8.502784213492841303e+00 -2.046886822892773239e+00 1.522101759593180148e+01
-3.567675287605589496e+00 -2.886451704836729970e+00 1.641201142787969403e+01
-3.196533243002484426e+00 1.276737795886647708e-01 1.692410744224091346e+01
-2.655494191333848786e+00 2.282642130890758292e+00 1.362441000599722329e+01
-5.526219307064993203e+00 -4.579542826532864153e-01 1.269022784688229777e+01
-3.258218150121182877e+00 -3.227132604064707477e-01 1.689929073455979491e+01
-1.624867115054874578e+00 9.281070924278247425e-01 1.659267178738509685e+01
-6.543318546758347676e-01 -1.604753204949633805e+00 1.575060577976179488e+01
-1.863147640488020951e+00 7.261594796752395276e-01 1.148906794779835039e+01
-6.586379294747056967e+00 1.866931912324365506e+00 1.338389405065745663e+01
-3.340685587124387457e+00 -4.783576416025312916e+00 1.561511160829943279e+01
-1.747619715390937856e+00 3.162211013959327910e-01 1.168472236751889781e+01
-2.262933372046757263e+00 2.094960891081085297e+00 1.386842721362185316e+01
-1.929030576173762945e+00 8.687309965883132090e-01 1.147927312645851217e+01
-5.339024933661300487e+00 -1.925410304357364266e+00 1.679988190133224535e+01
-6.606211295840251019e+00 1.295034315354524290e+00 1.672964663066359847e+01
-6.759734191388296232e+00 1.143590871752844684e+00 1.667095651287025149e+01
-3.533914175992665108e+00 -3.614787275574958159e+00 1.427302124430096697e+01
-5.175341454414509101e+00 8.474448537205923060e-01 1.131957462205717135e+01
-1.194017839949121473e+00 -3.600623211135804524e+00 1.554063989331401174e+01
-6.926896871714840920e+00 -3.480118015548293808e+00 1.456791863194797187e+01
-2.346433845386998396e+00 1.882720126273955241e+00 1.325545616444624741e+01
-4.592885989573147754e+00 -4.567693701137444329e+00 1.597022990113370966e+01
-6.912794005108270134e+00 -1.412908383529251521e+00 1.333384885763773653e+01
-6.568914348635437328e+00 -2.703168139080335486e+00 1.673558406687044808e+01
-6.307712031878468295e+00 -2.814213803960755822e+00 1.429392274551675612e+01
-6.048749789542422484e+00 -5.276492989649790299e-01 1.280613129477987755e+01
-7.084022501208727896e+00 1.905339406092560139e+00 1.419986975372865246e+01
-2.727612425011976427e+00 -3.605094751189362956e+00 1.414324629861767235e+01
-5.019154831613438006e+00 -1.667875911799074018e+00 1.680144076113717588e+01
-6.246182254853423821e+00 1.227004163348769605e+00 1.162258639690429973e+01
-7.776631559257134896e+00 1.146621001039993537e+00 1.573935918816912150e+01
-5.943249484727387788e+00 2.085302636315292446e+00 1.319610001297288093e+01
-4.060602462877553442e+00 8.507114736394392196e-01 1.114131043170178614e+01
-2.851632564479990251e+00 3.491079001779238133e+00 1.638230375904235459e+01
-7.984513036403162456e-01 -3.721998153464805004e+00 1.402222801475899772e+01
-5.343784553952684035e+00 -4.013725932393332307e+00 1.468859688102546457e+01
-4.735359430608970577e+00 -4.945233592446801052e-01 1.258531732410148507e+01
-1.160251471358879627e+00 1.402308661581577187e+00 1.469311598351767501e+01
-7.496117625554472141e+00 -2.454592132036221397e+00 1.657469626652370565e+01
-8.473904633623453364e+00 -1.282997106852055369e+00 1.529083217992998200e+01
-7.806621664384474357e+00 1.136655448280576852e+00 1.554754431813816851e+01
-6.365112182792167062e+00 2.570477490894924166e+00 1.484102713840620069e+01
-3.536182442818518457e-01 -2.227577693574081419e+00 1.480559772868997825e+01
-8.276330703886298323e+00 2.542239499105588552e-01 1.513251946466618492e+01
-7.564759558286215935e+00 1.250472272184641520e+00 1.608365856059848298e+01
-5.373564916488726695e+00 3.163493258265199337e+00 1.546952042039578501e+01
-7.409411748857714031e+00 1.355870911555342229e+00 1.617216637584607852e+01
-4.617220428062203119e+00 1.110234105933519233e+00 1.702677580872495966e+01
-4.989014011981236507e+00 -3.626995092992568726e+00 1.638543396706822719e+01
-2.426416440620993153e+00 -1.497258890128158937e+00 1.284718598013330748e+01
-6.554105957376223479e+00 1.965883522019996832e+00 1.359167608887679179e+01
-3.564584377999170606e+00 -1.913476451387354782e+00 1.663829407572997710e+01
-2.758040314047100594e+00 2.631784901568150481e+00 1.429054978556277078e+01
-7.548744465130726056e+00 1.326388760053146099e+00 1.595894512460791148e+01
-3.822797333683003451e-01 -1.941623771730710324e+00 1.323191590879271118e+01
-6.258373775936820316e+00 1.928874609348860125e-02 1.229243411407808750e+01
-6.140790755078337604e+00 -6.118778974947327587e-01 1.288225223979570799e+01
-2.804933234441921996e+00 5.295229432796908497e-01 1.687500613691796403e+01
-7.617423712411004466e-01 9.685066937240676133e-01 1.590344317553946851e+01
-5.917009747689399024e-01 -1.834708216724552532e+00 1.558756893463099047e+01
-2.351755668945020972e+00 -4.422061173439189474e+00 1.463925921702137245e+01
-1.950653899079818343e-01 -1.807676394939407238e+00 1.422485640805790652e+01
-2.723915414515531985e+00 1.646904494501701510e+00 1.206575984504908305e+01
-3.003536842377988458e-01 -1.766225707615558971e+00 1.340679804717948187e+01
-6.139492659471864400e+00 2.382948834540831173e-01 1.207684055464303086e+01
-6.595072252074990260e+00 -1.880580424347827684e+00 1.682924935614839157e+01
-6.745865342551121913e+00 -2.285841763579955277e+00 1.678170761118006382e+01
-5.966311569043983631e+00 -3.424009502460592103e+00 1.446876087216684326e+01
-6.531328968211096431e+00 -3.911881608776589747e+00 1.639141178625535034e+01
-2.111514332968087881e+00 -4.840713712016409431e+00 1.505728065374078639e+01
-3.531121401191136044e+00 2.201818720419979059e+00 1.226956876816121778e+01
-8.470694807176831986e+00 -4.762716108994382025e-01 1.479655921628409843e+01
-6.361582771881675313e+00 -4.554231724306054829e+00 1.607594312892289778e+01
-1.093359995296390830e+00 -3.672474304000560519e+00 1.538717914286116084e+01
-5.397333931379570515e+00 -2.499642130314598365e+00 1.670645387028190854e+01
-6.372676456550958157e+00 -4.263534730679420903e+00 1.623834333071048164e+01
-3.719520120493913673e+00 -1.320716818478498422e-01 1.197705327191544100e+01
-2.535514434601053413e+00 -4.642654642113168251e+00 1.488085156992276481e+01
-4.562069863413370507e-01 3.908061360142846552e-01 1.507903279279514308e+01
-2.358887331945016097e+00 -4.567129332845444090e+00 1.476706435650028126e+01
-3.145915126972706588e+00 -2.390132100660327552e+00 1.375695695594918888e+01
-5.761147863697886784e+00 -3.305269958344428383e-01 1.258946397705251385e+01
-3.094498348433639467e+00 -2.518500788745914321e+00 1.380413489159877471e+01
-1.816384725712048454e+00 -4.026382991782435639e+00 1.567378098272965659e+01
-8.164249014206603761e+00 6.068914482273912725e-01 1.347595583825117771e+01
-4.330461318517236924e-01 -3.027916850024902296e+00 1.369441100593268246e+01
-7.841814566330873149e+00 1.208270903167937838e-02 1.289317729902036902e+01
-6.575357322311553787e+00 -4.646894171562568232e+00 1.596806734548605178e+01
-4.544330933066599520e+00 -1.002981908355920826e+00 1.306939634335230593e+01
-1.950563480374811753e+00 2.293622148793861282e+00 1.662960239294793396e+01
-7.126950129433563319e+00 3.963472225124764492e-02 1.247237989426560389e+01
-8.212473061881739866e+00 -3.295791378700135166e+00 1.499209573951635477e+01
-3.775256126610600838e+00 -3.004415802785471268e+00 1.641501934896024650e+01
-1.017071697234066985e+00 -1.460181188088953697e+00 1.615562432973046114e+01
-6.604324607518354817e+00 -1.268443779055104192e+00 1.685858855228937259e+01
-2.127936647718922103e+00 -4.189690157846608365e+00 1.567474678195734228e+01
-6.074350795233327993e+00 -4.767761838437190036e+00 1.525935697416531056e+01
-3.322317840392720267e+00 -1.149752476275644142e+00 1.294217967650574153e+01
-6.091202996018086679e+00 -3.798452443926245259e+00 1.463364104322620918e+01
-3.159288802989272948e+00 -1.380161515164042285e+00 1.310326937067921094e+01
-1.695844068152657869e+00 -1.959455052951380560e+00 1.282024469012863577e+01
-7.357846665380757933e+00 1.736422269867888835e+00 1.576213251958272465e+01
-3.393446584206093464e-01 -1.338125467010020442e+00 1.318981272079040323e+01
-3.916924199081234903e+00 2.272564476591368621e+00 1.223363729529003407e+01
-4.318489173235865231e+00 1.343826327405212018e-02 1.191768522644503392e+01
-1.071873501877027346e+00 9.093048930746854275e-01 1.366038378140135379e+01
-8.060812751605915594e+00 3.803362826959942322e-01 1.312286655988159723e+01
-3.729906294272847589e+00 -2.205257336714135707e+00 1.378498026173832258e+01
-6.508084757241819673e+00 1.115067474934858249e-01 1.684621631589773116e+01
-5.766806152664452512e+00 -4.678543464173900546e+00 1.598967451611172308e+01
-6.183065849195770625e+00 6.804880416340346461e-01 1.688531749395928827e+01
-2.548148440972412221e+00 -2.623726959110018964e+00 1.366411863225532031e+01
-8.381458799992447695e+00 8.121339671368549284e-03 1.409956828475006674e+01
-3.812215479218383329e+00 3.294777554454223711e+00 1.530598027987500487e+01
-1.095729135421744438e+00 -2.855893322103177034e+00 1.582825651576633774e+01
-7.097767306648885555e-01 -3.778850058274639601e+00 1.452958472786131594e+01
-6.913987870322939600e-01 -3.552515404442455615e+00 1.476172117918046567e+01
-2.724274545438865491e+00 -4.402312356444544328e+00 1.468036525244052015e+01
-7.175809209505413122e+00 -4.094504086137548349e+00 1.615138868371569103e+01
-4.085201912368725097e+00 1.080406601851126469e+00 1.096626080226583255e+01
-2.739600784574906633e+00 -2.155531173767994524e+00 1.350564932993028933e+01
-1.159207817829153608e+00 -4.212902135413729710e+00 1.509933088409448843e+01
-2.726402282221153772e+00 -2.573310969819072813e+00 1.371308452372459286e+01
-8.064836624714336821e+00 8.958507503002561823e-01 1.393781570720097918e+01
-1.896632386939692161e+00 -1.539791241890334339e+00 1.263992996116860112e+01
-1.924361289219087112e+00 -2.810925944432225432e+00 1.340935514116020144e+01
-5.922184264592339709e+00 -8.656373915891052429e-03 1.227389771963597198e+01
-1.638784085826969328e+00 1.336603137507505812e+00 1.663146012878287294e+01
-7.523329146107132104e+00 2.412395362593611203e-01 1.257102115006336973e+01
-7.564448944965356247e+00 3.919742018714587606e-01 1.254051259215476577e+01
-8.053576824596344608e+00 7.574006731656421909e-01 1.555802227589724041e+01
-2.634803919734419519e+00 2.452759531651865554e+00 1.681140550906064490e+01
-4.968143689833228294e+00 -4.340019831564717379e+00 1.612891886736292335e+01
-1.369032851255433503e+00 8.026794413264568551e-01 1.252451266991940670e+01
-7.431261473901265013e-01 -1.975120710241648481e-02 1.589712012420148923e+01
-6.335249935795958187e+00 2.289744145727806046e+00 1.672354140933733291e+01
-4.415272296423005116e+00 3.142259105746083137e+00 1.681372878770789825e+01
-3.290687268749845185e+00 -7.202808801777660364e-02 1.183863828751981018e+01
-8.416682018577965607e+00 -1.886066555392671873e+00 1.416354217772848401e+01
-3.408060495061985051e+00 -2.639260638150418892e+00 1.644676597880518543e+01
-5.302570996604882847e-01 1.853950306373225443e-01 1.546663219163952974e+01
-6.193507974878788680e+00 2.446926179296453174e+00 1.673116148680609783e+01
-9.154687789844238033e-01 6.558645542391927652e-01 1.344153879585347156e+01
-2.695203184366653293e+00 -5.503082877146339147e-01 1.220984500825045060e+01
-2.255475360096723669e+00 1.357858751296623812e+00 1.203223728408007887e+01
-8.276142573665620006e+00 1.957299817480442905e-01 1.370384105607088188e+01
-3.543680572638847615e+00 -1.744510165198577489e+00 1.349626390060292991e+01
-4.093079935197365238e+00 9.908050101013726740e-02 1.178958421021351555e+01
-3.854755625737097624e+00 -9.011932866290464084e-01 1.283586590729924737e+01
-3.516340045208874443e+00 -1.031746000789447892e+00 1.288154557123619881e+01
-1.575322640684994724e+00 -3.392117353075005504e+00 1.587668352020464724e+01
-7.659893916708162109e+00 5.283827000055318912e-01 1.620459218371376053e+01
-6.840671291219861949e-01 6.662935517527743823e-01 1.424122449673762603e+01
-7.224193168647157215e+00 1.095478621895880966e+00 1.642371612600537034e+01
-1.364638155911884310e+00 6.046630605397347313e-01 1.208673894968704232e+01
-8.078247939931673116e-01 7.811615460201684069e-01 1.410458189505189708e+01
-4.903577867306726512e-01 -2.751575355279714419e+00 1.335556982307381801e+01
-8.288728852679945192e+00 -2.011447578953418969e+00 1.403488442468889374e+01
-1.147935809604999413e+00 -1.838272017586926266e+00 1.616420582270368911e+01
-2.478074738043643865e+00 2.679108387905011490e+00 1.480337267628262410e+01
-8.093933766810801345e+00 -1.650497611915844542e+00 1.616094040625920414e+01
-4.719481610807729766e+00 -2.851777599072315539e+00 1.414937210947065083e+01
-2.413971262374758897e+00 -4.675339339198387734e-01 1.671998358632503212e+01
-2.974047536768924527e+00 -7.071938677667086726e-01 1.679398273063245384e+01
-2.822866956622268830e+00 -1.043005631486231932e+00 1.670698670509574058e+01
-2.041841932749643984e+00 -6.679282303948734789e-01 1.661449062087197959e+01
-8.428098855479300155e+00 -1.313282819831014470e+00 1.395919404709686873e+01
-1.994841698124115936e+00 -8.349847329461710377e-01 1.657874805807174923e+01
-6.932993694813231578e+00 -8.932183810064853180e-01 1.680851176165448280e+01
-2.337069064776481131e+00 -4.234452448883881281e+00 1.448818508896858859e+01
-5.101232772051042197e+00 2.173218791820502815e+00 1.265553361140542066e+01
-4.431376884898699409e+00 3.439429915090179701e+00 1.585770301451911379e+01
-1.941125427924789815e+00 -3.590993129582239263e+00 1.396209965742026426e+01
-1.776349997151682292e+00 -4.051790333743650940e+00 1.428096943466344371e+01
-5.542516384325759660e+00 -3.315981565602170278e+00 1.651761180798229489e+01
-7.408839917929284979e+00 4.050611287724162346e-01 1.244109522407917368e+01
-4.491937106399152668e+00 -1.602654278373351060e-01 1.214791070428666941e+01
-3.357147629910434805e+00 -1.382381439740949514e+00 1.316806075385059316e+01
-4.724788555023322623e+00 -1.792951257478730520e+00 1.373424049171974914e+01
-3.997928510198627272e+00 -7.066241689890206956e-02 1.699012123941998809e+01
-1.429524482064926438e+00 2.125340117715670107e+00 1.632117054689134150e+01
-3.579464038533407333e+00 -4.756725045370746585e+00 1.512913022930682061e+01
-3.230221523166199926e+00 -3.199270909230992110e+00 1.624759700438210430e+01
-1.278368550410448723e+00 1.908349478352694195e+00 1.630069536992537493e+01
-3.115376251258345164e+00 9.236404056120499639e-01 1.106898313440050785e+01
-7.773592087910182968e+00 1.390365374706594270e+00 1.412922485517661286e+01
-1.096319856153120886e+00 -1.536443818986931609e+00 1.260747756943360898e+01
-1.294194573028841333e+00 -1.129094729147039677e+00 1.242412189438249825e+01
-1.087648455324187635e+00 -1.341116836065001205e+00 1.254122343048419097e+01
-5.319907056451513405e+00 -1.989148810948067947e+00 1.392487852345064780e+01
-3.691962708131563353e+00 7.033682369320843897e-01 1.123057958591006766e+01
-1.090878581981140183e+00 8.502063642044914715e-01 1.344764514080731388e+01
-2.422744637624206998e+00 1.560349644975094430e+00 1.693132292385647375e+01
-3.214708215712689832e+00 3.405248832804891879e-01 1.694200629757315468e+01
-2.548360079785908727e+00 -1.828977626728424566e+00 1.648660732836923515e+01
-3.792450989174631637e+00 -1.279191755565342259e+00 1.679841295939471379e+01
-7.164598300926276586e+00 -3.659809178803613339e+00 1.637689379566286973e+01
-6.520931389279250645e+00 -2.024462034608224492e+00 1.389228228219943517e+01
-4.139596685724143299e+00 -2.391533638153910513e+00 1.391001109677717906e+01
-2.110829103012207941e+00 -3.403794523392285054e+00 1.387283030287373364e+01
-4.778893406856139947e+00 -2.628457398910088116e+00 1.409439775147450646e+01
-3.337991176805147564e+00 -2.793801826726869386e+00 1.394789286114869853e+01
-1.659017159073968184e+00 5.272548563498600238e-01 1.166972696839633628e+01
-2.816820506766024135e+00 1.942044999398363725e+00 1.699783963915870899e+01
-4.408916619747683896e+00 9.246423823336065162e-01 1.702577498481205609e+01
-4.895427667204937272e+00 -3.004040303002728507e+00 1.421960979076800058e+01
-7.780049931963992194e+00 -2.487260042288986561e+00 1.641596444762223328e+01
-5.750536119594025664e+00 -3.262671116296089746e+00 1.440915190794385481e+01
-1.521226966690956584e+00 -2.433184652071175513e+00 1.308948848229156070e+01
-5.824947981960552745e+00 -2.139892354084000470e+00 1.681153621322910752e+01
-4.135920887400430956e+00 2.580516871442562366e+00 1.326889290063919091e+01
-2.231556770710297677e+00 1.691727147099131745e+00 1.687760529455112035e+01
-4.528751750319323754e+00 -1.798028667074812237e+00 1.370367180569722976e+01
-4.688606201829125242e-01 -2.966917883407074186e+00 1.457778480749326988e+01
-4.736489957669503426e+00 -3.421569471075892821e+00 1.432742457380028256e+01
-5.765318176692351138e+00 -3.782304491863002216e+00 1.459354206097702544e+01
-5.127394428293206019e+00 -3.591169381739222288e+00 1.443776261118687287e+01
-3.375251632614433728e+00 3.129957874211377611e+00 1.491178384110393651e+01
-2.555066897921118407e+00 -3.419325983207783803e+00 1.402641445190510083e+01
-3.518224291017866712e+00 -2.196933996256449806e+00 1.374794266138752974e+01
-4.761415672437812052e-01 -1.545542122446232014e+00 1.297328149754119764e+01
-8.267945934861025137e+00 -1.803270000890905278e+00 1.390150659171856162e+01
-4.379298376035068330e+00 -4.806526300541339225e+00 1.580462252370844922e+01
-1.561922796255914569e+00 6.014240544296698410e-01 1.652810583904478747e+01
-1.929403213031377184e+00 -4.471158111277873104e+00 1.462464528094067262e+01
-6.134494652088831934e+00 -3.568075959010575282e+00 1.452681233490806889e+01
-3.071145818071125966e+00 2.135477108692748871e+00 1.700693313104335758e+01
-6.527552901375694994e+00 -3.612614839110439569e+00 1.458626252810092794e+01
-1.326419886736370124e+00 -4.151031001605102411e+00 1.431762514469894754e+01
-4.605705287087349387e-01 1.142111469218433650e-01 1.478160494240777112e+01
-5.794908188983949771e+00 8.947788409901742401e-01 1.695479398336392407e+01
-6.356559896611979177e+00 -3.437015263439074264e+00 1.449588466076220428e+01
-8.094928808875647697e-01 -1.044512074535493218e+00 1.602032399595066536e+01
-5.919621958857280930e+00 -3.575269589938853354e+00 1.451281871890539676e+01
-4.955710150242112810e+00 -2.138528266969835112e+00 1.395346665528782992e+01
-2.357247376649769688e+00 3.013611784211541078e+00 1.589292800863099231e+01
-1.745916717385941119e+00 2.400462056022272694e+00 1.571357063986818403e+01
-7.080441928220685632e+00 -6.036886404914260096e-01 1.282825463368113006e+01
-2.500320788283380669e+00 -3.187425436800910727e+00 1.390708290878705000e+01
-4.885100906213836858e+00 2.615005549993540956e-01 1.176165996931190350e+01
-2.712166701316998552e+00 1.888202964384736671e+00 1.265010291069937054e+01
-2.307527023192202709e+00 -3.399690957711074546e+00 1.393868082754059756e+01
-4.304143895805823128e+00 -3.809089809801139204e+00 1.446972652933652981e+01
-4.649918914421214744e+00 2.157373941786108862e+00 1.229772913124861233e+01
-4.992122246899368676e+00 3.383211922310770170e+00 1.587191575406736987e+01
-4.245430912118305145e+00 1.109904321561050011e+00 1.705157972500653685e+01
-3.162615870871176238e+00 -4.465924581737538368e+00 1.479768557260402773e+01
-7.017680451478280013e+00 -4.876869324426268415e-01 1.275301034833573866e+01
-5.082330614531049839e+00 -2.605499420810174271e+00 1.414852035843483335e+01
-2.622837586256210329e+00 2.710157493176243548e+00 1.673531896437360800e+01
-7.747556438386524746e+00 -2.777521714983754109e+00 1.427852464223147066e+01
-7.640935701755021014e+00 -1.359588050334315401e+00 1.332727695533673895e+01
-3.279354250334792997e+00 1.728464045254130665e+00 1.142736689531021099e+01
-4.183035532529110867e+00 -4.676821304056017148e+00 1.585185225222942407e+01
-7.915478028432771040e+00 -1.265695219879880096e+00 1.339450548750176395e+01
-7.357049240672725254e+00 -4.020023393378231447e+00 1.498298456583972538e+01
-7.156331650198290539e+00 -4.399591426027884999e+00 1.522571953787246812e+01
-5.452194775683699923e+00 1.772131792544323403e+00 1.187673241660310808e+01
-7.581264161193974616e+00 -4.096761428990300047e+00 1.518101122815545878e+01
-4.775980692485242152e+00 -4.822455792182191558e+00 1.581149723420355357e+01
-3.732649747222870573e+00 2.127261219530588665e+00 1.186002640257532548e+01
-1.464605351144435463e+00 -1.288675447192707546e+00 1.248126103243873430e+01
-1.646235420160551133e+00 -8.663971533871821507e-01 1.228104743334063542e+01
-1.733450596866143112e+00 -1.357876784734201037e+00 1.253008199204949946e+01
-4.426285347188691155e+00 -4.563489808423465632e+00 1.595993255049335957e+01
-3.279024240698451109e+00 1.580157288440316110e+00 1.085281502118958841e+01
-4.382021723327127916e+00 2.516990925323664197e+00 1.320359391207638211e+01
-6.149832912786534322e+00 -1.039339826898858732e+00 1.325641862623176692e+01
-2.704939114391913257e+00 -1.945056962524571498e+00 1.335636771133669853e+01
-9.845280321325238226e-01 -2.059353426284906696e+00 1.603113188452421056e+01
-6.619623923440481228e+00 3.796755683152039373e-01 1.678896791740347894e+01
-2.237247748265217773e+00 7.518789949141901907e-01 1.677744896336485070e+01
-8.134835149003791344e+00 -1.966547427068512821e+00 1.387963955960445261e+01
-8.481671417583681816e+00 -8.952610187252081353e-01 1.504616979543016342e+01
-2.949966070261464512e+00 -1.781669410584207025e+00 1.335426014503862646e+01
-8.061679368607949314e+00 -1.401282825478741501e+00 1.354147173200917464e+01
-8.475386284342446785e+00 -1.805205374308049393e+00 1.426905688903796587e+01
-3.885974115036423537e-01 -3.898910200519421498e-01 1.385052593310357949e+01
-4.781407624792553435e+00 -1.690057133135387968e+00 1.677374464907520135e+01
-4.608317833692218812e+00 1.697728188797581472e+00 1.707055796060665998e+01
-4.233217934426971141e+00 1.305392930665320916e+00 1.707164030477963834e+01
-7.968899525350190416e+00 -1.631205715169887105e+00 1.360582544708865171e+01
-6.382331848135893715e+00 2.653266220355373406e+00 1.657004868778085083e+01
-2.505381333737153771e+00 -3.227910381750700997e-01 1.197679572896839417e+01
-7.204863742282390238e-01 -2.030594984319291640e+00 1.578775280709042406e+01
-4.158110390905726206e+00 -4.281949633865417937e+00 1.477155054714412685e+01
-6.162538308324706726e+00 3.069725479974751536e+00 1.641832421312253487e+01
-6.995235285331021124e+00 1.316049100225447077e+00 1.652877450301630446e+01
-6.616966727945237992e+00 1.241118172097011474e+00 1.204740693797366546e+01
-5.312278838089501409e-01 -9.531546028066673060e-01 1.281321847313833828e+01
-8.087976881455828604e+00 -2.356476026033407667e+00 1.410854894084168976e+01
-4.330612836868296789e+00 -4.448164992136416807e+00 1.601577193990667425e+01
-4.218089090523393203e+00 -1.901074916785792102e+00 1.669648030782839854e+01
-2.051234715794795216e-01 -7.481123349608511663e-01 1.349926567482969730e+01
-7.757103975645071259e+00 6.144370565707666376e-01 1.266246332372339012e+01
-7.952818003813581171e+00 -1.077887435147764500e-01 1.621732236733096855e+01
-2.116855002116609263e+00 -4.123396484081891522e+00 1.437515104871380700e+01
-1.710051713822052122e+00 8.811363123902475891e-01 1.185351935467445728e+01
-5.763612363343161071e+00 -3.410874391180505061e+00 1.444947394691577003e+01
-7.319684983489132435e+00 6.528673161811122672e-01 1.231069150529298284e+01
-1.108897006789457018e+00 1.651965335692533454e+00 1.566987714974754553e+01
-7.318007867245883702e+00 -2.160673906620231566e-01 1.268098186557731921e+01
-7.496545749010110171e+00 -2.040856178413751054e-01 1.274815345861119553e+01
-6.980368962810008959e+00 1.471571130717684195e+00 1.651662379064951480e+01
-6.811167967854648175e+00 1.521374326347106676e+00 1.660940703833699317e+01
-5.927186187638793236e+00 -3.980797705875033898e+00 1.471573020249332231e+01
-2.015130431947588452e+00 7.284703843353779185e-01 1.671223902228440394e+01
-1.144900132411229343e+00 -2.706638148682528389e+00 1.323773089467085029e+01
-5.766951784739498876e+00 -1.395482515557930236e+00 1.355095570412785477e+01
-6.336643533906000769e+00 2.852697417114997691e+00 1.564823876756522125e+01
-7.281916442502252451e+00 -3.834721037458248549e-01 1.275217545297713073e+01
-2.216826923943847394e+00 2.155135957095817290e+00 1.677318502426933478e+01
-5.961360721042742838e+00 -4.946949281751402694e+00 1.557089248526672876e+01
-7.470325950855946751e+00 -1.729061019504142260e+00 1.349735297941453283e+01
-6.144720568256282434e+00 2.080483044960881323e+00 1.339200109333613042e+01
-2.006880020883849536e+00 2.157652321432377285e+00 1.669486450879729134e+01
-2.402494794694655766e+00 1.109574214196388020e+00 1.686520416520087551e+01
-5.019604954015081333e+00 -1.484592445575173336e+00 1.682763560311622442e+01
-5.326769849373693688e+00 2.090111669277515460e+00 1.263348525944897105e+01
-2.208930314212452561e+00 1.333985897838889212e+00 1.684418676320662556e+01
-7.014916164007892085e+00 1.914135709100167837e+00 1.637146618093270334e+01
-1.688056288718144060e+00 1.113498832055825005e+00 1.247703420189350609e+01
-6.628998212998489237e-01 -3.414534474823702759e+00 1.482306879054710080e+01
-1.010454727299286093e+00 -1.653055730813297375e+00 1.612651040017727766e+01
-4.660681179384116302e-01 5.992612568009387797e-01 1.513958808230648501e+01
-4.911117714259709111e+00 -3.507778477630176805e+00 1.437675661080188050e+01
-5.966289343530102318e-01 9.503261529126101337e-01 1.533976830334418295e+01
-8.445705282362434119e+00 -1.680181285943535663e+00 1.414139189480427561e+01
-7.709676855398129192e+00 2.354007547074959961e-01 1.270412612681149156e+01
-7.466243446008535400e+00 6.392606467409305271e-01 1.240592585531574699e+01
-7.754257366671557961e+00 -1.413433044686326134e+00 1.339792016785390771e+01
-1.491901030267295925e+00 -1.757183211084760499e+00 1.270321103131635354e+01
-1.291384062899024299e+00 1.874038081356141028e+00 1.560627778868142101e+01
-4.879763633970480852e-01 3.722332128517553129e-01 1.531563184538225286e+01
-8.034352976137286717e+00 -2.945583664831485482e+00 1.609617829143915557e+01
-7.953229801672302202e+00 6.265161728269330599e-01 1.290337664549366181e+01
-8.259234304507691249e+00 4.247326150170838699e-01 1.465350630950501554e+01
-1.667813397096700179e+00 -7.971645965753706986e-02 1.189182476882515616e+01
-7.533495681832700797e+00 -3.178069436712150697e+00 1.448687378965206207e+01
-1.096137110856704622e+00 -4.011652352685838530e+00 1.516821384983991905e+01
-4.133770754500061706e+00 -3.438274148937913832e+00 1.427040721307198012e+01
-2.494122202667252264e+00 -8.045128563604391214e-01 1.238663149018448095e+01
-3.128574815204422599e+00 2.425573181503050346e+00 1.327391876967265105e+01
-6.242945874935155182e+00 2.832468501921041160e+00 1.536604934115243637e+01
-2.291677576554657758e+00 -1.309180357937521189e+00 1.265272104970772560e+01
-2.323294588910279401e+00 -1.535265746738515791e+00 1.279877368829324880e+01
-5.603088340632591979e+00 -1.016159318297428893e+00 1.322614283076103092e+01
-5.930076299634092329e+00 -4.221734282973818253e+00 1.485694510398540658e+01
-7.564079645086360770e+00 5.144396138542370878e-01 1.629704804334619794e+01
-6.326548358293025309e+00 1.780919876401059199e+00 1.280759470586189153e+01
-5.013766543950699983e+00 1.909612777299122932e+00 1.702354055376108377e+01
-2.517370853605530812e+00 -1.230034776562112686e+00 1.271058020627519980e+01
-3.826446690868932521e+00 -5.858312675915774981e-02 1.698668278732938930e+01
-7.507910983521830062e+00 -2.573792127873707258e+00 1.411988168690320222e+01
-2.147853675767617876e+00 -1.193775153508482623e+00 1.254002796838255662e+01
-8.433692891057396057e-01 -3.228242371513820874e+00 1.532846064814037490e+01
-2.723074775922548429e+00 -3.506480843164809791e-01 1.202969372876666299e+01
-7.848185635213319244e+00 -2.775160647986509854e+00 1.430022704529918443e+01
-3.609922620810174010e+00 2.122231191331696021e+00 1.706608129676278551e+01
-2.319982493677033020e+00 -1.120949781932760292e+00 1.255378089973649125e+01
-6.938175181287582483e+00 -1.821350100313649856e+00 1.360998807877117756e+01
-6.941129943945820280e+00 -3.857588946529504792e+00 1.635560705509591273e+01
-6.435084410165465840e+00 1.509422369910487172e+00 1.679038763883324847e+01
-2.819082630839301995e+00 -2.579260996357610747e-01 1.682041756361715201e+01
