-8.415465485301172777e+00 -2.450946393379407340e+00 1.714088177238324917e+01
-3.316715566406162718e+00 3.065752868233636796e+00 1.763687119708405859e+01
-3.385571010016802607e+00 1.357066895227192482e+00 1.030693417549285229e+01
-7.935081088145944150e+00 3.231249366372691778e+00 1.489953287558060069e+01
-4.066540521042205647e+00 3.000137356986519954e+00 1.758985934697694731e+01
-8.506739555249602347e+00 1.179958234210422674e+00 1.527257676412999743e+01
-3.206793867623789485e+00 1.724932334098815412e-01 1.233487151891689493e+01
-2.777025691127056106e+00 1.129445551804724168e+00 1.084395854038201534e+01
-7.797017282867834131e-01 -4.825018862980473777e+00 1.696654933178901459e+01
-5.528833197678285849e+00 -4.130772749312318637e-01 1.342085995320002567e+01
-8.319913197347467815e+00 1.867897580487950737e+00 1.486166740546238785e+01
-3.175472164798018859e+00 -5.230584836365143708e+00 1.734168528355926853e+01
-6.083031781586496045e+00 5.248537599969026246e+00 1.478615973787530535e+01
-7.978139308496201565e+00 -8.927919355016687986e-01 1.731780660433433994e+01
-2.372732357074676557e+00 -4.457934158692882676e+00 1.780500825870252513e+01
-8.181044475571351171e+00 -2.339598906564676728e+00 1.384566088810648310e+01
-3.817997727293045429e+00 5.764187006581408257e-01 1.127499501942096671e+01
-3.604365810788211721e+00 3.335973840544526614e-01 1.186863359757388636e+01
-2.200524171410877194e+00 -4.232755889558673879e+00 1.785429432380272274e+01
-8.226990747999638032e+00 -4.567059096562423370e+00 1.598692646039107856e+01
-9.876641829273637985e-01 -6.239789507205580898e-01 1.792672349971882895e+01
-2.575188013955361566e+00 -4.898276958047280694e+00 1.765397999280549968e+01
-8.405262944103103706e+00 -3.874937256734169111e+00 1.528891354792520829e+01
-7.213730441109849068e+00 -5.111048789230010492e+00 1.675828609299132310e+01
-6.915682079632984980e+00 -1.839108159811727372e+00 1.395274460012104711e+01
-4.195073931577435467e+00 -3.644511123358569638e+00 1.608518909160432386e+01
-2.643208033384137234e+00 -3.231996639937035898e+00 1.807708868562921722e+01
-3.895316215876091448e+00 5.153491716533783240e+00 1.691315195081799416e+01
-4.200873128836165371e+00 -2.183037943701043204e+00 1.558197003441135209e+01
-6.186295825401876058e+00 -5.301977720138672190e+00 1.667977973918400991e+01
-4.981773318646609994e+00 -5.222330323830843390e+00 1.747258567346175440e+01
-6.238028141678173100e+00 -4.293263100816494315e+00 1.761810715156363827e+01
-6.052591445981261309e+00 -4.526759125832411357e-01 1.286613178103914024e+01
-7.704364372526720572e+00 1.888419955931811334e+00 1.302973862573973562e+01
-2.050856034169796782e+00 2.575612995930042892e+00 1.769329257936756150e+01
-5.923972037003034430e+00 -4.636136974926181153e+00 1.606819211700966932e+01
-2.797674966749923886e+00 -5.051913043111466273e+00 1.752394002122802519e+01
-3.773034431894406904e+00 -4.790189565650874393e+00 1.777200035404417022e+01
-8.620310502270150721e+00 -2.808503594740985321e+00 1.436745856263446441e+01
-5.826761230023913107e+00 -2.663289474707025928e+00 1.794753361607589071e+01
-1.940491524362538023e+00 -2.315362011844580792e+00 1.529870813155308085e+01
-1.158310348361697217e+00 1.919501017677314181e+00 1.609359597610439252e+01
-4.806074818478674793e+00 3.089603799069220447e-01 1.226815387842242799e+01
-3.563463593788738226e+00 -4.131411516724154964e-01 1.338101616171791974e+01
-6.364601500150123492e+00 -3.998642002764754011e+00 1.579158547662542489e+01
-8.800141638796166177e-01 -1.990200684728865799e+00 1.798438525714278668e+01
-4.194004244290082895e+00 -5.243165224320114781e+00 1.694999412604127187e+01
-8.369719102122447296e+00 1.789561112175149127e+00 1.568739653005567547e+01
-4.829445211392430437e+00 3.455928089704032313e+00 1.232879750538651464e+01
-8.458472820266644376e+00 -5.573346087170784058e-01 1.379600452015209200e+01
-7.916622729198202535e+00 2.602402128091463318e+00 1.629190966002561325e+01
-7.836399251625256746e+00 8.359256735956106521e-01 1.285564152472504063e+01
-7.163922170657049726e+00 -5.160253647963178203e+00 1.653026088191812804e+01
-7.865836910560073392e+00 7.712536841096780948e-01 1.705297906493869320e+01
-3.787718701310034408e+00 -1.953017100554229390e+00 1.548397060447389961e+01
-6.991017455619192411e+00 -5.206344365177073108e+00 1.671755558252469243e+01
-7.815961265763148091e+00 -3.804748872522763392e+00 1.538532272837748494e+01
-5.828364674832527292e+00 -9.695463790801337467e-01 1.791522009039112007e+01
-3.206943064247667063e+00 -1.823357550197945098e+00 1.820729701936464906e+01
-6.641338164414709588e-01 -1.954929670480263670e+00 1.487490386894983274e+01
-2.825374662603976184e+00 -3.968457300107179342e-01 1.389435372601522900e+01
-9.177748777755476706e-01 1.396692329215235340e+00 1.656935609002398380e+01
-6.828790491304933541e-01 -3.965204510288895978e+00 1.752585854543132271e+01
-1.538754041811945195e+00 2.599072248335500657e+00 1.596696074110736774e+01
-1.462317375323553881e+00 1.582451417868281140e+00 1.769013728859946966e+01
-5.385113353714367612e+00 -1.428546552701963623e+00 1.499497022398302093e+01
-2.826627782197534966e+00 1.347727401787599089e+00 1.071877872930487641e+01
-5.374551247991442793e+00 -1.771969123055533224e+00 1.520417820465008774e+01
-8.029750049640558274e+00 2.969789832087191606e+00 1.553440964637960420e+01
-3.403778840892156321e+00 -4.628644592652076284e+00 1.782090340719813426e+01
-8.894361563779659363e+00 -8.390028845153438830e-01 1.580884989968179255e+01
-5.229961671899131304e+00 -2.851976095632632546e+00 1.805995751192311261e+01
-4.393279996008543797e+00 -4.665843685526537499e+00 1.778099567161931915e+01
-3.447679831164162767e+00 1.579033913184530125e+00 1.796556594777521454e+01
-7.197059605341660671e+00 -4.678259258179914504e+00 1.714783963881356144e+01
-1.853532391193459361e+00 3.027174966649167853e+00 1.576363832103625739e+01
-1.645210127446979032e+00 2.779666054585929302e+00 1.734088993623246111e+01
-3.704550879698652599e-01 -2.727710131435857388e+00 1.562029023681459350e+01
-5.860168742685093690e+00 -5.113339742067501525e+00 1.647205278776148063e+01
-8.223767709144549798e+00 2.175402961155060044e+00 1.591556802580616292e+01
-7.579584850484951453e+00 2.229777925599769173e+00 1.310189242491474104e+01
-7.687813689844633647e-01 2.760546882326037066e-01 1.428688543308436820e+01
-3.288458854526000175e-01 -2.742855999957674040e+00 1.601051626090428570e+01
-5.757976812714963089e+00 -3.981173109791171227e-01 1.304909659848868486e+01
-1.849863719158563846e+00 3.617262800433621583e-01 1.811140382089443435e+01
-1.208610606111283792e+00 1.221187624069577371e+00 1.756146746402218284e+01
-6.181682073377358089e-01 -2.193712089758616202e+00 1.765334865736479841e+01
-7.093019686609963514e+00 3.176916408655180657e+00 1.673146421682670493e+01
-4.840603135461696738e+00 -2.317226926754739347e-01 1.796550467073943125e+01
-4.950066426013832732e+00 -4.431662983024937219e+00 1.618472376747807218e+01
-7.678433716380498320e-01 -3.210246774400982162e+00 1.778295022122574309e+01
-1.024544109039907225e+00 -4.593964465524987162e+00 1.751456864176280348e+01
-4.769528609356600946e+00 -4.049230863427950133e+00 1.795222924851706736e+01
-7.244153106549321208e+00 3.545708882236651149e-01 1.742786080907104562e+01
-7.842900265109109981e+00 9.401809603520719927e-01 1.703355327076711845e+01
-3.508033217305192686e+00 4.175036547727414060e+00 1.465055322434283269e+01
-1.407764081054748706e+00 -1.182540380024048154e+00 1.418929892346954702e+01
-8.806929278141744533e+00 -4.315738034048930416e-01 1.522670883790479124e+01
-1.989843867966371693e+00 -4.749593789429026991e+00 1.768901375005887999e+01
-3.039248729548179040e-01 -1.740402504958025176e+00 1.545859107301709301e+01
-5.666321330030836378e+00 2.372182416115304449e+00 1.746995198378413860e+01
-2.416366793218032161e+00 -4.811675501460713988e+00 1.770107058780233089e+01
-2.422714147554091646e+00 3.665797134692159620e+00 1.555599654800154852e+01
-6.591993377814654664e+00 -2.637738843007925382e+00 1.778030057656586038e+01
-8.444049334723967348e+00 -2.656290006574231644e+00 1.710605959620417238e+01
-6.822107186689432723e+00 5.500879120347778262e+00 1.567750565394633711e+01
-4.619494838107116585e+00 -1.981679307331016826e+00 1.547085508689143651e+01
-8.816281938448261357e+00 -1.214331900414169052e+00 1.461119056850081321e+01
-7.836514746271109333e-01 -2.811412907114413162e+00 1.785387116114022987e+01
-5.997000983354665138e+00 -3.687959319815975689e+00 1.780041620491758536e+01
-1.520755161268724898e+00 2.803346826854498097e+00 1.716213850851201173e+01
-7.195886786139839231e+00 -7.506346803506647181e-01 1.281796815615347285e+01
-3.465880365265132657e+00 1.970879309299296445e+00 1.793066518085924699e+01
-5.264770437631773881e+00 4.465232397895990246e+00 1.374742073787113483e+01
-3.682691845824237920e+00 2.196189598416900424e+00 1.785823638335230967e+01
-8.347099817782586140e-01 6.256229844287697350e-01 1.710958338362985742e+01
-7.041518362685417642e+00 4.402536165591721229e+00 1.622135314432238928e+01
-4.132053738369358964e-01 -1.594153137711832091e+00 1.704989805381425683e+01
-3.843305444840927176e+00 -4.098591768841053917e-01 1.342423656459777348e+01
-3.800613907519338142e+00 -3.294327625358509870e+00 1.808338894856845158e+01
-8.057784933509950509e-01 -2.681560654099968577e+00 1.511256451205884233e+01
-6.552862960267634485e+00 -1.405695485245880949e+00 1.403360580527172985e+01
-2.139855608928327158e+00 3.756351449372638207e+00 1.657679103087250283e+01
-1.166549055068615504e+00 -3.274610876182069585e+00 1.550192968015580064e+01
-3.423597303649696943e+00 1.619879718531773150e-01 1.229114050694564853e+01
-8.589219641862195331e+00 -4.065320373376042795e+00 1.552295966606932254e+01
-5.807958503251302140e+00 -4.052187501041551343e+00 1.778441905283514402e+01
-1.940981381707664877e+00 3.534710830861590214e+00 1.699503521168115938e+01
-3.609062170995247509e+00 6.282870635154604033e-02 1.243037984420928765e+01
-8.486408872425323935e+00 1.192224386031253136e+00 1.506128894544148622e+01
-8.173290781512447367e+00 -3.463979704006180160e+00 1.716439029711613884e+01
-8.253576681847974328e+00 -3.093760832486458945e+00 1.720080772538755198e+01
-2.265075730258993669e+00 2.034143677420994223e+00 1.296534430054071763e+01
-8.382432662592405492e+00 1.753414617420365307e+00 1.550488015185328905e+01
-3.678491588581625393e+00 5.004184465514990521e+00 1.697707365537569402e+01
-7.956349608348496361e+00 -3.469174234982976834e+00 1.727394291271516025e+01
-3.219110184684601972e+00 -6.771488722214420442e-01 1.444585713274141270e+01
-8.414530655489469879e+00 -8.697051698103875905e-01 1.699771608790584665e+01
-2.071866126376688211e+00 1.175797443627869754e+00 1.802400898580104283e+01
-4.810195793794334485e+00 -3.814643197451632606e+00 1.604640823171819974e+01
-5.950410598343382595e+00 1.672795640255496652e-01 1.210827238623165769e+01
-8.582682453754935992e+00 -3.966878753838853466e+00 1.539849564025732676e+01
-2.463082403234546636e+00 -6.324017558953959339e-01 1.822784184624343240e+01
-5.976079810419474114e+00 4.408475158962592566e-01 1.181717070502869760e+01
-5.809405637290709024e+00 -3.147223740742219444e+00 1.567455201661420361e+01
-5.266549858535007900e+00 5.941318089125149804e+00 1.617760891219849029e+01
-6.026717933138079353e+00 5.354206017972321652e-01 1.170541222963398909e+01
-7.209969690240478180e+00 7.426938722725671127e-01 1.738678649170624979e+01
-2.342782436651253519e+00 1.786412464591094817e+00 1.224528172646060753e+01
-3.044500368374841948e+00 1.975456428935385311e+00 1.797155787036814090e+01
-4.716951806618111531e-01 -5.797942084302876165e-01 1.685752028294281857e+01
-4.598276528333158808e+00 7.960987100062144606e-01 1.094623870963764389e+01
-6.277919102508229265e+00 5.614583698859328287e+00 1.602641228387954797e+01
-4.418638604343860798e+00 7.039271257088565159e-01 1.109369334403087137e+01
-6.336467929878497607e+00 -1.026927379633401749e+00 1.377009394148830168e+01
-5.968653571748850695e+00 2.675323766371564549e+00 1.135482035548475110e+01
-5.014478571451132183e+00 -2.960771272826831502e-01 1.390425353963700061e+01
-3.527812023154173748e-01 -2.018086582073129964e+00 1.664589544752677241e+01
-2.281614758301564905e+00 3.578257382757549454e+00 1.731750464276019486e+01
-6.491971325982317076e+00 5.591365133082855543e+00 1.520653265466222948e+01
-2.651701957423730605e+00 4.182292870217657388e+00 1.717797777878374532e+01
-7.528548933589065406e+00 3.238719012825951982e+00 1.635796997894042804e+01
-5.216101170325918801e+00 1.608843238169819667e+00 1.016302076771272667e+01
-1.178018069354040298e+00 1.043748117850367585e+00 1.759321249734069070e+01
-3.155415361346816105e+00 -5.992005478129479590e-01 1.437419525778758711e+01
-4.178391402199538973e+00 -3.843934616822525241e-01 1.386249343882922958e+01
-7.801555495988147015e+00 -3.824864742485680202e-01 1.298398744641157876e+01
-7.357409137727189297e+00 -2.631588997703059096e+00 1.432610949893313901e+01
-1.659926320880063644e+00 2.266253023344594553e+00 1.473726204123357419e+01
-4.467704022592816848e+00 1.335470810931397967e+00 1.782159338373052648e+01
-4.563162955100188434e+00 -5.170351058005949518e+00 1.676425958525849680e+01
-8.009969970129912076e-01 -4.732540822241622536e+00 1.682054900908643091e+01
-8.807839703680572896e+00 -8.556945724637496919e-01 1.639051749433962968e+01
-6.409638003983018084e-01 -1.387031406423100854e+00 1.765735573182641716e+01
-5.601438401996925442e+00 -1.401262143386043935e+00 1.484975366586755641e+01
-8.045468555802525401e+00 -4.687771342592087498e-01 1.719782779839252029e+01
-6.654336895193198487e+00 -3.062272581999086807e+00 1.771979945133979228e+01
-1.605407890826398676e+00 -4.746974844311178110e+00 1.660880023235948855e+01
-3.632822306042727600e+00 -2.643178641845964627e+00 1.816069509428114159e+01
-5.212085669385512432e+00 -5.201012665718847572e+00 1.671008642497404040e+01
-6.181652143822770062e-01 -1.607334196671359017e+00 1.763727907827879093e+01
-5.582346474228176092e+00 -4.830645264104770575e+00 1.626726526438126186e+01
-5.912155659019373566e-01 -1.230126844958489674e+00 1.750488158718411213e+01
-2.627878545770035768e+00 -3.659010097877225753e+00 1.799858378710137785e+01
-7.024495246563293271e+00 4.952630594273800924e+00 1.462267973164989954e+01
-2.334176533337401160e+00 3.714701908419959508e+00 1.727837871464801012e+01
-7.727266415232839414e+00 7.092907600120303968e-01 1.272759122226247186e+01
-5.837179152425332695e+00 2.519268405237946595e+00 1.109717998224278190e+01
-2.438001474216211051e+00 -1.397890355297667142e+00 1.499891953544389267e+01
-1.583023074605861114e+00 1.108958963648077223e+00 1.290522691494748031e+01
-2.235775256842405856e+00 -1.576076517221687734e+00 1.501284542490032337e+01
-4.218652751210409946e+00 -3.177954252314397543e+00 1.809750912566873993e+01
-8.432535778672475502e+00 1.191209129638110653e+00 1.467553020919593010e+01
-7.314128345217619120e+00 -4.600552046299981046e-01 1.752456265479836972e+01
-5.225236555162100949e+00 -2.741321714455936753e+00 1.566739200167197410e+01
-7.529229372901106387e+00 -4.111841213158513142e+00 1.564335676220610694e+01
-4.452936011225387070e+00 3.163169413430082511e+00 1.748621993567551058e+01
-4.072830093814154395e+00 2.232401044328307382e-01 1.796491501162413940e+01
-5.027344089078902734e+00 2.092485961117068971e+00 1.030685745485546434e+01
-7.942579404691395339e+00 -4.791382813150760533e+00 1.663000641530692647e+01
-4.839117994039200177e+00 2.192906594987714453e+00 1.768271324614293505e+01
-6.581745708921329374e+00 3.790695434437641786e+00 1.301712744143756240e+01
-7.847652269870297737e-01 -1.146150424065741635e+00 1.447794792947093256e+01
-6.047481359873621010e+00 4.656437162764185622e+00 1.397692277104645697e+01
-2.183397046830350519e+00 -2.943550326067478906e+00 1.587037294290440670e+01
-7.601556736936482039e+00 -4.264028524422902144e+00 1.573542352672995648e+01
-4.655033764642717564e+00 4.141665441419354110e+00 1.719726132813741160e+01
-4.939451723067145750e+00 5.027875182352033789e+00 1.679695560873645022e+01
-6.209389388690031986e+00 -4.654749091118178583e+00 1.751512738506180611e+01
-4.299110614487851034e-01 -3.607814565324221068e-01 1.649613940097402676e+01
-6.670864161505302370e+00 3.372584779682794132e+00 1.685660042700864025e+01
-1.339194811038664890e+00 7.543592993849213002e-01 1.323998385496936336e+01
-2.852857558517371661e+00 -8.505678529725566595e-01 1.821300713752073719e+01
-6.686390564414836923e+00 1.014174771589822832e+00 1.157467444515605237e+01
-1.619213336386416291e+00 2.979614957567585876e+00 1.654357200866713740e+01
-2.258728550155251646e+00 3.237606170723724031e+00 1.514774266395772528e+01
-5.838465199304929243e+00 1.478444001430515797e+00 1.061007328191321974e+01
-3.469647949596149417e+00 -8.311678163478702919e-01 1.816163727097417890e+01
-6.011679187182658701e+00 -3.596821401727647860e+00 1.577313389804782062e+01
-7.881929185229676449e+00 2.620390545878317656e+00 1.411729632896659936e+01
-7.103561132274033518e+00 4.978576204195410249e+00 1.575083733270157538e+01
-4.298858583117492138e+00 4.189720060011717706e+00 1.723001764486999221e+01
-3.190422973756903424e+00 -4.583799375757982908e+00 1.643854628114847927e+01
-8.191828230932687305e+00 2.202152920574818484e+00 1.468639585680091031e+01
-5.593727716666012206e+00 1.344373711234197799e+00 1.054326631362592437e+01
-8.600037285923056274e+00 -1.866727712078801282e+00 1.695282168808933321e+01
-9.366654615106879689e-01 7.495814951822614702e-01 1.464470588515993299e+01
-8.410795342677502617e+00 -2.076561003188069687e+00 1.715055687388087691e+01
-6.905885346654397239e+00 1.520682976997550728e+00 1.178945929854977592e+01
-1.022296337678437084e+00 -1.611279432797338096e+00 1.809082022675159962e+01
-3.474742573959644254e+00 4.817236117805479445e+00 1.704661293758030283e+01
-4.116906840741815898e+00 4.180815627194658823e+00 1.402015479850813406e+01
-8.467777091689937308e+00 -3.872587784583706227e+00 1.680915469109215010e+01
-1.694642209188319093e+00 1.119806871331253895e+00 1.255698362410690905e+01
-4.357685525535407223e+00 -5.961740937009836483e-02 1.305907529908086318e+01
-2.877126842622578451e+00 3.411101318526539306e+00 1.751116368913807619e+01
-8.765051684045621627e+00 -2.050805132373185291e+00 1.673186899148520368e+01
-8.841088391115115019e-01 -1.455174888718981097e-01 1.404776721092237679e+01
-7.174056925839301435e+00 1.071551441594971177e+00 1.211538873366516000e+01
-7.909473580573319396e+00 2.271580747020412350e+00 1.383989916746206816e+01
-3.912641600215273741e+00 3.587407431331121721e+00 1.318909996108084570e+01
-8.611707943852740854e+00 2.077565477865571386e-01 1.465376504501184840e+01
-5.615244828677890432e+00 -2.390706652506751073e+00 1.541762809394943545e+01
-8.931096419764996241e+00 -2.247322265329147584e+00 1.631928924278883031e+01
-7.644528454042012200e+00 4.212503311312613796e+00 1.492937720565245385e+01
-8.036121232890314658e+00 -1.465079175699456560e+00 1.736314418462248099e+01
-3.651049156684400554e+00 2.285129580230507607e+00 1.117170799352764377e+01
-2.251366277363048951e+00 5.735123064097996659e-01 1.215547604737099974e+01
-2.053279347655656561e+00 7.391825103558713472e-01 1.212724378359054711e+01
-5.051644330358240786e+00 -2.570071212133778760e-01 1.370547866270274184e+01
-7.124192297604185597e+00 -2.032200620485675735e+00 1.769537557992305565e+01
-4.704126980345278319e+00 5.536709061313238145e+00 1.579472013847526668e+01
-1.432360394796293734e+00 8.209756805158799353e-02 1.329216588983591762e+01
-2.575493243131629306e+00 4.342448021922636237e+00 1.658653503826424114e+01
-7.008363332815532587e+00 -1.685581557179643308e+00 1.772680316247099697e+01
-5.383859511803268383e+00 -3.805008378021996762e+00 1.596144833797953666e+01
-4.496060226665693271e+00 4.763149337621019441e+00 1.464279452943651094e+01
-5.441738279485694996e-01 2.929586785212503486e-01 1.571601190031972450e+01
-5.434242123253673284e+00 -1.816741404152964201e-01 1.286537075289365006e+01
-3.184967632152014616e+00 -4.456839102966644539e+00 1.785596017864708429e+01
-3.014552160797312030e+00 1.752394387943344789e+00 1.110612904555992841e+01
-3.478336076255882148e+00 2.947883169501846812e+00 1.767012745358526260e+01
-4.564449114282512099e+00 4.158851348168449036e+00 1.348281362597477440e+01
-3.210336422392809919e+00 1.580776865230277828e+00 1.046729443107880897e+01
-4.628071416257059312e+00 -2.452845583572274890e+00 1.814272511871044102e+01
-8.895483519331479627e+00 -3.525333393698709905e+00 1.533681620809523238e+01
-2.796944349854297851e+00 -1.537657683955641286e+00 1.520424073665472875e+01
-2.675564834484611243e+00 2.600108842426552602e+00 1.780472319428271177e+01
-3.220617546380784457e+00 2.805739495666242700e+00 1.773583353751852698e+01
-5.814597276036574947e+00 2.652836078481508597e+00 1.118030578009974008e+01
-6.988007640627496464e+00 1.284518486518958724e+00 1.189613144299999092e+01
-3.080949385271237073e+00 2.980448975865202854e+00 1.767312021301546920e+01
-2.404854286139574526e+00 -2.360509785695820817e+00 1.561418476275871470e+01
-6.625781871216719132e+00 1.551735879053940170e+00 1.744773984745832607e+01
-5.620522442980257161e+00 -2.013349738036633862e+00 1.801197608890064217e+01
-5.589221052302012716e+00 -5.310697211615187818e+00 1.719724652010329535e+01
-3.546095504877855742e+00 5.352355766466418530e+00 1.680019074571976390e+01
-5.592502073088670755e+00 -3.287826247579673566e+00 1.794181650315085008e+01
-7.797556709444733336e+00 -3.073730789972234145e+00 1.740365229324447327e+01
-1.811921856761656180e+00 -3.197277524236771029e+00 1.582219467816866754e+01
-4.391312791126400050e+00 1.165259862554145071e-01 1.267093279327827915e+01
-6.871075318445666547e+00 2.570047386361836939e+00 1.710500352226461374e+01
-4.417381756221431033e+00 4.915865439544657434e-02 1.285934446351644667e+01
-9.415766186682510419e-01 1.545763482936905575e+00 1.660123251866944472e+01
-8.579120185839743229e+00 8.109500668512976684e-01 1.524943047196037682e+01
-1.420739060122129027e+00 -2.606375925820882511e+00 1.815520226968574136e+01
-4.423585353370878437e+00 2.330809625720366984e-01 1.244185190123507923e+01
-1.706207367299987121e+00 1.831541397801823123e+00 1.369817854064796236e+01
-3.967496637635111512e+00 -1.324935449245211672e+00 1.509284976815202484e+01
-7.071070608163100069e+00 3.070184762187115890e+00 1.289060560694358415e+01
-4.836501260214260078e+00 7.548896279207212290e-01 1.107964761875696880e+01
-4.409400882179812520e+00 -1.304102394752726823e+00 1.510325458541543142e+01
-5.223997532758485107e+00 -2.810753768691742760e-01 1.346582204642382763e+01
-5.454385894381456268e+00 -1.328772937598043491e+00 1.488360776205874814e+01
-5.627639126096702249e+00 -3.627026482025437204e+00 1.789272204157626689e+01
-5.780657043544973561e+00 -5.366313880509602008e+00 1.691055151834314429e+01
-3.405167607912451100e+00 -1.750769932478053903e+00 1.537303948353106975e+01
-8.866060305629185123e+00 -6.481745815050806714e-01 1.582585588502820073e+01
-6.095175718275920307e-01 -5.762004684398268628e-01 1.728960782783621752e+01
-4.647643056582580812e+00 2.031057031523129663e-01 1.264309296604715271e+01
-5.170710213744881267e-01 -6.131038310537124669e-01 1.705661769589960031e+01
-3.758189196301949142e+00 -4.387219457921126775e+00 1.788138042729870492e+01
-2.838211898655155441e+00 -2.000119082003388282e+00 1.548323322023739834e+01
-8.984003075939853034e+00 -3.228864663584064765e+00 1.576171284039803666e+01
-2.426812321232893144e+00 -1.039167665484887593e+00 1.824269251504506073e+01
-8.400171613923454572e+00 -2.263649848270898879e+00 1.716015753252582599e+01
-8.961134834145990880e+00 -3.433025944344631597e+00 1.595235511531928196e+01
-7.105713617387659831e+00 -2.671620887494423613e+00 1.471305497978156396e+01
-8.973788743774573362e+00 -3.212719486364939758e+00 1.595670226061794850e+01
-8.873240024699198258e+00 -1.054470951508898580e+00 1.622413748212626317e+01
-1.349469874652863721e+00 -4.204999363644502886e+00 1.776550385832778645e+01
-6.063846686016679755e+00 1.386695520873817422e+00 1.757002609291316375e+01
-8.295159435043997220e+00 -5.601014842807462424e-01 1.356466048539249769e+01
-6.778807595698169486e+00 -3.330114916724603802e+00 1.545265214657489494e+01
-3.887675842129585391e+00 5.201872374178273972e+00 1.598965256256532186e+01
-5.360985187096468430e+00 -6.318028631784977645e-01 1.419605795987458308e+01
-8.356045867263608429e+00 -8.023381190212477421e-01 1.361316967752889084e+01
-3.742143125209170140e+00 -6.630158450771401757e-01 1.422852124657278594e+01
-4.579734430538664469e+00 5.112803114685581463e+00 1.516406252234073904e+01
-4.246425126184061760e+00 2.481481235306083333e-01 1.225439364145098509e+01
-8.054829163255448066e+00 2.038504433664809490e+00 1.409239006442019004e+01
-7.624497295480515469e+00 -4.662651092492067662e+00 1.694763630728121129e+01
-1.497549540193062079e+00 2.199196838321639813e+00 1.750477181819097794e+01
-3.630009114221187883e+00 -3.665962716260710685e+00 1.802100449567929630e+01
-1.457927339701138969e+00 2.394704873066995088e+00 1.735898203082397018e+01
-8.659462017978222903e+00 3.642967620046759780e-01 1.603792151401295385e+01
-5.700300886574802384e+00 5.828594565970394825e+00 1.558135106985941221e+01
-4.013808064387395902e+00 -3.798627557072208560e+00 1.615079727003234566e+01
-5.420019563621652381e+00 2.670881485799071253e+00 1.743033505082281565e+01
-5.479740007417187364e+00 5.394878321248939734e+00 1.500607151212934909e+01
-3.260780276402352573e+00 -2.024740331581506236e+00 1.820183323145282728e+01
-7.888378100180052144e+00 -3.712265728857435221e+00 1.723212318493719764e+01
-1.144797671306768905e+00 -4.887601808896084421e+00 1.684537125651770495e+01
-8.929977072816720707e+00 -1.445039657281670387e+00 1.613494503019343895e+01
-8.179479562312549135e+00 -3.627093027159240091e+00 1.711428842029777186e+01
-4.819968864686542176e+00 -2.054947811145376058e+00 1.813312346779519046e+01
-5.041653048317489727e+00 -2.431817772916092135e+00 1.811809580759716098e+01
-6.296922266298156323e+00 4.617426613662235724e+00 1.652157637888563002e+01
-8.398707892555213661e+00 3.488670729610187649e-01 1.665686482826458459e+01
-9.717688520218796810e-01 1.447844700399819828e+00 1.591856461790824895e+01
-6.668007573902028362e+00 4.579555981147669819e+00 1.635500414513058232e+01
-4.628247455378885711e+00 -5.286859609476138644e+00 1.689394616111717440e+01
-1.596285526610471850e+00 -3.488506002734317768e+00 1.586962599802164320e+01
-5.659119787182766537e+00 -8.893911618468094415e-01 1.429855989360666868e+01
-8.709152956294280656e+00 -2.113641647186096928e-01 1.475157872409451087e+01
-1.174444774141552683e+00 -3.575112332406745974e+00 1.575891293148060512e+01
-7.855490014897587026e-01 -2.531763993857405470e+00 1.503000041971240464e+01
-7.715573137213290522e+00 3.196042578710387883e+00 1.613309525355402130e+01
-6.020916187919753249e+00 -1.019882786961668231e+00 1.415572670611548389e+01
-4.643750368442169041e+00 -4.695731601200710870e+00 1.777188480113244040e+01
-4.610364138385374844e+00 1.737526040914278536e+00 9.932188534104408717e+00
-1.029841399726977302e+00 -3.950437936523715887e+00 1.607331024699771049e+01
-7.676265249139379243e+00 2.131955841597480639e+00 1.320743494808639085e+01
-5.215920238471052350e+00 -2.985760970453881225e+00 1.574844949665351024e+01
-5.696331761551599371e+00 4.009443990123430446e+00 1.696955040971604589e+01
-4.213137709413070198e+00 1.725908475403349129e+00 1.003766946620958223e+01
-1.925931338043470387e+00 -3.486745237530562314e+00 1.605725416396303373e+01
-5.269633924306186934e+00 5.582983258253999104e+00 1.537718973009620171e+01
-5.795445695662465369e+00 -3.828971783243872107e+00 1.588145594504738156e+01
-6.580115909755045678e+00 -5.287087477820111125e+00 1.669465032387332926e+01
-8.793262981382119481e-01 -2.097257000096507673e-01 1.768156342555323235e+01
-5.099793609436527042e+00 4.999565249127223332e+00 1.676888862617888876e+01
-3.855199552614025915e+00 1.140895237915443339e+00 1.791789708009914861e+01
-2.619867699124354132e+00 -1.231629860149617561e-01 1.307026357652435777e+01
-7.796789237912968851e+00 -6.730488447296633092e-01 1.736763879484427875e+01
-3.464869937876065897e+00 1.378788411897863497e+00 1.797052780491635460e+01
-7.783272224930259497e+00 -2.199717931930684323e+00 1.374390188343391728e+01
-8.880302459455302611e+00 -3.235776032396338930e+00 1.510866699102519917e+01
-5.183571679436379753e+00 1.957095562761450303e-02 1.262741199490151800e+01
-7.291316057853663324e+00 4.415634746693011259e+00 1.598644992330062919e+01
-7.759107721271097269e+00 3.385138807437593655e+00 1.437032061570418406e+01
-6.251078446782134534e+00 2.535194868341443364e+00 1.728587517923999783e+01
-7.296175883462210798e+00 1.256523496441245502e+00 1.220712099351512947e+01
-6.956852827144778928e+00 -5.183149157477624058e+00 1.652493044197869310e+01
-4.032540982750252745e+00 -5.123175846630636521e+00 1.681236965258093718e+01
-5.914143702687197468e+00 2.777492385944588360e+00 1.727785351585753304e+01
-3.269133444895963247e+00 2.945709658354817684e+00 1.768265942566913296e+01
-6.601947254539051180e+00 5.072364994603998506e-02 1.219139019826090120e+01
-7.434613918386502540e+00 4.571822073315298773e+00 1.549675134966753731e+01
-5.233966141825844964e+00 -5.290709805653685649e+00 1.733718837891445830e+01
-5.479296357827015740e+00 1.058892531173525775e+00 1.079621574896112080e+01
-4.846424471612600371e+00 4.457704992782283604e+00 1.379452161608091743e+01
-7.657446280465070920e+00 2.545112111092753260e+00 1.664667347140754217e+01
-6.621311200002320874e+00 -2.442602061521168988e+00 1.778917793894805399e+01
-7.710922936592926824e+00 3.805025100594751741e+00 1.454060715660050462e+01
-8.504974832838124499e+00 -2.481332932696920679e+00 1.705714761053161155e+01
-2.664510473439093641e+00 1.973388303531906196e+00 1.798825674298146637e+01
-6.249408333618206024e-01 -9.223271707246019080e-01 1.468136675348808851e+01
-7.796165535399852686e+00 3.603457023278874072e+00 1.472747278935157667e+01
-6.270060818151997672e+00 -1.907369579437014462e+00 1.485935849104327033e+01
-7.527275141666447844e+00 4.426029659009260264e+00 1.534890308836758166e+01
-7.955927197131085649e+00 -2.540124867558565480e+00 1.398503100023556911e+01
-4.658345095795873192e+00 3.687571544145830771e+00 1.271243870499251116e+01
-6.093953429577674719e+00 5.410246480044982320e+00 1.623381857626967317e+01
-3.383535688266728236e+00 4.034610230142365861e-01 1.174186135616896465e+01
-6.071391014041018330e+00 5.160452227682120530e+00 1.636617376359004439e+01
-7.187973448454019199e+00 2.268700585245698509e+00 1.247734942894131294e+01
-2.266548066090090519e+00 3.539934866503177679e-01 1.814176513106808031e+01
-3.800581494616574574e+00 -4.645500846427361274e+00 1.781529285363535919e+01
-3.178474740975898438e+00 -5.029749356256552062e-01 1.816062227052143285e+01
-6.187161102638183863e+00 -1.756251634103117798e+00 1.479726150670908780e+01
-4.748958805650923543e-01 3.613469931671674934e-02 1.586926279235758486e+01
-2.425763919806180002e+00 -3.003970545545911364e+00 1.594379863815180087e+01
-5.002218765654297350e+00 -3.589021425484014705e-01 1.407117239524576391e+01
-4.829908148278507340e+00 -4.066056928798365000e-01 1.422395195445762894e+01
-1.890384855676588316e+00 1.478110588318346963e+00 1.253662176196109002e+01
-4.384395680381138583e+00 2.226030957710130487e+00 1.049276964135312440e+01
-9.725992606689028985e-01 1.622364419640500266e+00 1.653112604009092124e+01
-6.448142396402399612e+00 2.119544110381678337e+00 1.143304948231558527e+01
-5.048990464453273930e+00 4.464253877509507085e+00 1.377526453151773822e+01
-6.547024429868140594e+00 -2.210905147298976026e+00 1.493313087412044737e+01
-8.354214626233293473e+00 1.150695068973991653e+00 1.638348778843628750e+01
-7.663392002120350988e+00 2.384894485289624111e+00 1.672603836319623483e+01
-4.295681521991576268e+00 -5.319701202350008984e+00 1.706058638286013363e+01
-4.832207586314119396e+00 1.282447497579203011e-01 1.272750997370790671e+01
-4.018699337992220677e+00 -1.619817488213119994e+00 1.816927554293944880e+01
-7.637181539194438429e+00 -2.982015267867960340e+00 1.457921105323013578e+01
-7.578311150180616629e+00 4.322551248922040124e+00 1.527820030846050159e+01
-7.405152902689383865e+00 -3.013304559605196609e+00 1.479278979915373426e+01
-6.521260123500417727e+00 3.923104511129411165e+00 1.308870720883009042e+01
-3.994458057992070543e+00 4.364379117808999120e-01 1.164664904121077527e+01
-5.797074485591782178e+00 3.601585123510923636e-01 1.192638028524300964e+01
-1.790975438974574674e+00 2.926221595184564372e-01 1.284510396457924841e+01
-4.207076353760934140e+00 -9.874473440133491042e-01 1.482848905623571412e+01
-4.826101428754975053e+00 3.866451902262927565e+00 1.295961523084495681e+01
-4.770092442387891651e+00 -1.395460830707665245e+00 1.515826246919870712e+01
-3.686207686540398099e-01 -3.171705810054401997e+00 1.678860642358503341e+01
-7.447527789978962254e+00 -3.359032215451166481e-01 1.277264950581215075e+01
-8.687830687755491610e+00 -1.851257148466339597e+00 1.683738116950844343e+01
-5.285081979209976133e+00 3.770034943994318599e+00 1.715203057775942241e+01
-7.751799928557477237e+00 1.519627271358597209e+00 1.277066347131100699e+01
-1.827378793040508098e+00 -2.208139636915145143e+00 1.822234581253487207e+01
-2.008139437335036526e+00 -8.751145685746299918e-01 1.406709199258644460e+01
-7.017559538630917970e+00 1.556084830490152893e+00 1.735225967722940865e+01
-3.448208821630170284e+00 -1.249538305686927142e+00 1.818863818654860509e+01
-2.204363169610619622e+00 -2.031836930023221299e+00 1.823350374613837843e+01
-7.968882839583347533e+00 3.156965629216039293e+00 1.496967747511053304e+01
-2.172348621015271153e+00 1.571623058126642825e+00 1.208359301967431421e+01
-1.776011279008206989e+00 -1.472896436002194775e+00 1.453180980456874849e+01
-8.762844401446942655e+00 -1.387374734231966666e+00 1.441474590301776360e+01
-6.823539476022738581e-01 -9.972784166619853563e-01 1.763319997807219508e+01
-4.178326854490462594e+00 -4.486417846375378105e+00 1.784640508194272357e+01
-5.951335137718453794e+00 3.198774565223152067e+00 1.200587219243321968e+01
-7.057323668809273975e+00 1.870359458248475271e+00 1.209688674624893778e+01
-7.748564899668759054e+00 3.313156409210986642e+00 1.423316699822628451e+01
-1.957712874423820359e+00 -4.883042791838000163e+00 1.668015147720248237e+01
-2.874575363557750229e+00 3.075816583535972537e+00 1.374333640362614872e+01
-3.802527763184082144e+00 -4.810615659497872620e+00 1.654560956313114772e+01
-5.434718946828660968e+00 -4.375625152579308619e+00 1.608989423164153365e+01
-6.237753542776253823e+00 -1.446520850290198723e+00 1.788070658931751566e+01
-5.290112479697734571e+00 3.562432940129075742e+00 1.720020242526586074e+01
-1.896053106255828347e+00 3.386166121651769334e+00 1.717390757854984784e+01
-3.032238660743303171e+00 -2.577706604083546349e+00 1.578630311198490332e+01
-8.953792330081101980e+00 -1.456752984153831587e+00 1.597490266995208330e+01
-1.626546462411197158e+00 -1.379523812404117589e+00 1.438027974608278114e+01
-1.438536669246201605e+00 2.045258385492736863e+00 1.513016067254656960e+01
-6.804529482180183386e+00 -2.868193476122957275e+00 1.770503678686052851e+01
-8.901436448864926021e+00 -2.003361006098367980e+00 1.640627677473241519e+01
-5.998790614840525670e+00 -1.499445164710525802e+00 1.792371236232223097e+01
-3.041960138666917057e+00 3.453264265692178592e-01 1.809550617370990366e+01
-8.184798925783653090e+00 -2.038932706920096316e-01 1.343677769248581555e+01
-4.378844180893579630e-01 -3.337861113633357135e+00 1.563318343029188284e+01
-8.424256820324446116e-01 -1.327689659402018219e+00 1.445913447678115560e+01
-1.073855500479668601e+00 1.805682178099515589e+00 1.693318195669010962e+01
-3.383743330994330556e+00 3.167610611991767744e+00 1.307534868233904390e+01
-7.484321270663637504e-01 5.809223663415440109e-02 1.430475774022916724e+01
-1.265487438613550397e+00 -5.116926540830471382e+00 1.728469563297013778e+01
-6.160940131044059243e-01 -3.356109411074245763e+00 1.558171178219604158e+01
-3.799842298571885824e+00 3.362039101761815640e+00 1.291302667090291223e+01
-6.672054746062983099e+00 2.323576652064637038e+00 1.184880121227475414e+01
-7.765561037813971446e+00 -7.975037099999267021e-01 1.303405888744035579e+01
-5.510922418574768500e+00 5.486457128211218226e+00 1.511477306322834480e+01
-4.626294290467650505e+00 9.865607836693794930e-01 1.781704583351975302e+01
-6.867414742988917631e+00 4.616868132237945233e+00 1.414989983056281275e+01
-4.265574234851730040e+00 1.169882384458663438e+00 1.785534775326905432e+01
-4.147696839718409301e+00 -4.961534578399723117e+00 1.661627670610732466e+01
-2.432654974884739918e+00 -7.589479366929291482e-01 1.422557298129423131e+01
-4.804653755947730920e-01 -1.377430414600262942e+00 1.725197680812798140e+01
-2.901109574903523725e-01 -1.134173000121931008e+00 1.522471674387271534e+01
-6.634920352650141240e+00 -7.081021026227475312e-01 1.286076826221391300e+01
-1.012563302571779955e+00 -1.776733034079606810e+00 1.458290173702393488e+01
-6.465051086775174483e+00 -6.777742727000960477e-01 1.291317392555449217e+01
-1.219403978194624649e+00 -1.615644752155434016e+00 1.817775935518595176e+01
-6.213462025297677549e+00 -2.468064983447490590e+00 1.787354743660827339e+01
-2.207148233655673142e+00 -1.102014359025715429e+00 1.447557110726328133e+01
-1.996544443957816384e+00 -5.226817960083298686e+00 1.735654430763482381e+01
-5.606293246931631558e+00 1.881060860893294606e+00 1.051417706393288043e+01
-7.632090418388160380e+00 -1.054833797204825618e+00 1.748583961793401542e+01
-3.732244253804508638e-01 -3.774705852492968194e+00 1.680379025606027810e+01
-5.299257048536901493e+00 -6.142794267015495857e-02 1.270383374759877526e+01
-6.187226904748711398e+00 -5.067415766647649367e-01 1.284660196835472945e+01
-4.844256103470033104e+00 -3.648678052079447731e+00 1.802049523598989467e+01
-5.001158038089020152e+00 -3.473363918418609142e+00 1.802804247561529749e+01
-4.821560248590934350e+00 -3.837924918680289288e+00 1.799149448047438327e+01
-7.238120380646020813e+00 -1.914854407702430095e+00 1.365153463389087918e+01
-4.838920930016721300e+00 -3.427257942380126376e+00 1.805284845043894038e+01
-8.707001929244267302e+00 -2.574857341125302845e+00 1.443310597694198449e+01
-8.180828561082940098e+00 1.326586362409671871e+00 1.660409151235469594e+01
-7.960304795215900953e+00 -1.141496753681711773e+00 1.325682836785987817e+01
-8.192148329700447817e+00 -3.862937852011615991e+00 1.533415356897706161e+01
-4.436533266494673278e+00 3.973106067400426600e+00 1.727432929325211219e+01
-5.252363041046007375e+00 -4.875008166153137201e-02 1.788243326935691258e+01
-2.795645378403375680e+00 -3.432972467065752653e+00 1.804691838852945907e+01
-5.091419035963358652e+00 2.344841608147228307e+00 1.759892785552586147e+01
-8.207303062110700154e+00 -3.761700450118824257e+00 1.521778726260422232e+01
-8.093823133070243259e+00 -1.909094479433458003e-01 1.710489057305912652e+01
-5.375160542706295175e+00 -4.638168847769318148e+00 1.618815193391910512e+01
-1.339385471653407045e+00 1.778789365643370868e+00 1.496811149454356027e+01
-3.458849745838192380e+00 3.744018197540445847e+00 1.741157149489812284e+01
-5.276286119262117325e+00 -3.932641912443974874e-01 1.793504217680910884e+01
-2.919766369758590940e+00 4.518464881256210042e+00 1.708670831769334697e+01
-6.267227314949211925e-01 8.483444763594519267e-02 1.469662397274161592e+01
-4.283254172119731251e+00 1.770198752667377917e+00 1.782580812983367125e+01
-8.581271014363441196e+00 -2.246991513608694202e+00 1.697950007899067160e+01
-5.857949001894191987e+00 2.147039372851784034e+00 1.749146229980978617e+01
-3.817684745387739387e+00 -4.026179842631805172e+00 1.622906660156647618e+01
-7.792622910475810905e+00 3.409592019159876752e+00 1.453142706454959310e+01
-3.751410162804613257e+00 -4.215052869590334872e+00 1.628268824266018910e+01
-8.368631242640107715e+00 -4.339267010729211727e+00 1.578936050477271991e+01
-1.667923148427111313e+00 1.809459012498115804e+00 1.776183164793217273e+01
-6.759829179264899679e+00 -1.229436136596509854e+00 1.343967201136092982e+01
-1.831607837429670926e+00 1.586207797727954283e+00 1.789331426031846561e+01
-5.447328829415458706e+00 3.888293337895415647e+00 1.294796464688841908e+01
-3.630541102849775825e+00 -4.423743139212864328e+00 1.634947066507378466e+01
-7.231879392200991852e+00 -4.390584210786116159e+00 1.580824299425114887e+01
-3.373193844207040382e+00 -3.950217525258072904e-01 1.347239268608709395e+01
-6.409167084860642127e+00 -4.268386855118074585e+00 1.757577393794869991e+01
-3.867693765708319020e+00 -4.482004837858243884e-01 1.808006801704497590e+01
-5.792182951468013208e+00 -1.211571783621360421e+00 1.456452702571749924e+01
-4.975718887279978908e+00 2.017357663465869574e-02 1.286356466992549130e+01
-8.288642689219889448e+00 4.511899442374148750e-01 1.362700613807769301e+01
-7.761527976893198399e+00 4.105718538806223811e-02 1.288209411889935652e+01
-7.831092029216026873e+00 2.809701472003658829e+00 1.411573206581747897e+01
-9.323690177181782612e-01 1.353347229538048424e+00 1.596540210939019389e+01
-7.594529756663246367e+00 -3.367705776643439841e-01 1.285667672752426327e+01
-5.798933866114467151e+00 -2.012884794828146529e+00 1.513150230246968064e+01
-5.800172718391821469e+00 -1.455357266168807673e+00 1.477296180550825611e+01
-4.250956641203657682e+00 3.680673905593565554e+00 1.295081991530674159e+01
-5.829107292027225995e+00 -4.032579661433035589e+00 1.592072036190723949e+01
-1.385659220387204904e+00 1.049829236190353843e+00 1.778189618633274094e+01
-5.011686766211068012e+00 1.333480586701088821e+00 1.032635921361532283e+01
-7.526533702353527922e+00 2.895232497026604790e+00 1.343473961859545440e+01
-1.014366484007104496e+00 -3.995213574275256363e+00 1.773697957657370594e+01
-4.609795621738786764e+00 4.566585739929345245e-01 1.189135572789175299e+01
-8.206372357488193714e+00 3.328736613556146362e-02 1.345080788065605404e+01
-4.643682840737978879e+00 5.264016161632891766e+00 1.535717764040022004e+01
-1.870198394766957151e+00 2.802672436912866605e+00 1.750347012700376226e+01
-1.192990454685791901e+00 -1.171178566497304008e+00 1.419890675725313756e+01
-5.830246944176673551e+00 3.302910240301696998e+00 1.212781547444350494e+01
-1.851700063458739720e+00 2.997290927797311433e+00 1.738857824114674955e+01
-8.893981028930614485e+00 -1.597377757554910627e+00 1.494596402796774370e+01
-3.434035956679311941e+00 -3.415595380806527359e+00 1.806188843676742195e+01
-8.572185622811261396e+00 -3.040386789762389075e+00 1.692707458703570111e+01
-6.052044185371492802e+00 3.533061213942080281e-01 1.189927825065209888e+01
-4.991524129212807637e+00 6.503083836010649099e-01 1.131170336492615647e+01
-8.540878268144068031e+00 -3.448411892752015540e+00 1.686863737584683420e+01
-7.626083390239263515e+00 2.068833419863339351e+00 1.306529344936351933e+01
-5.424665273301944701e+00 4.534018410614761407e+00 1.689187996334504405e+01
-5.577675862170702326e-01 -1.968503938142096121e+00 1.500228549109555942e+01
-5.461014795761428564e-01 -9.601325546873668015e-01 1.481816925765641813e+01
-7.793494747361659591e+00 3.333471890988082720e+00 1.590083287747870244e+01
-5.056460778884430241e+00 4.714612832826737154e+00 1.690896149276726490e+01
-5.655444628073357904e+00 3.880454273387458741e+00 1.293841909246345878e+01
-2.752565072861080875e+00 2.576341088794056322e+00 1.311141075962347813e+01
-5.269097957358038542e+00 4.369534464446407362e+00 1.699958731306666593e+01
-1.607207372905690157e+00 -3.565558327629987811e+00 1.593578400933832384e+01
-2.606115445863198321e+00 -1.945466859242210411e+00 1.542135807635785127e+01
-7.786884409885968417e+00 2.239649932564763191e+00 1.349060887808611042e+01
-2.392892297869348095e+00 -4.397733332797406192e+00 1.641545742166694666e+01
-7.280884545174529876e+00 3.245779264229484262e+00 1.329524932493098888e+01
-2.150379152036221875e+00 -4.436278602154838602e+00 1.642890619242904293e+01
-7.814806416565976299e+00 2.582684585999312166e+00 1.645784023218411463e+01
-3.059087772010633532e+00 1.539916311294949047e-01 1.811099845834259625e+01
-9.390788610047227092e-01 1.535801039758642794e+00 1.669270873909272623e+01
-6.813325169717808771e-01 -2.465495072937624155e+00 1.504736097962147667e+01
-3.460104769735677710e+00 -2.413951851660673498e+00 1.817913431591789575e+01
-8.307661351266876437e+00 1.078537669863558257e+00 1.398404841135143428e+01
-9.030245674648664789e-01 1.057779217381662029e+00 1.532210279050296364e+01
-1.845218889362847392e+00 -1.758347700222192778e+00 1.481404594410723874e+01
-6.361092699878552637e+00 -5.321905716961128796e+00 1.701246282145048028e+01
-6.919053791232497197e+00 5.473545861661621714e+00 1.537357742729012600e+01
-7.340205429246998037e+00 4.836231320504907671e+00 1.537143799861359739e+01
-7.189046478558464237e+00 5.173102551332820376e+00 1.533377505929760432e+01
-8.225943460157232323e+00 -9.741083418092567614e-01 1.344364742867029960e+01
-3.569054445217512139e+00 -4.823747633814695845e+00 1.658122684678752634e+01
-6.370505473205781755e+00 2.642740334928120216e+00 1.175114170950516623e+01
-7.308373297148873959e+00 5.001111471137412501e+00 1.513640139973597698e+01
-2.782636786516522243e+00 6.784983567100690838e-01 1.146321225652518550e+01
-7.709032569619534314e+00 4.003205879261967581e+00 1.512717291194667624e+01
-6.369318077914245535e+00 -3.064381618793794448e+00 1.548133092811859157e+01
-7.007740047548054463e+00 5.363201249920311220e+00 1.513992648677627173e+01
-2.639828015006123074e+00 2.479932121202280459e+00 1.313682348975567393e+01
-4.580481027910725977e+00 -2.748832185573441556e-01 1.394312375737979792e+01
-2.300201321017298461e+00 2.767776335813708410e+00 1.769494895949329205e+01
-8.559323486436671402e+00 7.868378876065078575e-01 1.501193651940684148e+01
-9.234343171292027641e-01 -3.762096840011533438e-01 1.779337866098742538e+01
-7.770215294591473310e+00 -3.650783574785515295e+00 1.729699930481193704e+01
-6.749127901775861638e+00 5.417110493436436691e+00 1.582454504385688310e+01
-3.391465911659900634e+00 -3.671836675065492717e+00 1.801791604333100949e+01
-2.720216863212592262e+00 2.045333675925038452e+00 1.221675064316592696e+01
-1.893358847095639064e+00 1.635548279175984110e+00 1.276433187789261225e+01
-2.637069669452167808e+00 4.237465656547723114e+00 1.616197905158515979e+01
-7.409160033009589696e+00 -4.991818251768902481e-01 1.279984863117983096e+01
-7.407052526791587432e+00 -1.518623468140712363e-01 1.269055856375758751e+01
-6.927099865484416696e+00 -5.123309013560247926e+00 1.643118650409680370e+01
-8.819047530753346464e+00 -1.411847994409226370e+00 1.459957936737054851e+01
-4.627585218398418299e+00 -4.475714040359191515e+00 1.784296294076132128e+01
-8.660858675516704963e+00 3.670731915640167986e-01 1.521567644750592407e+01
-3.578411594775515514e+00 -5.030701715140362573e+00 1.675782946592037703e+01
-2.592544523337950935e+00 -3.996103749744877476e+00 1.630415839084299634e+01
-5.184845415560954685e+00 1.758371539922051863e+00 1.008522962610308937e+01
-3.267217085870423698e+00 2.356433520275007076e+00 1.787632540483018673e+01
-7.477222594930765354e+00 3.390720935211378517e+00 1.632787610575177339e+01
-6.260272582818321219e+00 3.266855485800372327e-01 1.765406705921191488e+01
-4.447763347631135566e+00 -3.484727086947686514e-01 1.402652366791159366e+01
-4.528945653248230840e-01 -3.539030627861098122e+00 1.582963445726329965e+01
-8.420865134673594099e+00 1.572152343679737996e+00 1.568376490132822809e+01
-5.706697765305214887e+00 -6.892101795825327226e-01 1.393119808021046069e+01
-8.499083960859955766e+00 -1.720937696004800621e-01 1.395688163117306502e+01
-8.630298225577140769e+00 -4.067560482874105765e-01 1.422354235924814603e+01
-2.398672866513618107e+00 1.931756700079150235e+00 1.251144942373621305e+01
-8.180136137942119134e+00 -2.291241769810915763e+00 1.731171216934029289e+01
-4.056656542068532545e+00 2.207712168565731492e+00 1.780395921622520561e+01
-5.031200709660638815e+00 -3.387870975236579429e+00 1.590214003514268271e+01
-3.064488961052442284e-01 -9.559886220647844102e-01 1.516302905492468867e+01
-5.592932417095603626e+00 -1.272320736161116073e-01 1.262398779065116727e+01
-2.348148654685657366e+00 2.739796337889344180e+00 1.411172589033098390e+01
