-5.693367229635551752e+00 2.524549956799067907e+00 1.860317978407606176e+01
-5.573205268272676705e+00 2.581875630948031741e+00 1.860650769269199856e+01
-2.586176937545134891e+00 -2.240338384066013599e+00 1.756290139491333235e+01
-4.547985363606134257e+00 4.453968250897180070e+00 1.784674038357307069e+01
5.510801530539735094e-01 2.217491065061371280e+00 1.734627917966126631e+01
1.118427999142961315e-01 -3.664285175563113395e+00 1.803895212761080558e+01
-4.192084127160516260e+00 3.953514827513938013e+00 1.819625076790777740e+01
-1.869147285999729569e+00 1.867477086035847833e+00 1.931482204681386605e+01
7.152572366503489043e-01 -3.296897178466885237e+00 1.757741127410969284e+01
-1.363750822192914214e+00 -2.701567469351421558e+00 1.785696590636938907e+01
-1.388013538852979067e+00 -2.259280174076711223e+00 1.751279654177260170e+01
-4.698680551750287648e+00 3.343842573767604076e+00 1.841820120697960306e+01
-4.554469414010688055e+00 3.784818071509665316e+00 1.822530654636722147e+01
-4.912115680458338574e+00 3.297805713771141178e+00 1.840408068490524585e+01
4.488538595175617374e-01 1.157188309658810255e+00 1.596578608424689349e+01
-6.573652028791395097e+00 8.834540697139319221e-01 1.405634695792102917e+01
-2.174206068846904039e+00 -2.792202604614452799e+00 1.795963342911721128e+01
1.099538627843279270e+00 -7.707391980391407049e-01 1.754701574317323320e+01
-4.677819687586938224e-01 -6.609728146873439236e-03 1.988261588343795694e+01
-6.666338905790691882e+00 2.862430075024989584e+00 1.769481892463751649e+01
-1.288630490825784847e+00 1.808291023183516089e+00 1.934204867782535331e+01
-1.502096214882678415e+00 1.814464254694954093e+00 1.933524599721624782e+01
-1.308832375139998838e+00 1.610803957881107751e+00 1.940528361660899037e+01
-4.592072640801962535e+00 -1.349310764216766767e+00 1.671434896800692371e+01
-3.007935124197009369e+00 -3.874630929468331875e+00 1.874204865817669230e+01
-2.557762521532870092e+00 -3.950381063626805744e+00 1.884877704482711636e+01
-7.712395028648867168e+00 -2.729531223639697135e+00 1.739377830789385371e+01
-6.447101876029870837e+00 2.076738897390193017e+00 1.850833000909898374e+01
-7.078714960373165610e+00 2.655735166960771831e+00 1.612270209449764735e+01
-2.141061738052165708e+00 2.456490769957314857e+00 1.508649326974123994e+01
-2.480309528624990101e+00 7.617510800028253204e-01 1.966621155402098964e+01
-2.306583014917196195e+00 1.037867242518905331e-01 1.983334127731077245e+01
-6.568977276379953878e+00 -4.004175997575287305e+00 1.848286810045356532e+01
-4.820611458624593837e+00 4.630307651415359160e+00 1.766217847072391578e+01
3.531577706948921813e-01 2.613650475869362833e+00 1.737932138992640319e+01
-7.425042916884622812e+00 -9.358793058602639103e-01 1.923696216039118667e+01
-5.873850832245839371e+00 -3.620248059886181924e+00 1.807029105134149916e+01
-7.587709739199617331e+00 -9.934397540141211014e-01 1.902781158827637142e+01
1.473503452885227549e-01 3.763324082278343696e-01 1.478324596212596731e+01
-2.378165570359854541e+00 2.361059058845851766e+00 1.914112857596610695e+01
-1.681265899355108395e+00 1.397140222075595073e+00 1.412453382123734258e+01
-3.747905430340237043e+00 -4.253009487942634337e+00 1.915485678468758124e+01
-1.859979210185595422e+00 -1.595056029722972779e+00 2.016279405946325198e+01
-3.134845462930801574e+00 4.845637546257636430e+00 1.735936121220643003e+01
-2.589792767523999562e+00 -3.061831406796417188e+00 1.812310983265914643e+01
-7.133089483851867696e-02 -1.818012881244804868e+00 1.547861520866528195e+01
-1.252327939362985809e+00 -1.196927856478164465e+00 2.009166470268857552e+01
-8.902535092989982690e-01 -1.377495891029723252e+00 2.013149708959749518e+01
-6.580271137295826023e+00 -3.138354131110676626e+00 1.993328560604879840e+01
-2.833137177365942172e+00 3.468258572828175179e+00 1.591236374726889835e+01
-5.225031264214164750e+00 3.892308745654023294e+00 1.622747507799187616e+01
-7.531783838896169314e+00 -1.812107481058389924e+00 1.586998022385054696e+01
-5.432430752678554242e+00 2.991560361820623903e+00 1.536641579738621743e+01
-7.567180097204222022e+00 -1.913072796141955800e+00 1.596334345254660292e+01
-5.772960306101973416e+00 3.171922296875174574e+00 1.821655560196573731e+01
-7.378352903230430471e+00 -2.146092741624671785e+00 1.575424123486767058e+01
-5.517205841580926418e+00 2.965720754438903040e+00 1.842903042141511349e+01
-2.546295497062973645e+00 -4.477587238597828367e+00 1.969224813683084108e+01
-2.935162471557993147e+00 -4.457288736331035395e+00 1.957169045616794989e+01
-2.542608791295120518e+00 3.217980676210795199e+00 1.575223979325777179e+01
-1.862050402582994035e+00 3.425422100702646411e+00 1.629956781503971541e+01
9.677361343138659588e-01 -2.479253198285422677e+00 1.921183005411350564e+01
9.774424259218428279e-01 1.042301738132052957e+00 1.783235129721835222e+01
-5.135823363823918131e-01 -2.388774723533421351e+00 1.634938697529138807e+01
-3.235320718568023501e+00 3.166705511892528691e+00 1.543861741928515841e+01
-4.777303651116739047e+00 -1.133723944098246283e+00 1.591360998991340381e+01
-4.419986651687498380e+00 -9.066545362439732969e-01 1.561994358881143086e+01
-1.103607043310631752e+00 3.600432478663964986e+00 1.851571327564288083e+01
-5.866093804261554467e+00 9.847874844621935519e-01 1.920826897378466214e+01
-4.466836875755558545e+00 -7.163001085134641510e-01 1.988746956709255187e+01
-3.736887013665798118e+00 3.320706862452664332e+00 1.856513382750265606e+01
-4.450366281688960868e+00 -9.876057584925987953e-01 1.995376571531248544e+01
-4.118022413495348921e+00 -1.313378710256457804e+00 2.007188638626178800e+01
-4.097561713398849115e+00 -4.754506298883200421e-01 1.988564560130834735e+01
-4.281721960669024440e+00 -3.291951254491614631e-01 1.982181977541961260e+01
-3.263362700121336779e+00 3.448194629299940139e+00 1.573409620398169295e+01
-7.880695597902892757e+00 9.238510212913331188e-04 1.737051560700294317e+01
-1.182692540870060594e+00 3.097653429091141941e+00 1.636961343243282840e+01
-5.146105452576984263e+00 1.672847957767766292e-01 1.955320756662013792e+01
-4.314421650252180385e+00 1.463994901641210600e+00 1.929429487803463417e+01
-5.310646305617680696e+00 -1.344328899399260813e+00 1.990489797769674141e+01
-5.225798343315091188e+00 -1.431020838409292395e+00 1.993679358529766432e+01
-1.532389324121751883e+00 4.570481916896023122e+00 1.788163968122841396e+01
-2.549854591179286256e+00 -4.293982775008296393e+00 1.929988046786756684e+01
-5.780599505888181611e+00 4.651760735544939962e+00 1.707998270722917056e+01
7.892472729220729732e-01 -1.312940810610211617e+00 1.596896323360609671e+01
-2.095862853965245520e+00 3.730194651508138559e+00 1.851280203766283705e+01
-1.975959796609289665e+00 3.738699640258232648e+00 1.851202064527701197e+01
-4.738764797729672296e+00 -1.147281072945493641e+00 1.994744554416021742e+01
-4.582820841155340830e+00 -8.798234496354597756e-01 1.990821910923401816e+01
-4.932230463021456401e+00 -1.204650269990084954e+00 1.993101379178988708e+01
-4.987759053862852454e+00 1.546254278920740743e+00 1.915618079283520103e+01
-1.928448883276689285e+00 3.976311075174920329e-01 1.975964322824115271e+01
-2.054012754480805114e-02 3.317636403726150540e+00 1.798195751833247158e+01
7.173809709001193191e-01 1.210971548835415357e+00 1.664981444107467468e+01
-9.863789501278072969e-01 -1.600989628129250608e+00 1.572038572547628377e+01
-5.591655496701118722e+00 3.596596383555119125e+00 1.805063480830272482e+01
-2.519284082981110284e+00 1.412846854349422365e+00 1.376550935098666884e+01
-8.491173930643622914e-01 -5.718937947354580942e-01 1.998294823831912481e+01
-1.110365349522040024e+00 -9.847717988796103050e-01 2.005353757942779680e+01
-4.230214469150602064e+00 3.585872754728714806e+00 1.586492843079930282e+01
-7.217869197767315725e+00 -4.261435665325529754e-01 1.478676516008904684e+01
-5.113208045140401836e+00 -2.526381621856919057e+00 2.014514489825791088e+01
-5.340976993693550057e+00 -4.695681718407514471e-01 1.357537797951522407e+01
-4.310836516055077894e+00 4.992579320434267665e+00 1.728992365640547035e+01
-7.764463958442355818e+00 -1.426396424048913758e+00 1.635131249995952629e+01
-2.708536549732487586e+00 1.717997636256927585e+00 1.405713111169465179e+01
-4.567444001363883288e+00 -1.655385987194993636e+00 2.007934028983591190e+01
-4.231179170638645459e+00 -1.432706700093968388e+00 2.008380120170732397e+01
-6.518916913772317301e+00 -1.700377119931643088e+00 1.474413377766941124e+01
-6.898156036951177406e-01 -1.210033383063882750e+00 1.490806148189368940e+01
-8.319388838932777475e-01 -1.177719187810972734e+00 1.490785106477327560e+01
-1.127454084253117328e+00 -9.574298041499795797e-01 1.478683657789244421e+01
-1.058337405653260621e+00 -9.668283669249491119e-01 1.475472598951616732e+01
-1.858697961507211005e+00 2.480371380782464552e+00 1.525005299846257856e+01
-1.325829557867034492e+00 9.013703538884498823e-01 1.372383802606367453e+01
-1.331096360986611549e+00 -6.237853150281684744e-01 1.998473160371090529e+01
-1.199410756716432047e+00 -5.573173521003871311e-01 1.997258041877294943e+01
-6.331710579564550301e+00 1.358791612087828948e+00 1.900987113756331581e+01
-7.780842943487293883e-01 -1.795970220625973779e+00 1.571802562699179617e+01
-1.549954687679273579e+00 4.430385980514976119e+00 1.765084770872707765e+01
-3.622748817341287619e+00 -1.989551678239452448e+00 2.024615619144173451e+01
-2.186423652848138666e+00 -1.987540647153626105e+00 1.739564599068847883e+01
-7.019064533578688980e+00 2.429822623130368786e-01 1.439834130751804508e+01
-7.173277907851808521e+00 2.556408166244125701e-01 1.466546929885897299e+01
-4.891275982443815451e+00 3.631898197775640380e-01 1.954144818950717166e+01
-2.773212398050469041e+00 -3.642874571020412677e+00 1.854186241686159775e+01
-2.211712315314154687e+00 -3.621125820722950639e+00 1.854093888842398741e+01
-7.210359955960132794e+00 -7.242562837300392520e-01 1.478985477836787510e+01
-3.795491239568888897e+00 2.781882678050915825e+00 1.501940878979748817e+01
-5.253905493867861765e+00 2.271339615283653579e+00 1.882015349531096149e+01
-3.534747093416682251e+00 1.564578460457595188e+00 1.370384028985879610e+01
-6.469559041443359249e+00 4.079329252894243751e+00 1.678066559747973230e+01
-4.781157748725933132e+00 3.897341865395072436e+00 1.619551375095445422e+01
-5.713129507633423643e+00 -1.662931359171050394e+00 1.992877445883289766e+01
-4.087644900458911934e+00 -3.561029978971778309e+00 1.844809273646198022e+01
-3.939741525793874821e+00 -3.546763270744402785e+00 1.844275360435985789e+01
-6.690197753753993837e+00 1.711039172537634157e+00 1.856175164084559270e+01
-6.734618120885931258e-01 -1.387522208780843869e+00 1.509825700212958566e+01
-5.788451293940866549e+00 2.799529872710903700e+00 1.842035758174053939e+01
-5.451880488365974387e+00 -7.921270835241298602e-01 1.975373802393814060e+01
-9.304944431996453602e-01 3.356811467921760439e+00 1.689793267116947106e+01
-5.503048790500017162e+00 -7.640523181787567397e-02 1.955751836722888015e+01
-4.985139437212183111e+00 -2.372301548832831841e+00 1.752269250459863770e+01
-3.514118938290657024e+00 1.732004797170586530e+00 1.932932500691425304e+01
-4.070310198453478634e+00 2.637984633822685887e-01 1.970265453626485197e+01
-4.697000995126291656e+00 5.269277690375809842e-01 1.952616828803108007e+01
-5.394592596949717489e+00 5.854283098111612293e-01 1.938101475315470168e+01
-4.291212001809441290e+00 7.583615502029337208e-01 1.952385379099319351e+01
-4.878469279516380652e+00 2.382120372210904335e+00 1.467835203257850196e+01
-7.702075330553354249e+00 8.922432051394224573e-01 1.682863491596864236e+01
-7.701011511091747863e+00 8.541729070384347366e-01 1.672470409927633739e+01
-7.712728402585385723e+00 7.687017810240992510e-01 1.664895678443010496e+01
-3.673285037133831477e+00 1.264866544595308340e-01 1.262126681670600448e+01
-3.467233730728407792e+00 2.906587962447738649e-01 1.227497484718747245e+01
-4.884883101098180802e+00 1.819636735941627004e+00 1.406909094745865474e+01
-2.648192763044654008e+00 3.172231548129015866e-01 1.244992353248880335e+01
-6.037959006305197107e+00 -3.914280603333420760e+00 1.990183404933334543e+01
-2.560497236709463387e+00 3.980347614104252418e+00 1.657825222090728090e+01
-6.009586394120841391e+00 -4.002120267197022407e+00 1.986088214048248091e+01
-5.865924011818654193e+00 -4.054655912382851390e+00 1.989341983184759499e+01
-1.977498121500461892e+00 5.679271428514001130e-01 1.297775043584879739e+01
-1.402907808307122028e+00 8.024998987896073133e-02 1.335993800740904902e+01
4.740098153764349398e-02 1.948208930116964277e+00 1.623696348057872996e+01
7.836945653030527037e-01 -1.001420852297646213e+00 1.966984566080583363e+01
-7.746171586706580570e+00 2.716221983808465579e-01 1.625678875558201497e+01
-1.038942047958399506e+00 2.845502461968743457e+00 1.620730001367418538e+01
-4.060990183905808237e+00 1.405548765900950903e+00 1.935404292346780863e+01
-3.889608772521992996e+00 1.253047700164860556e+00 1.943156512038365946e+01
-6.028254096363586001e+00 1.866083197491901213e+00 1.884393561307080489e+01
-1.673241883665855800e+00 1.346142841876191432e-01 1.982741481966830577e+01
-1.845566762446981368e+00 1.386267912853250406e-01 1.982392180785249280e+01
-2.915489461140007510e+00 -1.830998965380825627e-02 1.987506889635267271e+01
-5.406869253322811986e+00 3.772307346650403570e+00 1.612657202918599353e+01
1.090701786681363972e-01 -1.887998848276190023e+00 2.029391479832814582e+01
-1.299226681401060013e+00 -1.544866625439154317e+00 2.015007207034367553e+01
-1.182136538475889953e+00 3.284733241884946864e+00 1.658228928707159611e+01
-1.631608642400070863e+00 -2.227496969782997382e+00 1.753079206656282452e+01
-3.585506443727099590e+00 9.692021041437730577e-01 1.302987620978830563e+01
6.397973267546379628e-01 5.762890250032254302e-01 1.936299648175348409e+01
3.965356849629457781e-01 6.593597012291652071e-01 1.954213273375457760e+01
-5.216339746567131286e+00 -3.703678791538151938e+00 2.026905803697878383e+01
-3.793949514866029826e+00 3.903341282819052793e+00 1.616943872406706362e+01
-6.711417584485602106e+00 1.248757310015906619e+00 1.451738109047433056e+01
-1.374372587081001074e+00 -4.269744110626049860e+00 1.931392088854073563e+01
-5.344981597911818483e+00 -1.348455958384623177e+00 1.469453714354860097e+01
-3.465517393768860810e+00 1.157861430814165260e+00 1.952221041669506008e+01
-3.679667738259000842e+00 5.133186638534203983e-01 1.968842651324332138e+01
-2.175227120221717492e+00 2.926302113903762159e+00 1.888220522133644153e+01
-3.436816102327093780e+00 -2.872260790928049534e+00 1.798461381818123783e+01
-3.392171640389202825e+00 -3.093066788438833647e+00 1.813482186911485883e+01
-3.197311292857815346e+00 -2.876641645371931233e+00 1.798391167942022406e+01
-1.445904819492586757e+00 2.442088031700196393e-01 1.980179219473983210e+01
-6.208756288507371934e+00 2.062497067183091559e+00 1.866053776512250550e+01
-4.556699906692962543e+00 3.886759344999191512e+00 1.617448954789600890e+01
-4.321974656910311907e+00 3.144948664805603311e+00 1.856912493621246796e+01
-4.284723504838126473e+00 3.436162182651443686e+00 1.843454756807666683e+01
-5.434527952535257445e-01 -3.369895120160923407e-01 1.995370587353394143e+01
-6.256689993317120502e-01 -4.477508968238052556e-01 1.996987066093539909e+01
-2.118234911125201236e+00 1.511567919948306082e+00 1.402307203793205304e+01
-9.282039500562984102e-01 -5.078849117169013105e-01 1.996603892974938788e+01
-4.517586673474742298e+00 1.275752447892883890e+00 1.932158748151840655e+01
-4.682135291019536183e+00 1.137629869508830938e+00 1.933762908938307135e+01
-4.920449007726707791e+00 1.439773892425126434e+00 1.920155055311344938e+01
-4.722089225423385273e+00 9.704970137342510128e-01 1.938401992613516711e+01
-7.051120020462994020e+00 1.469387386590246258e+00 1.834552788291305347e+01
-3.870000373862749310e+00 -1.784050289213218177e+00 1.726812955432767183e+01
8.962561998903755267e-01 -1.330722726679791079e-01 1.639474313191338695e+01
-6.129058552220348233e+00 -2.322659477336746381e+00 1.572861037264718220e+01
-2.915838994735527656e+00 3.959901685861238807e+00 1.836235886488631053e+01
-6.833481994382523794e+00 2.197583107784524703e+00 1.537609778626649160e+01
-6.026123290346763639e+00 -2.302135526393390919e+00 1.576368124461160392e+01
-4.771822423069194130e+00 4.104194040452427417e-01 1.265633065082150921e+01
-3.565758325643300086e+00 3.759588598105803037e+00 1.838185657728972444e+01
-3.612821324083738128e-01 3.149478671090032655e+00 1.845263230966273937e+01
-1.976259584911266298e-02 2.833660047247938074e+00 1.839793633848589138e+01
-1.283533404048695648e+00 -2.584127196992497044e+00 2.027960959492362036e+01
-8.242897917791983664e-01 3.140273881966308966e-01 1.978610459447963876e+01
-9.712078721140862125e-01 3.032330013995983564e-01 1.978780341331088977e+01
-6.993603502771046365e+00 1.195896577876197409e+00 1.864760637782833896e+01
-3.011253990075520637e+00 1.059555774742942658e-01 1.282691156510905728e+01
-3.174913087822717639e+00 -2.006953655986172258e+00 1.739579605761721126e+01
-1.223459215190834781e+00 2.578548054828802449e+00 1.906591095471299724e+01
-6.321993837037748420e+00 1.717230202157136620e+00 1.881253143001059414e+01
-3.284806932180190042e+00 3.513070479084136277e+00 1.853516314467723447e+01
-4.535774227134071523e+00 1.354375908686243468e+00 1.352409003905480489e+01
-4.333810700936623905e-01 -1.802187251730130724e+00 1.548984080507156591e+01
-2.296053340004244880e+00 4.734101811576162611e+00 1.759439941006143471e+01
-2.490383119733810435e+00 4.713992126317328335e+00 1.747382769561702531e+01
-2.539212669267093325e+00 4.820834296741754343e+00 1.756846052748415588e+01
-6.040674689552954391e+00 1.433123751945980517e+00 1.904597462357264703e+01
3.490045837072169865e-01 1.712032131571811888e+00 1.896708049165376764e+01
-7.760469556334088637e+00 -4.284342092462959939e-01 1.616139237461405287e+01
-7.759774298510521362e+00 -2.151784720860139832e-01 1.619462449640223412e+01
-5.228933956020883400e+00 -2.382316429058601415e+00 2.010607017256035078e+01
-5.357562777574869983e+00 4.123322331116292538e-01 1.290663117599309828e+01
-5.907547581001683312e+00 5.801914076363089423e-01 1.334507054690821093e+01
-3.151710266228830992e+00 -6.881621500771946121e-01 2.003534102760837499e+01
-2.014088992913923293e-01 2.525507849418038742e+00 1.877519894574517423e+01
-5.590422301352822032e+00 -1.750044525587632238e+00 1.510269443958938496e+01
-2.114350339928870448e-01 3.559243233674241669e+00 1.789499079673407067e+01
6.078117418704658270e-01 1.757030026546983148e+00 1.858566670758277439e+01
2.746859254934844730e-01 1.526637829214491759e+00 1.917019239275678189e+01
-5.604547549683351448e+00 4.387617933836390205e-01 1.938809305999723875e+01
-4.902835350421590022e+00 3.604193236998108674e+00 1.825484844426202358e+01
-7.536635960881437057e+00 -1.417329360889469037e+00 1.572310432495896038e+01
-7.727115101571069289e+00 -6.435326409772679224e-01 1.608922147522935830e+01
-7.379584013435659173e+00 -7.720242884801864491e-01 1.527302663014804551e+01
-7.482530008537425559e+00 -7.873775890193395188e-01 1.552106115863803382e+01
-1.040755080342143923e+00 4.134842477540132677e+00 1.773449392623400200e+01
-7.626955595008896083e+00 -1.017907730597103599e+00 1.592357493332132634e+01
-7.211098324561380224e+00 4.211815634828089960e-01 1.479797898369701414e+01
-7.254056562987132750e+00 5.914371166186276341e-01 1.497021872472559778e+01
-5.448810860682424817e+00 2.581315997364705961e+00 1.495373620192856379e+01
-7.173524925690085041e+00 4.685153485267254947e-01 1.471167394946436247e+01
-1.999266974521549445e+00 2.794877555683450421e+00 1.552899439290077055e+01
-7.370634312930155474e+00 6.416035726176060328e-01 1.525666560060241039e+01
1.148496498107768105e+00 -2.359392734613438680e+00 1.796479307674007231e+01
-2.100147457084643676e+00 3.743193389489017697e+00 1.653339594669589019e+01
1.170258464119720898e+00 -2.149236375995124959e+00 1.814662691257707650e+01
1.134007337484007394e+00 -1.496926243227467479e+00 1.778313516634661084e+01
1.165570252962718989e+00 -1.357672424987204085e+00 1.815779639956332403e+01
1.149920166274747135e+00 -1.162240685976670518e+00 1.795275525532808558e+01
1.107800069294415213e+00 -1.403560861614340238e+00 1.750840785173665637e+01
1.096502736522358079e+00 -1.128323117083655847e+00 1.735224344451367529e+01
1.129249721902257919e+00 -5.566410238968748647e-01 1.795125745396813244e+01
1.049848699718110012e+00 4.314377299445225633e-01 1.783318741315906664e+01
1.043136627219077406e+00 2.140398446070833627e-01 1.761142293176042983e+01
1.072614382979715453e+00 4.293007651518182533e-02 1.775681501630122483e+01
1.092372628356481190e+00 3.206703654675224779e-02 1.795245668212382384e+01
7.804334552810023862e-01 6.524499951266985454e-01 1.636175944153242767e+01
8.364685485627725292e-01 2.322411436200670087e-01 1.628081823146914786e+01
-1.068038019720169096e+00 1.015561820650643376e+00 1.405950826749886318e+01
6.982893954671802739e-01 1.871261365568631430e+00 1.741692458784508091e+01
7.622901170090590206e-01 1.671496852879308825e+00 1.744842238503253640e+01
8.331883763714551527e-01 1.402089217610093419e+00 1.742852255388641680e+01
7.360491983320960330e-01 8.741649467240379945e-01 1.637934708841417830e+01
5.691159404007284373e-02 1.747649570386611062e+00 1.603409390467872697e+01
7.845811011982357641e-01 1.280146054347598650e+00 1.703540661727163297e+01
6.699299040296764485e-01 1.081173312111740836e+00 1.640280442961306306e+01
-3.751442704342242696e-01 2.150920946345866280e+00 1.605179096757468216e+01
-3.575561709328424875e+00 5.716650862409464739e-01 1.256874517485827880e+01
-3.571907842718704096e+00 5.465416845313015859e-01 1.248107533263523550e+01
-4.442521084563464395e-01 2.097995981162804391e+00 1.592635291095162131e+01
-3.980594217137135349e+00 4.300153070507823916e-01 1.241147692291071536e+01
-2.553207679850781453e+00 6.079501875794369736e-01 1.277566795084888440e+01
1.732863746132188298e-01 5.651041046388570743e-01 1.498610047835998671e+01
-2.063009841124907040e-01 4.288435051267334708e-01 1.440247463807685335e+01
-2.267768473760456427e-02 5.962162702203870346e-01 1.477606971620848242e+01
3.157874197556487239e-02 6.682665140229271383e-01 1.490896481241397709e+01
-2.792223017432951537e-01 5.627204816553115219e-01 1.445066631506508514e+01
-6.719693158149848244e+00 1.446192683807628221e+00 1.469649673628433106e+01
-6.874585374857447917e+00 2.859152225652883406e+00 1.593672532201222936e+01
-6.621257166818647732e+00 2.777958732311496703e+00 1.560740762012716232e+01
-6.604421580276687465e+00 2.560819021763133474e+00 1.541960990510276730e+01
-6.692995245876888433e+00 3.037357651300148564e+00 1.590293915870283570e+01
-5.847523191504198081e+00 1.543938816995867880e+00 1.419108469402895878e+01
1.378959361491789437e-01 2.919773446600804068e+00 1.746340732778008942e+01
-4.233389095194597829e+00 3.399459906308084367e+00 1.567771120753651815e+01
8.744818215649041715e-02 2.850479861058344611e+00 1.728196745092724029e+01
-1.039110246999797038e-02 2.827584854949760196e+00 1.713422416309924756e+01
1.103199359341047847e+00 -1.954818307800790356e+00 1.748403026679437744e+01
3.021546459413559926e-02 2.336826189527588138e+00 1.663356477496846253e+01
-2.035883530879727399e-01 3.011246369779319476e+00 1.716148846791536897e+01
-6.821949289197215549e-01 3.733730364340672292e+00 1.754284964371654354e+01
-9.733863409876106765e-01 4.022362818187202649e+00 1.762876592043823365e+01
-7.059999781177414002e-01 3.535484968213413293e+00 1.729866610875066613e+01
-1.268396858091211499e+00 4.154771719721717105e+00 1.754139950776968249e+01
-1.085717101807758267e+00 8.439365348677587697e-01 1.385733623402884263e+01
-3.894707966977787872e-01 2.455090525760626807e+00 1.637956539198842165e+01
-5.719137655396775433e-01 2.724206232101820557e+00 1.651411366586609830e+01
-5.766296470415940290e-01 2.532286721898730608e+00 1.629198247108126907e+01
-7.856858709883195457e-01 1.791466698283074477e+00 1.523262622554636891e+01
-7.127527960691670827e-01 1.845040050845898172e+00 1.536759306815975634e+01
-1.169561693726338891e+00 3.645588914639278144e+00 1.701255124402806018e+01
-8.274147213524113420e-01 2.017771861850445880e+00 1.545227954254507097e+01
-1.544321863654578353e+00 7.233850551804121842e-01 1.337879146961949317e+01
-1.271574309034090522e+00 1.376208897623812488e+00 1.431463626295303015e+01
-6.251310440221550024e+00 2.362161635007252958e+00 1.504944544166289688e+01
-6.571698871615563320e+00 3.514474852543229666e+00 1.623803945003669469e+01
-2.184912439201951440e+00 7.060964557821820531e-01 1.303247829459323981e+01
-1.726820544075988284e+00 1.127056738432809180e+00 1.376796147508517265e+01
-2.321897894901989279e+00 1.556291977320535258e+00 1.399739834334380362e+01
-2.058193652635452953e+00 8.514720421120336447e-01 1.326484010014788595e+01
-1.652730479948515407e+00 2.324897887474107083e+00 1.519348596224593706e+01
-2.339844508941729906e+00 9.217089351091385385e-01 1.322674198967398240e+01
-1.489408079807472696e+00 2.445352299256356776e+00 1.542646091900009964e+01
-1.464673427930320404e+00 3.764536731129431324e+00 1.689790745047798026e+01
-1.702336920340214776e+00 4.315272331301407860e+00 1.739994769412066233e+01
-1.846459138718272053e+00 4.509716433328416763e+00 1.756302523553792838e+01
-1.553830969356278402e+00 3.339022341909354541e+00 1.636618652149348918e+01
-1.666693837758375096e+00 3.787453966890710344e+00 1.679188639669030891e+01
-1.729430995339625632e+00 4.136421517132256476e+00 1.716509086795699801e+01
-7.349090142620081423e+00 -1.768584111624659783e-01 1.514744147812379538e+01
-6.144152235935759876e+00 2.469336517693203170e+00 1.508312721829265968e+01
-6.167914465001075541e+00 3.710844918862035602e+00 1.620441548515992025e+01
-6.003816454661885516e+00 3.747850019451474335e+00 1.618637575123263872e+01
-4.675770478369205563e+00 9.473103518984054006e-01 1.313210301094429155e+01
-3.969404126275829725e+00 6.643192772969899185e-01 1.275446407594060361e+01
-5.736268250742764252e+00 3.761889494674621304e+00 1.615734605614202479e+01
-5.317045435084928329e+00 1.790386421499911451e+00 1.414488198413827291e+01
-4.361832138422322203e+00 1.271517357896011280e+00 1.340444434579095656e+01
-4.293838363483327036e+00 2.022614618430372602e+00 1.423489881331787643e+01
-4.412264568442608947e+00 1.515593742946393263e+00 1.368138892792028827e+01
-4.520478010472918307e+00 1.737416808167627780e+00 1.393600748617878082e+01
-2.548629084563484248e+00 4.536197118712032683e+00 1.721587861177589929e+01
-2.382823964776138670e+00 3.928003901739929304e+00 1.660515185414534756e+01
-2.555167598703958820e+00 4.159589890812726232e+00 1.678238511565631796e+01
-3.000282894632066100e+00 3.506288650055380707e+00 1.589261355754264571e+01
-2.493226131025186199e+00 1.769315265101323309e+00 1.418888209083243623e+01
-3.024112689586986313e+00 1.123714946509626555e+00 1.328306037671153916e+01
-1.375499119007876248e+00 5.613021402974511798e-01 1.335469828881338117e+01
-2.922780273879678425e+00 4.615328833156119970e+00 1.715115106192361338e+01
-3.111956465585271392e+00 4.570610694659211326e+00 1.702723537285142896e+01
-3.356086425871721790e+00 4.510997881062859705e+00 1.688348463982737968e+01
-4.205370757121096759e+00 4.200362716493997617e+00 1.646814991700168207e+01
9.272195462490755435e-01 -1.472995536534872918e-01 1.657560356149516423e+01
-2.913544314849859873e+00 1.765143511996230652e+00 1.403410024926431277e+01
-3.433486346597137917e+00 4.252483178989349355e+00 1.655713177603128372e+01
-3.215990957930823235e+00 4.027546969665359633e+00 1.638236118922081630e+01
-2.855412035140217242e+00 2.235279451602092848e+00 1.456655248600365127e+01
-3.069614190345219207e+00 2.175449795639574635e+00 1.442238258059393274e+01
-3.604739760806823679e+00 3.588090889452752119e+00 1.585697553169092089e+01
-3.750179898696076819e+00 7.434964020295915521e-01 1.279989773874169146e+01
-3.905252899237198427e+00 1.063430103950632422e+00 1.312917260112084250e+01
-4.048168419249444483e+00 9.171706392162741750e-01 1.298983029436989511e+01
-3.414443725590775358e+00 3.183610046331778243e+00 1.542830325983589290e+01
-3.455867077841730861e+00 2.875743911831313948e+00 1.510737686740968400e+01
-3.796833166047196784e+00 3.582901681533865901e+00 1.584611468361853071e+01
-3.828145712477811102e+00 3.299436953153368712e+00 1.555585203717645726e+01
-4.085807059616374026e+00 1.711588143091172576e+00 1.387224959113613210e+01
-6.620687439046852862e-01 9.798449785941567569e-01 1.444210857007100657e+01
9.747748606082924372e-01 8.392666138905868767e-01 1.762618260287253946e+01
-4.076397660512915522e+00 1.563695682856772518e+00 1.371463763282489623e+01
-2.689629529199796476e+00 2.667282024483759617e+00 1.509842879675745309e+01
-5.523253458409616456e+00 7.740807838012314646e-01 1.334428202805151642e+01
-3.949101450547364944e+00 1.644009613545377224e+00 1.379691086781542708e+01
-3.851060234737365473e+00 1.924477809521153215e+00 1.409664773779046243e+01
-4.311960244155907063e+00 1.928207098249869800e+00 1.413117504000852165e+01
-3.677856711450237182e+00 2.224362135268699969e+00 1.442557931277515593e+01
-4.067458109520703857e+00 1.913678698346574336e+00 1.409530957032119858e+01
-3.936298860137091182e+00 2.008006849670268767e+00 1.419560993836204688e+01
-3.999677905279937384e+00 2.107256966129963160e+00 1.431128759875134904e+01
-4.245446753616418434e+00 2.884225713412496450e+00 1.515073660800975119e+01
-4.729604489045883042e+00 4.825355139525911774e+00 1.707133206902278033e+01
3.177790388696631885e-01 1.072611593331471935e+00 1.568189169561735952e+01
-6.066105161028312764e+00 1.131608665327153984e+00 1.395789719781291183e+01
-6.263657256567814358e+00 1.777097571266039067e+00 1.460360309071257490e+01
3.376738964460512804e-02 1.577361937953164706e+00 1.583637617194132474e+01
-6.902286959499134511e+00 2.015330308842851359e+00 1.533333684002586494e+01
-2.357151856192616912e-01 1.330347125669081754e+00 1.528116397931943737e+01
-1.192214472714156148e+00 2.918002916448657835e+00 1.615944866229111199e+01
-1.339483661045641982e+00 2.980018381371566161e+00 1.611613043100570053e+01
-4.548892659622883805e+00 4.710195401441503726e+00 1.697282513376239166e+01
-1.911188829582657567e+00 1.357689459383438102e+00 1.395777849691175732e+01
-5.828421806762875690e+00 2.750950479831877349e+00 1.520911160770529591e+01
-5.824544312941762669e+00 3.353459918873561652e+00 1.577767356151922939e+01
-5.428898780089117082e+00 3.392697855317799771e+00 1.576270138480870742e+01
-2.409802285134930777e+00 3.661584343021803800e+00 1.629487836699255610e+01
-2.423652938770832321e+00 3.278905039528145604e+00 1.586931778540800764e+01
-2.436957002957284679e+00 2.047400195288599623e+00 1.452009512213080455e+01
-2.453295337267578979e+00 2.717953204953122981e+00 1.524722433471358585e+01
-2.633846810452137976e+00 2.759779197623962954e+00 1.522042373734865350e+01
-2.556357092411548626e-01 3.148570116973290034e+00 1.727429084750004051e+01
-2.828023966926729749e+00 3.276541547032515211e+00 1.570703669702736960e+01
-2.872386903580888884e+00 2.708405291674238047e+00 1.507400048571554407e+01
-3.092265876117626711e+00 1.608012642401210446e+00 1.379785747742842261e+01
-4.174152222778952925e+00 4.395735057220732322e+00 1.665913607328254642e+01
-2.497165125905832284e+00 1.956264558034556122e+00 1.439717277826181174e+01
-4.630625491359921853e+00 3.370082139862445203e+00 1.566749947788168384e+01
-5.133255114373717731e+00 4.422041232466347616e+00 1.670910933060282844e+01
-6.400567573552851997e+00 3.969187548527155496e+00 1.661244055856135304e+01
-6.553129310628929005e+00 1.095846389258929188e+00 1.426198066685034860e+01
4.332483310409684929e-02 3.220427615967190071e+00 1.776487742451850238e+01
-7.516596985673254849e+00 -2.167033290369645981e-01 1.555940390696324727e+01
-7.337391279039644942e+00 1.885649499395602446e-01 1.512069125979517992e+01
5.195174969366205264e-01 2.472874233208322448e+00 1.762385064289242820e+01
9.339188248657686042e-01 1.075436421319930780e+00 1.762056341138634963e+01
1.085687669067273875e+00 -1.741395250904089975e+00 1.733651853492138173e+01
1.061170644940397256e+00 -1.348676600683746063e+00 1.715031642733841011e+01
1.053691207868703072e+00 -1.545462415285631108e+00 1.715741962852312952e+01
1.043240776383450585e+00 -1.151665179513193804e+00 1.696925018633053384e+01
1.039868985332642826e+00 -9.358134082611762050e-01 1.697633067292900222e+01
-2.699462541176552932e+00 1.253477518067952268e+00 1.352448344547908476e+01
8.596232038725877267e-01 -9.884368997097303655e-02 1.618927130190947850e+01
9.747372139133025915e-01 -3.282329890370654923e-01 1.677869659502245980e+01
9.976900677357256608e-01 6.539042321837174043e-01 1.761452207799460723e+01
1.011916747477300538e+00 2.514675756161759423e-01 1.740407975057935630e+01
9.525087350977998746e-01 2.563861839494520067e-01 1.699524192925429844e+01
9.225798066614359083e-01 9.170329272024546619e-01 1.741477027342945405e+01
8.654373743666294860e-01 8.872571452149382587e-01 1.704761333100134379e+01
5.431970543729309764e-01 1.277113796840407600e+00 1.624996878624038743e+01
-4.386388632011927413e+00 4.620795171769528920e-01 1.261563135396623636e+01
-3.382212812120023671e+00 4.931385567841728435e-01 1.238671247873401171e+01
-4.171207514244779091e+00 4.922808957957317544e-01 1.259349889743832307e+01
-3.171663349961818312e+00 6.510082070284193279e-01 1.276467240493344946e+01
3.737509158128183850e-01 7.302211363907811226e-01 1.542737334794440329e+01
3.951520009192547311e-01 1.112247900881762730e+00 1.583582666922542614e+01
2.974822638663247032e-01 8.937951953704530439e-01 1.547631536651005746e+01
1.287796767602352732e-01 8.989316757814633796e-01 1.526574084322466973e+01
-6.851052651014627459e-02 9.330217059078100839e-01 1.506609284811683125e+01
2.271558359842160701e-01 1.324915296019745004e+00 1.582055017501431848e+01
-6.001046103007306343e+00 3.139158396327880407e+00 1.562331381954924581e+01
-5.376346816581317967e+00 6.992815019261952036e-01 1.320123412149521869e+01
-6.051282739885367690e+00 9.407931526253747734e-01 1.378259662716251199e+01
-6.510311270024354613e+00 1.433620247690158056e+00 1.452410037337616444e+01
-6.121691409582801668e+00 1.035691966668523145e+00 1.391013183886600757e+01
-6.286756543106159612e+00 1.411713965554130201e+00 1.434046091538005641e+01
-4.161199099561072146e+00 6.602019119101756317e-01 1.278749401819771947e+01
-6.792857457656797493e+00 2.345061147712951488e+00 1.543578466360541057e+01
-7.793261808642899524e-01 1.599829406387279773e+00 1.501773593272679364e+01
-6.127591915152898139e+00 1.476470885991772786e+00 1.428830572480435279e+01
-5.811703143235170899e+00 1.321730739950226496e+00 1.399056110868542646e+01
-6.573902432370891447e+00 3.320749716948514063e+00 1.606055340960943312e+01
-6.209741835670795851e+00 2.114945738095448391e+00 1.483040728588500201e+01
1.677442475084874873e-01 1.469942274078025024e+00 1.588704423092755746e+01
4.544442215251853767e-03 9.818681920926222162e-01 1.520372802189091033e+01
-5.904059513691767291e-02 1.123729445910130131e+00 1.527017156541054987e+01
-4.089716208661586805e-02 1.302497464191473941e+00 1.547046590680527345e+01
-4.428578110186633388e-01 1.151501638879983913e+00 1.486491610293264642e+01
-3.106520164929982286e-01 1.266752007596420704e+00 1.513167950908449200e+01
2.668868184194408411e-01 2.484411318724392803e+00 1.707675071475203765e+01
-3.286037013457143718e-02 1.892302114842792538e+00 1.609714466620280149e+01
-3.138420548674070165e-02 1.704356901261552704e+00 1.589914659184019285e+01
-2.581956767494109073e-02 2.081457948507043909e+00 1.630659249496761731e+01
-1.660429101281263309e-01 2.348462301252794315e+00 1.646543961534009526e+01
-2.244189824147181933e-01 2.266978456576194567e+00 1.632189544177471419e+01
-2.094286555284025075e-01 2.457139253529402989e+00 1.654477045549553083e+01
-7.170796066199072172e-01 1.111675499128310651e+00 1.452806894492040612e+01
-8.538482454249334275e-01 3.035338029393090942e+00 1.660203170470746414e+01
-8.476546491952878792e-01 2.479414625489645196e+00 1.596667314157111406e+01
-1.523674282239101840e+00 4.235149611765068656e+00 1.742555673369215441e+01
-1.072932667217473490e+00 1.200437041680434191e+00 1.425730484775824891e+01
-1.049645056303151414e+00 3.223092755985690339e+00 1.663168264587618950e+01
-9.283815943823148231e-01 1.875398573147263770e+00 1.518574435728471883e+01
-1.118794350500041945e+00 1.493420906904619372e+00 1.456331694322291526e+01
-1.032095190833076659e+00 2.472087296093920195e+00 1.578425056047909436e+01
-4.160706937233889846e+00 7.934813802523221771e-01 1.288990924180733089e+01
-5.294900114601924557e+00 1.581729544627037409e+00 1.395329916046723895e+01
-1.459988006527236148e+00 1.594492687583759505e+00 1.447721131645111114e+01
-5.657047949196355674e+00 2.352305473254699741e+00 1.478455864723920854e+01
-1.272733592322361051e+00 2.661392103905022122e+00 1.581017921206774446e+01
-1.842807521246478508e+00 1.253100675375906192e+00 1.386934968342232821e+01
-5.160343642513753437e+00 4.718529913735689973e+00 1.701417168634509380e+01
-1.909835507517055442e+00 1.173001529781834140e+00 1.373911222893320172e+01
-1.861096450840006966e+00 1.435782700205411322e+00 1.407610342962237837e+01
-1.899988926769975217e+00 1.730018001503403235e+00 1.438612558451812617e+01
-1.571394586656687631e+00 3.150237488723508505e+00 1.615076744265389408e+01
-5.940257656510247841e+00 4.108141779123130277e+00 1.657380778388132114e+01
-5.778585093308786114e+00 4.183388162758871154e+00 1.659659326155822612e+01
-5.858314540372486334e+00 2.416533699371369970e+00 1.491932798018016371e+01
-5.106414260343477451e+00 1.396335410319528014e+00 1.371044006000216342e+01
-4.568088598608056827e+00 1.153316716910502970e+00 1.330221520826457038e+01
-3.148094509359818716e+00 1.892082784889679070e+00 1.408613153436260745e+01
-5.867475863642539480e+00 3.043051915601385549e+00 1.548876430512854085e+01
-5.850845116713518479e+00 2.947809753692646417e+00 1.539685260282333701e+01
-5.280550145685749541e+00 2.178863246981157076e+00 1.452260244850131699e+01
5.819084070489690674e-01 2.220390355083484035e+00 1.749045007552309272e+01
-5.104274523378062867e+00 2.023352835430411556e+00 1.431906149632884251e+01
-5.449094434185798974e+00 2.780694430103730408e+00 1.515828249771369229e+01
-5.073478343255127143e+00 2.567141263556486752e+00 1.488950058687873934e+01
-5.230734014025664180e+00 3.195140184058426147e+00 1.554711056537386327e+01
-4.725848771332335829e+00 1.630968800717488953e+00 1.384599618819535749e+01
-3.289522665911654986e+00 2.316033959966901534e+00 1.452876082627093979e+01
8.646568740416455956e-01 1.078113857666523678e+00 1.723677822230735757e+01
-4.897759191842030901e+00 2.004414649372299184e+00 1.426951067196004885e+01
-2.129256264997120063e+00 3.400742423858216235e+00 1.614045880604798811e+01
-2.111105252487601724e+00 1.689208117646291196e+00 1.423226023640216908e+01
-3.369715210251471138e+00 8.537479670663508102e-01 1.296193044066558997e+01
-2.217769224480885537e+00 2.756850659880513810e+00 1.538720503552659835e+01
-3.192256084492390844e+00 3.739920298844463087e+00 1.607612013072032653e+01
-2.287864753189135847e+00 2.297730789886908376e+00 1.485251190105019248e+01
-2.422750350922737717e+00 2.610796014114646901e+00 1.514302808806525036e+01
-2.785205292345863004e+00 3.744360400742928530e+00 1.622562599023315499e+01
-2.699401143053799412e+00 1.621562734752807877e+00 1.395368200829866367e+01
-2.494531757164253349e+00 2.152356662718918567e+00 1.461402515159374360e+01
-2.452809132697495009e+00 2.426748718980955122e+00 1.493034926703253262e+01
-2.665297236499526434e+00 1.996809714704230965e+00 1.437903708513496781e+01
-3.560371156966007256e+00 4.639143179902588621e+00 1.698351698012294975e+01
-2.817284288760512734e+00 2.992555908307764412e+00 1.540327232801839585e+01
-4.193735770756426007e+00 3.784387512207016968e+00 1.606062864485159736e+01
-3.317611919562227119e+00 1.353509627245717661e+00 1.346850366311709024e+01
-3.007164319954675591e+00 3.023756782246609820e+00 1.536650006770202737e+01
-7.340941177192968681e+00 3.927270191438464453e-02 1.511891543340441046e+01
-3.195786146955270191e+00 3.534949602515001121e+00 1.585269318716476761e+01
-4.371114482248433575e+00 4.511860488347334552e+00 1.677441566815441121e+01
-3.581635024756490537e+00 3.771889848945364498e+00 1.604419022604815837e+01
-3.992160696288023392e+00 3.990157899377233974e+00 1.625440109144148693e+01
-3.519782620104153548e+00 1.360671553556427993e+00 1.347034510461340062e+01
-3.250144596320151180e+00 2.419776491272346064e+00 1.464202093596664866e+01
-3.295237311274608505e+00 1.614875311342247599e+00 1.377329136631477979e+01
-3.305934372122460108e+00 1.888074813941861718e+00 1.407168001902996224e+01
-3.345206459822589462e+00 2.475428001734849559e+00 1.469281709742932662e+01
-3.498085386190693313e+00 1.904204620243713286e+00 1.407574879220135955e+01
-4.682718101972103142e+00 2.219418996849201520e+00 1.448607498413601746e+01
-3.860619252784847966e+00 2.422192826356526218e+00 1.464351116592029456e+01
-4.662024418591370178e+00 2.611096980536592671e+00 1.489932928135781509e+01
-4.254195438976099197e+00 2.493725884951449867e+00 1.474082243069879183e+01
-4.168437012655832774e+00 3.498847766780813107e+00 1.577650171216756547e+01
-5.014802509466919744e+00 3.594123379458286749e+00 1.592122907430636758e+01
-4.604910076038040145e+00 3.598752126497510861e+00 1.589040383182498317e+01
-4.572885929389578052e+00 4.412993304074680267e+00 1.667920393717129457e+01
-4.537183375547907183e+00 4.913508462232573315e+00 1.717309276583038979e+01
8.281317795126295067e-01 -1.036701731189040854e-01 1.599722675102901803e+01
-2.169162051085482545e+00 4.801857958143136429e+00 1.773318709577856112e+01
-7.601608976816752516e+00 -1.949890224541644956e-02 1.575934171620345126e+01
-7.663302710609469770e+00 -2.177043239787750939e-01 1.593924948765678806e+01
-7.546948536557387399e+00 -3.734456850862312716e-01 1.565593502690938266e+01
-7.657188748197329531e+00 -5.896788297583366312e-01 1.591462944710286820e+01
-7.587621334157535813e+00 -8.287713938211584974e-01 1.578950884647959896e+01
-7.434674829398121076e+00 2.052621684498516785e-01 1.534623346316048753e+01
-7.425145012012704271e+00 -1.955397587798701209e-01 1.533413550375799872e+01
-7.328625494749980263e+00 3.927831289634391432e-01 1.512660560670929755e+01
1.060291070432109573e+00 -1.738721743679972009e+00 1.714853677745956873e+01
-3.921284382961102377e+00 1.446085082810237843e+00 1.357535945208065442e+01
1.081258501306745501e+00 -1.544300940758068119e+00 1.735188439293112594e+01
1.102160619489659599e+00 -1.767465469839285097e+00 1.747669558897242581e+01
1.121017420444837320e+00 -7.605138881186261912e-01 1.776164371035577005e+01
1.071275607057050161e+00 -9.662765687592713704e-01 1.718731038183402404e+01
1.027538014983339743e+00 -7.268151119272197036e-01 1.695834796811728040e+01
1.004819392491995034e+00 -9.298576902957556012e-01 1.676387077667166636e+01
1.075134997598684583e+00 -7.368975250669604904e-01 1.735688910375345273e+01
1.025510483886196811e+00 6.449656430456562894e-01 1.781616254441920688e+01
8.788776475219755024e-01 -3.200059574402004947e-01 1.620666420666518803e+01
1.007546650508355457e+00 -3.341356970209711785e-01 1.700865483620588492e+01
1.030421969270163052e+00 3.542827809715720644e-02 1.739226245667198611e+01
1.005245362589525016e+00 8.398413702979823370e-01 1.783834024440578503e+01
9.859912494043787667e-01 2.505244655816690202e-01 1.722008233240261887e+01
9.191983997161268238e-01 2.704039511606655122e-01 1.680928286062844990e+01
8.611997889042424248e-01 6.671519983522162800e-01 1.679893409198745502e+01
9.489344118209388501e-01 8.179566002533265046e-01 1.746358855972943047e+01
9.133217465594545281e-01 7.364573538037920697e-01 1.717900848729158980e+01
-3.460774663444638133e+00 2.679822209512379594e+00 1.490401708609704912e+01
8.220818792334469993e-01 8.832512761660746836e-01 1.680521255835245853e+01
8.918941979285568422e-01 6.994996773784365462e-01 1.701416175505566741e+01
8.942025137255102951e-01 8.888198621165137592e-01 1.722011647999104866e+01
3.956032905500687091e-01 2.610674127635687736e+00 1.748543477812454938e+01
5.376113126494674876e-01 2.315062879436633914e+00 1.749079906101487580e+01
5.080298512766969754e-01 8.151558405460542778e-01 1.571108329417036487e+01
-4.559486216453896290e+00 4.512002606517729886e-01 1.265317408086303175e+01
-3.347597775940887921e+00 5.215960048617996891e-01 1.249780541624211594e+01
-4.178104095042963095e+00 3.928216253995020502e-01 1.241548385151078548e+01
-2.763374645749838709e+00 6.264808823776052416e-01 1.277766088477051198e+01
3.910847880310337477e-01 9.094935728270607811e-01 1.563678875312878347e+01
2.039243223362998680e-01 7.530316343928209477e-01 1.520778511033725522e+01
2.057253585943450425e-01 9.509948889198904798e-01 1.541513787583344453e+01
-2.637654229799183181e+00 2.848785694071584995e+00 1.531492796374583776e+01
-9.400915332471885266e-01 5.238128558429171466e-01 1.371182050049345236e+01
-1.084018232214265520e+00 5.976024845315455192e-01 1.364361439777565010e+01
-1.797851176780883575e-01 8.170423076530912709e-01 1.481391992480731545e+01
5.035081483152441528e-01 1.924151208149225800e+00 1.682401033833843940e+01
3.766334779014710588e-01 2.398276970307766209e+00 1.714087300291697602e+01
-5.934716059346943240e+00 8.795680216527774764e-01 1.365341909590691927e+01
-6.344082180329182918e+00 1.262103037515491133e+00 1.425765815837319650e+01
-6.282603175982419685e+00 1.208780502917353727e+00 1.416987522284974688e+01
-6.852485933911786731e+00 2.401600723702037143e+00 1.554434327465105525e+01
-6.771411319207638613e+00 2.127006895819784749e+00 1.525248160479858939e+01
-6.722502748657715799e+00 2.262810486383858954e+00 1.529707158909815945e+01
-6.279192392700894132e+00 1.630651412996129590e+00 1.450174851683343036e+01
-4.643497781207354791e+00 3.271322859964819862e+00 1.557020972787718449e+01
-5.722398473244227901e+00 1.227277916112270661e+00 1.386587227286702273e+01
-5.792406464336181671e+00 1.122858109252520498e+00 1.380559379134454190e+01
-6.076947391380425501e+00 1.392644769022942430e+00 1.418950711356721683e+01
-5.329981304878634418e+00 1.030427661329826439e+00 1.350679254131938478e+01
-6.261780258701369561e+00 2.004184106577279856e+00 1.477452980837939123e+01
-6.385520643359042126e+00 1.923843454526120045e+00 1.478936562659075804e+01
2.368086640974599311e-01 1.533708531075580694e+00 1.603530574370000750e+01
-5.097750825736330427e+00 9.611674044568800923e-01 1.334007298433785849e+01
-1.988353211906527251e-01 1.002901295904523593e+00 1.498400811598916249e+01
-6.584452920870346171e-01 7.858064760731270360e-01 1.424377612838387819e+01
2.617752179515340227e-01 2.663123897592308165e+00 1.729370688377961329e+01
1.833918529242400952e-01 2.628796889332238429e+00 1.713328271156712646e+01
-1.651184844927904849e-01 1.953365359349067187e+00 1.603154460217989197e+01
-1.667989044776812535e-01 2.154001867708176032e+00 1.625060651893384289e+01
-4.089435798748405348e-01 3.205911069626481869e+00 1.718797854903537115e+01
-3.520151931001863632e-01 2.523965426141872470e+00 1.649010852511665348e+01
-3.102126659388630969e-01 1.456054851401186179e+00 1.533881870866916586e+01
-8.564421676383064952e-01 8.079863861212865928e-01 1.405811406004784203e+01
-4.829916647753506598e-01 2.767923237656442659e+00 1.664487543183533091e+01
-4.383566042812596653e-01 1.904712927756182284e+00 1.571325720133761195e+01
-8.472965721854579524e-01 1.193738374177635730e+00 1.448259302894300049e+01
-6.355980872712947427e-01 2.831137849603299728e+00 1.657624694131343546e+01
-5.625798522126828072e-01 2.343903629457174453e+00 1.609029421610869548e+01
-7.585010297219905162e-01 2.531577688935654269e+00 1.611409332481897394e+01
-9.196480908465636261e-01 2.963567859858963871e+00 1.645663997218160546e+01
-8.379864513025033768e-01 2.268678177413812058e+00 1.573219304666879736e+01
-9.189974365764628228e-01 1.497819624617987788e+00 1.475711231599611750e+01
-1.108693811859955636e+00 1.314158755824103242e+00 1.435709748842860023e+01
-1.114656635904927251e+00 3.358918868855897522e+00 1.672761288462763929e+01
-9.983751514128759164e-01 2.009504485544129082e+00 1.527343393409618244e+01
-6.425831106392250192e+00 3.031262991584015243e+00 1.571342032800421151e+01
