-5.058465485456171251e+00 -3.663664012571274053e+00 1.481651503752825505e+01
-4.480701494007856667e+00 -3.478936584416602695e+00 1.505661414092946160e+01
-5.161106528941031613e+00 -3.716473972835186323e+00 1.471295065126052748e+01
-2.936691272453436863e+00 -1.260034730973749184e+00 1.102068864265651627e+01
-4.678408436084010802e+00 2.768421313477236190e-01 1.088998951545404381e+01
-4.688126773110786516e+00 -1.294580337835582462e+00 1.476081544586332228e+01
-2.350363543088087148e+00 1.604936457734268407e-01 1.266099754581357217e+01
-1.940606289892807812e+00 -1.679745475879434569e+00 1.095457412128817865e+01
-4.558529661564685753e+00 -1.447224935809339419e+00 1.487786667563177900e+01
-3.721500074854694695e+00 6.939609605882617327e-01 1.027328893224412454e+01
-5.222203447920721331e+00 -2.277873757797393317e+00 1.373116644785037721e+01
-4.734833167163765566e+00 -1.676595872357194761e+00 1.482656163013746919e+01
-4.906707315351290788e+00 -1.616578408434117264e+00 1.252918327556496081e+01
-1.373289559598352527e+00 -4.927448316056862176e-01 1.340005541997521021e+01
-5.079666066806149516e+00 -1.410304579786622936e+00 1.258411398899074385e+01
-4.734492196436391964e+00 -3.634765403126384076e+00 1.340547134485027669e+01
-4.055824620504861144e+00 -3.130287807352964413e-01 1.491698966239181345e+01
-3.852117088263814715e+00 -2.927340659818880475e+00 1.506034031323324740e+01
-9.903174095896365436e-01 -4.556267053233867159e+00 1.270969140357569671e+01
-3.897887705503494171e+00 -3.508685520486886755e+00 1.499762948635359550e+01
-5.374258330207926093e+00 -3.880489019001657880e+00 1.428819990238469018e+01
-5.304540185353420867e+00 -4.001993721460531006e+00 1.412325095397608976e+01
-5.129920812167961586e+00 -3.338621047291371990e+00 1.477970607971553818e+01
-4.935275048840935597e+00 -1.701138783143251842e+00 1.462336762861394135e+01
-3.471276212296385832e+00 4.306230694142774151e-01 1.367888709579658979e+01
-3.271385955320983641e+00 -1.926320356458378846e+00 1.508877377924345353e+01
-2.256140329975538705e+00 1.549671716839933211e-01 1.467646313797002477e+01
-4.903251739821124389e+00 -2.695294132205130921e+00 1.490677393284295249e+01
-2.736678923307947375e+00 -4.195624102978791292e+00 1.245531849199532815e+01
-4.871912554892011471e+00 -2.502315329070090577e+00 1.490690341165043975e+01
-7.078708457275019184e-01 -1.375797773350789566e+00 1.272504582684560148e+01
-6.254261701521198757e-01 -1.928138397368027279e+00 1.230974802265523493e+01
-2.890961865288793398e+00 7.939874495340926153e-02 1.015212257135585006e+01
-4.706771167063159567e+00 -2.703020236703544299e+00 1.499461645440852919e+01
-5.404892488367192271e+00 -3.640840407258655986e+00 1.429565156879638721e+01
-4.104078786770500642e+00 -3.827440329057256285e+00 1.321228812963297372e+01
-2.056575476997930974e+00 -2.117796688055498144e+00 1.458622799181106444e+01
-4.602967477623785442e+00 -7.250297917326575803e-01 1.379964165519028541e+01
-5.235310724422358675e+00 -3.536695529868648880e+00 1.465814502939340258e+01
-1.012737160506615774e+00 -7.916267997098876963e-01 1.155102541862540022e+01
-2.947833437535459122e+00 -3.001426300716995677e+00 1.480837129795858687e+01
-1.931794663504155185e+00 -1.667874850470664194e-01 1.142597153034334312e+01
-4.875189306477611950e+00 -1.889546776246418425e+00 1.479479600598071443e+01
-4.699788336331756966e+00 -2.502097333523333411e+00 1.498190888355910744e+01
-4.724951569151881969e+00 -3.469096636724997573e+00 1.500719524580772912e+01
-2.424211473480146761e+00 -3.138893432594864308e+00 1.177190232398126568e+01
-5.058452138987851399e+00 -3.194670577244102194e+00 1.337930199903469486e+01
-4.748253532679122202e+00 -7.833018681027905661e-01 1.173387317020640808e+01
-2.874294349235687385e+00 4.219863336487112981e-01 1.062294126516809101e+01
-5.242825363909807024e+00 -3.712403887133028935e+00 1.461444637928652668e+01
-8.867128926120662058e-01 -1.550527425700507944e+00 1.113405755140970754e+01
-9.222940520325366709e-01 -4.558779192299612149e+00 1.255827588723595056e+01
-2.722099998432032653e+00 -3.116228529670928560e-01 1.033415400318658683e+01
-1.349734114886228742e+00 -4.379370556940042292e+00 1.316769904378417522e+01
-9.413333762076661060e-01 -3.518723883412136377e+00 1.140157693302848685e+01
-1.139631230231763492e+00 -3.113281808751443336e+00 1.125612772781708060e+01
-1.125724841648901631e+00 -2.886253569986243050e+00 1.123742101535171756e+01
-4.904172122495541686e+00 -2.077789925096709567e+00 1.481978025316846725e+01
-3.123527643992675795e+00 -3.339335099626313141e+00 1.243300165430677140e+01
-9.716323708622121025e-01 -2.732524154552223195e+00 1.132373628317423098e+01
-1.142592384926647942e+00 -2.535957979798628692e+00 1.120330649402280088e+01
-3.246358144798681789e+00 4.627033032739473750e-01 1.412054633467673170e+01
-4.411122546502454611e+00 -7.323287064292336446e-01 1.454401078838026962e+01
-3.756729000120515138e+00 -3.196989294725269382e+00 1.280375524347189042e+01
-1.409617540086439025e+00 -4.664435123407159600e-01 1.263875732762505777e+01
-4.110446279150751892e+00 -1.286207426892866490e+00 1.501634659631450575e+01
-9.369458980127816083e-01 -4.326861018863301211e+00 1.179726111624055562e+01
-1.135107229591252542e+00 -4.360497713226267891e+00 1.170644763624390805e+01
-1.128125131505897327e+00 -4.506104205468145274e+00 1.182049066224357858e+01
-7.959935924715920708e-01 -3.612237910781467498e+00 1.317595246955725941e+01
-4.164446030643800256e+00 -2.301303760490283068e-01 1.064144632857325945e+01
-5.377555079054048282e-01 -2.598610909944460978e+00 1.249877808159779846e+01
-9.235457633249457565e-01 -3.815036907462869831e+00 1.321037651796432044e+01
-9.339566978206204073e-01 -4.194678494951142866e+00 1.296093607390108815e+01
-8.454337136284861831e-01 -4.185294108864111351e+00 1.176786129191910391e+01
-9.789863411670223226e-01 -4.693108022497272103e+00 1.238961095379103483e+01
-1.918803433121479607e+00 -2.337682198575575798e-01 1.081420186188825383e+01
-9.851684058697445234e-01 -4.700872818885486026e+00 1.224292549840170352e+01
-4.128087947701018834e+00 4.982895937856333113e-01 1.149441981463910167e+01
-1.099264536923353131e+00 -4.743469549373463323e+00 1.211881377382915304e+01
-9.015416531231043029e-01 -4.572994811795659587e+00 1.215188321290395379e+01
-3.864563716801856952e+00 -4.622616447519132810e-01 1.069969772729436386e+01
-5.322953146935549995e+00 -2.847090754908142785e+00 1.393083037579474137e+01
-1.136847119614266877e+00 -1.881962203850099602e+00 1.106701017385902830e+01
-4.261617437405494258e+00 -1.890872360465001734e+00 1.504574526144439517e+01
-1.722697671300400302e+00 -3.076493904872144913e+00 1.129235608265187807e+01
-7.665825943957990107e-01 -3.948059469067059180e+00 1.291620389750556086e+01
-3.752693210211788255e+00 -1.136013338803887773e+00 1.138593649384205619e+01
-5.697631028939841302e-01 -3.367228078198697627e+00 1.222614516549786146e+01
-1.113717750583006483e+00 -1.749994498460055947e+00 1.103961748983868674e+01
-2.969029488732508160e+00 4.730377834738663800e-01 1.066126130892633128e+01
-1.151988335668262531e+00 -8.079581568752406406e-01 1.411703458097493069e+01
-1.184873380202582149e+00 -1.693261094484334706e+00 1.101532082246679067e+01
-1.713281828597147172e+00 -8.570005582357244078e-01 1.451998102733629281e+01
-1.336985080203028531e+00 -1.486155660410362067e+00 1.095580651248959825e+01
-3.811267626202235359e+00 8.331309061024894103e-02 1.484513171120654107e+01
-3.124632307879607662e+00 5.383937177139475061e-01 1.048532326674049031e+01
-3.466127968048715147e+00 -1.893446729342130652e+00 1.510311907790772779e+01
-1.536348202276195396e+00 -4.137004602989526880e+00 1.155537507288817523e+01
-7.138392138108101692e-01 -1.339731313409000091e+00 1.253962034702792749e+01
-1.163414438379144933e+00 -1.441233812870220010e+00 1.097072054585515133e+01
-1.292353624402184042e+00 -4.602148289456065910e+00 1.296082441789797457e+01
-3.333582289173444568e+00 -3.411442700451840171e+00 1.261180536582609335e+01
-1.329130983457582404e+00 -1.265645382701628741e+00 1.092447639595037145e+01
-1.124026030388338926e+00 -1.280637010821087607e+00 1.094911100396520354e+01
-1.126669932427341037e+00 -1.094075703904938912e+00 1.091190346564121683e+01
-6.532959612258818494e-01 -3.022828886804271420e+00 1.307055626260117265e+01
-2.479866850000650214e+00 -5.274207755164612710e-01 1.502347401379859804e+01
-5.866948956207276300e-01 -1.831604073849684822e+00 1.317455342081573377e+01
-9.292018687009366840e-01 -1.082587635152141736e+00 1.099774956606862375e+01
-2.316865639426664458e+00 -2.306000841247504596e+00 1.135393908534863883e+01
-1.317120244084051039e+00 -2.887334526293905412e+00 1.120797849192977935e+01
-9.640238611225033782e-01 -3.895708176288841251e+00 1.144319209860147168e+01
-1.331205779820759050e+00 -8.697521400833134742e-01 1.082979343247038884e+01
-1.316908087840458652e+00 -4.683186425699627620e+00 1.195221962314919750e+01
-1.172396656390311875e+00 -4.720354842764000303e+00 1.203410322320677750e+01
-2.916841203014512995e+00 4.926477062158152176e-01 1.188502332462200428e+01
-1.351746578668669097e+00 -1.820338392993908094e+00 1.101589870110081648e+01
-3.245106056835008523e+00 6.230755280823130349e-01 1.059405840809409227e+01
-3.903958253786115495e+00 -3.611254967117505377e+00 1.303124723465312940e+01
-1.091114077035540531e+00 -4.811598253893230925e+00 1.234483511830411828e+01
-9.723019771264973521e-01 -4.037795134672011343e+00 1.311924843925491757e+01
-8.732876399684798008e-01 -3.621780809972671378e+00 1.326545296770667193e+01
-5.404298254407665425e+00 -3.046649243455446854e+00 1.429656231485531492e+01
-7.208103403354063632e-01 -4.015716913865976068e+00 1.279571098717922695e+01
-1.338105278633039852e+00 -4.040814334057037271e+00 1.148316935776371395e+01
-2.099000896159497032e+00 1.877394540108257015e-02 1.325223288618823148e+01
-9.830679655838687747e-01 -3.738664400313390868e+00 1.331398743688063746e+01
-7.526968155192401699e-01 -3.201218378257861374e+00 1.319216715439640097e+01
-6.806515025870175650e-01 -1.586061510880209191e+00 1.330748922599048711e+01
-2.927945368280826077e+00 4.868792460831006252e-01 1.369400924831615640e+01
-9.097506501740962870e-01 -3.168291239097434708e+00 1.336280415127934873e+01
-7.589049281512664225e-01 -4.388171304525281258e+00 1.238829057615618012e+01
-8.032134003630591046e-01 -4.481737680432102522e+00 1.227995975754663505e+01
-9.143656685234008430e-01 -1.215756803794871388e+00 1.374527294419373646e+01
-2.814651166860293152e+00 -1.956267434389572735e+00 1.148540609561472081e+01
-3.662530620523456015e+00 -1.733328815474327822e+00 1.510772833890900557e+01
-7.523388454521757751e-01 -4.367735883075949843e+00 1.216836751636087399e+01
-3.898585725528953549e+00 -1.239796124358315099e+00 1.162532448721771772e+01
-7.061940835612461331e-01 -4.208374777961645385e+00 1.259112410521956349e+01
-3.270311076755903823e+00 -3.151988809125292779e+00 1.247371098844214288e+01
-5.555266867119155183e-01 -2.969677759480260359e+00 1.297797027556644167e+01
-5.200545822148301411e-01 -3.199739763810328430e+00 1.287807117318343586e+01
-3.099205478077615261e+00 -1.618762928193205441e+00 1.144197017096524860e+01
-9.073773413033273672e-01 -9.952241304739164462e-01 1.376865208714374944e+01
-5.034340259908992365e+00 -1.470074632002063897e+00 1.319083568359825165e+01
-5.153821158771505484e-01 -3.800636622442072010e+00 1.261143448969399827e+01
-4.531781602254797647e+00 -2.161703897476653369e-01 1.091875902422765776e+01
-8.804113118695099383e-01 -2.684289372469486956e+00 1.142877300803827723e+01
-1.735512335221470082e+00 -8.611850780172755071e-01 1.074711800719457244e+01
-4.342623848781114404e+00 -4.513487371258656511e-01 1.102421202753486185e+01
-1.318104520389299816e+00 -1.422673976750377545e+00 1.410159696265950657e+01
-1.323008812649643540e+00 -2.636552973317441761e+00 1.383871345373422201e+01
-2.336839387621331809e+00 -2.465562719015962134e+00 1.464225097585849511e+01
-1.250542412158618610e+00 -1.058005969142840286e+00 1.412963075833161497e+01
-1.815228957503856266e+00 -1.579924762547360029e-01 1.383085684598616183e+01
-1.469296979481371945e+00 -4.863067259248214036e+00 1.280289618876219748e+01
-5.301557327858494872e+00 -2.478960749964017829e+00 1.439148708297702228e+01
-1.506760856451628161e+00 -4.920634155721200109e+00 1.273045246092362959e+01
-3.221775246230722534e+00 -1.816392097050487875e+00 1.170113371876471575e+01
-2.942248823604284080e+00 -3.577514306899336027e+00 1.237654764372646810e+01
-2.731402955581434089e+00 -6.992025061456699220e-01 1.053082835515838056e+01
-1.361964619488693851e+00 -4.921610270292953615e+00 1.257199836665671455e+01
-1.309712296430338263e+00 -4.935278345077071194e+00 1.238257527916574219e+01
-3.267767303473687157e+00 -1.692093551173852406e+00 1.510969725269960406e+01
-1.077559423943372563e+00 -3.044471673510710463e+00 1.352137537784233956e+01
-3.698733150658135127e+00 -1.523226631686976695e+00 1.510781769628803772e+01
-1.722006872515095210e+00 -4.688784383127087452e+00 1.204388811750638411e+01
-2.883132058723752333e+00 -1.815195107318229528e+00 1.144283853690114938e+01
-3.634635496500724372e+00 -2.469528811745478336e+00 1.241070335337386155e+01
-1.062420567263404614e+00 -3.221661118952183767e+00 1.349083511295909688e+01
-5.089773068139896495e+00 -2.501188814606684296e+00 1.475756373385932818e+01
-4.848331199133328440e+00 -2.513980111786705329e+00 1.303051060655148063e+01
-1.531307111193467074e+00 -4.303070877539118655e+00 1.165087565523708690e+01
-4.175914648080020442e+00 -1.559378547397707759e+00 1.213760255831266477e+01
-4.143885495638226502e+00 -2.187293697216889932e+00 1.254180772733460714e+01
-5.180515665322207752e+00 -2.181477143698641985e+00 1.402619794904635597e+01
-1.308534501095351521e+00 -4.019971013761080236e+00 1.336985323649641799e+01
-7.827185933842911725e-01 -1.169723322092024009e+00 1.178155716895776095e+01
-5.114708806856002710e+00 -1.773374160764388030e+00 1.317444430199385152e+01
-1.143125183629198016e+00 -3.679625997641889246e+00 1.345112322795802839e+01
-1.521129597106297027e+00 -3.989499972414131790e+00 1.352916243668720853e+01
-4.638303203467298630e+00 -3.254906226394316260e-02 1.202356962767350979e+01
-1.127148105302170578e+00 -3.818675026436794351e+00 1.337473034316472109e+01
-2.166308258663048658e+00 1.551609945372056654e-02 1.206022513466144375e+01
-1.357496024362746079e+00 -3.697589207692637547e+00 1.134068417299671339e+01
-3.131153667349189096e+00 -1.691056707530236736e+00 1.152573576531980137e+01
-2.073988592413602117e+00 -7.598026408028757395e-02 1.482767172478875040e+01
-1.524779997701246392e+00 -3.491499147210265885e+00 1.130026216694473007e+01
-1.361099775273675316e+00 -3.500806091435011869e+00 1.128971444790490963e+01
-2.283245615994313304e+00 1.737437998399782302e-01 1.424936197200798915e+01
-1.554926955823902945e+00 -3.295621439827976396e+00 1.127709180654107968e+01
-2.037812019000536878e+00 -6.087185674456330187e-02 1.225341265048464834e+01
-1.540783934019340107e+00 -3.094576483364286368e+00 1.124039414590084363e+01
-1.945894363726255349e+00 -2.258743773075675421e+00 1.116747538958184904e+01
-1.749453620352804606e+00 -2.292552847777269420e+00 1.112783895726973782e+01
-4.639302865970636347e+00 2.129421234951887065e-01 1.125193654239977903e+01
-3.356094182062589137e+00 6.641373136509005626e-01 1.110328329493348676e+01
-3.347417003039870664e+00 -1.351894415291189144e+00 1.134979097413582494e+01
-1.735605894502241897e+00 -1.684447982348330264e+00 1.095193875223340640e+01
-4.547836394367513080e+00 -2.820230615052738532e+00 1.303360581826867559e+01
-1.743732071743423706e+00 -4.725248755951549917e-01 1.064215533396118474e+01
-1.722047837054555774e+00 -6.285132267524744520e-01 1.066805146410129268e+01
-1.682742426403641245e+00 -1.284229002377411444e+00 1.087544445858460662e+01
-1.300841966359232327e+00 -4.801172454836378556e+00 1.275130322817101103e+01
-1.359129063917521529e+00 -4.870318306372068307e+00 1.215605443395349283e+01
-5.360758983335394134e+00 -3.263287306567092205e+00 1.450246586128608328e+01
-1.501248164959312126e+00 -4.728039072243934271e+00 1.201694337413324121e+01
-1.766499394423274527e+00 -2.087906990207291091e+00 1.106979890867087590e+01
-3.094289542632661760e+00 -6.901761976511870955e-01 1.515877623807593721e+01
-1.744949876488800067e+00 -1.849412288205080079e+00 1.099768717277354213e+01
-1.546335050234434183e+00 -1.672457255790447572e+00 1.095869602099398321e+01
-1.554179137594276394e+00 -2.909252566059206124e+00 1.121346473497968432e+01
-4.302012626853873201e+00 5.158463637918455635e-01 1.113415334176760751e+01
-8.418712070406449977e-01 -3.368194937068766492e+00 1.329041430627147236e+01
-4.979805596617676855e+00 -1.604418744188822687e+00 1.384733307884891218e+01
-1.422213990378190518e+00 -2.673373566800462342e+00 1.393155304066142008e+01
-4.520070522849566785e+00 -1.137367162979462165e+00 1.196285129653986701e+01
-9.463600291158777988e-01 -3.017249177205989508e+00 1.340246063880933747e+01
-1.187990238443593860e+00 -4.329981160285060859e+00 1.308483705412236020e+01
-1.217067645830606004e+00 -4.899097714314036622e+00 1.223428301486160308e+01
-3.238960312699525890e+00 5.461142985604729994e-01 1.239524720281902859e+01
-9.889815394161123319e-01 -3.619327651807839441e+00 1.337188542350745024e+01
-1.156525506599065167e+00 -3.965514501568964789e+00 1.330836327063032343e+01
-4.377314632849518716e+00 -1.406807801770110888e+00 1.212552485027207894e+01
-5.041256984959728626e+00 -1.398086049052668534e+00 1.301418361377830735e+01
-1.158967666325291690e+00 -6.687621595604098523e-01 1.317630963678181644e+01
-5.044306075523254940e-01 -3.768525770160050747e+00 1.240410700084947848e+01
-1.346594406273322164e+00 -2.826023217195174908e+00 1.381460719886883481e+01
-3.105923507114590976e+00 -3.989906517161417199e+00 1.263608464852455882e+01
-1.760951059223388127e+00 -1.648485325587905059e-01 1.442638715871790822e+01
-1.066166367795026604e+00 -4.015600234177613359e+00 1.321431853506623355e+01
-1.149155912087334919e+00 -4.217669393343598472e+00 1.313429966605163202e+01
-1.128260869512518250e+00 -4.147810881840618080e+00 1.155308142526153858e+01
-2.491545377445978371e+00 3.112529356835824768e-01 1.424560318788464741e+01
-3.735984792772986562e+00 -2.597341593337423760e+00 1.253137004563605927e+01
-1.470027519661305293e+00 -2.660804576212048911e+00 1.116889934471089063e+01
-4.892416045402954161e-01 -2.810991035081768619e+00 1.285077948839197148e+01
-4.121293470675437831e+00 -6.296071438578161317e-01 1.105183805346701931e+01
-4.861310655216591670e+00 -7.796850426705446147e-01 1.284292675423350971e+01
-5.345335711061803829e-01 -3.977829596981373950e+00 1.236574468312046093e+01
-4.876862616743267154e-01 -3.150983760686989932e+00 1.261831137727864416e+01
-4.942006799566288633e-01 -3.398258664978432542e+00 1.264583873255961066e+01
-3.696787919147370705e+00 -1.530435326692054065e+00 1.178246823951850786e+01
-2.467850488075858717e+00 -1.109950054303403544e+00 1.494240525094132011e+01
-4.873433836000213848e-01 -3.591610846069622109e+00 1.261273605541357767e+01
-5.784714707991857052e-01 -4.106590728893060316e+00 1.241555790895498745e+01
-3.574430882445909230e+00 -3.010227828531450101e+00 1.262474981124675111e+01
-3.482843537495129649e+00 -2.560511037433178316e+00 1.235850075267013892e+01
-1.931672863478426372e+00 -3.909564814186828219e+00 1.162908482122339393e+01
-3.536737306538853876e+00 -2.371610197174551793e+00 1.229686744480051175e+01
-2.776169704112867898e+00 -2.668466921735583419e+00 1.481442459298922643e+01
-3.933932447384384634e+00 6.802074024092261695e-01 1.036735661253416652e+01
-3.526958436091709892e+00 -1.111515003380808775e+00 1.119143820118125277e+01
-3.787777580391943566e+00 -9.374114336050951568e-01 1.116105351587957273e+01
-5.144716748287040176e+00 -3.047483851800006693e+00 1.350450389222766034e+01
-2.296441448327260826e+00 -1.891658644973116976e+00 1.474448487722404622e+01
-3.561969178457375484e+00 -1.999186196172592744e+00 1.208988150353295055e+01
-3.732896883193294713e+00 -1.943438994138094511e+00 1.216223473424814472e+01
-3.946192532919235330e+00 -1.740718645325475711e+00 1.214481063728310772e+01
-2.578088206721291797e+00 2.484808759291339264e-01 1.106940639491616452e+01
-1.190840724823117869e+00 -4.030236723955401779e+00 1.148087283242470136e+01
-3.746290304831554341e+00 -1.725508975536030665e+00 1.199905617191275553e+01
-4.553848006586573405e+00 -2.014121186421247156e-02 1.072061266431657245e+01
-4.513973767075736276e+00 -5.068486534135013821e-01 1.122919298270744903e+01
-4.351891412324087938e+00 -9.915093997584523144e-02 1.064765871376169315e+01
-3.960171053185652656e+00 -1.571977724121148778e+00 1.200719502430794705e+01
-3.496719840810272650e+00 -1.307525484338336152e+00 1.140242648245503077e+01
-3.104762993506039681e+00 5.843226975656936606e-01 1.107257597536188953e+01
-3.351513341787636602e+00 -4.020006367874451314e+00 1.455052886858651817e+01
-4.621719840062198159e+00 -3.073850540086254135e+00 1.503334946292429208e+01
-3.461576516026674266e+00 -3.368208854633405469e+00 1.268652379567836874e+01
-3.316418647791993024e+00 -3.594536457210327551e+00 1.265949952813755175e+01
-4.157594120911092261e+00 -4.173107848775670092e-02 1.046184844361511779e+01
-3.955821120486149756e+00 -2.141926331205882272e-01 1.050399123808903212e+01
-3.742933836523398838e+00 7.010063190390753984e-01 1.071302965436318644e+01
-6.586840117016601326e-01 -3.352783124542671800e+00 1.194395230109621053e+01
-4.372134397809967155e+00 -2.759105347133226083e-01 1.085247125039864002e+01
-3.950541213113215822e+00 -5.126198545244077254e-01 1.079528691542684626e+01
-3.952723162136812629e+00 6.526444166861025131e-01 1.026250507657062627e+01
-4.271926919325654382e+00 -2.929252528634263886e+00 1.508410936859174001e+01
-2.267362330436116125e+00 1.479853150508185777e-01 1.481450577992672635e+01
-4.769306002215536466e+00 -9.041900398742364064e-02 1.166404740654117234e+01
-3.584104116327598621e+00 -4.004114061913109701e+00 1.297765846426935354e+01
-2.406203839979756509e+00 -2.868467514642226934e+00 1.458103030737087380e+01
-3.243484846739726368e+00 -3.916019043708922620e+00 1.270956215063956307e+01
-3.512860122871850344e+00 -4.216532592656783152e+00 1.300614437778668986e+01
-7.241625881101200202e-01 -1.919392090984572530e+00 1.169715883324176531e+01
-3.852496655865159880e+00 1.864075450447855165e-01 1.014759073642817455e+01
-3.802569780180788950e+00 -7.314282594465828513e-01 1.092974188409718650e+01
-3.333400948438961731e+00 6.483662531397300643e-01 1.127758832786339838e+01
-3.051385203344886055e+00 -1.125035534179863461e+00 1.513814070330133177e+01
-3.257889093877144315e+00 -1.140403128428536306e+00 1.514346022919645662e+01
-4.099834628407791115e+00 6.699606579285881658e-01 1.048982110058820894e+01
-4.942210681596202804e+00 -9.861773615609527033e-01 1.283828236599721606e+01
-2.463970465527975939e+00 2.738652993538606140e-01 1.484967115025033024e+01
-3.098143186922554193e+00 -1.723415684467017872e+00 1.508249547236853516e+01
-2.895302590673786369e+00 -2.512016930635398104e+00 1.489390759318965962e+01
-2.653671492041228763e+00 -2.530548726058612807e+00 1.478809657643139985e+01
-5.390566439076717842e+00 -3.426489309258357263e+00 1.420552703480298362e+01
-2.080638880882458075e+00 -1.708904072992032397e-01 1.055126949120982616e+01
-2.901801413816369024e+00 -2.338198226546047920e+00 1.493026902533730293e+01
-2.876686784092801208e+00 -2.724372567862995087e+00 1.484447504190653433e+01
-3.332587604209038545e+00 -4.183547299937472985e+00 1.285925220304113736e+01
-3.906990436559810043e+00 -2.760229370078887801e+00 1.270013844726147312e+01
-6.734157622336029991e-01 -2.142997242195570529e+00 1.193133999553210600e+01
-3.769447623772945288e+00 -3.647868966366010213e+00 1.297090851642107623e+01
-1.511605730546060622e+00 -3.852300540252595606e-01 1.318812207572742068e+01
-2.857948063256137594e+00 -3.868228927773875281e+00 1.443562515476831720e+01
-2.199633788162093762e+00 1.156818838590600862e-02 1.143871676864871745e+01
-3.933455453630083642e+00 -2.034977942755233915e-02 1.032734109613871354e+01
-3.264076177371046494e+00 -2.536909935069338484e+00 1.219330897729778940e+01
-5.106628670153368077e+00 -1.784326407506797274e+00 1.296808844754848167e+01
-2.536239811678512091e+00 -3.639849554606245263e+00 1.440307457867488239e+01
-3.737922166786611822e+00 -4.248836039784889884e+00 1.318715312141127072e+01
-4.108419395495435111e+00 -4.341254725127988046e+00 1.424092138199942781e+01
-4.308407252866588877e+00 -1.319209815428254995e+00 1.199893099597129975e+01
-4.171984933995522837e+00 -1.181159129744738134e+00 1.176301302227897594e+01
-4.134741695634325254e+00 -2.853240798221486685e+00 1.285197858974959928e+01
-3.085375298015380796e+00 -2.887039530226961581e+00 1.488673035948851719e+01
-4.515509456197927207e+00 -1.563131180732979519e+00 1.233469068653568002e+01
-4.309862692126724681e+00 -2.278915465595277023e-02 1.053835090268157160e+01
-4.364602577407099560e+00 1.310459111599628912e-01 1.043572151460639574e+01
-5.298862294488138502e+00 -3.042298439900239071e+00 1.391208369455250704e+01
-4.312680703073446864e+00 -4.046079960607141146e+00 1.341686053556026081e+01
-4.284077368552470233e+00 -6.377418503089253843e-01 1.119458540416801995e+01
-3.613603874725533238e+00 2.229613796668876713e-01 1.488271072708159437e+01
-4.043644092077784080e+00 -8.421580848062141245e-01 1.124845305278853047e+01
-2.862242271409257466e+00 -3.955934280685262650e+00 1.245271919156402163e+01
-3.125325660019421914e+00 -2.488855464528972661e+00 1.497660129634120096e+01
-3.692384385543492353e+00 4.197395075859775559e-01 1.309559092624604659e+01
-2.859644199220016780e+00 -1.922817080543935520e+00 1.498553574236819230e+01
-3.070761051277048903e+00 -2.285126033646555310e+00 1.499602930039346660e+01
-3.194257419706567180e+00 6.399854610723920700e-01 1.108879128601901698e+01
-3.724193195736083428e+00 -2.338036576739686012e+00 1.239629473776319202e+01
-3.284832089162204483e+00 -7.314250548527300166e-01 1.515528477916741679e+01
-2.446220669426204974e+00 1.828825584464909282e-01 1.162627878866717879e+01
-3.434704283397375768e+00 -1.514844167276998554e+00 1.512355433658728998e+01
-3.725674203356441616e+00 -2.387474274584189260e-01 1.041961993467166536e+01
-3.721818885511474662e+00 -4.616777074056689911e-01 1.062025546478460569e+01
-4.323387677223772485e+00 -1.557108345242478986e+00 1.222442419959454440e+01
-3.569072539772376818e+00 -6.958059597651483630e-01 1.077180075530042913e+01
-2.804562642698944064e+00 4.071396384325449702e-01 1.145818354855138210e+01
-4.265310811864379659e+00 -5.098691520603571004e-02 1.366359538951147101e+01
-3.106563003731460881e+00 -3.585136161332789229e+00 1.250453658461733397e+01
-2.959178544868569016e+00 -2.751881144945286461e+00 1.205284120457660180e+01
-2.219156593719723958e+00 -3.752938499670366301e+00 1.181598042561127926e+01
-2.121660723438578255e+00 5.485731063457854884e-02 1.480051138894646101e+01
-2.499794840824443032e+00 -2.103157786469850077e+00 1.135991385626576644e+01
-3.700354299643903389e+00 -3.114468289719662941e+00 1.500702515822654703e+01
-2.285758471755812593e+00 -1.073850185228027998e-01 1.496696628667925211e+01
-2.431895138854060168e+00 -2.937278028872181146e+00 1.169777499385722308e+01
-3.175502774644415549e+00 -2.154389598219473179e+00 1.190304509212512585e+01
-2.480452870126939491e+00 -2.704954025742367207e+00 1.466317077545205194e+01
-2.522164980142137303e+00 2.652788215921844106e-01 1.248465197556302542e+01
-5.184521893737919385e+00 -2.160522280902399395e+00 1.378056754433753639e+01
-2.269797239463949179e+00 -3.099674950320600697e+00 1.162988001610529665e+01
-2.489562380485719206e+00 -2.504532684540555110e+00 1.471405438768313445e+01
-1.531799873497439402e+00 -1.261123347509921278e+00 1.431899331429754341e+01
-1.906178567659141843e+00 -2.180111260481087943e-01 1.099183003646579948e+01
-3.848886322102962776e+00 -1.473966513146509172e+00 1.183429957066928750e+01
-3.183408410535085054e+00 -4.211774747186495027e+00 1.276093922229160427e+01
-2.528326752989351611e+00 -2.324935057611883238e+00 1.149296787690445143e+01
-2.267428955904887911e+00 -2.896745834978704526e+00 1.448958914570494727e+01
-2.825511738982236842e+00 4.506898486695991579e-01 1.401852570775582052e+01
-3.718277649916214678e+00 -8.789315865685720652e-01 1.510243316291290938e+01
-3.528198928750169383e+00 1.770658460873792972e-01 1.009117211719755147e+01
-3.346173924813742317e+00 -1.165964347835934500e+00 1.114149334606566910e+01
-1.394542339334845948e+00 -4.545549045305021352e+00 1.308392093384540544e+01
-3.151651494275230725e+00 -1.942028433861004544e+00 1.174297805368068737e+01
-7.876213149517526935e-01 -2.109131060989512640e+00 1.149223521601660991e+01
-3.291523778575896397e+00 -4.438130309396514761e+00 1.399704508159712901e+01
-4.498557396886347703e+00 -6.637032526721047265e-01 1.140160922847831415e+01
-4.338777172163913676e+00 -2.525751335815649590e+00 1.280733786534853635e+01
-3.470436072494719859e+00 1.213078651993598767e-01 1.513812811591667185e+01
-1.008774639973409881e+00 -7.808387870777052653e-01 1.175354043336790255e+01
-3.676547181091079253e+00 -3.032089357177291666e-01 1.511597492368942142e+01
-5.077875960166931435e+00 -1.859292651559426135e+00 1.381243167179247422e+01
-3.696206842695601402e+00 -7.045435426308209736e-01 1.510746005922507607e+01
-7.754418307814793243e-01 -1.187897326942499276e+00 1.314402125859996318e+01
-4.303323042797837061e+00 -3.820668637847435267e+00 1.330354528743239229e+01
-3.721687112202738401e+00 5.538187209926279664e-01 1.168263537146820141e+01
-3.474085255317202137e+00 -7.533556227961261120e-01 1.513887521859208363e+01
-2.327392543421621163e+00 8.841987518227845122e-02 1.124817102251179790e+01
-1.233294900268478766e+00 -5.786757424672430705e-01 1.402696301530411205e+01
-3.481610341043593682e+00 2.792043172184748290e-01 1.489005681757629418e+01
-4.464404688821117517e+00 -4.012490314008551273e+00 1.347514380642456899e+01
-4.087091688325282135e+00 -4.010818974713435736e+00 1.327753117821555406e+01
-3.096376365639061934e+00 -4.670275742384768947e+00 1.357892595048190287e+01
-1.849777087354020244e+00 -6.854070396110312213e-01 1.463659193097855393e+01
-4.179550581567790246e+00 -3.692438831067257343e+00 1.319622380637539294e+01
-2.262428054982298153e+00 -2.682203070636314468e+00 1.454480953141982980e+01
-4.310078678118907547e+00 -3.215988094974704392e+00 1.307326730673993609e+01
-4.065646296620185396e+00 -3.410584353901390475e+00 1.303692609317491957e+01
-4.218541062430945843e+00 -5.458156264175301198e-01 1.482607686868036723e+01
-2.679940409638265297e+00 3.527814366825563486e-01 1.488658484206219157e+01
-4.265451671558423641e+00 -2.994748142017918280e+00 1.296982165519460040e+01
-3.486460136165800971e+00 -2.330867364759226401e+00 1.506257558423880738e+01
-1.296610887861362249e+00 -3.293998459121871392e+00 1.366719045479662498e+01
-4.077168689199963225e+00 -3.760728420515883075e-01 1.073350676258715453e+01
-3.433887252178042804e+00 -3.104068756336214818e+00 1.493913827869248223e+01
-3.689102870579817228e+00 -3.480738240772324410e+00 1.493963896088995114e+01
-4.418835361621693991e+00 -5.959783545140662220e-02 1.302715044438192393e+01
-3.887653852063905457e+00 -1.331565591820250471e+00 1.507614618682629981e+01
-3.540512363729590994e+00 -3.136060120830477249e+00 1.265112823796579278e+01
-3.375469453334372982e+00 -3.637404097703941463e+00 1.477078938724880430e+01
-4.435801362828208028e+00 -1.490063551149235277e+00 1.223471242773523926e+01
-3.293441172762431979e+00 -1.879875282177133178e+00 1.180539800249708549e+01
-3.240920364247962926e+00 3.543765571702330863e-01 1.486690624608622358e+01
-4.730934695617483143e+00 -1.090304128543584383e+00 1.205620829401111394e+01
-5.191381416192598408e+00 -2.660993999456403802e+00 1.344440418522286507e+01
-4.281495892533232706e+00 -1.037215924621334828e+00 1.168461527051434956e+01
-4.514789970486972948e+00 -3.356649954641954259e-01 1.103685115423438390e+01
-3.566922079200218310e+00 -1.190878001326651781e+00 1.131336906978911472e+01
-4.540289063516523171e+00 -3.366717742568586580e+00 1.322479690050502654e+01
-4.500117396749649501e+00 -2.345374204159091480e+00 1.280090606818084353e+01
-3.387514035700394999e+00 -2.434919363163667860e+00 1.222823002147224969e+01
-4.451932221315766824e+00 -2.769910171634631268e+00 1.296587991941268569e+01
-4.786658617730520149e+00 -7.513591769871368342e-01 1.309427025218654705e+01
-4.214340183316728883e+00 -3.074552292311010793e-01 1.445521187306542288e+01
-3.648286963864677990e+00 7.156884018194920039e-02 1.507031297390356883e+01
-3.667748841635517731e+00 -1.207527019323012540e-01 1.511541732971758734e+01
-3.921256106777981199e+00 -5.125436597021568730e-01 1.505238437629306247e+01
-3.871667110111129517e+00 -9.055421292473722072e-01 1.506451397500636347e+01
-7.154958924023189226e-01 -3.751477672662594465e+00 1.178900635668919250e+01
-3.514821870696025918e+00 -3.798952216077474908e+00 1.286064915063487035e+01
-3.470225191376990370e+00 -1.701726480357877991e+00 1.511602215322870535e+01
-3.908419878739271436e+00 3.881951258661451298e-01 1.289275976274865343e+01
-3.296492635164370633e+00 -2.285982786397577460e+00 1.504627664759640027e+01
-2.976410785267145087e+00 -1.775082396399792595e+00 1.148114510808660071e+01
-6.069176449215814007e-01 -2.952015230813092916e+00 1.211347591586940808e+01
-4.105078108295456829e+00 -2.554343423573287364e+00 1.270409047981946316e+01
-4.582672306779439708e+00 -1.186933054464622828e-01 1.085469593780999631e+01
-5.145708812371733165e-01 -2.535477566486504575e+00 1.265945986186339667e+01
-4.735589882523798977e+00 -3.458029440316844338e-01 1.247021033275039770e+01
-4.835531718713962590e+00 -1.060134465869827514e+00 1.343653168348155447e+01
-4.272495278991563339e+00 -8.481093370131823628e-01 1.144726859075751690e+01
-4.551258439499678232e+00 -9.539469605131312147e-01 1.178767666516689872e+01
-5.945422224089048635e-01 -1.976650493639047657e+00 1.268442892113587561e+01
-3.909154465294457648e+00 -2.164147862603070127e+00 1.240664939172602033e+01
-1.639572312788366570e+00 -3.437520810421716089e+00 1.391337989150731858e+01
-3.931468472435450057e+00 2.120826238216848569e-01 1.389164968559140334e+01
-2.732161433489234348e+00 -4.334163412316489605e-01 1.039216398036053235e+01
-3.899639957790878242e+00 -6.097570420922751033e-01 1.086469571081515184e+01
-2.576733540310290671e+00 -1.994993775062826602e-01 1.030215346233906715e+01
-3.322480203628535911e+00 5.122007551781531109e-01 1.268914394649910093e+01
-1.851937014582595298e+00 -1.091379570528761223e+00 1.457083516862225281e+01
-2.550704158260320042e+00 -1.029551710005540466e+00 1.072108048832663130e+01
-2.394806342159234269e+00 -9.757606551038940923e-01 1.066654877275736268e+01
-2.368422623147758532e+00 1.643987032195826092e-01 1.245999751552785995e+01
-2.046824378554099599e+00 -4.092263275202240536e+00 1.386094163500774812e+01
-2.041043802334065127e+00 -9.295721223426807178e-01 1.471767056285244024e+01
-2.536280411966057802e+00 -1.685549719432063664e+00 1.113371732028609529e+01
-4.189937168749725771e+00 -1.958947741639342377e+00 1.506769496933944197e+01
-1.955151698382746606e+00 -3.712261643100291497e+00 1.157018258067792971e+01
-1.906816637220157373e+00 -3.540080719642250795e+00 1.148293240697731221e+01
-2.271505110835136065e+00 -2.871697403358151046e+00 1.155070929076263297e+01
-2.358684658961935909e+00 -2.513747433694472733e+00 1.146928546686279304e+01
-3.085145590881326783e+00 -4.540539586438402608e+00 1.285654757707561657e+01
-4.543156657541722154e+00 -8.419315545203394091e-01 1.426497858782628469e+01
-8.536076608532917609e-01 -1.027401744960684038e+00 1.356525951274529973e+01
-1.678870316185412825e+00 -1.284754352393020715e+00 1.442446937053134093e+01
-1.868082493756404672e+00 -2.635160143100261365e+00 1.433368683807477595e+01
-4.473476124666461828e+00 -3.110555188403698601e+00 1.506319123902695623e+01
-1.672311052809904330e+00 -4.948513846668354810e-01 1.456233084137627998e+01
-4.276282290344433079e+00 1.966760740276147779e-01 1.268357304007278685e+01
-1.901908990282980216e+00 -2.911471938957271632e+00 1.133770567826961440e+01
-3.605134395998302210e+00 6.787362797850922114e-01 1.012237839249751659e+01
-2.567180293149945225e+00 -2.563241442833680050e+00 1.163931496946743493e+01
-2.503477774018322055e+00 -2.482750089933572379e+00 1.155310488722091833e+01
-3.242174096860327648e+00 -4.722103009603033641e+00 1.329787902703349545e+01
-1.056647159994599461e+00 -7.602464769951896573e-01 1.299782339967549660e+01
-1.875283144196986385e+00 -2.844554598118099964e+00 1.426950093438422584e+01
-2.095249222528452915e+00 -2.659211270062627364e+00 1.445534131670643063e+01
-2.559874090152355119e+00 -1.922617900161256665e+00 1.129560137532888930e+01
-7.191450161811748787e-01 -3.922237414726888360e+00 1.178958864484447133e+01
-4.432808055143720338e+00 -1.349010499506504646e+00 1.490753477676975791e+01
-2.505258920103281550e+00 -1.847653340686729040e+00 1.121808203188282960e+01
-5.225459036414308756e+00 -2.605720354595039367e+00 1.356414151388737821e+01
-2.076196289495455094e+00 -3.752335809226730046e+00 1.168804115539627730e+01
-4.618976425525572083e+00 -1.662221048012063829e+00 1.245730875115808800e+01
-2.155465650484854390e+00 -3.335583569884783994e+00 1.161565133174520525e+01
-2.524326399645684837e+00 -2.734813429376866001e+00 1.168620967234039654e+01
-2.066853153037409019e+00 -6.951738407078066340e-01 1.476733163532610149e+01
-7.723197623756754560e-01 -3.736633413561343264e+00 1.161503734143817468e+01
-2.800487120744829639e+00 -2.193632212687872673e-01 1.028612612626629286e+01
-2.724167118391416675e+00 -1.060176066702568809e+00 1.078445376506763154e+01
-2.485721755656233878e+00 -3.319158257336805029e+00 1.189792698004248450e+01
-3.495305240446320294e+00 -2.884032227748040134e-01 1.513736907261107234e+01
-2.982840690436806774e+00 -4.423513746397706115e+00 1.270907995646217614e+01
-3.713256392112401549e+00 3.690117328685846854e-01 1.365485734512384397e+01
-1.694507801038357631e+00 -2.886984922918327534e-01 1.456784689921435927e+01
-2.226497172721091378e+00 -9.141069300228549244e-01 1.483211571456637046e+01
-2.109758830919523209e+00 -2.480588968944112960e-01 1.485476745752463046e+01
-2.259405913968300261e+00 1.001842107777226598e-01 1.264177164200587811e+01
-2.141797766047279339e+00 -1.928415072006182562e+00 1.109382579842838368e+01
-2.123168251564380160e+00 -1.256559190763164580e+00 1.080382192988375323e+01
-1.697730664267203871e+00 -4.455377080858078820e+00 1.337038389746015810e+01
-1.498980747129871727e+00 -3.454162256772438155e+00 1.378977220264015813e+01
-1.663994825384088827e+00 -4.254086982186239929e+00 1.347153699835685359e+01
-1.540752907526643734e+00 -4.384384634114278256e+00 1.330333593331391739e+01
-4.701577920235910923e+00 -2.413811073920043349e+00 1.292336365157435552e+01
-1.266245803694962424e+00 -3.067293571716326106e+00 1.368396024059128280e+01
-1.742541091145770382e+00 -2.882527248286133492e+00 1.126187449506162963e+01
-3.359060189645440619e+00 -4.146215242801351009e-01 1.044583527491093378e+01
-2.302157065377683054e+00 -3.009594412539591812e-01 1.495794787270097004e+01
-2.953527383439913390e+00 4.766555422456728586e-01 1.085636967499455707e+01
-1.974258472712783430e+00 -2.919221081378456373e-01 1.476708892574261256e+01
-2.084519648587658924e+00 -4.872575339604959810e-01 1.480891074379991323e+01
-2.267479986513310397e+00 -7.480935493906549771e-01 1.487908301738359995e+01
-3.111655144081050040e+00 -7.137963967312463964e-01 1.062110196013420449e+01
-7.196542496635224273e-01 -1.516333822349330340e+00 1.175526392882645865e+01
-3.152568877847879314e+00 -8.747309820324532526e-01 1.076837783944557714e+01
-3.529530327100032228e+00 -3.860030555881747150e-01 1.047634466456496938e+01
-4.832431952070844972e+00 -2.297678329256076069e+00 1.489699000748818492e+01
-2.893023935960227000e+00 4.740247503097114734e-01 1.388839841790525753e+01
-3.161485736227398036e+00 -1.122585476797833826e+00 1.099953523674409794e+01
-2.708157757962398104e+00 -2.903765342532600435e+00 1.191525951006449446e+01
-8.391869460452193730e-01 -2.612315993137428460e+00 1.332638940395265337e+01
-2.516614161256304882e+00 -3.691239020757066669e+00 1.206747337845728651e+01
-2.901478971969952081e+00 -4.578398726873711411e+00 1.376071096112270453e+01
-1.965639115300241713e+00 -1.627412414776913119e-01 1.476802140606966418e+01
-3.015708302669215080e+00 4.915258427053756929e-01 1.331348178459238341e+01
-2.727573620451226866e+00 -3.985076776857704672e+00 1.236400973598985331e+01
-8.904993190024028671e-01 -3.927859362004538557e+00 1.153809873360759752e+01
-1.491706880472583041e+00 -4.767470246707182113e+00 1.294664121186022498e+01
-2.706792195109785304e+00 -3.785738165546871592e+00 1.226914975596330493e+01
-1.116897742219357337e+00 -1.670681972301796936e+00 1.384197249791245810e+01
-2.544607728225649179e+00 -4.051275886008077975e+00 1.416688422223078447e+01
-2.248635578022251558e+00 -2.512615711998451573e+00 1.458247236341822628e+01
-2.309076054376089537e+00 -4.057972234536516787e+00 1.403807735461223416e+01
-1.021069560683866229e+00 -2.905615151354530301e+00 1.130615229135561961e+01
-3.006071128677127113e+00 -1.550155571332523019e+00 1.131623890976054625e+01
-8.198817046396200681e-01 -1.428464927565286757e+00 1.357672568448598582e+01
-2.936740994955302497e+00 -2.582796176616442008e-02 1.018670118219384690e+01
-2.899361017176330435e+00 -2.540473918582585977e+00 1.189820191459183008e+01
-2.695210056487540751e+00 -2.541339639444126774e+00 1.173089979792681703e+01
-3.697525913289800847e+00 3.547118290462387691e-01 1.385235066743700116e+01
-2.954105967444960346e+00 -2.130270645088868875e+00 1.171238504148018222e+01
-4.539490264101601724e+00 -8.534378731755716263e-01 1.166398066500534014e+01
-1.459191865257158716e+00 -4.675050270087287352e+00 1.302372549459630591e+01
-2.880749180574998736e+00 -2.316235532812935816e+00 1.176319101892153185e+01
-5.249910651738730394e+00 -2.454721863481735156e+00 1.371703581692524665e+01
-2.567401544329611873e+00 -3.365142091016563697e+00 1.198832144631327168e+01
-1.347295610223352869e+00 -5.590336960989497062e-01 1.121051640507412017e+01
-5.062006904741897628e+00 -1.133724659934546519e+00 1.221356822788569474e+01
-2.704989693719204613e+00 -2.073036238850120228e+00 1.148496765348637183e+01
-2.777131716379693138e+00 -2.374958978280331312e+00 1.171027422097522930e+01
-2.700478309384775066e+00 -4.658196759467902126e+00 1.359362295195498405e+01
-2.781819158753682686e+00 -1.513482782488643652e+00 1.114813295219637723e+01
-4.272349300738094158e+00 -6.921309291824084831e-01 1.484775219029445026e+01
-2.649852290068400062e+00 -3.804280588014152364e+00 1.437242291559898177e+01
-3.557154549126439580e+00 6.628869960661680771e-01 1.110461132389134065e+01
-2.744809177053652682e+00 -1.725077748549525225e+00 1.128291536492961811e+01
-2.554283268465996848e+00 -3.961732088984453171e+00 1.221485632462712800e+01
-4.854159688739908773e+00 -6.263673492478001315e-01 1.259242675007602941e+01
-1.835441129992496867e+00 -4.953642273294507348e-01 1.466084284434157325e+01
-9.128247795263346731e-01 -1.437997006639034181e+00 1.368434807699488687e+01
-2.169824905184024821e+00 -3.181032673923036125e+00 1.157952468831562243e+01
-2.535961380612257621e+00 -4.804020181434914605e+00 1.297631085725421940e+01
-2.651458619514669213e+00 -4.356786287954848902e+00 1.247028689167750315e+01
-2.983404573175799435e+00 -2.312257263782445671e-01 1.027688387550306359e+01
-2.341107466911340307e+00 -3.550697525894344508e+00 1.185415607146424577e+01
-2.378498340034950864e+00 -3.366504310190598925e+00 1.181899171614156785e+01
-2.520877020227257681e+00 -3.131093274388556669e+00 1.185383245679405917e+01
-5.287966754901427535e+00 -2.291462355507724258e+00 1.452414722330082952e+01
-4.412795563420793599e+00 -2.509261978908490676e+00 1.505772639046799100e+01
-4.900424817885225437e+00 -3.394633420228381659e+00 1.336509514670071752e+01
-5.106116910818997212e+00 -2.926978331854871662e+00 1.478596673513482784e+01
-4.445766579586900136e+00 -1.502894282829241757e+00 1.493205780385986259e+01
-1.423149499332479584e+00 -5.508808029712846110e-01 1.096647601896591340e+01
-5.394708250494625545e+00 -3.276329787569634000e+00 1.434647045298959256e+01
-5.337928525479886943e+00 -3.100000426769609962e+00 1.458167506495072274e+01
-4.099276507711529405e+00 -1.717558609264497882e-01 1.054297699580720504e+01
-5.020196959404533033e+00 -2.913013205712183140e+00 1.484963195348603904e+01
-5.251174939962721666e+00 -2.872286381602173755e+00 1.465753851797975216e+01
-3.973511408724745397e+00 -3.890856589829835954e+00 1.316739903045033344e+01
-5.109926958242308359e+00 -2.676524898076701575e+00 1.475582412892971718e+01
-4.838909426044585516e+00 -2.896002507036302465e+00 1.494953359835042050e+01
-2.556926249955451702e+00 3.198537208339862215e-01 1.326449799637176596e+01
-5.348785977577346529e+00 -3.471147669699108373e+00 1.451832635411970074e+01
-5.065440551773317424e+00 -1.359873623281770083e+00 1.241826406823430773e+01
-2.048560878522503348e+00 -5.094036856212490472e-01 1.053075634675909100e+01
-4.918280556503299650e+00 -3.226569897089636818e+00 1.331140323174366102e+01
-2.702218787524988119e+00 4.075100106889673057e-01 1.366592194048131148e+01
-4.729460037017243934e+00 -3.225622115451585170e+00 1.324484581079931189e+01
-5.059593089166369850e+00 -1.376240893171214896e+00 1.282144647974475049e+01
-4.521538837064239758e+00 4.956745104476116826e-01 1.049626297228207150e+01
-4.748247139081330559e+00 -2.654005766624132789e+00 1.305442141606488349e+01
-4.877665706944689816e+00 -3.771051374342731854e+00 1.353656377479575212e+01
-4.661431877710382921e+00 -1.897292047805198001e+00 1.491304304708581441e+01
-5.304763250459586743e+00 -3.414936218267834001e+00 1.388561325906753297e+01
-4.069274533931618976e+00 -7.076573814025589604e-01 1.499762569762904008e+01
-4.337775482126350113e+00 -8.776863570920927504e-01 1.487921349375781688e+01
-3.868411175873956775e+00 1.035202206882734899e-01 1.465217249077713291e+01
-2.282334176590373520e+00 -3.280731528420911314e+00 1.170481992941267890e+01
-3.065239783763340498e+00 4.532820011485589884e-01 1.446431380409835299e+01
-4.040827565228211071e+00 -2.683974445777264517e+00 1.508607376398301625e+01
-4.068294123727525857e+00 -2.909375122247454204e+00 1.508373846783025840e+01
-4.102172543655404624e+00 5.486386953582884640e-01 1.129131709986222987e+01
-3.880015200890386318e+00 -3.107945636131165035e+00 1.504970390039439820e+01
-3.871263946263417299e+00 -3.308404613544903672e+00 1.502268322349269880e+01
-4.105253224003611479e+00 -3.200692617034157639e+00 1.297664703191643554e+01
-5.055026950229800420e+00 -9.929160262874440201e-01 1.219770625320383317e+01
-4.532298024261285363e+00 -2.591665718225580228e+00 1.292894727734488214e+01
-1.742063806162592376e+00 -3.449272273085230101e+00 1.399938175292814435e+01
-4.249495175610329412e+00 -1.487166224506931922e+00 1.499746740708555848e+01
-4.675211188735190149e+00 -2.085495157944812661e+00 1.494009485889242228e+01
-4.512577324052047700e+00 -2.332135086337738361e+00 1.502255184729519044e+01
-1.402440966313641679e+00 -2.437940523224431555e+00 1.397393024683844942e+01
-1.000765872061285533e+00 -2.417896091994734320e+00 1.354213242563712072e+01
-4.245222551380287257e+00 -2.518064117994234241e-01 1.423631756435252527e+01
-5.236308565206028831e+00 -3.321042452852811078e+00 1.467342489821652407e+01
-3.824707472696681432e+00 -3.601595341648674342e+00 1.495621661827505022e+01
-5.066826633744513586e+00 -2.313617953657251647e+00 1.475123652387411965e+01
-7.994521097104880791e-01 -2.486166133730655758e+00 1.151260576555861803e+01
-4.636405326638241675e+00 -2.943774435399444833e+00 1.502701585475868740e+01
-4.297208994201195509e+00 -3.119601885976068356e+00 1.508461889573693071e+01
-4.153417605040420568e+00 2.299337817656699201e-02 1.389629086937917180e+01
-4.483866872216950128e+00 -2.881201437878487592e+00 1.505709085915579237e+01
-4.495343926405658053e+00 -2.664128446583304388e+00 1.504578790154621259e+01
-5.053348959272261354e+00 -3.017920933335035194e+00 1.333703950499299395e+01
-1.117064930495460739e+00 -3.308669524251379279e+00 1.127140308041492744e+01
-1.002431156585804617e+00 -3.099112175243570633e+00 1.131690810216573340e+01
