-8.434236384193329883e+00 -3.053811490191129963e+00 1.706900285620850966e+01
-4.025663902153375773e+00 3.036469621791467510e+00 1.787826148127866688e+01
-7.818914008011466521e+00 1.329901926889426989e+00 1.761163460094423172e+01
-3.285088258251650739e+00 7.392694761949436533e-02 1.380316904443312964e+01
-7.947009780951079350e+00 -3.890657366169729681e+00 1.558865107347595469e+01
-6.326344451047514639e+00 -4.697976848592300136e+00 1.760640636502743561e+01
-7.711486119846631127e+00 3.210925964677108890e+00 1.628756348489372741e+01
-6.155906203070745875e+00 -4.784389979236463475e+00 1.741222200441617574e+01
-2.113805615770183444e+00 -3.955516342213867720e+00 1.587309441231480989e+01
-3.161939592500759844e+00 -1.813427527275915385e-02 1.389571730424465201e+01
-6.311805058864074169e+00 -4.618979027525331738e+00 1.770775056750663978e+01
-1.248221946749378253e-01 -2.996773196781541415e+00 1.694006539419438084e+01
-6.171071388384389067e+00 1.907089686897231795e+00 1.277564945905147553e+01
-4.280874611734792889e-01 -4.065228742233052195e+00 1.611775375750022121e+01
-7.132097459943521400e+00 -1.594556771259758587e+00 1.405632742600390728e+01
-6.534863657443803930e+00 -4.670062474450067391e+00 1.760435968856593902e+01
-1.678868635017664035e-01 -1.740642967212430836e+00 1.580820151662576123e+01
-7.518085635164350577e+00 -1.652671484932146106e-01 1.322652692032955102e+01
-6.655374829621303334e+00 -1.326635184325210215e+00 1.820998772931814713e+01
-7.803446642584761506e+00 9.355800563838954087e-01 1.772245624744312309e+01
-8.872748979246575018e+00 -1.043384988775534206e+00 1.533635001917923191e+01
-3.507534913192895676e+00 2.654126071316044166e-01 1.356995206492475248e+01
-9.279636593309907866e-01 3.666602799945708480e-01 1.368858909339673247e+01
-3.331313869274210582e-01 -4.150164940715049156e+00 1.673162165176163896e+01
-2.082355001383806137e+00 -2.433316031545911251e+00 1.527139894315730473e+01
-8.666435607601501445e+00 1.351858517724253916e+00 1.605025082281679616e+01
-8.794824562941149892e+00 -1.836265934376552389e+00 1.668458217959207346e+01
-2.333379934714403969e+00 -3.507450019188083967e+00 1.577374608893906682e+01
-7.644151309301683739e+00 1.088373440807168802e+00 1.777135795113335703e+01
-4.063574616801242101e-01 1.321973531443967564e+00 1.566854559838175120e+01
-4.307028224734361643e+00 6.430626234006284747e-01 1.316421986857144688e+01
-8.463675906442858832e+00 8.112938719036588697e-01 1.425587673981826597e+01
-1.242963278647410075e+00 1.392533049716597304e+00 1.784634244741033271e+01
-3.421788899552185015e-01 -2.593824610244931606e+00 1.757881528853574693e+01
-2.148415446953348074e+00 5.109169858327035074e-01 1.289154537797925926e+01
-6.734169094309201853e+00 -4.058196588751627587e+00 1.594778879981558006e+01
-2.547711140797239704e+00 3.011131843198857183e+00 1.568006204420484195e+01
-9.620842251770489462e-01 1.712717686477585044e-01 1.373188873850342517e+01
-4.221363035907023664e-01 -4.125544156775460714e+00 1.725562010123561052e+01
-4.692538146742270655e+00 2.737214590241864087e+00 1.347878009551280698e+01
-1.551707177798492765e+00 -1.492010270822588636e+00 1.436656633847512765e+01
-1.550237894282830986e+00 -3.773850572203994336e+00 1.570272091728825714e+01
-8.781362657502784330e+00 -4.084777349444131400e-01 1.682527955451253021e+01
-6.354684555285217584e+00 -2.217650175441043370e+00 1.529403465065430723e+01
-6.933582225722689785e+00 -2.025666418088089227e+00 1.447323840732785172e+01
-3.453014221966319575e-01 -1.113176091289896030e+00 1.480819317784456857e+01
-8.466281294618026365e+00 4.441339001904136552e-01 1.402511934430075158e+01
-5.130716813097089712e+00 -4.848243274735422048e+00 1.737193139487796500e+01
-2.954431600925168322e+00 2.974561294510872922e-01 1.323478590852456094e+01
-1.549116840916220816e+00 1.290299840207947302e+00 1.377945592366834049e+01
-3.366238070063158339e-01 -3.991397543411660198e+00 1.713133405771341344e+01
-8.380327840665247052e+00 -3.917508735069859527e-01 1.395896427319251032e+01
-4.005007956352358178e+00 2.858770509158567119e+00 1.789326182357939032e+01
-4.960625533723266756e+00 1.544368874868349839e-01 1.392645405851485307e+01
-7.353651510238131905e+00 -4.598771022252643448e+00 1.658315785655505792e+01
-8.583966346589646079e+00 -2.996487631028461163e+00 1.546700146062609704e+01
-3.196899306607541291e+00 3.643577042628399543e+00 1.774908156116849156e+01
-4.703787303457788838e+00 -2.553029735849097204e+00 1.818673157607921453e+01
-4.526600898763698311e+00 -2.558237844174943376e+00 1.819203653850904701e+01
-5.727162656051964618e+00 -2.296471993374360920e+00 1.815891513423403225e+01
-1.123162620016622038e+00 -2.041257003876791654e+00 1.811485350335270184e+01
-5.714862200983890972e+00 -2.090159580186100818e+00 1.540599991014400771e+01
-1.228322179789137270e+00 2.657296740343507935e+00 1.735495845235974954e+01
-1.457439643104337934e-01 6.360310423458821472e-01 1.652209695815542645e+01
-8.544960209621944358e+00 -3.024742605898944170e+00 1.528348132686180705e+01
-7.144667992672376400e+00 -8.481339532965377348e-01 1.367415024526329503e+01
-8.211579300401895765e+00 -1.859891597928174489e+00 1.782730712775778059e+01
-3.913012849810876936e+00 -1.302687236285658523e+00 1.503294741398615386e+01
-4.059207078413639147e-01 -4.217443341836133897e+00 1.711543093652847247e+01
-2.219912065651953981e+00 -9.020703977138557761e-01 1.437883224165376461e+01
-9.480934788358127419e-01 -1.832346912819271312e+00 1.448119261076064745e+01
-2.177573278649898914e+00 -4.839853719788086650e+00 1.710596829911708383e+01
-4.891305814637361138e+00 -1.342518942205349397e+00 1.818552464262907975e+01
-2.036599606441033661e+00 1.463378243625770958e+00 1.803504226999120519e+01
-8.006980309936707840e+00 -3.469510701676890463e+00 1.754102880818541266e+01
-8.345355472842909350e+00 -1.116605901829211378e+00 1.399759203910482697e+01
-3.732404549508779201e+00 -1.415810193007278173e+00 1.511545001875198935e+01
-3.772797717100834891e+00 1.354997445353713248e+00 1.190413904242224774e+01
-3.609049850125799264e+00 -2.386118051416045382e+00 1.552282687687968021e+01
-5.900693461910062609e-01 -4.359168420381752007e+00 1.731536885755386734e+01
-6.841852686432011721e-01 -4.639438231852548000e+00 1.714109134582295368e+01
-7.665214326300924252e-01 -1.079638344114583592e+00 1.428077826647136916e+01
-7.399633028031269433e+00 -4.548370928689229764e+00 1.723386152746212119e+01
-8.789078739944047314e+00 -1.205542223447516825e+00 1.495353466154878319e+01
-3.034103395214750698e+00 -4.858666605476250844e+00 1.726982870724477337e+01
-3.759495907858392272e+00 1.447743903922477537e+00 1.177623646904048016e+01
-2.150406031495256109e-01 -3.728570885371328192e+00 1.672670338099100107e+01
-1.319989778243047862e+00 -1.046610024778512393e+00 1.814570956286810954e+01
-2.736926067168186982e+00 -4.387989172449917041e-01 1.425891773563413878e+01
-6.971919624378484670e+00 6.980137723398596172e-01 1.262990422733245666e+01
-1.989117365758146239e-01 8.441071716847945439e-01 1.686621970282535088e+01
-1.509766254517502126e+00 -3.154884983558701617e+00 1.528143178713006378e+01
-6.347776689794521587e+00 -9.627730718555524980e-01 1.456660328350635680e+01
-5.750005991980026820e+00 -4.279818302253389106e+00 1.616405498712627420e+01
-7.758563762603506220e+00 -1.948804010967353006e+00 1.417212981330950683e+01
-9.813827060764624965e-01 6.257277915639269938e-02 1.795604754681631121e+01
-4.627362079958322383e+00 4.269843862102910670e+00 1.668056199410628793e+01
-4.725970021511718855e+00 1.068902290846851066e+00 1.255070927513702728e+01
-1.871103773531056058e+00 -2.440425750365010416e+00 1.508839775599721733e+01
-5.497715244272281865e+00 -2.136967161313892749e+00 1.816852454942607764e+01
-1.355039791138571648e+00 1.642994623567787471e+00 1.473759566778764096e+01
-3.794668484995300961e+00 1.677289402177913891e+00 1.146250739466460189e+01
-3.375141802727469553e+00 -4.469258508386245943e+00 1.635834295857384646e+01
-5.082121544437575578e-01 -8.076342973142889292e-01 1.762988243870357863e+01
-1.146206841296566470e-01 -3.378247317411945172e+00 1.632530707918523305e+01
-2.209152701213337622e+00 -1.922358058931858293e+00 1.512494510346403942e+01
-3.491517593456087809e+00 3.091414629662490920e+00 1.466292968743374203e+01
-4.630873371328579680e+00 1.378410102364834522e+00 1.807883917060798140e+01
-7.495683128885676894e+00 -4.580497387001289056e+00 1.697799906260370406e+01
-8.856656534789895119e+00 -1.582719644188009367e+00 1.577130517481105798e+01
-8.318678619950684805e+00 1.178343410063818375e+00 1.444211124544004221e+01
-6.558207225480593650e+00 -4.637229120601216614e+00 1.662975733437050607e+01
-3.562881774965978576e-01 -4.180893632617521227e+00 1.692051958726946381e+01
-2.959313713030539694e-01 -3.974315643666507025e+00 1.696026149465705046e+01
-4.769122666842520175e+00 1.763492405180267175e+00 1.145413416550145413e+01
-8.234428292321744891e+00 -4.846796047289620435e-01 1.772732152500877945e+01
-8.868492297983900485e+00 -5.967625737526114360e-01 1.520937229801790735e+01
-2.964778153851490572e-01 -3.151798869763479782e+00 1.533449850326975294e+01
-1.202981023947119477e-01 -3.321634611819088700e+00 1.671025876798718102e+01
-3.494791786871356276e+00 -4.393079142929781078e+00 1.626727967301249222e+01
-5.647691548871279110e+00 2.597642219751239434e-01 1.816495640799274369e+01
-1.123569512400589332e+00 1.214517634812027014e+00 1.782880161781898565e+01
-4.118317758752427338e+00 -2.496817093433665868e-01 1.425080043959166076e+01
-2.258631367869352147e+00 6.239247994351708737e-01 1.814739235105514936e+01
-2.820368606432531067e+00 2.619701511673047101e+00 1.787517061931285056e+01
-7.085509544312308394e-01 -2.988678382103026276e+00 1.794120375923170840e+01
-2.912003521458481625e+00 -4.806480329142083896e+00 1.695775757719979637e+01
-7.315570556973259642e+00 -4.174838106590373243e+00 1.768493136803316546e+01
-5.318450665263426913e+00 -8.343942323759443447e-01 1.482046039076426425e+01
-2.251896851213110118e+00 2.048074302476247777e+00 1.792843729276044584e+01
-7.312713444310780631e+00 -4.309902028238050242e+00 1.759765160803899064e+01
-7.976332247806446674e+00 -2.781272588856579908e+00 1.471704069131613934e+01
-2.934425648641246998e+00 -6.190869534046570255e-01 1.455485548531936146e+01
-6.049035187030126437e+00 -3.421708801827009760e-01 1.821080438580667149e+01
-8.376813782509671569e+00 -3.648717558826382046e+00 1.647194481682891265e+01
-4.457653292835180636e+00 4.394278674263794038e+00 1.696317573916321564e+01
-8.288540539711895860e+00 -3.834784851307306841e+00 1.645265838057249752e+01
-3.843930211382188489e+00 4.208327603891484081e+00 1.690076302265432062e+01
-4.558383472561963856e+00 1.270394553929547365e+00 1.215587178127785606e+01
-5.372255046950422663e-01 1.049420843693260386e+00 1.493445891821732729e+01
-3.482274751605268115e+00 -2.184072829370773405e+00 1.814359369600185445e+01
-7.867901068938044418e+00 -1.901100833180789484e+00 1.805454672401135596e+01
-8.497242769579647970e+00 -2.977563539764885192e+00 1.506253020852276236e+01
-8.211561023651741564e+00 -3.893411765766521260e+00 1.581023006183479751e+01
-3.099307602268035033e+00 8.364130958847635355e-01 1.255693554565863579e+01
-5.726673982498354576e+00 -8.332235094220719063e-01 1.470421827001890236e+01
-4.955536526631078686e+00 -1.709338816458993993e-02 1.414514868504448586e+01
-4.123228860308776333e+00 -1.472701705345153433e+00 1.512349622950245376e+01
-6.800991332789646293e+00 4.139613208820263957e+00 1.689093568856597827e+01
-2.875615821528963334e+00 -4.223882475087695099e+00 1.782123152273123523e+01
-1.374377978522536958e+00 -3.289643227144463999e+00 1.535944662842262076e+01
-2.411703684421929061e+00 2.803191849979560946e+00 1.778447161016443445e+01
-1.490123819407948469e+00 -2.372994836619941150e+00 1.813684057428917740e+01
-3.617868403917503972e+00 4.243185270177615820e+00 1.768165136491261435e+01
-8.080327442690729001e+00 -8.254981539639744126e-02 1.776580643060258424e+01
-1.410871413054872736e-01 -2.563519413129253355e+00 1.697070464883608665e+01
-5.727932049650579671e+00 -1.307384756145218319e+00 1.501758830099668884e+01
-5.275006777064410457e-01 -3.986265452023098899e+00 1.751157038387902887e+01
-9.203207705435273445e-01 -4.150730562799907375e+00 1.602948727591016720e+01
-5.867335403295355079e+00 2.634212439589694310e-01 1.816567821029519436e+01
-6.049065019880361049e+00 1.441318490019104948e+00 1.801343833982819476e+01
-6.259439452919995261e+00 1.441014261914662198e+00 1.799994485604074512e+01
-1.348828891900316407e+00 -3.087816124642696725e+00 1.522491152947141657e+01
-4.338508120145025515e+00 -3.673217675551736061e+00 1.581768841694669092e+01
-8.878794093445710800e+00 -6.267318707629800922e-01 1.638830932764709658e+01
-6.319902544211814188e+00 -2.507035813834607163e-02 1.355144063457770542e+01
-8.832018701797887061e+00 -3.839235505734467369e-02 1.519671845994161075e+01
-6.128953280142443560e+00 -4.809902005585117379e+00 1.703883888920652012e+01
-7.746683807526100196e+00 -2.938294626952003163e+00 1.796175570848955871e+01
-6.089983362721172355e+00 -1.335624173978746221e+00 1.820348841838144338e+01
-7.765920070234459516e+00 -2.175835589464023112e+00 1.432489619854818486e+01
-3.390310157563349303e-01 3.567375338274638708e-01 1.448923611736887196e+01
-7.538199399571439585e+00 -4.060594112201539652e+00 1.760349285949905251e+01
-2.617452019593571322e+00 -4.563604268467950642e-01 1.419379203879482176e+01
-6.231947393462375473e+00 1.679085547175688475e+00 1.796046910303485689e+01
-7.422933015631908438e-01 -1.019660921814934951e-01 1.407540114572958245e+01
-8.109155164336060650e+00 2.211101074729643567e+00 1.547813117131297744e+01
-4.207823326779162265e+00 4.030639852036114412e+00 1.774057918237921783e+01
-8.177868432392324749e+00 -3.080843689040693612e+00 1.752511506859636725e+01
-8.850320045470615682e+00 -1.532348028710269316e+00 1.552836417884706677e+01
-8.812424304423215560e+00 -1.889047636898508076e+00 1.631882020364854569e+01
-3.194040305343031072e+00 2.845494024417098089e+00 1.787214364920311382e+01
-1.548046159576520253e+00 -4.837191600331697927e+00 1.736923580332035399e+01
-7.781356587285774840e-01 -3.565910650010351457e+00 1.552797534223995868e+01
-7.475369848900744074e+00 -7.176496634352809156e-01 1.814024454421090482e+01
-7.491078785738368495e+00 -1.132187643447713166e+00 1.816227243164039962e+01
-8.593709308050108575e+00 -5.894014195509600373e-01 1.432703687752728783e+01
-7.525543161873372355e+00 -3.868542995723580180e+00 1.559785877127523079e+01
-6.091719944476839288e+00 -2.566627910808954471e+00 1.814838749080267988e+01
-6.935957892081264120e+00 -4.092036504226487459e+00 1.787601653895473319e+01
-1.749290000155580005e-01 5.303745502591133976e-02 1.684788446769595893e+01
-7.005906565565837241e+00 -3.158131462588920968e+00 1.528204980823547388e+01
-8.664986296663810705e+00 -1.170396256443065663e+00 1.441310756511496649e+01
-3.870296091994393173e+00 -2.740098622363489889e-01 1.428112874567079515e+01
-4.931043110139745167e+00 2.520983039440628737e+00 1.312114936668892895e+01
-8.858631575819543968e+00 -4.450671348975309694e-01 1.654242110200602767e+01
-2.007512151442098158e+00 -1.863413337755379429e+00 1.493950178029902887e+01
-9.396738685052674622e-02 -3.139828312421820922e+00 1.633425305639358882e+01
-1.445136121537391238e+00 1.202929396650550264e-01 1.337991095691922894e+01
-2.673014572557421697e+00 8.140120827219874400e-01 1.812545150457244958e+01
-1.942798461123708575e+00 -4.717115044579607286e+00 1.750216167247192445e+01
-8.206387825805348868e+00 -3.239918893292352386e+00 1.502834842596402964e+01
-4.773464978592942387e+00 -2.278759534201465264e+00 1.550519066874034380e+01
-7.006704245270702458e+00 -7.000859889772028666e-01 1.820333140677635342e+01
-8.400079716239641670e+00 -3.633313754592161438e+00 1.631018690110006375e+01
-9.482262953890123747e-01 1.372377854032152289e+00 1.764747466772974960e+01
-7.738299617374329031e+00 -1.809244467151527536e+00 1.407717111154357426e+01
-1.355149489747647928e-01 -1.946081913110975004e+00 1.641502665505636216e+01
-6.384861011346455228e+00 1.524238135644600423e+00 1.254158841885718445e+01
-8.214463928178901142e+00 -3.874026026103069231e+00 1.668076764762976794e+01
-2.306730609610533556e+00 -2.187791504239612550e+00 1.813178163080053551e+01
-1.679030189551240504e+00 -3.004165500105354436e+00 1.524316369058873377e+01
-6.144015608018275287e+00 1.286118200044209958e+00 1.214811022346223623e+01
-1.778733023315623551e+00 -4.883105899016525697e+00 1.729406210705857561e+01
-2.563397343164510289e+00 -4.456557394813412287e+00 1.633159463586947524e+01
-1.957369471117665238e+00 -4.830073925479656083e+00 1.735117879891507542e+01
-8.452363203602319075e+00 -3.230666450918080912e+00 1.685424574953980326e+01
-8.542483887104635798e+00 -2.642009878932571443e+00 1.710814535282193205e+01
-4.067431833015156428e+00 -7.088667434362216913e-01 1.462581549529164349e+01
-3.754199729308963729e+00 -4.316317159221686239e+00 1.618306267616807403e+01
-6.950838337997044647e+00 -4.719789261699773419e+00 1.700640957197211733e+01
-5.116939753846631689e+00 -4.183115462697201359e+00 1.607326726956913987e+01
-5.540017112518032860e+00 1.664013278210718094e-01 1.371477750881046020e+01
-7.899705559015457013e+00 -3.473837209391618330e+00 1.766481620994013113e+01
-4.184263449082556985e-01 -1.841657758419126489e+00 1.765305951340328861e+01
-6.084975865481425217e+00 -1.559692298361470275e+00 1.819414957701842539e+01
-6.299790486201183981e+00 1.636571534934826988e-01 1.330015834632569138e+01
-5.352662387451173842e+00 -4.359298131840537160e-01 1.450215203318196799e+01
-6.416369321065561238e+00 3.879214986669407672e+00 1.744883915524360773e+01
-4.283125420484356627e-01 3.450291374627524332e-01 1.438386894353508083e+01
-5.563403571763563704e+00 -7.861013978844793026e-01 1.472029182093044497e+01
-6.342019880415437072e+00 -6.022867404965124294e-01 1.428936816536569054e+01
-8.066650852820950846e+00 1.051264553423446602e+00 1.386494993509051810e+01
-8.193873405612244198e+00 -1.697636662534357521e+00 1.785738969425387168e+01
-2.149206136005100465e+00 -1.039599341308765190e+00 1.445013743143898566e+01
-6.926966157640036315e+00 -2.924918339115047949e+00 1.814198525940601670e+01
-1.156386179434828687e+00 -4.903259229046535772e+00 1.711067940508507590e+01
-6.374110939143200483e+00 1.164289045777319620e+00 1.224960279538730745e+01
-3.915688792405244145e-01 6.232282191123885706e-01 1.473282286897416427e+01
-5.756970307483264548e+00 -4.499471647151856324e+00 1.777383230988121809e+01
-1.058266021179506966e-01 -3.168441549546961333e+00 1.615042127782673376e+01
-3.067820510815997270e+00 3.086739492550905517e+00 1.521506119500760335e+01
-8.616834935492322600e+00 3.743323842405461566e-01 1.698010684569310413e+01
-8.712149945064650680e+00 -2.606160582327084807e+00 1.589679442343675575e+01
-6.381285105846760786e+00 -5.373743974743174778e-01 1.420292135123054678e+01
-6.981734447679626143e+00 1.065565897543554685e+00 1.254842326959377274e+01
-5.336755253359820372e+00 -1.256831972441619483e+00 1.508496622652635821e+01
-4.093337078521158467e+00 4.597973682985587174e-01 1.816292881506253210e+01
-6.481881602594764757e+00 4.186453953143550955e+00 1.685711357158846013e+01
-2.609762396984544708e+00 1.237637643265016241e+00 1.222103761823337820e+01
-6.991106828962523778e+00 4.082023959840363148e+00 1.690408965033607913e+01
-3.548995613764600598e+00 -4.931040003183179365e+00 1.718482289168798971e+01
-8.927740795840528598e-01 -4.818301377282352860e+00 1.715391607474020574e+01
-1.337777014316561930e+00 6.215343498208489859e-01 1.316304394479406525e+01
-3.018743896720834652e+00 2.425962961231745041e+00 1.790962096638614653e+01
-5.826145478020336554e+00 2.291168267470669040e+00 1.789623597890428996e+01
-7.772805780355334093e+00 -3.285722158279682947e+00 1.502317119822561509e+01
-4.277858601700758712e+00 -2.377902161158402805e+00 1.819127135205387802e+01
-8.522809374611547639e+00 -1.354802462297525434e+00 1.421478823409864489e+01
-1.365865488017079521e-01 -2.381572485271270967e+00 1.698846203711211089e+01
-7.364458541463493546e+00 -4.630664618993932891e+00 1.679254467917474969e+01
-7.061794988220709612e+00 8.282894070124613428e-02 1.813496150713497812e+01
-1.911042450770250367e+00 -4.096255947583165913e+00 1.785579001378733111e+01
-1.332516797076076065e+00 -6.766418092576129695e-01 1.383404206598850905e+01
-2.585305058703163961e-01 -2.189386132495246162e+00 1.735393359891716258e+01
-2.448889991008897038e+00 2.373553110951143186e+00 1.788193033829695722e+01
-4.763045894634647226e+00 -3.876079831898714634e+00 1.588422908333191330e+01
-2.926072367583448131e+00 2.314798813707701797e+00 1.359358813820852774e+01
-4.462831573141914920e-01 -5.465198582362162938e-01 1.457316342323438718e+01
-7.158028280340104743e+00 -2.422522961193136037e+00 1.452718198849748532e+01
-7.705461519318728136e+00 -3.486754526365097195e+00 1.782682239170351224e+01
-7.752604272433515575e+00 -3.701054311611694292e+00 1.766999478524499878e+01
-1.522922044926815266e+00 -4.897041320786924778e+00 1.692669620338461201e+01
-1.918520460130885175e+00 -3.158053882058226236e+00 1.806676457492566712e+01
-7.871711988326545395e+00 -3.645040337432693178e+00 1.758612020088044048e+01
-8.032002860268519839e+00 2.745489015961577906e+00 1.665452389568742220e+01
-3.155725493160700612e+00 1.977979262864916488e-01 1.350798686741056898e+01
-7.069516202455073284e+00 1.108932094490728160e+00 1.796904164531884263e+01
-2.967164855309400995e+00 -4.828280206251762130e-01 1.443916095246563103e+01
-4.780575246225568620e+00 1.632534542269421296e+00 1.159101519913279432e+01
-8.667393786503765796e+00 -1.312660659786938133e+00 1.442813274871138063e+01
-4.666841999536821106e+00 4.692407215194357994e-02 1.817967243886812767e+01
-8.693245121141545795e+00 -2.412052105484249420e+00 1.527657724704926423e+01
-7.313435118734892271e+00 -4.608545185561157886e+00 1.719465922821533965e+01
-4.910817623560914669e-01 -3.045136335719825227e-01 1.446212972948136510e+01
-5.441516200423311744e+00 3.451951478006546115e+00 1.778840774403113656e+01
-3.504435551887396194e+00 -2.355308595814723738e+00 1.814138009312702948e+01
-3.963220069566740111e+00 -4.742677581383085261e+00 1.678339985951641111e+01
-4.923402616796700215e+00 -4.027227162898627255e-01 1.451365924806884422e+01
-6.650244186272333380e+00 2.894951135231673245e+00 1.764425760177438107e+01
-4.272108744439253036e-01 1.207211912868875636e+00 1.717014573548597767e+01
-4.443120757644836161e+00 1.460613791077967960e+00 1.807302620970925133e+01
-8.655083518525103159e+00 -4.519842092429840474e-01 1.716318396990419970e+01
-3.739598092733237955e+00 -2.283470958437913367e+00 1.548431004493958696e+01
-8.602366386980337509e+00 -1.375668479973496394e+00 1.433716604128769845e+01
-3.476900736003296633e-01 -2.221306628997771870e+00 1.756313578926991781e+01
-4.147964589456714535e+00 1.075483847246301305e+00 1.238782409005198204e+01
-2.341435505218574686e+00 3.634536517327199845e-02 1.333689335067016302e+01
-2.526824457139031921e+00 1.231923773112186371e+00 1.232233248154619432e+01
-4.924938307148398309e+00 -9.918412107133889322e-01 1.495381343607980185e+01
-7.124898282703185259e+00 1.447247808826360060e+00 1.322499969070672066e+01
-5.315889880012857560e+00 -4.156343179195361337e+00 1.792264321759328638e+01
-3.845634942767426345e-01 1.722827312912773134e+00 1.671436848459954305e+01
-3.250746660084146367e+00 4.279768780566235442e-01 1.813886867640755796e+01
-6.328134129507873240e+00 -2.024423941372833102e+00 1.522095647809529240e+01
-8.679588005307505849e-01 1.469683337855174354e-01 1.384364670156447019e+01
-4.566984567457739175e+00 -1.042511591098727486e+00 1.491758255644159092e+01
-3.688504889076881010e+00 2.608145936001571741e+00 1.338075607346233298e+01
-6.285391030293324022e+00 2.642533501793388862e+00 1.404515182003795459e+01
-8.850456317404715278e+00 -1.942335850763158844e-01 1.520539058037815394e+01
-6.971597904479901686e+00 -4.389308710919695322e+00 1.622625368282125535e+01
-2.763089993616437923e+00 -4.805420012724763268e+00 1.714887900123828146e+01
-8.871618373507615729e+00 -2.057372779017263009e-01 1.533992489059980002e+01
-8.250051756395119895e+00 -6.885145373290602056e-01 1.774428064310786723e+01
-1.901835247221079772e-01 -5.230422200538420441e-01 1.524006367413207741e+01
-1.361115040083987981e+00 -4.568196229893604077e+00 1.755672360954357103e+01
-1.652292209291767344e+00 2.996619630583889915e+00 1.699850418292295373e+01
-1.459825297380152431e+00 2.622094336329127806e+00 1.755073409884760949e+01
-7.433566468286988638e+00 3.336713591108935617e+00 1.709374637549880660e+01
-4.452449265907628018e+00 -5.365883779075528714e-01 1.818740456926364502e+01
-8.261619610963339966e+00 1.137209570357110566e+00 1.724788814541331661e+01
-7.295025515449731657e+00 -2.538975203720565510e+00 1.814001942742217821e+01
-4.060401958089048691e+00 4.218281266235457849e+00 1.669036790803437853e+01
-2.896675302636470217e+00 1.688452256217652492e+00 1.253665602938099610e+01
-2.300713411596573277e+00 -3.116450414737079733e+00 1.566444078109327975e+01
-1.034280469554268445e-01 -3.150288459693804555e+00 1.675542550312428247e+01
-7.649450109762346628e+00 1.481036345132745069e+00 1.767377473008185618e+01
-1.325106607374675338e+00 -1.273155513211851053e+00 1.418283841082695673e+01
-3.016755227165651476e+00 -9.509303039682637237e-01 1.817105733106403775e+01
-3.751851681599396304e-01 -3.293373660977080508e+00 1.535880174889068783e+01
-4.567313155187402884e+00 3.477828137529757058e+00 1.783440945388882781e+01
-7.762791237128148225e+00 -4.240230777766939241e+00 1.603500792798536523e+01
-8.602790718460566310e+00 -3.005653538966687410e+00 1.568396486876116924e+01
-2.495843887703458885e-01 -3.807680042163890111e+00 1.691715681558112649e+01
-2.478018411195294313e+00 -4.037363405042320719e-01 1.818712363053827019e+01
-1.340891934233919613e+00 9.163060559996158982e-01 1.801006982232333442e+01
-1.198384127284014777e+00 2.633935493511970094e+00 1.696659875493869052e+01
-3.827742072381000504e+00 3.643112667406581018e+00 1.780214156751106813e+01
-7.757244000122717864e+00 1.662250381911201114e+00 1.755216528650955254e+01
-2.907784980886112702e+00 2.202143094236990617e+00 1.336887650542022854e+01
-3.369549912929723501e+00 -3.932941428376993453e+00 1.589866238699444168e+01
-1.036177215222874315e-01 -2.973382093099041334e+00 1.676106123615565835e+01
-3.809963377381065275e+00 4.061120260907631341e+00 1.772296477447307339e+01
-9.470575034270678483e-02 -3.151734642209583104e+00 1.653142858003879567e+01
-6.684443149599351486e+00 -2.119201212269090195e+00 1.817678118329654424e+01
-6.857149985639471979e+00 -1.438220931047381690e+00 1.425199044963892092e+01
-1.918549463737173388e+00 -4.496522553663191424e+00 1.637001315292686243e+01
-2.915172264830061089e+00 -4.071106954154614654e-01 1.433064464428442264e+01
-4.205137266364417314e+00 3.233982941484374596e+00 1.786353598828491229e+01
-6.094327325751732971e+00 2.384725438573094269e-01 1.335003922806422949e+01
-6.918049689055619567e+00 -9.474673403114368675e-01 1.390304735038018791e+01
-3.042611885486765644e+00 2.634384593616187598e+00 1.417986146761822042e+01
-6.288868545349203032e+00 2.522286795303060880e-01 1.816162606737092844e+01
-7.720916597078550936e+00 -4.487085536469448854e+00 1.660509314982394713e+01
-8.151264495656073805e+00 2.419321220078292090e+00 1.582205270116418561e+01
-7.594714618770900927e+00 -4.557285513069095018e+00 1.664691985659636586e+01
-6.935560017567913960e+00 3.890223208634168373e+00 1.658656663375883156e+01
-7.464943680889021493e+00 8.397625666871173511e-01 1.288173288692916074e+01
-8.882227947534181212e+00 -1.138387669100446309e-02 1.618933071863805750e+01
-5.815621679473533590e+00 2.129028374571315219e+00 1.275482285259505133e+01
-3.457057417918670161e+00 3.784741457071524984e+00 1.775143398123604399e+01
-8.689424250644943726e+00 -1.460962207380580358e+00 1.715070405702445910e+01
-6.952761226535889350e+00 4.776870935600954216e-01 1.278485582731858372e+01
-7.857618384330743666e+00 -4.251720595804240332e+00 1.698683031417574441e+01
-8.613090844096749077e-01 2.018948034823185300e-01 1.784436020190929995e+01
-8.056630072914586549e+00 1.079285129016441386e-01 1.774224883393995711e+01
-1.260148010592905932e+00 -8.154049497904207744e-01 1.812960116503400698e+01
-3.948591879851329089e+00 -4.295679531003965046e+00 1.616508009995301265e+01
-6.263541304442840740e+00 -3.377225545172172771e-01 1.821166620678043913e+01
-8.065314584288426403e+00 1.313536113952701978e+00 1.740389665923192197e+01
-4.976060652361644188e+00 7.630138430816965633e-02 1.403072703588185632e+01
-2.069969892923483101e+00 3.201911814163151515e+00 1.681094286385984660e+01
-4.734892943558042688e+00 -4.557071549343230998e+00 1.776693095069879647e+01
-7.153773657367553440e+00 -4.564844597848971119e+00 1.745030989141504918e+01
-6.536635055668359229e+00 -4.168660211993145737e+00 1.789906501792795623e+01
-5.123188324995139098e+00 -1.602907654261781278e+00 1.527727284949486730e+01
-8.160694167116195885e+00 -4.018716297520019687e+00 1.604989470387538475e+01
-9.479314045955964385e-01 -2.080631931127168155e+00 1.460163510725920233e+01
-2.674132037886532309e+00 -3.517160850940326267e+00 1.798753251035853751e+01
-7.134561563109308224e+00 -4.667900731388469282e+00 1.720111604943738470e+01
-4.085201594482683607e-01 1.662961816403732529e+00 1.717213542484318722e+01
-4.023259870440687891e+00 3.243869631100436024e+00 1.785979347212323276e+01
-7.915328190097977057e+00 -4.303316527232509126e-02 1.786528242270809486e+01
-2.834998035107358039e+00 -7.466966184855701183e-01 1.817734068603037301e+01
-6.015614049936113261e+00 2.474680464451398443e+00 1.785350951491396998e+01
-5.019831508126726405e+00 3.673802114740292613e+00 1.550014319077140001e+01
-7.305850581440634928e-01 -4.376935219693520729e+00 1.745885347687280742e+01
-4.595829575497854536e-01 -8.891791974583196367e-01 1.461388555818217938e+01
-8.693999240594322941e+00 7.650607842441217166e-01 1.662822364174131806e+01
-8.836601381152144441e+00 -1.722777623033542316e+00 1.557803579029537744e+01
-1.633997950142787037e-01 -3.435147656454413112e-01 1.543278989521164490e+01
-4.173176386945773864e+00 -8.083504528030227565e-02 1.408783231294230021e+01
-1.734554734604794923e+00 -4.828916201245250228e+00 1.739033601060257794e+01
-8.804757006553648679e+00 -9.509470772673986882e-01 1.494460831289748270e+01
-3.275735794402767631e+00 2.944322899817958472e+00 1.459989912469795215e+01
-2.702636895135987594e+00 -1.447063063725391174e+00 1.509534687420218901e+01
-5.480803742784843280e+00 -1.747395870090205028e+00 1.817766803706433265e+01
-2.295843775434486922e+00 -4.805559597171562558e+00 1.711956322349411508e+01
-2.888737656020764266e+00 -4.183403034420612343e+00 1.605839932874593856e+01
-7.080025499077869711e+00 -2.746656947866312315e+00 1.814847556301397802e+01
-5.171070164091698729e+00 -3.848666033700291589e+00 1.589657506803014897e+01
-8.836040512820751758e+00 4.149620733392138661e-01 1.617259143523206077e+01
-8.282983149898309749e-01 -6.306164086651644407e-01 1.411492436139532813e+01
-5.330314662251240065e+00 4.607315492366648169e-01 1.337672227555292537e+01
-7.736100057366519067e+00 -4.444148632874568072e+00 1.645147617093880044e+01
-5.735243207447428659e+00 -4.705999414081392551e+00 1.760749859875591383e+01
-3.065441749120777493e-01 -1.724672202154973188e+00 1.501593799531643114e+01
-2.893338589884468348e+00 3.650363179343870668e-01 1.311674019623119491e+01
-8.903088471431740203e+00 -4.351651837957048463e-01 1.577545981595930513e+01
-6.511925955493022000e-01 -1.185009842891848075e+00 1.784544891950082146e+01
-1.532634299147439982e+00 -4.349016421746238481e-01 1.816982525613488164e+01
-7.853554604157153562e+00 -3.239791127193079490e+00 1.781166513262210671e+01
-1.035238329001358704e+00 1.005574297037255205e+00 1.409248485755948721e+01
-5.037743555501615234e+00 -7.455647810191063929e-01 1.819056197454318990e+01
-7.548330466114398618e+00 -3.504944842464769561e+00 1.790777942646796461e+01
-4.930137006651845510e+00 2.058139781446693739e+00 1.220564236657748935e+01
-5.613030802144013620e+00 4.538010770724265619e+00 1.748909406908349595e+01
-1.703430360585064252e+00 7.923281271439890361e-01 1.287729338733817386e+01
-2.491587246063375005e+00 3.851206440191723424e-02 1.817703865093438864e+01
-8.771422450681363614e+00 -1.780021254692284005e+00 1.513471599184361693e+01
-6.911874234705667419e+00 1.333611751757676767e-01 1.302590954023823500e+01
-3.365223151965594184e+00 -3.142878641701163378e+00 1.571980806216136628e+01
-7.804031459106004931e+00 2.563743132634156208e+00 1.544896116730427238e+01
-7.775649638765267824e+00 -3.587566478482922872e+00 1.528168265620939437e+01
-3.757869343965023923e+00 -3.249858530928199762e+00 1.573851807241218026e+01
-8.262066374997756313e+00 4.706623982679691842e-01 1.364123550435769161e+01
-7.319951318546211283e+00 -3.893753311833626274e+00 1.783831983295943857e+01
-8.170215820571256060e+00 -9.560140719500542783e-01 1.378354315938147678e+01
-2.273883910774074479e+00 3.551800094653050799e+00 1.741017343061551159e+01
-5.615619757740736517e+00 4.459505811774816308e+00 1.712935010099605293e+01
-3.079704529255050449e+00 3.452230116775993896e+00 1.603721269529318860e+01
-6.322914268245124703e+00 7.243398855318835539e-01 1.265455003373566356e+01
-4.519398616828505411e+00 1.755164365668920645e+00 1.142106117499178097e+01
-3.557076213930333020e-01 4.928954889414081664e-01 1.464790175482042756e+01
-8.603918277648544333e+00 -3.059217169390215485e+00 1.609055284878600034e+01
-8.674375667132911971e+00 -1.855004224622675890e+00 1.712351679522513237e+01
-3.500653677035469702e+00 1.657363040683055511e+00 1.170947560477187110e+01
-8.811544510302798727e+00 3.615769561282684008e-01 1.639978927054783142e+01
-3.105335358231447351e+00 -8.005233987040609733e-01 1.817163738053408295e+01
-4.861306359144627720e+00 -1.543923122204779452e-01 1.818433669236200600e+01
-5.942867921898108419e-01 -3.016642704135275910e+00 1.787434122916234358e+01
-2.061157870461665986e+00 6.304868373393983649e-01 1.814448784601880860e+01
-2.939197217518312755e+00 7.315807291416547287e-01 1.265975077844550967e+01
-5.076185501870023487e+00 8.795395829151488876e-01 1.811867008194507989e+01
-7.054272192978936928e+00 2.948527102971210567e+00 1.509779497697500616e+01
-6.176691180938190584e+00 -4.312080667150778091e+00 1.617932558293412981e+01
-1.584163101220203540e+00 6.429177213562278226e-01 1.296336502179272898e+01
-3.717806213927569381e+00 1.899752737618219278e+00 1.197836013552170087e+01
-8.336208587845259643e+00 -2.490876848328030135e+00 1.458972353946749578e+01
-8.168153415181649279e+00 -2.373704166116536118e+00 1.448997382411603851e+01
-7.105939857718917452e+00 -3.915550505294488115e+00 1.790534841529637688e+01
-5.776899531102490215e+00 4.553077341425173508e+00 1.723722217289138214e+01
-7.321162252900125011e+00 1.264918488835486743e+00 1.320541435267020702e+01
-1.587477037175600847e+00 7.527684687489883952e-01 1.295865484847698568e+01
-4.365840393359949445e+00 -2.871995809015784662e+00 1.566748375545175875e+01
-1.505145207708892485e+00 7.842357781558355612e-01 1.308781911858470082e+01
-5.261363476744687517e+00 -1.917433071717658200e+00 1.817789312945623337e+01
-9.300511770818338242e-01 -4.562294099774964806e+00 1.743918544053822117e+01
-2.762396431744162495e+00 -4.091336202898522068e+00 1.598789799469623674e+01
-8.635256471127185307e+00 6.478189501962617891e-01 1.446051012540972280e+01
-1.388197669905050002e+00 8.819140745177425078e-01 1.338648167591223981e+01
-8.025699618541304758e+00 2.808201472248930131e-01 1.772267004947930857e+01
-4.104910728285458887e+00 2.351756953388372817e-01 1.817532245058887597e+01
-1.364115205231148931e+00 1.655662650195486085e+00 1.782170253628644119e+01
-7.904038737893129607e+00 4.603837245456480209e-01 1.304845489435294681e+01
-8.402728244108008226e+00 1.933610211807458068e+00 1.564512493447174890e+01
-3.933754623036965548e+00 -4.463232743873973618e+00 1.636146929354012158e+01
-7.900905429763124488e+00 2.985938795687350655e+00 1.671748865646047122e+01
-2.657188397288737569e+00 3.992663606639121898e-01 1.815576690187136322e+01
-4.443167301874652253e+00 1.035505709898828064e+00 1.811719384503591712e+01
-2.343417350229946017e+00 1.016130771489528462e+00 1.249355474040738656e+01
-2.313668476572507515e+00 -3.585392925090737926e+00 1.798048228953318173e+01
-9.219145710411379424e-01 -3.367857454304171050e+00 1.796552195668609997e+01
-5.910639984853288453e+00 3.956292957547843159e+00 1.758145157068835474e+01
-6.321722050283272054e+00 3.545262634994990503e+00 1.757156852295371507e+01
-5.501644585937691900e+00 -3.508688812482309682e+00 1.809093493740102687e+01
-2.491579200261788696e+00 -7.998942475304542388e-01 1.448622997305319515e+01
-4.954098462507399603e+00 -4.366004567831001104e+00 1.785742332811200939e+01
-1.521265064043599402e+00 -3.008386710117585405e+00 1.810174988384730810e+01
-4.092848641760745698e-01 -2.102034524110230618e-01 1.453962157569758418e+01
-7.152825916010952412e+00 -2.151785881691535174e+00 1.434123951712735945e+01
-8.504024320630186651e+00 1.145864640611155005e+00 1.686181441846861517e+01
-7.398818073292897424e+00 3.701592801717228820e+00 1.667775914821050165e+01
-1.703015162515248981e-01 -1.938065826337693531e+00 1.578124612507884805e+01
-6.135430918950918411e+00 1.439253711460945606e+00 1.221918275552159017e+01
-7.130142363059835731e+00 -1.983846168122959108e+00 1.425554443332460508e+01
-5.393607582304143833e+00 1.321936091730966600e+00 1.203798639976406193e+01
-6.973534746492264347e+00 -1.776145380573810995e+00 1.428380627625594101e+01
-6.470840087056517476e+00 2.871259857937690452e+00 1.459402013819135036e+01
-4.420477695905641546e+00 4.266519283352295133e+00 1.666405924353029278e+01
-3.950109698117268753e+00 1.618939655212786155e+00 1.154071723066140365e+01
-8.102233367982336176e+00 -2.844892624315690788e-01 1.779308778922284162e+01
-1.818426970423600020e+00 2.202639081092706341e+00 1.781330788262080844e+01
-1.505539267615272347e-01 -2.703584617625337305e+00 1.558883130952098028e+01
-2.303079002219594607e+00 3.211783637882430931e+00 1.645951254622223914e+01
-1.978546522390718376e-01 -2.714114292461713873e+00 1.536152129972663616e+01
-8.192954611557611955e+00 2.129873857172693175e+00 1.684295626683458025e+01
-3.262944717229074421e+00 3.643676517811797133e+00 1.625860613495001061e+01
-4.267220359301643562e+00 -9.811683822873085159e-01 1.818511851779404154e+01
-1.705612795431459272e-01 -2.325768152535147237e+00 1.561761468526717422e+01
-6.340574320909242445e+00 -1.566242910668713906e+00 1.496982370508071725e+01
-1.202746762981486972e-01 -2.558073433102487915e+00 1.637335671520105151e+01
-5.159824146687816082e+00 -4.290777265561823484e+00 1.616555061116224934e+01
-8.078697379605888074e+00 -1.303657384336643243e+00 1.794451301209837268e+01
-6.629537829954326611e+00 3.319414875943191401e+00 1.753568820141006412e+01
-7.114014947314069914e+00 -2.524770831579221220e+00 1.815713912734839752e+01
-7.976789339836200199e+00 -1.447231960538058804e+00 1.800734508547150270e+01
-6.837654226873873142e+00 3.891397545549361681e+00 1.652829911946834684e+01
-8.641217303679709971e+00 -1.869479266321592670e+00 1.468594744281495323e+01
-5.520710700847574870e+00 -4.803648219876571979e+00 1.745145577205177645e+01
-5.538730301401757927e+00 9.994496821745806336e-01 1.251507696255645996e+01
-9.144405317733859118e-01 5.623996902990521241e-01 1.368794407497754051e+01
-5.507924911652816391e+00 7.666482693969753903e-01 1.287257676936284767e+01
-3.117714418985809033e+00 3.231361993066309335e+00 1.548865116751926152e+01
-6.782644248747684568e-01 5.259286414369841456e-01 1.405240063059617839e+01
-2.155123724938811103e-01 -3.748876609150320949e+00 1.654320610586878004e+01
-7.556448729354212190e+00 2.089669429394663158e+00 1.454535308416450690e+01
-8.280590336145337460e+00 -3.743208734724815301e+00 1.565741195145409748e+01
-6.967740501365561556e+00 -2.195280865826252370e+00 1.452282032988749094e+01
-7.269434989486024179e+00 1.949295323424500959e+00 1.771127994596637834e+01
-7.036742548339077530e+00 2.289707480838433451e+00 1.769095224134301603e+01
-3.444678663638532701e+00 4.026980542479509317e+00 1.687207689299402702e+01
-2.241962703845714167e+00 3.402552392937702841e+00 1.701768559582821538e+01
-2.353154831235629629e+00 2.318510230055426113e-01 1.312428402415882900e+01
-4.794791847530085249e+00 -3.951478505616924597e+00 1.591308667748639394e+01
-8.643013535244318035e+00 1.210434667262215047e+00 1.520773578052889619e+01
-6.211424142626249534e+00 4.081820435160730121e+00 1.746265824467901595e+01
-8.378812077955275939e+00 1.470442773505416412e+00 1.494049549363494478e+01
-7.236481451787325270e+00 2.327320819585941614e+00 1.760703365221180050e+01
-6.545835898089681137e+00 1.761280608472355624e-01 1.311572683929948013e+01
-6.627913005596917984e+00 3.895349149456173610e+00 1.736183154528248096e+01
-3.306399554761969117e+00 -8.755869528274686786e-01 1.482794200177758270e+01
-3.740966462070639764e+00 -1.639541246183516598e+00 1.522935701916557960e+01
-4.624800657146860283e-01 5.741438855674458885e-01 1.727149156980185651e+01
-7.702760283006108821e+00 1.833197094842876185e+00 1.439953807676202402e+01
-4.871171224203090233e-01 8.415080763097846361e-01 1.725618249240886470e+01
-2.266766755334011396e+00 2.364913301436982751e-02 1.818186605842715053e+01
-3.556953605672828811e+00 -4.637985120520383475e+00 1.660497815684564316e+01
-2.050535775500327507e+00 2.379174849695029625e-01 1.817341810284483117e+01
-8.592809563210908053e+00 1.119030494559431488e-01 1.712848792037182122e+01
-7.516280718429051433e+00 -3.708913043246321983e+00 1.783271879049387465e+01
-3.111022425153875837e+00 -3.370439254183906996e+00 1.803230189749527668e+01
-1.734076758679969910e-01 -1.329705628001803364e+00 1.540976539128477540e+01
-4.501843266144771150e+00 -6.476283433446299309e-01 1.462629320672864353e+01
-8.879351330729939207e+00 -8.408341833912942320e-01 1.634995418827345404e+01
-3.270666283546808106e+00 -2.999800621148249302e+00 1.809177637710249442e+01
-5.361410661963121882e+00 -2.659610710525492028e+00 1.563923576178308750e+01
-8.977673077479352282e-01 -3.541425863675390140e+00 1.790269835985291635e+01
-6.851264219424040292e+00 2.700815977403474566e+00 1.763799735694915327e+01
-1.349472098762046546e+00 -1.530616282145992990e+00 1.434305150349740998e+01
-3.910285455492421569e+00 2.287707368880155911e+00 1.255886821892714877e+01
-3.500246035102013931e+00 -3.377670015921610425e+00 1.807343956360665871e+01
-9.280896358536215862e-01 -1.505078092505050869e+00 1.433596983364597222e+01
-3.130430565820924382e+00 1.185067393492190035e+00 1.212703191055949858e+01
-7.588847557261072296e+00 -3.575485791951507064e+00 1.531234642257518530e+01
-5.294150893754769882e+00 2.798871532597122513e+00 1.381834104949806274e+01
-2.683951471652040954e+00 -2.055984796707820417e-01 1.817938245677203568e+01
-6.463646096987478273e+00 2.755458019081154397e+00 1.772789485757948214e+01
-4.396776504401000096e+00 4.259972458091121794e+00 1.768696912480035266e+01
-6.338248933336176449e+00 -4.497129623476686433e+00 1.638678831243440115e+01
-7.157276954696675020e+00 -4.518816461075487290e+00 1.641538907710522821e+01
-5.543510341140712727e-01 -1.184725910640702207e+00 1.774491724862278730e+01
-3.995478614252458094e+00 3.652642858699467254e+00 1.780741911371982766e+01
-9.209335579135307093e-01 -3.204344598016981571e+00 1.799811545585999895e+01
-3.707452223722700779e+00 -3.747242787361101612e+00 1.803388512181274095e+01
-8.225575376406212058e+00 1.735684405818193277e+00 1.702952691034880317e+01
-6.327293247954976607e+00 3.262418209375010925e+00 1.521168653156438566e+01
-6.088639601008029700e+00 -1.845555233115790061e+00 1.521837573364301832e+01
-1.593665050941734940e+00 -3.306601796407250493e+00 1.539868165766623420e+01
-1.424819742432866132e+00 1.196009020175196502e+00 1.798311194536497837e+01
-2.912272846690298511e+00 -6.790584982829059868e-01 1.817629389470193857e+01
-4.360635809766494120e+00 -4.733628630293389428e+00 1.677429719494803706e+01
-2.030531116425530191e-01 -9.783408050034940739e-01 1.710213893410918828e+01
-3.046591194702081840e+00 -1.225687174677125846e-01 1.400698693822920760e+01
-5.264834790719813640e+00 8.959727176797251946e-01 1.811250485765237173e+01
-2.111231880679156903e-01 -6.037556876962055785e-01 1.704892713882763999e+01
-8.798986357311340711e+00 -1.672999222164737176e+00 1.675657181071585100e+01
-6.079192733200504684e-01 -1.257019328120281942e+00 1.447465388663152552e+01
-8.109939281273931044e+00 -1.500702514766840912e+00 1.793019032360136222e+01
-7.724139390127486848e+00 3.024949395538235830e+00 1.598478899668085162e+01
-5.126720296231402685e+00 1.014329826346821672e+00 1.258417900554334423e+01
-2.942973919714882425e-01 -9.045380580996282838e-01 1.483506381220554360e+01
-5.735305440518024156e+00 -3.691161254820107263e-01 1.431823625763404451e+01
-5.553882625749647639e-01 -1.707778498212717544e-01 1.759204499294201796e+01
-3.993140326482209068e-01 -2.839707709563574767e+00 1.767662718037528791e+01
-5.898313234839312358e+00 -2.540960600606378073e+00 1.814806379351879073e+01
-2.781898212981102070e-01 -3.988231737269491095e+00 1.651171254967389856e+01
-8.823879003011811051e+00 -1.250205422091104746e+00 1.672926216268006883e+01
-7.257736491201539408e+00 3.103798641884585319e+00 1.732448170734605597e+01
-8.841357529946730409e+00 -1.410117909087188259e+00 1.656006243439532355e+01
-4.533043612526137522e+00 1.868208008173695589e+00 1.157632374241454087e+01
-7.104388355177492897e+00 -4.571451632154626132e+00 1.650775543338114559e+01
-6.133339025928242094e+00 1.043903995850169908e+00 1.236186226736471028e+01
-3.339241724752430418e+00 -4.919607735127563330e+00 1.714516959706876165e+01
-2.593819498864319062e+00 3.649525105806551206e+00 1.762582107365761530e+01
-5.729620859034014302e+00 -1.855485669749574962e+00 1.530223359335620259e+01
-8.478043479423991613e+00 -2.880354798935966798e+00 1.709686599902689963e+01
-5.956679774504715752e+00 -1.020023859490036378e+00 1.476189870446812691e+01
-4.814615573882838007e+00 4.542404552397259820e+00 1.725656387131483527e+01
-4.557845992603314578e+00 -1.520191380458447927e+00 1.519324228865983528e+01
-8.020588728343300389e+00 2.162275647841543247e+00 1.526230710474896668e+01
-2.487284834962995461e+00 -9.862279239444351475e-01 1.465891928761888252e+01
-7.986124310229397949e+00 -4.066777085887820498e+00 1.584640122333366818e+01
-5.336342297010563840e+00 -3.650649660734671453e+00 1.585958055945602396e+01
-7.361460037601847972e+00 -3.834274184730552815e+00 1.561465055145214720e+01
-3.955558012295659509e+00 -1.850005385975195038e+00 1.531104168089889939e+01
-1.636486900510863318e+00 9.808883130673046180e-03 1.816168494252336885e+01
-7.804206532989514500e+00 3.113346638435906755e+00 1.627703353919430285e+01
-5.980357829458041508e+00 -3.884240212918666391e+00 1.594525070714734127e+01
-8.105236381907037213e+00 -1.100233304869077333e+00 1.791085932842428363e+01
-8.744216661561374337e+00 -1.578174831638623710e+00 1.492197908602343048e+01
-5.006015632633001644e+00 4.626671233022801921e+00 1.734399158247486028e+01
-5.389041547421170364e+00 -1.535837614783381655e+00 1.522023365966184016e+01
-7.956529088507448222e+00 -2.336788939687590716e+00 1.796365993383781401e+01
-3.483746051908553465e+00 -3.578383119554291447e+00 1.804030012638325431e+01
-3.308400943559023588e+00 -1.051613054535785796e+00 1.494343542748512377e+01
-8.683894989439574275e+00 -1.597346472626045566e+00 1.470976080915511019e+01
-5.120434316680759324e+00 -3.965072607419083628e+00 1.799208735527584579e+01
-6.862180272894637056e+00 8.735436176578845746e-01 1.804242043695003517e+01
-8.637852315804998682e+00 -2.249404197336532185e+00 1.706687269590441147e+01
-8.675432482142170443e+00 -1.787581815001109353e+00 1.476246185937047173e+01
-2.303781933892374845e+00 2.831758313363667234e+00 1.562429759326991885e+01
-3.507159145337014339e-01 -1.313550787350989735e+00 1.483166611362704046e+01
-6.658029046613224367e+00 -5.557421256105583574e-01 1.388655359276665635e+01
-5.037108108228846248e+00 1.325125287305902955e+00 1.207210500671194708e+01
-2.142218511966714978e+00 -3.105519053535430896e+00 1.559630496446397885e+01
