-7.790875648265884301e+00 8.653079991332254250e-01 1.618287410608940391e+01
-5.867953097943980900e+00 2.713237033996876324e+00 1.391714205182505637e+01
-7.794186778427985907e+00 1.283696056147031861e+00 1.594754979508244119e+01
-7.671426416574616880e+00 2.473945945820644976e+00 1.600200709463920035e+01
-7.820269065267592801e+00 8.945013394308304333e-01 1.588404734128099349e+01
-2.747049405051894322e+00 1.876576930817822841e+00 1.770875835841278345e+01
-3.911589746073415697e+00 3.499233325121466898e+00 1.553440880072979624e+01
-7.665840984289268967e+00 1.043896313835500855e+00 1.652705828834832502e+01
-5.986548359575782463e+00 6.283586397106626364e-01 1.800363669187342808e+01
-6.292473693966140758e+00 7.513373051553298154e-01 1.791374870255131313e+01
-1.231312438788521924e+00 -1.821454138018301083e-01 1.265813221949509071e+01
-7.126013576434032437e+00 -1.497503839481240995e+00 1.282668690202400441e+01
-6.571226844193128080e+00 4.358540438482911838e-01 1.793853061315921238e+01
-7.491203383408641336e+00 6.423760991225402339e-01 1.717102331468070631e+01
-7.413318512221603207e+00 8.542707220883445363e-01 1.722293420585431889e+01
-7.597920094537871982e+00 2.086294516225871476e+00 1.625951661519935598e+01
-7.279283018995571730e+00 1.841800950958582650e+00 1.699739156839307341e+01
-6.960849572860696277e+00 1.227533886207521574e+00 1.755772385670720226e+01
-7.708917747405361176e+00 2.264830357290669394e+00 1.599063286908285519e+01
-5.963523337495527876e+00 1.586390532227954342e+00 1.775488352464718034e+01
-3.538873679499953795e+00 1.980875284839503703e+00 1.780810146674928163e+01
-7.786779454406326018e+00 2.100102176189740266e+00 1.580653643179352841e+01
-3.116429565344443819e+00 2.461536755342833338e+00 1.760430609226147780e+01
-2.752693371756369967e+00 2.857083795750693600e+00 1.740138529173655613e+01
-5.975635466500426318e-01 6.710382269720306381e-01 1.592722267503199518e+01
-2.113941932949335634e+00 3.442560849093356801e+00 1.660867919002016535e+01
-6.793706768570422661e+00 1.090457953904335531e+00 1.767933278894166804e+01
-6.527389005744762329e+00 1.785879576468770935e+00 1.753616876531825497e+01
-6.759774979532185313e+00 1.585492051364220334e+00 1.752762857817215192e+01
-5.386064080761847173e+00 1.443253529741045371e+00 1.791803620792422080e+01
-3.708233168724829554e+00 2.077343084228761239e+00 1.337338053676838356e+01
-5.567205860332404832e+00 1.652940353034793919e+00 1.782397539465179293e+01
-5.170474298628969123e+00 1.642233196949750784e+00 1.790703539608620432e+01
-3.172810667563365605e+00 8.195160366928294637e-01 1.802131642998067562e+01
-5.402434105342757142e+00 1.182012885022808657e+00 1.145509919995120285e+01
-2.553255571429872806e+00 6.153426125087102516e-01 1.794147990145211580e+01
-2.972867156800326871e+00 1.237660014113996843e+00 1.790904063083189968e+01
-5.559387870004010246e+00 3.873783072611280964e-01 1.813203284528864501e+01
-5.755988050396612543e+00 8.619288465730734483e-03 1.817558776250827535e+01
-5.561269798976415935e+00 3.293647002243355049e-03 1.820651897593941371e+01
-5.968800126806121931e+00 2.503469886714981829e-02 1.814097838646014438e+01
-7.840421292469391013e+00 -3.025518702528315895e-01 1.630232368132601906e+01
-4.602247310829529425e+00 1.100494393017698469e+00 1.138278465194711586e+01
-3.570904908711238779e+00 4.454076481794394526e-01 1.813484328479895780e+01
-3.568393182317157297e+00 1.897878794246988798e-01 1.815924468635542510e+01
-3.787615315439688324e+00 2.023457173659308772e-01 1.819121910115815766e+01
-4.560354887114707267e+00 4.176164872652249338e-01 1.823332562458329775e+01
-5.381541984147110824e+00 -1.763273666611918866e+00 1.815134503398645549e+01
-2.992183999340306766e+00 -3.492127628804069683e+00 1.686863364397749265e+01
-4.386528908778654312e+00 1.245283416496020812e-02 1.827385910873851671e+01
-2.491405881621378438e+00 1.493679490384649089e+00 1.314750029163935707e+01
-7.118734051153793985e+00 2.461182671545117384e-02 1.787606676934634820e+01
-1.851385227185036619e+00 7.696558166912518262e-01 1.292202293111148137e+01
-2.529666512020881886e+00 1.835237007987761793e+00 1.767824215494523443e+01
-4.773010284471351561e+00 4.230092881507757641e-01 1.822836198215222581e+01
-5.977305208870479447e+00 4.595268264785152823e-01 1.804367330834423555e+01
-5.949331206709155495e+00 1.884108196771425714e-01 1.810699042979433315e+01
-3.824338073456826415e+00 5.666968312231122074e-01 1.815757969998677979e+01
-7.819724878249695088e+00 2.514399382015897744e-01 1.613275387411391293e+01
-3.444653777905588576e+00 2.800278232680753376e+00 1.466728778949243761e+01
-7.665457317560647965e+00 6.366088542456085353e-01 1.673766416513398170e+01
-7.803786364272409237e+00 6.953271038206150501e-02 1.656246019189208951e+01
-5.352383414510876847e+00 2.832895655638267396e+00 1.750312121642770435e+01
-3.478645464366629358e+00 2.478794865402577763e+00 1.413255246904491358e+01
-2.860557844384399750e+00 2.205968429590732249e+00 1.405633468186451651e+01
-6.376965766945991376e+00 4.143382326495372858e+00 1.621079883073424455e+01
-5.750211236112890312e+00 3.705542817719410298e+00 1.706777996821144328e+01
-5.317156494207433859e+00 -2.790646704988095639e+00 1.458724719467414488e+01
-5.348834739120447601e+00 3.846343935186531837e+00 1.709602598773765791e+01
-4.556328896051335064e+00 4.335341159524725541e+00 1.666607802620786671e+01
-4.115465025580717473e+00 4.300664817801610695e+00 1.675388138541408622e+01
-4.562096246070353800e+00 2.421146219724280790e+00 1.774763237261743498e+01
-3.337067113870848534e+00 2.862452854082994325e+00 1.750245668850013558e+01
-4.942625725534321113e+00 2.046160119132845789e+00 1.783010496325598737e+01
-4.954562709840205414e+00 2.431761372607617933e+00 1.770805310979151770e+01
-7.237519800179724960e+00 3.776515825343228494e-01 1.317642720901062958e+01
-3.000774249935979299e+00 4.297594581387331747e-01 1.124723261892465231e+01
-4.112823001222318808e+00 3.539985465729377445e+00 1.551594675872009432e+01
-3.179586019313219492e+00 3.647450235374142036e+00 1.715066815224716734e+01
-7.382758726576148511e+00 3.063578307028032022e+00 1.628283334172681762e+01
-7.473927807429624259e+00 -1.294664284359238415e+00 1.430997035896722380e+01
-7.182800788578552087e+00 2.864091675343578114e+00 1.666104427350317607e+01
-3.551730762913915207e+00 3.682298161569578454e+00 1.719918362316656513e+01
-3.577902671739059848e+00 3.577642851203031160e+00 1.725179583891922519e+01
-5.751920128577088676e+00 1.782179403624918557e+00 1.774415822029564183e+01
-5.750682438893402804e+00 2.038923672066683235e+00 1.766465477708865350e+01
-5.541238432892552801e+00 2.437491230726068991e+00 1.758802135309342063e+01
-4.742510339953068588e+00 2.787765100051422085e+00 1.761753900870010980e+01
-5.923052163230410727e+00 2.240835743507840316e+00 1.755835702336870341e+01
-5.770387742662078878e+00 2.634685642503217906e+00 1.746892183936801857e+01
-7.647616277858331202e+00 3.020328220724897594e+00 1.552454038535694636e+01
-2.487617790841869958e+00 3.727243292492753213e+00 1.675053015542365742e+01
-2.958307867469976316e+00 3.983785970620334016e+00 1.682430331115083177e+01
-5.395619520757908738e+00 2.661740998835869121e+00 1.754952540428662289e+01
-5.361859099501836035e+00 2.435711605735793039e+00 1.762882458862765489e+01
-5.651174553452093186e+00 2.485684268844850831e+00 1.754731695279089010e+01
-5.949489228637851568e+00 2.440378819635497187e+00 1.748572446721678020e+01
-6.159214168733319283e+00 -3.847410318579011612e+00 1.694877884353465092e+01
-5.938592131936372809e+00 2.874456903415381515e+00 1.734845057840059823e+01
-6.348741726226633908e+00 2.634954478440917569e+00 1.730419054892110964e+01
-6.148561921154763965e+00 2.704097222969418457e+00 1.734139040829044731e+01
-1.229158553659491115e+00 7.966594208877534333e-01 1.723782427563105202e+01
-4.165597594924256519e+00 2.790583968707013529e+00 1.761912347821772684e+01
-5.407416881975678491e-01 -9.327303794052870245e-01 1.651474379321949115e+01
-6.200940390510705225e-01 -2.077930308740110199e+00 1.446132631636200827e+01
-5.413040990894176785e-01 -1.150875574953010017e-01 1.631260311347202574e+01
-5.763117798525901891e-01 -1.775228378220009784e+00 1.418260878302832495e+01
-6.554392296227834480e-01 -1.078669369548369783e+00 1.372021921772214270e+01
-5.702407188402125904e+00 3.486097626194244459e+00 1.508350999237552159e+01
-8.417389958890661994e-01 -1.038952551313333528e+00 1.268291443976528043e+01
-7.289423401606733854e-01 -1.237717445787441584e+00 1.306785412487844056e+01
-6.652136643312495101e-01 -1.250350420523264505e+00 1.345138603792426935e+01
-8.971672493173519225e-01 -4.378225756911183209e-02 1.369197959613336124e+01
-2.719995782115681937e+00 6.633326575241239587e-01 1.796745012783833673e+01
-7.054598115541401704e-01 -1.018575752488144914e+00 1.347239542964200965e+01
-8.107827975097086082e-01 -1.012479393893574775e+00 1.289788312630293987e+01
-6.638879255653276079e-01 -2.584194624615004932e-01 1.449627370582294006e+01
-3.066800880419352726e+00 -1.939363179200872978e+00 1.306333954787510621e+01
-8.176923961184323630e-01 -8.218296383771602764e-01 1.309295608665793864e+01
-5.953135792746803157e-01 3.186188324616409107e-01 1.554957959305445669e+01
-6.082647231559289436e-01 1.791894649027174768e-01 1.522996866103279601e+01
-6.339477600754000797e+00 5.697829459300711719e-01 1.133223987044534553e+01
-5.819715563083066812e+00 9.521124060298167269e-01 1.098830789052299295e+01
-4.804313670464229524e+00 8.724298573188503658e-01 1.081743464973192559e+01
-7.579520650839744356e+00 -6.596490582773711919e-01 1.469957597825599649e+01
-4.590899135006221599e+00 8.002767656644707017e-01 1.080657561815551659e+01
-1.795264250496884539e+00 -1.941410889305677401e+00 1.267230498375642256e+01
-7.817402825903394081e+00 -2.300121842264600147e+00 1.625911696098922832e+01
-1.091122060349390077e+00 -8.516633492876768408e-02 1.309918675736065197e+01
-7.718580805108573806e+00 -2.685859507842701888e+00 1.585111171980225109e+01
-7.840139042826611337e+00 -1.551822504072054132e+00 1.614086980745134170e+01
-7.691693750441633171e+00 -2.088598668129559410e+00 1.548381379186738727e+01
-7.252576278081511063e+00 1.538601565705903340e+00 1.361014191839470655e+01
-7.516309433423780106e+00 -1.687310406894220849e+00 1.468478766498942534e+01
-7.493180238584376873e+00 -1.512396192157337893e+00 1.450101042415965580e+01
-1.899526217136375372e+00 -2.905153087936742207e+00 1.458106681263501869e+01
-7.551455934245665524e+00 -1.266701704710355036e+00 1.472835910484049649e+01
-7.689403199503430208e+00 -6.741083104303132734e-01 1.533873248174753101e+01
-4.381618168650533995e+00 -3.409267962232188864e+00 1.536735387972727906e+01
-7.737831220126017762e+00 -2.877152827458738793e-01 1.554268157321488886e+01
-1.116864662111187290e+00 1.100836109214863023e-01 1.331801889914516224e+01
-7.229349274341769771e+00 -1.036239613037438501e+00 1.270377797113559737e+01
-7.406352089692273211e+00 -1.069402550197273261e+00 1.374918250038696854e+01
-7.375637760256391395e+00 -1.014099939327763211e+00 1.351490620663706821e+01
-7.792333012857013408e+00 5.013402318204287500e-01 1.575938991856427052e+01
-7.711669390362618337e+00 -7.483452658717509864e-02 1.534573456986101903e+01
-7.361315050179222830e+00 -9.667244788566238256e-01 1.338055828978584216e+01
-7.787332367005523004e+00 1.494523854400100937e+00 1.557150989300651744e+01
-7.752774665601598336e+00 1.491693941170319393e+00 1.534828236122735134e+01
-6.794813765568589403e+00 1.680713321036828023e-02 1.174270676778555966e+01
-7.078305925345963701e+00 -2.242985338619961910e-01 1.234225710801795728e+01
-1.643942127082589355e+00 1.749118366090897103e+00 1.450118269699781237e+01
-6.745976813948374229e+00 2.016482199922370877e-01 1.176250552233733870e+01
-6.882287587136186602e+00 1.598497924992467456e-02 1.196600358344909054e+01
-6.801340979998709457e+00 5.881883756337803471e-01 1.218442657115069139e+01
-7.414019949249366803e+00 7.168154956878775019e-01 1.378248856718014181e+01
-7.449042598524711067e+00 9.504284122532692392e-01 1.395904422992451188e+01
-6.571977868316579041e+00 7.897719220765359038e-01 1.185317018499543806e+01
-2.105925589971291423e+00 -2.984073285434651890e+00 1.684789236974112114e+01
-7.641806663222081575e+00 1.905783755189545348e+00 1.479198416163427865e+01
-6.765288364804013632e+00 9.622992573310814590e-01 1.226890688287849329e+01
-7.617543578164593931e+00 2.327764537977232706e+00 1.483758932858880897e+01
-7.449000117426757939e+00 1.897483610871936843e+00 1.419169513079764400e+01
-9.394874897697029770e-01 1.870570035414477639e+00 1.598642682903677681e+01
-1.040186637233567080e+00 1.907363278062951473e+00 1.588138171530929199e+01
-5.231886628583282572e+00 1.643187871085257656e+00 1.224023063352115415e+01
-1.026199844926138471e+00 -2.291266532688967239e-01 1.307573733095747670e+01
-1.013310273956837593e+00 1.019800367891220416e+00 1.685878573773490174e+01
-1.259249363607294558e+00 -4.173322726884429734e-01 1.755323012968687024e+01
-1.103614866631436930e+00 1.908861593479116214e+00 1.575411020050210098e+01
-1.177887250444088929e+00 2.047469409255155970e+00 1.577033678619455159e+01
-7.578551456401263486e+00 2.760316676444800610e+00 1.520093374228976657e+01
-7.378446790252964682e+00 2.220339667412612350e+00 1.418695470819099214e+01
-7.448248212805242296e+00 2.506439419228413179e+00 1.462905870903385974e+01
-1.254608716953155012e+00 2.127656616256968558e+00 1.570727215004962929e+01
-1.295573641860588987e+00 3.823761925160285013e-01 1.327152370376156298e+01
-1.326890873671614290e+00 2.115692394217381533e+00 1.553864860450178398e+01
-7.488636194275157365e+00 3.028583428032553204e+00 1.544481506387134928e+01
-7.789511737954737391e+00 -1.327221114970378313e+00 1.589643874689007319e+01
-7.118842095657424984e+00 2.918922391224783031e+00 1.478012235240720784e+01
-4.915670120840714752e+00 3.948585791339573436e+00 1.589776512002376663e+01
-6.689153754494767234e+00 1.181573269237744750e+00 1.220432002460247034e+01
-6.729965337029939931e+00 1.453670455172480391e+00 1.251305765140537218e+01
-1.458280453131794996e+00 7.728619434508924302e-01 1.351074833148946297e+01
-1.805973737957957681e+00 2.426223806931588900e-01 1.226080098955968722e+01
-7.592893821664283394e+00 2.128696679923343549e+00 1.468436995844264104e+01
-2.022031979164769400e+00 6.068133240510977799e-01 1.246019510924361029e+01
-1.407275040830833879e+00 9.909569457083254873e-01 1.388945844942383090e+01
-2.087418151313319647e+00 5.452287345965307619e-01 1.228533205466763079e+01
-2.390696497229154893e+00 4.641123342157548182e-01 1.180586618045775893e+01
-6.907445549053149669e+00 2.168220005496849012e+00 1.361974920636030717e+01
-2.285672412504332396e+00 7.766942474441664856e-01 1.231596889005126272e+01
-1.849777915154457997e+00 1.365741808239270716e+00 1.370266396475204473e+01
-6.872820891093692985e+00 2.702733736241408113e+00 1.425218520808693867e+01
-2.036441795200613303e+00 1.564080158452764824e+00 1.369693324863111528e+01
-6.904322085535752329e+00 2.944777453792188471e+00 1.461686256119639538e+01
-1.615866139911240396e+00 -2.070754642269588608e+00 1.712958909056514401e+01
-6.465830325822865987e+00 1.474588166222989605e+00 1.217165848006829876e+01
-1.190082636220679335e+00 7.969338761450506237e-01 1.406766141818602378e+01
-6.750510135171094106e+00 3.004555704267394489e+00 1.460020664737745122e+01
-6.855531179822576426e+00 3.459933888900861287e+00 1.528665514635492784e+01
-6.689435429970957969e+00 3.338235345888480143e+00 1.502779073938796373e+01
-2.456978579112514716e+00 9.376121809997114420e-01 1.232200319295470692e+01
-2.802251416585270327e+00 -8.952137667340982485e-01 1.149269469076399375e+01
-6.411620174029096120e+00 1.204458378624017278e+00 1.179951280889054388e+01
-1.970974175979364418e+00 2.672705481892455381e+00 1.538797004870216156e+01
-3.296937029486335380e+00 2.291857410792070837e+00 1.393685079065061316e+01
-2.304233191316384044e+00 3.083685358839540314e+00 1.576521978206376318e+01
-2.537603286805553804e+00 3.490544637471595824e+00 1.632309438588601935e+01
-1.801749181382449994e+00 2.988354745704409954e+00 1.618156225545345350e+01
-3.135813901506351975e+00 3.812822203753357453e+00 1.643357679310321728e+01
-2.975022207969993282e+00 3.615968027175502808e+00 1.621574353398727553e+01
-3.333809304926943273e+00 3.805482405859503370e+00 1.632229924813595190e+01
-2.475632132049153444e+00 2.717583535217557245e+00 1.511010262025649453e+01
-2.705443827748700070e+00 2.943455228901530329e+00 1.532906594543009859e+01
-2.490736715893728359e+00 2.346822856155346138e+00 1.451797704797509070e+01
-2.461353082142160531e+00 1.959386341964410194e+00 1.391617803734680692e+01
-3.242882291329197475e+00 5.844649886939493610e-01 1.126843213129041388e+01
-2.692745189899186542e+00 7.950513686647392442e-01 1.192822929439882884e+01
-1.809468216996959367e+00 9.938193108135008336e-01 1.328165578533571889e+01
-2.823009872412817423e+00 1.221701155955647655e+00 1.249191911935465171e+01
-3.826748109961813249e+00 8.211405031037470881e-01 1.126459741452121577e+01
-5.500676287691494082e+00 2.791168665246681613e+00 1.401378073587796180e+01
-5.859464186579153022e+00 2.817888829932815753e+00 1.407844584618327488e+01
-7.653328705032829582e+00 8.091605371147331249e-01 1.668056998800384250e+01
-3.465189701442211501e+00 7.394739980203756113e-01 1.134535277981629164e+01
-3.101538343798081687e+00 2.095940495766060785e+00 1.373606064635417212e+01
-2.230783016266938201e+00 3.322564021549571756e+00 1.630417806962740812e+01
-6.087434445191359789e-01 -1.991544523414820467e-02 1.504488164091330660e+01
-3.718062909898583790e+00 3.689271972274009492e+00 1.593425659041996667e+01
-3.500200669355216565e+00 2.644189104704981030e+00 1.438455132686147309e+01
-3.663534976175505165e+00 2.608096247423688840e+00 1.424196413692514440e+01
-4.605009210704348988e+00 1.034201023794911745e+00 1.127078014254329119e+01
-4.065689579752941540e+00 3.748296174184046148e+00 1.585467771169530593e+01
-7.581741679937729295e+00 7.844831622930009685e-02 1.445778367661836583e+01
-4.137685527185920087e+00 4.082290669360829405e+00 1.637798408678065343e+01
-3.103604985154942764e+00 3.709635935916484772e+00 1.629275213483501616e+01
-4.124961066684369015e+00 3.920401973600206702e+00 1.610569332876623250e+01
-1.148670023580121269e+00 1.076780755149444158e+00 1.453879630390354905e+01
-4.359611212630293053e+00 3.955650930252548658e+00 1.607911336707315897e+01
-6.897324995468945286e-01 1.318493791305407059e-01 1.471863463330106825e+01
-4.037040475448187671e+00 2.223122891445862059e+00 1.345581119756073107e+01
-4.249546039457519520e+00 1.797293398859923563e+00 1.268068252723929490e+01
-4.514369394826172943e+00 3.652524912393461332e+00 1.554436003176519066e+01
-4.712657733559855622e+00 3.692394335577255937e+00 1.552873468262829348e+01
-4.659172080229462054e+00 1.541436774282516575e+00 1.209635232938324023e+01
-4.491151137543962335e+00 3.040080077966661243e+00 1.457675868277641129e+01
-5.002779824138506193e+00 1.637947430937711557e+00 1.222796337479148931e+01
-5.251091961524125828e+00 1.553577669985909182e+00 1.208568273657479253e+01
-5.096774682237883880e+00 3.851004388637798037e+00 1.570274274061128139e+01
-5.415171813035327908e+00 1.539465738873298628e+00 1.205748651864802312e+01
-5.430271467848259093e+00 1.637443757877303119e+00 1.221307248935251621e+01
-5.097322240615960176e+00 3.723373484800318600e+00 1.549444011085962458e+01
-6.484399320798374333e+00 3.744379752573320452e+00 1.568580569929346424e+01
-3.096774169464864279e+00 -3.374710404608779690e+00 1.528278204445780730e+01
-5.869989760028705206e+00 3.505814745316689240e+00 1.511903884034630252e+01
-2.300373361900171165e+00 -2.931953820373181419e+00 1.694658884021544409e+01
-6.057666528071053769e+00 3.744283788672595037e+00 1.548957196950471271e+01
-1.168203760304700412e+00 -1.670645610035063899e-01 1.280688728413003830e+01
-6.513002509891557601e+00 3.275540633581282890e+00 1.489071428811476849e+01
-6.298286295963420933e+00 3.559241884456481042e+00 1.526772533532988163e+01
-3.501192301908063964e+00 3.342919507472897678e+00 1.550562691645210478e+01
-6.284924572491839889e+00 2.825497335789307840e+00 1.418039666584009595e+01
-6.062632629680330787e+00 2.916838199179779600e+00 1.426441094765965190e+01
-6.252799383792938315e+00 1.466821479744628176e+00 1.201406299542827938e+01
-7.383068006639559311e-01 -1.298397043581208665e+00 1.294574932084983132e+01
-3.089665285200760003e+00 -3.606337998439725467e+00 1.683226222102521419e+01
-6.949649712719460304e+00 -3.036391454378188026e+00 1.753813227682494968e+01
-5.655237874395552256e-01 -1.265608557526623379e+00 1.413393058849516493e+01
-3.286093127738390240e+00 -3.396075452689579333e+00 1.704228776174342741e+01
-3.163538259514789619e+00 -3.304099222744449893e+00 1.705386944123255333e+01
-6.306732901577636774e+00 3.294294630999949902e+00 1.486595309687765720e+01
-1.231640545183774194e+00 -2.489209968813361318e+00 1.673042471739453063e+01
-1.391906298623359906e+00 -2.250986041370886870e+00 1.693779850894260974e+01
-1.281237546723713372e+00 -1.802568435480045528e+00 1.710970553563439367e+01
-7.988014398601932520e-01 -1.876873775605528039e+00 1.678350055706646415e+01
-7.772444856413542880e-01 -2.256917704534997959e+00 1.656193264089462858e+01
-6.780794607617167458e+00 -3.060218532536863822e+00 1.754338467320949846e+01
-3.250556832715536082e+00 1.612782201949332084e+00 1.287153720841759608e+01
-3.423069607854797525e+00 -3.459713606766521732e+00 1.705691895078958353e+01
-3.507569375524889566e+00 -3.224670307475578479e+00 1.722454282643160539e+01
-2.697931476217088509e+00 -3.010567049366262182e+00 1.704663141683633043e+01
-2.374650703378827554e+00 -3.065321689658103033e+00 1.689958763449855539e+01
-2.965364676959068468e+00 -3.094168954359061363e+00 1.710076871577694035e+01
-4.804178951399854292e+00 1.705806837649338270e+00 1.235036516478708180e+01
-3.141261992747803600e+00 -3.003682829631317830e+00 1.721491590095438440e+01
-5.027909356212776792e+00 -2.637914281509333492e+00 1.779808140394025529e+01
-5.993565722546654762e+00 -2.210300870854601474e+00 1.800282983589798036e+01
-5.283867922050856647e-01 -7.068974342070880601e-01 1.588630322825790486e+01
-1.959544728426497073e+00 5.485528007428520925e-02 1.183250772247717819e+01
-2.389118918143501524e+00 -2.708295935405229837e+00 1.709645978522766896e+01
-6.261661258622304160e-01 -1.693018272720380413e+00 1.658302548564011758e+01
-1.192377949955176097e+00 6.178680304150639957e-01 1.382438385990974794e+01
-5.948160165487043294e+00 -3.853685551908835105e+00 1.697051016396966006e+01
-1.288487492063357109e+00 -3.010221246648786320e+00 1.647598882545132781e+01
-5.620779536416879552e+00 -3.663545844982493360e+00 1.719540975089346446e+01
-9.379721427470193440e-01 -2.586950101877934394e+00 1.650040144219314087e+01
-4.835240267971030903e+00 -1.303181170790668419e+00 1.827815898316783105e+01
-1.658118240269789601e+00 -3.117462679084387345e-01 1.778554727279932379e+01
-7.642764281706870833e+00 -1.573284810844745030e+00 1.753485868664192893e+01
-4.612218105671113122e+00 4.191887144413697364e+00 1.640461311374737718e+01
-1.044899301597835173e+00 1.293912795046432196e+00 1.680854738447788677e+01
-6.180500648536473296e-01 1.046771683167021516e+00 1.616056065137809483e+01
-7.649922368989514609e+00 -1.913678333744547544e+00 1.755250660454847988e+01
-4.440927218966425727e+00 -4.293717470841538209e-01 1.830822738799856708e+01
-3.242020871728077847e+00 -8.137048627265109912e-01 1.812088468581078260e+01
-1.926768994921806755e+00 -1.582923617485110013e+00 1.748866892365064629e+01
-1.453463164117476669e+00 3.502003800993335192e-01 1.761492918012528364e+01
-3.896229489458468365e+00 1.502773482095029811e+00 1.234702913188680284e+01
-1.227710793725202310e+00 1.707877403457374321e-01 1.742092913228365703e+01
-2.224520805606671647e+00 -2.126801394861902672e+00 1.733114924320824812e+01
-2.577248561921175796e+00 -1.729778675079467920e+00 1.764229758998837738e+01
-2.580944782466723542e+00 1.065652270965327775e+00 1.241229616088072518e+01
-3.826277190430118935e+00 -2.491350656611996062e+00 1.767626096443589390e+01
-5.019983115639165661e+00 1.058845422397324931e+00 1.122688071911288787e+01
-3.357046508655307626e+00 -2.937205794441660966e+00 1.732360602053467247e+01
-2.752300017735978876e+00 -2.525566377972081167e+00 1.731864757629320550e+01
-2.805088861400030886e+00 -2.161237742546449070e+00 1.751576905245175553e+01
-1.731999897618503148e+00 6.780188327704913531e-01 1.297113556334776874e+01
-4.595722938121538093e+00 -2.454024078078153703e+00 1.783758256654104812e+01
-1.258561163188518517e+00 -5.544677010765897140e-01 1.754022156219231121e+01
-3.254165605578499765e+00 -2.470096400378051449e+00 1.751982099057675768e+01
-7.607945229028482359e+00 -1.668591365181032460e+00 1.509829777538394424e+01
-5.953995208823608110e+00 -1.774334352862915853e+00 1.815057592336107817e+01
-1.783008516240140118e+00 -1.320610153793319252e+00 1.756189249071256242e+01
-3.263438511750273108e+00 1.990011332934650268e+00 1.347112464151188860e+01
-7.175934504001479475e+00 -3.479451878964198719e-02 1.275895402327220651e+01
-2.670235118491146142e+00 -1.199661545007770558e+00 1.789971586720545460e+01
-3.351781883761821401e+00 -1.680175688883821961e+00 1.790319038827546549e+01
-3.592699528442147905e+00 -2.293896883209776583e+00 1.770193976740026542e+01
-3.358397610097561881e+00 -2.141634755954398450e+00 1.770281368513794362e+01
-6.086512453475726225e+00 -2.963858048852240135e+00 1.483244765827082645e+01
-4.001629393024649595e+00 -2.114906474962880534e+00 1.788650371471890210e+01
-3.730700791656976101e+00 -2.063635215042250337e+00 1.784385700442887313e+01
-3.824327066934079866e+00 1.189964094290967278e+00 1.186930108769348280e+01
-3.640516896123753732e+00 -1.875397762033258253e+00 1.790385861057127315e+01
-3.179262902669902857e+00 -1.503844193286855369e+00 1.792625048387781206e+01
-2.980414088562999275e+00 -1.769657341555693986e+00 1.775258385876183453e+01
-1.047033529786813855e+00 6.123790532391047703e-02 1.720375533857545847e+01
-8.824758178299678679e-01 9.101096977754465078e-02 1.696973077638924465e+01
-3.502426083096218612e+00 3.102607639567016573e+00 1.511919562472602863e+01
-1.029288939438549377e+00 -1.531269629960100020e-01 1.723395747742589279e+01
-7.134455855947440028e+00 -2.124978588613469999e+00 1.359076761053644233e+01
-7.170113165847070036e+00 -2.163707001287127341e+00 1.374001832681652857e+01
-4.222256232466603976e+00 -1.967603049031588558e+00 1.320961660703478557e+01
-4.254574574410854737e+00 -2.208416854141645569e+00 1.355055608647587562e+01
-4.241799787304780800e+00 -2.391522748394583342e+00 1.380830314674826198e+01
-4.505468429683549658e+00 -2.543347960867114121e+00 1.405688638280761538e+01
-4.706298614027484284e+00 -2.356675631018659622e+00 1.382605640710404415e+01
-4.636964207880302169e+00 -2.101137662071999479e+00 1.345458754771344090e+01
-4.822788970513428808e+00 -6.621260524122732916e-01 1.130900856465482107e+01
-1.723604956397500665e+00 -2.333092512945732722e+00 1.332593090578624739e+01
-3.674685878642327985e+00 -2.320208378825363127e+00 1.368048749893273808e+01
-5.323257373748652377e+00 4.007975950934991261e+00 1.594317582659332899e+01
-3.880672072699893782e+00 -2.157276533573147859e+00 1.345346224255881040e+01
-3.694043847984511686e+00 -2.160234799234886705e+00 1.345400357420115611e+01
-1.491233936840979712e+00 -2.576492267288691185e+00 1.388211400417530328e+01
-3.679188069401844619e+00 -1.987814593489385828e+00 1.321055114993914614e+01
-2.618331219438579271e+00 8.476955821354854592e-01 1.206111260650742523e+01
-4.190328371909168403e+00 -4.504601362324720526e-01 1.111455290314416899e+01
-6.993796588025354311e+00 -4.044494190285576884e-01 1.194845805230543689e+01
-6.152627866100328191e+00 2.917549604926519824e-01 1.107141079233350567e+01
-4.209760930307646198e+00 -9.078905173701110609e-01 1.168217901638783118e+01
-7.118718227891922545e+00 -1.890272077419524077e+00 1.327375210721184473e+01
-7.184601364508507615e+00 -1.639764030268087369e+00 1.310693338126000995e+01
-4.010252399565135129e+00 -4.576881946912069177e-01 1.111334304488628177e+01
-3.770874592818471704e+00 -9.095490013863554157e-01 1.164350301372548913e+01
-4.842799767878696926e+00 -2.586843834232142925e+00 1.418558904513068697e+01
-3.439292322646692934e+00 1.798775773015304891e+00 1.306221523880033786e+01
-6.483239144134229193e+00 2.718618434853059984e+00 1.408471655602235373e+01
-6.568459592257201329e+00 6.034824086972387924e-01 1.789232413538109867e+01
-4.654109528609676971e+00 -1.115533904131333465e+00 1.201484130953430096e+01
-3.284629359845301355e+00 2.534099333838596646e+00 1.760716787328988531e+01
-9.300940614066959267e-01 -2.355415685356144984e+00 1.368163045612765316e+01
-6.559021047809682869e+00 7.609578026046942556e-02 1.124477393694528971e+01
-2.277853155283804387e+00 -1.499503029282452715e+00 1.213877690536734733e+01
-3.310044307023887633e+00 -1.281134637936989451e+00 1.210869892502681822e+01
-5.199063012574499432e+00 4.172130409950786323e+00 1.624411544919944461e+01
-2.425472779136971013e+00 -1.943345854763237845e+00 1.285046465193883947e+01
-2.666635902796903768e+00 -2.086738655499510653e+00 1.315374632849688297e+01
-2.829934372476262450e+00 -2.132150405736899401e+00 1.328912660033342164e+01
-3.331166824934389314e+00 -1.912227567510306425e+00 1.308344536244007728e+01
-7.131877206841358507e+00 9.563445656765444669e-01 1.314198789576169801e+01
-5.325906920872085060e+00 -1.731111839698067367e+00 1.302595509251255024e+01
-5.516591802542476941e+00 -1.909748608885536214e+00 1.323684964458565716e+01
-6.846496850053559236e+00 -2.151733202632344799e+00 1.335467233890481609e+01
-2.187506563672408699e+00 -1.741451424461913255e+00 1.247250535456243270e+01
-2.455896737322149193e+00 -1.886312341609271304e+00 1.277485237832866360e+01
-2.710194551612367331e+00 3.332183933329597725e+00 1.592269468583817726e+01
-2.262554105981818164e+00 -1.899603467215992048e+00 1.273375067436974817e+01
-2.070557022378819667e+00 -1.697370058221032707e+00 1.237530634196200552e+01
-4.460887251998003400e+00 -1.782188601349243173e+00 1.298029638445676071e+01
-4.462868864013890935e+00 -1.956419512579659958e+00 1.322311632062763564e+01
-7.847340150095329925e-01 8.276539618439638923e-01 1.516437816947234651e+01
-7.792842473509549173e+00 -3.275473390146508290e-01 1.591158338088155588e+01
-4.833391934796566147e+00 -2.195468316148941224e+00 1.362468901710070313e+01
-4.837161350301037999e+00 -1.975516847664906095e+00 1.331814720228154769e+01
-4.869402948861652369e+00 -1.761124908121569410e+00 1.302971522507584368e+01
-4.407160019393657535e+00 -1.358945685910981194e+00 1.236781234039581179e+01
-4.060799724404675182e+00 -1.680243490755631841e+00 1.279442471222055033e+01
-1.900531927984554503e+00 2.320172592683690027e+00 1.493502047487350026e+01
-4.398187015042306136e+00 -1.720330165197737848e+00 1.288214379182086944e+01
-4.238746266018575071e+00 -1.541976957210927868e+00 1.261309866038719818e+01
-3.621693323866904457e+00 -1.911433683505742387e+00 1.310137886074677382e+01
-2.791561641474020306e+00 -1.738025262497688184e+00 1.266570287697314612e+01
-3.637557820362883998e+00 1.757857193868501922e+00 1.288846851363591028e+01
-2.736107066020442069e+00 -1.649955606338756819e+00 1.250670118564088895e+01
-7.151509064319379938e+00 -1.018045305684846413e+00 1.236948457842571614e+01
-2.619008433562369564e+00 -1.529385442158432085e+00 1.227803717376148640e+01
-2.090807474288442602e+00 1.688284138603182827e+00 1.761428765951393061e+01
-5.892039611346844730e+00 -1.855517571631511153e-01 1.107841421803567883e+01
-7.007929288730932349e+00 -1.336520236774616954e+00 1.235141461661268991e+01
-5.828270581023639707e+00 -1.042759263475563580e+00 1.170321971788659354e+01
-7.210606566345601820e+00 -1.402610877547857404e+00 1.292451499655480163e+01
-6.465104045133445609e+00 -1.951929070672088484e-01 1.126999583521806514e+01
-3.430349618269822987e+00 8.401581930568317869e-02 1.093207296175789267e+01
-3.602423440553703671e+00 -1.404048933764362239e+00 1.236507828014558541e+01
-7.523218656937986637e+00 2.531052863415201859e+00 1.480283672426688568e+01
-3.730583331162717897e+00 -1.315242274171757986e+00 1.225526496988757330e+01
-3.967569239943856907e+00 -1.321728732300451625e+00 1.228173178985635516e+01
-7.050996146637092288e+00 2.687514138645638040e-01 1.783480251431344854e+01
-3.224604192492740662e+00 -1.456621757215672774e+00 1.236345884150150098e+01
-3.220032496882016204e+00 -1.533867920534454310e+00 1.248133728158970612e+01
-3.309979512074233909e+00 -2.922188930578460297e+00 1.457036613517984236e+01
-3.316576850010569899e+00 -2.748472935457635380e+00 1.430942464760811461e+01
-3.098222159995617897e+00 -2.567894412297273110e+00 1.404036546097445992e+01
-2.413746945083508955e+00 -2.777284642757746447e+00 1.426603905408886774e+01
-6.956343380777661345e+00 2.023547383217690232e+00 1.351657215937285983e+01
-3.541122642394079367e+00 -2.745950420651742441e+00 1.430234461781617838e+01
-4.054847502871002263e+00 -2.718466955438613386e+00 1.427070096756206752e+01
-4.930467333638315353e+00 4.223148172921340482e+00 1.636523358655662364e+01
-6.432189045121661231e+00 4.284164373790704250e-01 1.136638949724784808e+01
-4.097709837978329439e+00 -2.797998156603632935e+00 1.438972085519220556e+01
-3.930971986675654506e+00 -2.821559933955178678e+00 1.441719484880290381e+01
-7.385592037268309262e+00 -2.556940674175849360e+00 1.462265763907909033e+01
-7.598466719661246316e+00 -2.583465105516240090e+00 1.522177321210716983e+01
-5.326966210456008710e+00 -3.437187174148111257e+00 1.554173376085443081e+01
-5.747399976500111585e+00 -3.512256572524186549e+00 1.569570148662276310e+01
-6.369409320014016274e+00 8.000861950660322908e-01 1.164424530744514996e+01
-5.977476431231251830e+00 -3.574068962353341039e+00 1.581118034345022849e+01
-2.741953884109321393e+00 3.617149326813918542e+00 1.638100929929513327e+01
-4.904214125759490450e+00 -3.226973811358599509e+00 1.516051259585961120e+01
-5.112469342824491392e+00 -3.150532984090745003e+00 1.508206190409312697e+01
-4.686456258868851421e+00 -3.173872369780609048e+00 1.503898691600524629e+01
-6.471368313559223928e+00 2.306958679056780870e+00 1.346224585519371075e+01
-2.883176874694423297e+00 -3.042618350827974716e+00 1.477502929784952457e+01
-2.730513956239871476e+00 3.240850723795546617e+00 1.577385738153772721e+01
-2.051794281527550723e+00 2.778848232372822302e+00 1.547669996530601466e+01
-9.207804926223888131e-01 -4.354175230187897760e-01 1.311697643769206323e+01
-5.079402104715597055e+00 -3.402764848549941323e+00 1.545743224023467732e+01
-5.130027832821534517e+00 -3.463497641427260021e+00 1.555692122854399528e+01
-6.823188821297027751e+00 1.571952421946745337e+00 1.279946707062521583e+01
-4.841910826400279255e+00 -3.391957348164291286e+00 1.540821148152113196e+01
-4.952757709624680871e+00 -2.751882323415995479e+00 1.445287226017007853e+01
-5.087747593819083924e+00 -2.305765963705951993e+00 1.383838783782886495e+01
-7.627534797386459786e+00 -1.094521402991172287e+00 1.510104358749677189e+01
-5.379472982109902990e-01 -3.270429681493273177e-01 1.629148484717338974e+01
-3.859761831071755189e+00 -2.401549121263645059e+00 1.380160108547967113e+01
-4.038797332051551336e+00 -2.330137921568764536e+00 1.370803312364385462e+01
-4.074428974062622721e+00 -2.497259690476234084e+00 1.395024691833301134e+01
-4.526677194331679921e+00 -3.846184679744056201e+00 1.610408721880876115e+01
-4.760774392290153756e+00 -3.706615854131352528e+00 1.590224914887320651e+01
-4.903504432732715301e+00 -3.569980969097265255e+00 1.569711231323907796e+01
-4.885663324692252729e+00 -3.806102913779196850e+00 1.608808270455547884e+01
-5.734060323858925834e+00 -3.599745655587148541e+00 1.583677949425947773e+01
-5.900890147278760267e+00 -3.724397631536185749e+00 1.606038243220820405e+01
-4.114660917966413756e+00 -3.819526869516212564e+00 1.600469159259131047e+01
-5.041760088371719739e+00 -3.839543589172467630e+00 1.616313335841636345e+01
-5.347419389098067022e+00 -3.765364843443934628e+00 1.607427420398640194e+01
-6.179660077115471495e+00 7.962536353021010260e-01 1.139094739980528814e+01
-3.167442685176325323e+00 -3.204483208781796932e+00 1.501226120170776213e+01
-2.862415871959352653e+00 -3.210046059572616794e+00 1.505312825110746289e+01
-1.789673465247318074e+00 2.424028726217227536e+00 1.520649073650544025e+01
-4.272562862856397636e+00 2.788702691936739697e+00 1.425923911904663655e+01
-4.018850983647903163e+00 -3.202733307701091992e+00 1.500163495696433458e+01
-3.269009490037876553e+00 -3.147752485921088805e+00 1.491878420002010941e+01
-3.835892728995818679e+00 -3.209572163245053122e+00 1.500461093564127779e+01
-3.690837000289107994e+00 -3.151753587570186532e+00 1.491311792484567533e+01
-4.494943482046057426e+00 -3.422022578383757008e+00 1.540369046790292273e+01
-5.526826677423523293e+00 -3.815363841931879385e+00 1.618382502084002894e+01
-6.911840943279163874e+00 8.131299999520806843e-01 1.255413110120352016e+01
-6.145704988362775012e+00 -3.797741498099227009e+00 1.621467835494690846e+01
-2.262510285129367027e+00 -3.236883592763473150e+00 1.517912943877592014e+01
-2.528842997031529816e+00 -3.362839716442185711e+00 1.533150788104550699e+01
-2.060047354763927085e+00 2.313198467463935426e+00 1.741199450053207087e+01
-2.253971873256948921e+00 -3.423923801955574664e+00 1.545311913383141089e+01
-4.454452535609472186e+00 7.562140600829118098e-01 1.073000264887008015e+01
-7.870538757906177629e+00 -2.127169688544622073e+00 1.646601069086698388e+01
-4.506411725093394161e+00 -3.755899608514924548e+00 1.595081213161182276e+01
-4.262582451264142591e+00 -3.660953619038447737e+00 1.576137153820908665e+01
-4.571081967632115273e+00 -3.575014803203335312e+00 1.566235193894623379e+01
-4.654259067299856056e+00 -3.632170880565121163e+00 1.576516459995260178e+01
-4.916653818066589743e+00 -3.926571008998856360e+00 1.630025673218276339e+01
-5.130613358602518659e+00 -3.988617015029444435e+00 1.644149974610003184e+01
-2.476407427984058440e+00 -2.978296091383868749e+00 1.468921735560509845e+01
-2.210729843763616920e+00 -3.176982230024641751e+00 1.508865560887313606e+01
-4.512542770848662066e+00 6.956661882328381008e-01 1.073590505257608996e+01
-3.907673592376146310e+00 6.907375707162872747e-01 1.101638023218035656e+01
-2.620326975977718575e+00 3.764935894932984750e-01 1.147458555200063657e+01
-4.800565096129939313e+00 -4.005555223085424998e+00 1.642443220966779549e+01
-3.543525239776629032e+00 -3.852041371083519739e+00 1.599783417533513941e+01
-3.692263733817475746e+00 -3.761016059539854517e+00 1.586071133521882714e+01
-2.271166054024683412e+00 -3.817521682018488960e+00 1.605868448681737348e+01
-2.616793511373446623e+00 -3.831413018361902623e+00 1.602028817126383942e+01
-2.772959360374363413e+00 -3.837840647525185833e+00 1.601730317974127971e+01
-2.863273713796907316e+00 -3.604807674852546384e+00 1.564837275109485759e+01
-5.330232844238905976e+00 4.336237055754277314e+00 1.670966844883306024e+01
-5.540195929392404572e+00 4.196197248655444412e+00 1.685824156262695439e+01
-2.681918905699712141e+00 2.307824865864058772e+00 1.433158284575238994e+01
-5.770302853415563149e+00 8.135243049913333246e-01 1.800175757759561534e+01
-5.567668263543464668e+00 8.048927509411564207e-01 1.804109330826186763e+01
-6.161193157675771914e+00 8.178333659890691942e-01 1.792290509206506144e+01
-4.692686126657729773e+00 4.354170736080638093e+00 1.663829951201467239e+01
-3.651657503916619252e+00 1.366370173651417552e+00 1.798874461884946996e+01
-7.263233338161376729e+00 1.209013962002819298e+00 1.731801916053828805e+01
-7.426713089838778536e+00 1.914226879767583656e+00 1.668000316979440001e+01
-7.657440709429970127e-01 -1.091192629781590762e-01 1.412079074851930116e+01
-7.787916529841667490e+00 1.488869598608044242e+00 1.596245436598221445e+01
-5.272259213894215923e-01 -9.078929123126400214e-01 1.563787602794389997e+01
-7.634021750786458504e+00 1.655548693620885636e+00 1.633920331165435513e+01
-3.272868955697056492e+00 1.897224099393489904e+00 1.779206647901063221e+01
-1.430481650717703834e+00 1.783544368877858277e+00 1.489865940682777179e+01
-3.162635303900202199e+00 2.011099480748070878e+00 1.774258875988893536e+01
-1.613959144414411240e+00 3.008212818149720302e+00 1.640762609905393177e+01
-2.977319873082567625e+00 2.338553432657824782e+00 1.762133875448315834e+01
-5.005188660128621514e+00 8.692017677416636889e-01 1.812488173878032072e+01
-7.795131448503302529e+00 1.129363564293618394e+00 1.598156950454655956e+01
-7.813108194153206121e+00 6.739163319244468875e-01 1.593186940203097279e+01
-7.807002961231964910e+00 1.686724819111452334e+00 1.574216072132138677e+01
-7.809121856438195231e+00 1.317535234959046564e+00 1.574683224920488200e+01
-3.138075191417028620e+00 1.744168274319436218e+00 1.781117957565943399e+01
-7.624589905355226627e+00 1.905472112985777455e+00 1.627042000199603322e+01
-1.003085378017112728e+00 1.600532072042743392e+00 1.558422885117576939e+01
-7.628362470618412772e+00 1.805502865775941768e+00 1.629793409689336769e+01
-7.660585115555671898e+00 2.064677024021992047e+00 1.614546270319772603e+01
-7.265092730458859727e+00 1.995603131276579179e+00 1.694413778666475778e+01
-6.901700864733891549e+00 1.421900014971524628e+00 1.752518678887282633e+01
-6.218300076732320214e+00 1.515771931966783281e+00 1.771459809393175888e+01
-6.148692823440995880e+00 2.046384947998835191e+00 1.756114971606123376e+01
-3.174609593019826814e+00 2.360695729584648905e+00 1.764408736172629588e+01
-2.916702095231166414e+00 2.905085201717024557e+00 1.741584878165607009e+01
-3.698182936725247671e+00 3.542258876863207284e+00 1.571067228354243994e+01
-2.701591576375660608e+00 3.224078532265593822e+00 1.723926185800229760e+01
-6.592458463279206704e+00 1.855190044860784981e+00 1.749298505726513397e+01
-6.567054335364107764e+00 1.620268808317399944e+00 1.757860454644403703e+01
-4.728108954294800270e+00 4.048997407072697285e+00 1.613264114031783336e+01
-7.355080252383100259e+00 1.754058948793605355e+00 1.391693426802720879e+01
-5.575432516213208345e+00 1.305957076855108312e+00 1.791762997391866818e+01
-1.413230794900431020e+00 2.177783670701627372e+00 1.689943437089144496e+01
-5.649953020608984744e+00 4.925454222817978733e-01 1.809386267839809292e+01
-4.765173670751577717e+00 -1.231938815093742423e-01 1.830177400974877955e+01
-4.607241582172952654e+00 2.213998892857168277e-01 1.825950403537540367e+01
-7.844105113616104852e+00 -3.290370858416457045e-01 1.650926921176543161e+01
-7.835751168284107671e+00 -9.018759658830585724e-02 1.644194833650120202e+01
-7.822607729117973641e+00 4.064324864805661797e-01 1.598411679678529040e+01
-7.823505511769581311e+00 4.762499320102339673e-02 1.604818071459503059e+01
-2.268828864110206123e+00 1.922768435902323825e+00 1.759596770319410908e+01
-7.573649311767132630e+00 5.372594117876033915e-01 1.429688240474056116e+01
-2.851067941016623308e+00 7.263419012379811468e-01 1.798111923796627210e+01
-5.587953631253382625e+00 3.012403362994667599e+00 1.739106342918490000e+01
-6.481259949776550400e+00 2.968280004912208891e+00 1.444156926589189638e+01
-5.584611994084878184e+00 3.111460364789122579e+00 1.735901180987866965e+01
-5.342454440595217235e+00 3.285450524645124659e+00 1.735177463681758425e+01
-3.264034080100380653e+00 2.371792079633368466e+00 1.408456064301980248e+01
-6.553326869900643281e+00 4.144553243371053242e+00 1.622906816129394869e+01
-1.044189557613954600e+00 1.745671523607204012e+00 1.568083020472535694e+01
-6.348049484527624742e+00 4.208153813407919941e+00 1.633364955650452899e+01
-6.035549095759872529e+00 3.729321336864273029e+00 1.698380746168061606e+01
-4.676353304990679582e+00 3.762877175356665660e+00 1.723398998968742646e+01
-5.280992245703123977e+00 3.594417299698908774e+00 1.723305384144031294e+01
-6.034200078201330975e+00 3.314280187388210397e+00 1.716306929853475438e+01
-5.168948241879349759e+00 4.122325823031221859e+00 1.699465036743115220e+01
-1.219647514260055354e+00 1.172937749732889445e+00 1.449753269602863170e+01
-5.238397103553558587e+00 3.693894506777464226e+00 1.719306162622086376e+01
-5.605519881428193685e+00 3.931867625347580830e+00 1.699968926315190387e+01
-3.232449288043172331e+00 1.449745679950704247e+00 1.261901235835063417e+01
-5.702413338952376343e+00 3.818374327927210210e+00 1.702762953235481191e+01
-4.736923412464195238e+00 4.285273302445810728e+00 1.653153923778148382e+01
-4.355431931309579952e+00 4.326578846195217487e+00 1.671589790258861186e+01
-7.633227549433300396e+00 2.841186943654946173e+00 1.596098778737247059e+01
-7.171294187991853697e+00 1.683257841981709468e+00 1.348062614209314702e+01
-3.541110624496810022e+00 2.839980822571095853e+00 1.753962006585905797e+01
-3.291203414562394514e+00 3.072122561728049206e+00 1.741907669290559468e+01
-3.200195353194542847e+00 3.403563988531255635e+00 1.726464373811945663e+01
-3.274946047164473573e+00 3.922509785605342802e+00 1.704407620200949580e+01
-7.411043757282437916e+00 2.895984438903981051e+00 1.630620860013929629e+01
-3.763956293326271130e+00 3.601241121112103372e+00 1.726802639799210581e+01
-5.569185273731875441e+00 2.240485165185989391e+00 1.764417401978449718e+01
-5.321974273602616101e+00 2.092669978404043896e+00 1.774837956730712207e+01
-4.560944169645767765e+00 2.324184935843214284e+00 1.777934604492735460e+01
-3.599719124240310819e+00 2.605365254040349132e+00 1.762767351608136934e+01
-6.499791778320891389e+00 2.392358226874789828e+00 1.733965009702556515e+01
-3.040318243657092800e+00 3.774338424361650457e+00 1.706749371738490950e+01
-7.012442510548996921e+00 3.133189996909857555e+00 1.673436706429759724e+01
-4.631752275307186473e+00 2.921240090972650361e+00 1.758276674568629616e+01
-7.210398793563183695e+00 3.539589650573094382e+00 1.630890031391229300e+01
-5.297232931823262270e+00 2.642178366843784598e+00 1.757770668080413756e+01
-6.122464196823817595e+00 2.607400833877111967e+00 1.738136372900805426e+01
-4.364465631848442051e+00 2.781610633231431429e+00 1.763062455298659970e+01
-7.708676695650777955e-01 1.079784874890736157e+00 1.552113658762774762e+01
-4.160460996937126232e+00 2.891752440450942263e+00 1.758397285956973732e+01
-6.237985040343768661e-01 -2.124893911954524484e+00 1.565722398762748568e+01
-5.328357107587172736e-01 -8.693790584660163745e-01 1.625937409385474908e+01
-5.301411128893629421e-01 -7.339140795934399053e-01 1.610692883450444057e+01
-5.927193166029143256e-01 -1.885865894862358338e+00 1.459349785517659015e+01
-7.354476916284315102e+00 -1.133704796022118488e+00 1.345937808933873114e+01
-5.440722321439321885e-01 4.554392896301832916e-02 1.632309389503260277e+01
-5.841680367688077968e-01 -1.861628637593895963e+00 1.403979448751003289e+01
-5.642701040437357873e-01 -1.640728938618297716e+00 1.447060985192893057e+01
-7.808731161387609809e-01 -1.230717154147116243e+00 1.281354535736507572e+01
-8.621226940101609504e-01 -8.217443937885091643e-01 1.286370954580891279e+01
-6.269585992133771768e+00 2.334755378511978563e+00 1.343738698543016241e+01
-7.829623922261725877e-01 -9.946473663011299315e-01 1.304873648071280812e+01
-6.131917072519382783e-01 3.912746358936148305e-01 1.544815298899145617e+01
-6.186470908934691426e-01 1.145615161607732441e-01 1.510717055106787754e+01
-6.208199376315066687e-01 3.208348988752556807e-01 1.528921179332622060e+01
-7.619541522979442760e-01 -5.155542169000632002e-01 1.373681105876710618e+01
-9.222404254273868229e-01 -6.257771357888350927e-01 1.284756909175401418e+01
-7.879565901294627306e-01 -2.478545467752240883e-01 1.387369865238772704e+01
-7.886841613725872335e-01 -4.309170948821454683e-01 1.368903202624149529e+01
-5.976715247757810268e+00 9.134536864319625638e-01 1.123408411371836380e+01
-5.978528147442721874e+00 9.343013654107595878e-01 1.118054029189574194e+01
-4.775822238479394244e+00 9.258753547681141116e-01 1.098007817336693037e+01
-7.404004284144576342e-01 5.155342356679807336e-01 1.492054337794668939e+01
-4.183584582470764701e+00 8.077913289262154128e-01 1.106174109408594219e+01
-4.995428486069203089e+00 9.651330944824556557e-01 1.102105564608330823e+01
-6.676325197411839163e+00 1.138932480527826696e-01 1.148039434458394581e+01
-7.785062643653691161e+00 -2.345411384757382312e+00 1.609906804714861650e+01
