-6.550137670613793262e+00 -4.351048916527759935e-01 1.423702779392766615e+01
-6.492793864144187355e-01 -2.035993364261889926e-01 1.900968052503458239e+01
-2.925687140109038964e+00 1.578139866808072611e+00 1.882685186844114611e+01
-7.680133771659870767e+00 -2.857233369133712841e+00 1.827484045152627345e+01
-7.952588121180905745e+00 -1.212230949726486484e+00 1.610612020157532243e+01
-5.263519205192612738e+00 3.122292095282244606e+00 1.812236001711342226e+01
-5.453970622961445969e-01 -7.648515114117484526e-01 1.903479922482179632e+01
-2.642004979794909669e+00 3.085184742857322693e+00 1.619111602724456844e+01
-4.709439440639945351e-01 -3.982515114069069551e-01 1.893345998495512816e+01
-2.733414556400867390e+00 4.038667585101459734e-01 1.348811050246283116e+01
-7.902038011396617989e+00 -2.398294689866729890e+00 1.644113765711605879e+01
-8.632231207335234746e-01 -5.041870417743155031e-02 1.905376401858114832e+01
-6.732878949065505658e+00 -2.809356194532206530e-01 1.424342439305331709e+01
-4.657038962507636271e+00 -4.739438742670790461e+00 1.779821186851012982e+01
-2.563564438009539592e-01 1.929742899064690320e-01 1.563132468249116869e+01
-5.461303385225304119e+00 3.463358219594732113e+00 1.794742332574260502e+01
-2.996165848146299382e+00 -2.009034307157440580e+00 1.644353902051677352e+01
-5.043399098256323043e+00 -1.635132775439647856e+00 1.623389801003398958e+01
-4.383986185300347671e+00 -1.388680914937261646e+00 1.602059317398980198e+01
-3.191254745375716517e+00 1.471235468642190014e+00 1.233432359580764626e+01
-4.828091035538960796e+00 -1.609333220135074294e+00 1.622953463570385679e+01
-6.936200959990561188e+00 -6.295990247956173569e-02 1.434269477937997550e+01
-6.096464568583643384e+00 7.033833617733437071e-01 1.341791373895404860e+01
-7.014875062538649786e+00 1.843563322297235185e+00 1.791165789832821531e+01
-1.563346253611461290e+00 1.611380247877725935e+00 1.470603962006307341e+01
-8.995689809656038927e-01 1.212309836583543410e+00 1.526954464978506110e+01
-6.506431385956090274e+00 1.433049272333188906e-01 1.877858516002503109e+01
-6.809370637337649690e+00 -1.226227442389533628e-01 1.419789664548742536e+01
-3.865222303327719988e+00 4.403127563375663911e+00 1.774502657893902580e+01
-3.163346877759181552e+00 8.790429424786827539e-01 1.271056196040043318e+01
-8.154018476343789956e+00 -1.070855840242251888e+00 1.663957204652643895e+01
-4.536784112176025729e+00 1.400601799534437086e+00 1.217940260057677904e+01
-7.430621131176676109e+00 2.203649723035620234e+00 1.665700146307352014e+01
-4.296347008337264128e+00 1.619136427636580500e-02 1.407741277587601303e+01
-4.740667744946214235e+00 -2.622742826663299276e+00 1.905132061693503687e+01
-6.302978653702597356e+00 9.312578133417352966e-01 1.857755200913645410e+01
-5.939980461139385604e+00 -3.348048294276536829e+00 1.675809486273361415e+01
-4.243469905488019833e+00 -7.805437473347816013e-01 1.906234673623895048e+01
-5.658959660768072553e+00 -3.667671703098418945e+00 1.893720855884942011e+01
-2.359312138177752427e+00 -4.778358025472682513e+00 1.802434726869279302e+01
-3.924267855147006934e+00 -2.218166242183326808e+00 1.916440568215214313e+01
-6.310428711106815802e-01 2.052555439011451544e+00 1.769381438027134124e+01
-4.595037274448448450e+00 1.021268187091456170e+00 1.255549346021830814e+01
-2.275904758589186727e-02 -2.564875999090357794e+00 1.615054255148959328e+01
4.714790550704617278e-02 -9.603396295337496280e-01 1.840026506601797252e+01
-1.236523052946331136e-02 -2.233154622981492921e+00 1.606216937126754374e+01
-6.679332036963054886e-01 -3.813811276066951805e+00 1.911155248989950906e+01
-5.708149638689322458e+00 5.652917816218919755e-01 1.871723514369759300e+01
-4.073015976564142271e+00 -3.559813866796694981e-01 1.482405542895240558e+01
-6.013170648850642230e+00 2.546726409322029649e+00 1.465321183866614518e+01
-6.839677426468395716e+00 -2.431976926880421885e+00 1.543572958613291490e+01
-1.744533532150950306e+00 2.760368575523803436e+00 1.671586154874947283e+01
8.103805153849552578e-02 -2.886394562974623490e+00 1.723954094595155340e+01
-1.021864675883939144e+00 -4.937578068185148439e+00 1.816357928782714737e+01
-3.584813517492110968e+00 -2.848014317270952667e+00 1.673783088308906741e+01
-4.876757791004918685e-01 -2.006095463395835665e+00 1.918077480639718146e+01
-2.954607623009452677e+00 4.856916686590255772e-01 1.334612423324113450e+01
-7.015160987894374145e+00 2.375796075707354404e+00 1.763210943372774153e+01
-5.271783898148673764e+00 3.776347149175458551e-01 1.878408867838133034e+01
-2.545087939478229977e-02 -9.627240966805545863e-01 1.856489007803349267e+01
-3.135966967047455700e+00 2.340742289606834170e-01 1.366291578998009726e+01
-3.790858766988770334e+00 2.070262645204715923e+00 1.865526989868806140e+01
-7.027968151281504205e+00 -1.075535874329105246e+00 1.471141508524988950e+01
-2.170397659757235864e+00 1.642567254722739456e+00 1.390341674954050433e+01
-7.308390714871355165e+00 -1.124685252593515150e+00 1.501346242264134645e+01
-7.756681279228155868e-01 -2.287123490675556425e+00 1.926099977381576167e+01
-2.202182059947326742e+00 2.426711006822436900e+00 1.866648283522766860e+01
-3.772417957403881417e+00 -2.010043510446346993e+00 1.638286423206230324e+01
-6.673553815547394130e+00 3.737772355494517473e-01 1.395333611595048495e+01
4.816127499711647664e-02 1.312568311013992961e-01 1.717360903797481342e+01
-5.377109865423516766e+00 -2.066528473197907445e+00 1.642696753303506085e+01
-1.022820028978836393e-01 -1.100327372367488232e+00 1.876631062654232096e+01
-7.552388100393195636e+00 1.190358415115346791e-01 1.815383592787019751e+01
-2.739386980574682884e+00 -1.892563752036136249e+00 1.915772617069001882e+01
-6.417282280513957105e+00 -2.025360849274503217e+00 1.522008017641662292e+01
-3.356576004154309345e+00 1.841889384471997904e+00 1.291245712869356055e+01
-5.045366697866499273e+00 -2.307989404607742046e-01 1.887661939007479361e+01
-5.553548282799090963e+00 -1.128728812589011588e+00 1.536517120910327350e+01
8.314020892932616480e-02 -6.483319052307787711e-01 1.636301715195304496e+01
-4.635482285905841993e-01 1.587907987095825479e+00 1.731126833719773117e+01
-4.174336104874547537e+00 5.644705213525638143e-01 1.326996582575752370e+01
-4.452779450784732918e-01 -4.401185232744253106e+00 1.879825341615867274e+01
-5.427670570511241799e+00 -9.146566448256325810e-01 1.520455276071910333e+01
-8.367664084083121789e-01 -8.398198041348778897e-01 1.913282011486820977e+01
-7.868374602956360597e+00 -7.875855603521488835e-01 1.588350105278344415e+01
-5.574399268317967504e+00 -1.075785114157238320e+00 1.522175564966585881e+01
-6.521038706752181113e+00 2.248153407739645893e+00 1.488140170438796162e+01
-2.809921902854458420e+00 -9.180075559088043402e-01 1.912445046652339187e+01
-8.105098530474332819e+00 -1.065825754354472243e+00 1.639164725954550050e+01
-5.947192320719416614e+00 -2.729796978765396176e+00 1.651558165206116513e+01
-7.831572231184350530e-01 -2.407687092655446115e+00 1.615602478899372585e+01
-2.923514308382006099e+00 -3.573035928853326659e+00 1.707658439536257333e+01
-3.562234788539611952e+00 7.863074597182637682e-01 1.290017664468730629e+01
-2.942685169283492108e-01 -1.577522095606971098e+00 1.899323249847891759e+01
-5.431607486591357725e-01 -2.620130723147569896e+00 1.629553614963920438e+01
-7.399177466779340406e+00 2.220751120848794002e+00 1.621046166677313494e+01
-7.457143888013500366e+00 1.850881525171092168e+00 1.593425228520916903e+01
-3.959493873052691626e+00 1.548727135440258751e+00 1.199962498319089121e+01
-7.408045810791368702e+00 -1.348547639334741310e+00 1.867472745134428891e+01
-6.985845453694821572e+00 1.349018468356785849e+00 1.457611778701651417e+01
-7.967037090373988661e+00 -1.991116693029185702e+00 1.638462487906814147e+01
-7.625618285198485502e+00 -3.423227146652294550e+00 1.807322754822890687e+01
-5.974515756749700479e+00 -1.884136741861542008e+00 1.896565287480216000e+01
-7.424450378993869393e+00 2.031788874950072099e+00 1.604361443049984359e+01
-7.445810491651210228e+00 5.324118793302582420e-01 1.809748193167226304e+01
-7.274668622997292111e+00 7.280674732795746618e-01 1.817435299269687476e+01
-3.102842898880862954e+00 1.270777356755266041e+00 1.888073210357121212e+01
-3.776914867022189259e+00 -2.429776015146551060e+00 1.658458509067402531e+01
-4.286677823593965542e+00 4.172587344593949865e-01 1.896048763591393538e+01
-5.289497478409668219e+00 3.531466055385941161e+00 1.795941702710490517e+01
-3.935051899621180738e+00 -2.697895867322666064e+00 1.669762994758678332e+01
-3.768893843766276230e+00 -2.674340883700238258e+00 1.667483161509166223e+01
-3.997514616337109139e+00 -2.509676567572822314e+00 1.663289552215098865e+01
-7.437516165383491362e+00 2.031727155491738657e+00 1.699739945286992082e+01
-5.172038091529916670e+00 5.933409397683210296e-01 1.317495102790680761e+01
-1.750818440978368029e+00 1.250013670580149450e+00 1.367952321541784499e+01
-4.005360365298724190e+00 1.201380995978020616e+00 1.231772446667220322e+01
-7.457132319031843259e+00 9.177081395367339134e-01 1.788875601946227789e+01
-7.190967994917119022e+00 2.968116660534134699e-01 1.470737993950260147e+01
-6.668158308008632851e+00 2.904975864239269789e-01 1.869877112468230251e+01
-2.024908481107228653e+00 2.845443352603506337e+00 1.848201476639034979e+01
-1.413390814376330185e-01 -1.779252167704839627e+00 1.884902234711145042e+01
8.577905889944947848e-03 -2.139399332997673042e+00 1.868612219679209119e+01
-3.444730479237309684e+00 -1.309231873621066855e+00 1.583432250986424350e+01
-6.514307564513851290e+00 1.160160592311660244e+00 1.844384656246798926e+01
-6.546105610502352512e+00 -3.109177822096769184e+00 1.891005145491129014e+01
-9.732705169576856274e-01 -2.500382524884197544e+00 1.628559661613324039e+01
-7.812069933644103514e+00 -2.298976512832785701e+00 1.822775462752343145e+01
-7.007160690147484772e-01 2.253288669453961557e+00 1.795647299918615403e+01
-5.291850528612655147e+00 -9.802113810438755070e-01 1.545334466489143921e+01
-4.003353925026878812e+00 -8.023544953980394911e-01 1.908472909420300567e+01
-7.601395865621134007e+00 -9.198689652711131703e-01 1.843634049492593618e+01
-1.047441798890881515e+00 -1.302563081391609368e+00 1.525297518352810755e+01
-4.096274160767942263e+00 4.105213352591563947e+00 1.796432599617673986e+01
-7.415418860105321919e+00 -4.689653430937936740e-01 1.849617365531119617e+01
-6.997508559440872578e-01 -2.623419561001337108e+00 1.926365348727372862e+01
-1.098023237560666221e+00 -2.485452272646828220e+00 1.928359543626771710e+01
-6.121768812336926047e+00 1.592005243584829088e+00 1.842175620157429705e+01
-2.398038965710761472e-01 -3.612003107062988327e+00 1.705460283176314817e+01
-7.204803645827601244e+00 -1.074702871000315918e+00 1.488612103721098379e+01
-1.254083976848551774e-01 -3.670530338440693541e+00 1.720326185644695727e+01
-3.493983206649465600e+00 -3.641004033168005805e+00 1.709485480544762481e+01
-2.594664697352700333e+00 3.084396991037911206e+00 1.845757732104667781e+01
-3.612587895589180143e+00 -9.318806437699012069e-01 1.909944487229810051e+01
-3.171206739290922672e-01 -3.264565120233910989e+00 1.681081779015973154e+01
-6.993991370741071023e+00 4.558099485504119031e-02 1.864645951173928751e+01
-4.803341847111353147e+00 -1.495916764915053099e+00 1.613447987209425349e+01
-7.349190541903255713e+00 5.034739146334977766e-01 1.820763748096963752e+01
-3.819309341109002887e+00 1.834243714865626540e+00 1.255233449909601262e+01
-8.654240184440643580e-01 -3.974811892865237617e+00 1.731492343868664818e+01
-3.311818688226288554e+00 -6.610423487465277859e-02 1.405611027736090790e+01
-7.382765859850163537e+00 -3.940605001472244240e+00 1.723348879227390285e+01
-7.461736124590266250e+00 -2.704398932966237901e+00 1.852474459798477113e+01
-1.802770943338812382e+00 1.416249422394204593e+00 1.391099586155202417e+01
-7.061765688966772814e+00 2.795749657566290125e+00 1.727946671944655321e+01
-7.042937486150121273e+00 2.589880645666124970e+00 1.746750799491464790e+01
-3.225281251570977670e+00 3.481670493785705922e+00 1.624814864547387572e+01
-2.363786068277402563e+00 1.846742648897558681e+00 1.409282296512472499e+01
-1.746423113936183880e+00 1.463960814282293077e+00 1.409064651089521902e+01
-6.982248975990080986e+00 2.766749332791801574e+00 1.743449766680512880e+01
-1.305791322789704667e+00 -3.102355994918604587e+00 1.922563730331421539e+01
-2.924941913722439946e+00 1.695720219304940102e+00 1.880161961807549886e+01
-7.783344697923148203e+00 1.639017290809725580e-01 1.778271334193478026e+01
-7.383576060743631153e+00 1.553550092145884465e+00 1.759748591458761524e+01
-7.544040337371606952e+00 1.152953004274834603e+00 1.757760326273695739e+01
-7.793474197153108740e+00 7.774635518441442850e-01 1.720474098631802207e+01
-3.512911782923704873e+00 -1.580757550628251185e-01 1.424996861640062917e+01
-1.644161430174464922e+00 1.190916893889682360e+00 1.374917080714526918e+01
-1.349002403147101514e+00 1.554802148621183155e+00 1.877849007152336469e+01
-3.270570154852481704e+00 2.790175093897859782e-01 1.359964828271844084e+01
-3.456302872785567359e+00 -2.530152896698980580e-01 1.440718514572893127e+01
-3.774051318169944214e+00 -1.834017799951366268e-01 1.440194079352980339e+01
-7.550581874171682806e+00 1.644951431202942738e+00 1.595861560420328829e+01
-6.206053181429429522e+00 -2.864537651248147299e+00 1.641835056421494698e+01
-4.304592750028282566e+00 4.069137763137680608e+00 1.794910222954375456e+01
-8.959590115423023970e-01 -3.345988823817575231e+00 1.695178627680639494e+01
-7.020528619335999032e+00 -7.215438736290706867e-01 1.882587289236361272e+01
-6.333509142815418436e+00 2.723462188014352581e+00 1.798318915868866696e+01
-2.665266400929562796e+00 7.106161711462404273e-01 1.902931663276416430e+01
-2.869207714930721131e+00 -3.718454723522532923e+00 1.910534484586102622e+01
-2.742644415764161625e+00 -2.746141506146384081e+00 1.914315756635959787e+01
-4.691117041401036580e+00 -7.225203967343800660e-01 1.533051823974150096e+01
-3.672250696893172961e+00 4.347813730138795130e+00 1.789203589842538378e+01
-4.822083678427611098e+00 -8.309800586028346370e-01 1.544162715016597076e+01
-5.867360075131432318e+00 4.017584601990016324e+00 1.758410009035822696e+01
-2.547578675571086304e+00 1.722127660408057093e-01 1.382289440824695248e+01
-5.176126438293713328e+00 1.839007325404073967e+00 1.304350800840737179e+01
-5.552297055800940129e+00 -2.453014691226392152e+00 1.894850023513807713e+01
-3.452206862997526104e-01 -2.209584415460954965e+00 1.911446794333528487e+01
-2.061133820279628104e+00 -4.135573463316965181e+00 1.902334465682543652e+01
-2.758607288736650176e+00 3.361202993837020259e-03 1.405449826165529004e+01
-1.729428572775700612e+00 1.623181948221589233e+00 1.880459626860804434e+01
-7.913108633912907308e+00 -1.034044672776374130e+00 1.601209089894832971e+01
-5.325513692375551500e+00 -2.823214462503672806e+00 1.897551699715729256e+01
-5.872158379944218964e+00 -6.738418522938478539e-01 1.439280072774041486e+01
-1.818145401969168296e+00 2.277779663323353798e+00 1.866563011679902928e+01
-5.318062374976637585e+00 -2.632883140478710970e+00 1.896977872688682965e+01
-8.522721110758553209e-01 -2.300094413889133271e-01 1.454729673171759430e+01
-4.187861429323081808e+00 -1.613750883810903813e+00 1.617927337112924846e+01
-7.297136993333421806e+00 1.763578898223894909e+00 1.760824346828452036e+01
-7.109764847454751013e+00 1.904474317972744579e+00 1.778723562881304332e+01
-7.090205432616726533e+00 2.277798770615362844e+00 1.759834492318044852e+01
-1.279301378181110671e+00 1.084272476945921326e+00 1.422069155991759715e+01
-7.672199671835605583e-01 -1.042833114669078798e+00 1.913649757327027601e+01
-7.597442546161310872e+00 -5.659659328301203107e-01 1.544463465081574327e+01
-5.654232319033987153e+00 -6.640171741001075212e-01 1.456015892634133735e+01
-7.665514576980476669e+00 -2.446613088301218042e+00 1.597028610707312879e+01
-6.836690299101418233e+00 3.226292390840209912e+00 1.631724816564722147e+01
-7.073563413969535141e+00 -1.190740281847508797e-01 1.865461862391853032e+01
-5.056182433223351147e+00 -8.585364086948563678e-01 1.542284454725871257e+01
-1.552365472661346724e-01 -3.479132866651819533e+00 1.705942973435873711e+01
-3.093979248935467385e+00 -3.454362933029215821e-01 1.458314526664387500e+01
-2.939979704524394943e+00 -3.230251211225679597e+00 1.690468220869797733e+01
-3.167348003364758302e+00 -1.338644446632506702e+00 1.912189983094994972e+01
-3.371993895482351178e+00 -1.726481127947049332e+00 1.914266989915397232e+01
-7.629535249494594495e+00 3.133550182503116455e-01 1.562709484842837782e+01
-1.664843781285903823e+00 3.435291165255771606e-01 1.909705808411524686e+01
-3.162079032735846784e+00 -1.551460721667897724e+00 1.912978713347115445e+01
-7.581323010436899601e+00 -2.750792859592774420e+00 1.840050103044816865e+01
-3.399568788509404360e+00 -1.354987765121322907e+00 1.912184684612874719e+01
-5.685710890295202269e+00 -4.250508824195579294e+00 1.883119918434186246e+01
-5.131468339383125077e+00 2.891352607104892058e+00 1.454130869502110102e+01
-5.493954233284585875e+00 -2.663975631544015066e+00 1.895563337631158873e+01
-2.957270454462452403e+00 -1.943979267428194602e+00 1.915097525877879292e+01
1.612836914048496606e-01 -1.431428040361786502e+00 1.650897500258398765e+01
-7.286351895492314767e+00 2.625527536378085003e+00 1.666447801882698343e+01
-5.089155096845781934e+00 -5.409005018855168601e-01 1.488510769114235899e+01
-3.467464171742294265e+00 2.103740734997435524e+00 1.326579636518446392e+01
-6.877364938371848702e+00 -4.179562908919987052e+00 1.713414502823192720e+01
-2.268649710843194001e+00 3.292835092222901050e-01 1.910292244846308307e+01
-1.626951220488850325e+00 2.712601097778652992e+00 1.678656920944390407e+01
-2.177640638929616124e+00 5.616949990644629631e-01 1.336706204600790926e+01
-5.778525434800365623e+00 2.848905888065291769e+00 1.812082307062200925e+01
-5.949710563400743446e+00 2.732474819631063312e+00 1.811670172637969500e+01
-2.138363580783475548e+00 -3.001179423326333584e+00 1.690020257075401133e+01
-2.348810683645136344e+00 -2.980422714842307919e+00 1.688950562463587346e+01
-3.474565157730555853e+00 -3.180083679990803880e+00 1.915735251832326469e+01
-4.638674664329048625e+00 -9.752956553284517494e-01 1.563682268695974642e+01
-6.615058669843605799e+00 3.377769697499667600e+00 1.746176381542488087e+01
-4.633609781427466601e+00 -6.084436201454452853e-01 1.898283788590939025e+01
-1.928213448768498317e+00 2.413949743631516043e-03 1.401728531948440803e+01
2.798414496767820392e-03 -8.141031966135938713e-01 1.576219815760799037e+01
-6.910315774207729689e+00 -4.573225229086810284e-01 1.439519235751702553e+01
-4.166450830519494275e+00 2.403407821445116443e+00 1.853009626240523033e+01
-5.044585061124379211e-02 -1.219501894339529047e+00 1.571318705946384853e+01
-4.665522852792835629e+00 4.440210333834639478e+00 1.773170203681011969e+01
-5.702070021994858351e+00 3.902001813957488352e+00 1.629595903659062373e+01
-4.446187695880127855e+00 -8.066640998351071179e-01 1.544593772197064396e+01
-6.995000572332465971e-01 2.111439792117275172e+00 1.752791872924701266e+01
-4.640078583252893019e+00 -8.021471136513833589e-01 1.542960242879041033e+01
-6.791501377663734296e+00 2.373226770285627119e+00 1.785535040062269019e+01
-6.612389572293832174e+00 3.256913258556411783e+00 1.609111132772133601e+01
-7.487647637213225238e+00 1.531930754355849134e+00 1.739046296261432190e+01
-3.725920126700782209e+00 1.461271641873458371e-01 1.385908408006113035e+01
-4.971709471516449597e+00 2.615739282353630735e+00 1.835427228891420981e+01
-4.606975595959334591e+00 2.426237587495583270e+00 1.846510344760955036e+01
-4.971957410175566139e+00 2.803782523089088485e+00 1.829106449936855938e+01
-1.632895305193651225e+00 -1.240750412338482045e+00 1.534030725225420611e+01
-5.289786632551704670e+00 4.589074666850127215e+00 1.736215894373150093e+01
-7.541334577664272842e+00 1.776697586537532736e+00 1.682044769973890652e+01
-7.436723937814271324e+00 2.204872622187360243e+00 1.640949007300502416e+01
-7.455696371009696399e+00 2.048097104954587078e+00 1.685972720228931365e+01
-4.236335470567254902e+00 2.184940794017315113e+00 1.299991220451841656e+01
1.052703510639438900e-01 -2.724356097182954350e+00 1.826876328036930630e+01
-6.574835274235651283e+00 1.947527733668335426e+00 1.462781665607072767e+01
-1.726806371534868267e+00 4.079331963756963608e-01 1.361430512215309818e+01
-2.564844202814782204e-01 -4.742823382778334818e+00 1.816245930239281847e+01
-7.403213226564410832e+00 1.970027922867705783e+00 1.721605837618349000e+01
-6.688972565685012306e+00 3.129548842087230831e+00 1.603121114621878718e+01
-5.899226653073001536e+00 -2.879976595576536624e+00 1.896488535553884702e+01
-6.482362953652819115e+00 3.510122949248168922e+00 1.627143023044989434e+01
-4.047633369923898883e+00 3.418422433565493357e-02 1.902306934516840187e+01
-6.096422711021889818e+00 3.741951400156884766e+00 1.629385619826989284e+01
-7.327624884959580420e+00 1.955534256436759932e+00 1.742178955076677482e+01
-8.161392376909715196e+00 -1.685770755270491916e+00 1.704602787529608321e+01
-1.257691768986615166e+00 2.462915041666813742e+00 1.694967257381870240e+01
-4.365895985345187746e+00 -2.073977504918852688e+00 1.648335004072229282e+01
-8.115930869563380057e+00 -1.836005497517849472e+00 1.666163480186011725e+01
-7.391550111235589249e+00 -1.695408718447724228e+00 1.528364112941140718e+01
-4.384562076806755582e-01 -1.761269415798434546e+00 1.558547250795014349e+01
-7.345051153868575433e+00 -1.370993284094501385e+00 1.509818610835834107e+01
-5.637191331972598363e+00 -3.459369211366983166e+00 1.895485551609015573e+01
-5.764827766953581900e+00 -2.538451139256358680e+00 1.653157597781546428e+01
-5.178491275479585987e+00 8.941398725273473902e-01 1.289558802367422885e+01
-7.543841821649475143e+00 1.804054443763891680e+00 1.623465340528887424e+01
-3.843261770651599463e+00 2.666773821487628204e+00 1.402496584249555411e+01
-7.698256600822878326e+00 1.319792686899138312e+00 1.658372608263461956e+01
-4.135012149639168300e+00 -1.798798599402802401e+00 1.912814164638687231e+01
-3.210940195389294871e+00 1.663925548602078752e+00 1.272754628382087105e+01
-5.525048171445535949e+00 -2.952311164785058395e+00 1.676525845268480452e+01
-5.406227113892025926e+00 -1.300148372477610836e+00 1.579628945879783686e+01
8.736629052676381235e-02 -1.328545507600529030e+00 1.835909640479712834e+01
-7.944788489957417710e+00 -7.625681409257649701e-01 1.601235093154871691e+01
-3.617626180591315688e+00 3.319976182946054344e+00 1.829839118309070045e+01
-5.490577223146092756e+00 4.452285275521929542e+00 1.712320226058254491e+01
-4.939481093735764716e+00 -2.356399985565237110e+00 1.665433314527550834e+01
-5.249011748518835674e+00 -1.237843238965525172e+00 1.580099227906436710e+01
-4.313287643469344346e+00 -6.290892682781576983e-01 1.521901277764124671e+01
-6.149352890056642984e+00 2.479453202774913656e+00 1.471642135289800990e+01
-1.544777966440905592e+00 2.595059123917105026e-01 1.380619110116287374e+01
-6.999416228745801938e+00 -4.362639630971044902e+00 1.744505174448886464e+01
-1.793941478162296210e+00 -2.174676550484979209e+00 1.645815645227677493e+01
-2.145266031293558306e+00 2.563099322560986604e-01 1.371059561198245547e+01
-4.953255774755644936e+00 1.075103181014465115e-01 1.375656193989281917e+01
-7.206636132038148013e+00 6.623074401863697780e-01 1.826176106741824867e+01
-5.090456394999439915e+00 -3.926307804087469044e+00 1.713234950595511208e+01
-3.158433495768217636e+00 2.252545685605797043e+00 1.392497848205744049e+01
-5.289250570450647615e+00 -6.126413151596312723e-01 1.486565007650909109e+01
7.753653919663661132e-02 -2.359525289877927534e+00 1.845982412965522457e+01
-3.677290503884258932e+00 -5.705607457692190021e-01 1.500068193067938438e+01
-6.042926390552930904e+00 -2.677457394881772590e-01 1.885581805313796622e+01
-2.001996261598389282e+00 -4.876510829483455822e+00 1.816260071422288291e+01
-5.911620420401759723e+00 -3.955190047540074083e+00 1.703221937907704131e+01
-3.280524795549986994e+00 -4.268022910672664150e-01 1.469453157713894598e+01
-1.607187825318983743e+00 -4.732723638920474762e+00 1.793002217249476615e+01
-3.347379583054142405e+00 7.869698707986496622e-01 1.287302107324550349e+01
-1.233168802096719752e+00 -4.772453308273906458e+00 1.794106449645703805e+01
-1.145061226880374150e+00 -2.049761440157798376e+00 1.926414338171696272e+01
-5.756451274311667810e+00 -1.513889014479495421e+00 1.560080167332534273e+01
-3.618686543152481727e-01 2.377996502958648062e-01 1.521780182355549726e+01
-6.560109218924993435e+00 3.656888343298889232e+00 1.735039856744136699e+01
-1.436367946547382868e+00 -4.871303514363688691e+00 1.811008552235443148e+01
-3.917020671435560875e+00 -3.668957720159628622e+00 1.708549763627508611e+01
-7.500259497042806700e+00 1.962110418342082330e+00 1.622780401280453333e+01
-6.902054180584698884e+00 -3.614268423077235504e+00 1.667994108740672488e+01
-1.657563345277247802e+00 -1.526181404395599239e+00 1.569924867394515644e+01
-4.970834088727651867e+00 8.292727607009375834e-01 1.288996228247477660e+01
-7.124797021213441717e+00 -2.710817462454016891e+00 1.877089180264799495e+01
-4.437230958688239468e+00 -2.442426121414909002e-01 1.899428530166213136e+01
-4.252136426967927818e+00 -5.904524011280669615e-01 1.905003085511020799e+01
-3.282935216895945807e+00 -1.488737418186555361e+00 1.603128348357078892e+01
-2.822803220888677078e+00 3.100783355631589355e+00 1.599699308372029094e+01
-7.222870189125081275e+00 2.160154700094959690e+00 1.747639019732231702e+01
-3.268258164676094424e+00 -5.769712017026369377e-01 1.493192317729150886e+01
-4.002510860202062482e+00 -1.596855005385691362e+00 1.614779766342798695e+01
-4.785536181782727994e+00 -1.390662108992312573e+00 1.604193095740409802e+01
-3.311176795121296479e+00 -2.756960595465058006e+00 1.916602732991658087e+01
-2.450550697303182535e+00 2.668127121528313772e+00 1.561286048156351569e+01
-3.773321061796609310e+00 1.304914435078023738e+00 1.221233145014903698e+01
-4.308280428456963129e+00 4.449449434072845655e+00 1.734203283820931318e+01
-6.504105767063804500e+00 1.119753530593119883e+00 1.365054270961547900e+01
-7.334696294037231112e+00 2.520029618773503177e+00 1.658821414522449089e+01
-4.627709584511367602e+00 1.124864288994588568e+00 1.244612873241825923e+01
-7.786006813326126874e+00 -5.820618822483121235e-01 1.573494243882422694e+01
-4.624989249245774481e+00 1.558774028200252015e+00 1.235351345405986478e+01
-7.211610416426704973e+00 2.818867054607917311e+00 1.665617870331131911e+01
-7.328670952218250711e+00 2.566872098750214271e+00 1.650561819440048339e+01
-6.414748876857211179e+00 3.199763516808920905e+00 1.771517631640053736e+01
-6.233839157435591360e+00 3.388267385566196666e+00 1.771917548497052053e+01
1.135927404136042318e-01 -2.654686718917287358e+00 1.687688471042392280e+01
-6.396416434327878875e+00 3.396251483588780040e+00 1.762516525619781760e+01
-1.563634358510362254e+00 8.858309321311195195e-01 1.330917032522501131e+01
-4.431972185142549314e+00 -4.768964054051846091e+00 1.879424582982491643e+01
-5.486366932073267755e+00 1.047512371559914168e+00 1.864618456439784211e+01
-6.261958552398277256e+00 3.658635270650735016e+00 1.756858506791183316e+01
-7.593256177243674188e+00 -3.782512348784649703e+00 1.763117873572767280e+01
-7.381113406131256660e+00 -7.698192363224423129e-01 1.861165551107217908e+01
-2.282416310189211650e+00 4.768913443595074186e-01 1.908721007123215685e+01
-4.559744811061905878e+00 -2.510481382481340340e+00 1.671780092411892582e+01
-6.466390480514870198e+00 2.000674995648310972e+00 1.455901029478596342e+01
-5.158665698407962630e+00 1.135196584194952951e-01 1.367194068341645163e+01
3.171806575169328068e-02 -3.660852008511155109e-01 1.635084114877735573e+01
-6.147016380156878235e+00 8.700681021804472781e-01 1.336729646000214444e+01
-2.482159932036961392e-01 -4.361178238457833700e+00 1.753956855656208091e+01
-4.269756240261539659e+00 -5.089286936311263609e-01 1.506459196806236633e+01
1.762346545506431328e-01 -1.676517085732097678e+00 1.711085699343794886e+01
-7.267315781774857264e+00 2.622333890570883952e+00 1.683103950208064958e+01
-2.104914908694198949e+00 1.087817233749100110e+00 1.896015250606991742e+01
-6.245439916983070106e+00 3.836095292246092470e+00 1.653467324299671048e+01
-1.387284768990328931e+00 2.866001933216684172e+00 1.757126768201034395e+01
-1.993023086651264819e+00 2.543641017469492560e+00 1.595582488615465167e+01
-7.105260561266482533e+00 3.057061981156323771e+00 1.684051194381787298e+01
-4.129222995438500021e+00 1.017662036831022743e+00 1.886112789437315485e+01
-4.778229808466470274e+00 -4.927433016283759848e+00 1.854878247322258034e+01
-5.368995720466207544e-01 -2.011042494242546219e+00 1.574623764952165317e+01
-7.798778142574033900e+00 5.651796193402350843e-01 1.742929594954220818e+01
-7.409053029033557003e+00 -3.990742073298722659e+00 1.747100723516660992e+01
-2.946468373299961474e+00 1.517765742122087591e+00 1.267699892276110774e+01
-3.993193348578469304e-01 1.153787936166954742e+00 1.838878900341003231e+01
-1.534717814001744118e+00 -2.473264848902278601e+00 1.924795948547559021e+01
-3.424853098262088946e-01 -2.841004842577487643e+00 1.643715554437309123e+01
-7.206499147844535713e+00 -1.502767769335761505e+00 1.498230895930063156e+01
-6.526723508261385476e+00 -2.994522635689484957e+00 1.629139967157178859e+01
-6.244108912606621153e+00 8.069580652969748913e-01 1.346487118121333992e+01
-7.093777965349603143e+00 -2.877475207048462380e+00 1.874709540010401554e+01
-5.180258210969474142e+00 -2.813884568675054432e+00 1.679069008571635635e+01
-7.728090922147208275e+00 1.175669354190744587e+00 1.678410706034382116e+01
-1.011369514142733683e+00 9.664218876091839050e-01 1.447049154976318874e+01
-7.573889691629351439e+00 1.739347420572456171e+00 1.655674598549582299e+01
-7.210354055939835582e+00 -4.198515353599841404e+00 1.768182418414066603e+01
-2.611647896946675540e-01 -3.905867063727450628e+00 1.720200786748191746e+01
-5.306860693171891796e+00 -2.907831463815675477e+00 1.679752250157352478e+01
-2.220977768503541228e+00 -1.019964403781037143e+00 1.540148815464022647e+01
-7.031881111645177374e-02 -3.373079554893627652e+00 1.881716849724049467e+01
-5.211734042718972226e+00 -4.631662810673107700e+00 1.757503973245082562e+01
-6.604968804725328546e+00 2.580314756243970997e+00 1.789373785255722282e+01
-5.068971469453067868e+00 -3.470479433420682547e+00 1.697165274795865741e+01
-5.701778532732306282e+00 -2.872093265391024275e+00 1.896224333119641869e+01
-5.128610236192388427e+00 -3.128106611100036183e+00 1.687614023308292133e+01
-7.998981719169231397e+00 -1.622451556629150415e+00 1.624127086818369037e+01
-3.477875390649930676e+00 -3.759967053510612445e+00 1.912933626268127085e+01
-7.257212615859443439e+00 -3.411479085691436097e+00 1.842319368590678863e+01
-3.640503262790380390e+00 -3.963697954764676012e+00 1.911188161918087047e+01
-5.772871068231852476e+00 -1.884168170413714316e+00 1.894436936625469770e+01
-6.634389268570787479e+00 -7.060797746312281742e-01 1.891760840277571987e+01
-3.252892495642737192e+00 -3.937730698673017393e+00 1.910557368987964821e+01
-1.398572095334608356e+00 -3.602770983945405625e+00 1.712827668650753310e+01
-1.524810078262782143e-01 -1.229526168982930656e-02 1.579520838559260199e+01
-5.131981093571457819e+00 -2.442589802559243850e+00 1.898637754146668755e+01
-4.450405394457673802e-01 -3.610721085640287598e+00 1.705631161566047638e+01
-6.913943335340033691e+00 -2.020196548222830124e+00 1.508759390166645886e+01
-4.481646828327150445e+00 -3.561233546201845179e+00 1.907036808914193671e+01
-5.133479797228255315e+00 -2.259009746434051280e+00 1.897994864436532225e+01
-6.035255960868719072e+00 -4.071275719265844195e+00 1.879099952190517087e+01
-5.632658302782261650e+00 -4.946208530620904931e+00 1.802217220618150861e+01
-7.253722974447936345e+00 5.135233392345573966e-01 1.828746700529405445e+01
-7.219835787333336974e+00 1.053225370484824897e-01 1.478390666631349148e+01
-3.993721579548535683e+00 -2.207807042327685210e-01 1.453772255050199647e+01
-5.683685776785066146e+00 -4.065907094893273843e+00 1.887318176409446124e+01
-6.135503721062280036e+00 -2.940985857923417157e+00 1.650159044661826613e+01
-8.941832383311471011e-02 -3.034141273206038214e+00 1.664696960540560866e+01
-6.938695596907311192e+00 2.568207833962866005e+00 1.761255199376445546e+01
-3.579688490030516479e-01 9.984721787530039805e-01 1.840638263705371003e+01
-6.414859855919801568e+00 2.525294491686538301e+00 1.505000030334625905e+01
-4.167449776231195280e+00 -2.484507606803882496e+00 1.665017554267525668e+01
-1.764452574352582515e+00 1.050085799597983316e+00 1.329071038100236279e+01
-6.005131724758259182e+00 2.948577098907466887e+00 1.801678525025841537e+01
-5.985492176714288348e+00 -1.885490626241392631e+00 1.556977536476847490e+01
-2.293843564276056846e+00 2.839376671683471187e-01 1.367392439536811111e+01
-2.995377359468007761e+00 -4.972139466936843277e+00 1.857452728359468352e+01
-5.972065746958329591e+00 3.433282537628530307e+00 1.577740392153577176e+01
-2.001591454921778812e+00 3.070671820365102000e+00 1.697208643545112494e+01
-4.021500394020188551e+00 2.173680084745887697e+00 1.299170482151954076e+01
-4.962690126915423328e+00 -2.096259464273725115e+00 1.652629392347567006e+01
-8.082495626308613623e+00 -1.613880694727537035e+00 1.643747799900267381e+01
-1.861494681637699600e+00 -1.110467261662164029e+00 1.532467382933910471e+01
-7.694009028802901717e+00 -3.106400558196662054e+00 1.816975403784255150e+01
-7.245511226830071649e+00 -2.641030476524497850e+00 1.569807869472895590e+01
-5.409432789683772391e+00 -1.705307979003120034e+00 1.619056920787721054e+01
-9.799222458232813571e-01 -1.613532235858997188e+00 1.922291017950139747e+01
-7.104669176509573525e+00 1.340995541786647038e-01 1.454353496007446012e+01
-6.876282821908355380e+00 -4.482756535065508530e+00 1.764959431602200368e+01
-1.306141346044057183e+00 -3.305215072002075871e+00 1.920365122180712802e+01
-1.081848128364153672e+00 -3.261155687401427805e+00 1.923022668124171020e+01
-3.710134686571959328e+00 -3.171768044443949996e-01 1.462601520541440436e+01
-5.193164076947428320e+00 -2.288993397498753524e+00 1.658878584943300183e+01
-4.604044111659740146e+00 -1.414909683768104331e+00 1.903806218438038655e+01
-5.573055570756799248e+00 -2.352872761866407814e+00 1.652354284536507123e+01
-1.782838222623293889e-01 1.052864009913040855e+00 1.802112836550995922e+01
-4.038912737254985785e+00 1.662512600795200690e+00 1.232825677580800772e+01
-2.699918660809724757e-01 3.765111806259132665e-01 1.580872687830074597e+01
-5.141400583530897350e+00 -3.215524508119286473e+00 1.900005954345257919e+01
-5.255857995181963283e+00 -4.459973890039732325e+00 1.886690871634029065e+01
-5.655630526269982639e+00 3.456578479057294651e+00 1.790104487015031509e+01
-5.065757702985302480e+00 -3.807110295172917880e+00 1.899242340859755984e+01
-6.585362444100547386e+00 3.164958624598310344e+00 1.761689390683600465e+01
-6.635740018796621342e+00 2.985166255643317612e+00 1.767723392191992815e+01
-5.882255631648377836e+00 -4.148142077045976706e+00 1.712861198754957570e+01
-2.273361720750739057e+00 -4.592716992563992129e+00 1.776323322047136344e+01
-6.302276920705534913e+00 -3.128089601541548248e+00 1.650663616815746337e+01
-5.263853581972369966e+00 -8.206673823220655972e-01 1.523450681344615987e+01
-1.890175657651958829e+00 7.535853896858414336e-01 1.903766234696318804e+01
-6.114574819528390215e+00 -2.414274781172727202e+00 1.612492056869495372e+01
-5.034287156959337928e+00 -1.140764189219626745e+00 1.575347354487731621e+01
-1.295316244906250747e+00 9.615632558903121074e-01 1.894872864744895224e+01
-4.448069735298035177e+00 4.237716339053236858e+00 1.683255608371927536e+01
-5.906468267972483588e+00 -1.151926680084050192e+00 1.481219243895897364e+01
-2.486856428557626675e-02 6.750468339797784934e-01 1.763952902388472666e+01
-1.529958004035897323e+00 -3.062232633971355256e+00 1.920185149077269671e+01
-2.127625990349477192e+00 2.470742873902476155e-02 1.400074222418486869e+01
-6.889374022321362645e+00 -4.050997850884187734e+00 1.702140773325010059e+01
-1.646020738696851282e+00 9.818333831046072158e-01 1.334598291936584502e+01
-7.260992051973544470e+00 2.383943248409289950e+00 1.721836434902105850e+01
-7.211619624364350223e+00 -8.766364810074651626e-01 1.483688202684245994e+01
-7.114287529516016839e+00 -3.325718064116162331e+00 1.857706142873724531e+01
-5.127541810550188650e+00 4.400272021961339597e+00 1.696810886961038989e+01
-7.106119382893645309e+00 -6.657462078469447153e-01 1.466708827504964319e+01
-3.072015077594632437e+00 4.189315923026870614e-01 1.903827472324007886e+01
-2.476621370365442942e+00 2.082814853633743191e+00 1.442595432157153823e+01
-4.163206729942722006e+00 2.222936941308194303e+00 1.857450704922108997e+01
-3.289419677181410595e+00 1.086204783226209170e+00 1.890822146017648464e+01
-1.959536194121324293e+00 2.694072598278460351e+00 1.853268165173012960e+01
-5.451638707391892602e+00 -4.356815366881987117e+00 1.728621803901177856e+01
-7.285929209434983456e+00 -2.946406626307693788e-01 1.488054708385635649e+01
-5.240942556376849915e+00 -1.650833687200779609e+00 1.620131478320239182e+01
-6.669606604185131182e+00 -1.094379960457936507e+00 1.456964454919946661e+01
-3.360274549290965584e+00 3.888903483905895797e+00 1.689053362416063919e+01
-7.273803806659639548e+00 -4.855518707138746226e-01 1.485638884516883707e+01
-1.071194428065013859e+00 -5.376312727162542160e-01 1.464820824662995591e+01
-7.254645990780971054e+00 1.296272213189114897e+00 1.792994553235643451e+01
-5.930011960311455610e+00 -1.518224718290508202e+00 1.515017064053503049e+01
-2.663546349397268198e+00 -4.442170640655065394e-01 1.482564603700456018e+01
-7.811444522010610569e+00 8.227781086007331934e-01 1.698624315581169952e+01
-7.841671889153439601e+00 7.213450943670802751e-01 1.696376505381891775e+01
-1.763138669183081486e+00 2.167418714034096805e+00 1.868666739594350901e+01
1.501374477963440812e-01 -1.855895364297073913e+00 1.645048123678242291e+01
-6.681492753329105305e+00 2.554801475856971926e+00 1.538755786693781147e+01
-6.841588724812846856e+00 -4.269687092434101494e+00 1.822633382397229695e+01
-5.565687653895024845e+00 -1.680167793475681348e+00 1.892321982080420639e+01
6.343293720438508698e-02 -1.841765574231177593e+00 1.608476918295990998e+01
-2.406002491351742489e-01 -7.612836888906320265e-01 1.879915896591027291e+01
-7.663121500029935085e+00 -3.684071903790235858e+00 1.751387988712478716e+01
-5.623651139818679034e+00 -2.596827859269690286e-02 1.880515632424498307e+01
7.167290305916335091e-02 -3.385172400717312513e+00 1.841494447629670361e+01
-4.432987976954628095e+00 -4.049054857713377586e+00 1.905695233967468738e+01
-5.436280978573451605e+00 -4.484788047143006828e-01 1.440577478976963022e+01
-4.239476684373080673e+00 1.796113153444651278e+00 1.252149621439009053e+01
-4.229485217052965318e+00 -3.826663243869589337e+00 1.909094756598522480e+01
-4.888217197614393328e+00 -3.841333366007527061e+00 1.900877529544021627e+01
-2.673798714991160175e+00 3.230950545137043051e+00 1.643571174895986786e+01
-6.301020001193390563e+00 3.240809665264120509e-01 1.874991723915061215e+01
-6.275529524324384489e+00 1.504655702742807577e-01 1.879250536270060934e+01
-5.801034205425120049e+00 3.545355883100879346e+00 1.782029968331529091e+01
-3.386775352239355552e+00 -1.412721378143005913e+00 1.594539177277449227e+01
-4.213179923393221671e+00 2.640658462641110482e+00 1.846251177751153705e+01
-2.550775137989536478e+00 2.327483433799875101e+00 1.869377094187544230e+01
-2.211658822139759284e+00 1.108707344526127070e+00 1.275290281769679979e+01
-2.123033230109942604e+00 1.075819930424452009e+00 1.286003113747266013e+01
-7.155010233577336898e+00 -1.914468621750949895e+00 1.884830166048212874e+01
-5.518614648742489415e+00 3.478823232353031036e-01 1.876181665669039944e+01
-7.126239446511053011e+00 -2.132068924474466165e+00 1.885811119303977534e+01
-5.882176902047395295e+00 3.548790872691045983e+00 1.588153897761483080e+01
-6.553375440980072852e+00 -2.505145688046593655e+00 1.897283535191479587e+01
-2.800816921139309468e+00 3.109585009349456364e+00 1.844274432621363502e+01
-4.381928465758946345e+00 -8.124956895765345077e-01 1.904744874216470407e+01
-6.750878994661848154e+00 -2.320737747936125750e+00 1.895935618256700650e+01
-2.750540789734269520e+00 1.880659133803834537e+00 1.368238773112235407e+01
-1.760334684409942785e+00 6.376287015228432331e-01 1.340095633731017699e+01
-7.139116720074775380e+00 2.939994344382250269e+00 1.688381507775152812e+01
-7.805324474042679483e+00 -1.961277512200635842e+00 1.825574975084582974e+01
-1.941146241769521552e+00 7.805807842891597792e-01 1.318677340460800451e+01
-5.217831351118654482e+00 -4.866991576780436368e+00 1.860712546258117328e+01
-1.667881713961054002e+00 1.456388070561430936e+00 1.884205742050748000e+01
-3.455168900922769737e+00 -4.352588373410060107e+00 1.904163568018149988e+01
-4.863395613781698046e+00 -4.490682616403160132e+00 1.745826003440477336e+01
-7.356430490571588265e+00 -2.706981816245524364e+00 1.861078101367183280e+01
-6.485385235019041517e+00 -2.744339878098501551e+00 1.896034225310419430e+01
-6.035720807412877420e+00 -6.491746578756174557e-02 1.883042262622824126e+01
-8.121166378371206918e+00 -1.191686333956143207e+00 1.710977299857862022e+01
-6.026075436169933575e+00 -4.901681916683981122e+00 1.803161612766697885e+01
-5.063992880107158534e+00 9.833320124048173794e-01 1.872042870969836059e+01
-3.982955700733055160e+00 -1.606150553394749769e+00 1.913354765460501739e+01
-4.998186100392869591e+00 1.704871059989422344e+00 1.281109958499463630e+01
-1.762444537418436541e+00 5.200145257386473707e-01 1.350606447228753382e+01
-5.082719656626220939e+00 7.939288620603406343e-01 1.875033223109662828e+01
-4.681583254897772051e+00 7.778137781491414326e-01 1.882835730988565359e+01
-6.215554640633008887e+00 3.179236701639221785e+00 1.782769387874511580e+01
-4.460608848788017333e+00 3.865583590670430780e+00 1.603011892031356211e+01
-7.178138733781012526e+00 2.544773502235342377e+00 1.726284168888730619e+01
-5.340419482715835997e+00 -3.016896161778483076e+00 1.681940251062074765e+01
-7.638141320607886087e+00 -2.188244983381880893e+00 1.579309541820019547e+01
-1.173956046001027875e-01 -3.929230790933476491e+00 1.872653407652659752e+01
-7.164788603527451727e+00 2.366687067988375137e+00 1.742721318563398114e+01
-1.175187472146865364e+00 1.553631874270970936e+00 1.874022381846147312e+01
-3.670930203958576055e+00 -2.319358837136764606e-02 1.408467116654691154e+01
-1.678894619630951102e+00 2.183563128337011605e-01 1.379528635926513402e+01
-7.130693607198273831e+00 -9.354389108044578460e-01 1.475917766212630511e+01
-6.991163190161039154e+00 3.218393414008929865e-01 1.431009962766264465e+01
-3.069589698851027393e+00 -9.001908197462145100e-01 1.539111311033810381e+01
-5.019105889363849826e+00 -4.858738443904544901e+00 1.865689975514914067e+01
-3.773745370037973945e+00 -2.219063693615539457e+00 1.649391134530308989e+01
-6.140119265910108926e-01 -1.864704589199307039e+00 1.564613412884074251e+01
-1.222255958587438851e+00 -6.680759314428268425e-01 1.916277437409959106e+01
-1.205988198848609638e+00 -8.682734023272058455e-01 1.918035623839150361e+01
-7.333527071682105491e-02 -4.146027903283139970e+00 1.856843138274526694e+01
-6.907586881856977001e+00 3.450896128666697038e+00 1.689708544729197115e+01
-7.420960946829534777e+00 -3.820746432686535243e+00 1.711723979148649022e+01
-1.399831709201639462e+00 -3.014032175179945483e+00 1.679599454267906822e+01
-8.785941895822058090e-01 1.256672928010504453e+00 1.540390797547023993e+01
-6.864550239715581981e+00 1.220464801783943454e+00 1.427008194914666461e+01
-1.084237066239601144e-01 -4.318801725218397003e+00 1.849577802699968743e+01
-1.104329526096584413e+00 -2.850278426090890882e+00 1.926675997534736950e+01
-4.741182864642882189e-01 -4.558232205842459805e+00 1.871605911299444358e+01
5.763402179922760826e-02 -4.076699699959094758e+00 1.840530064952585576e+01
-4.742116868860305701e+00 2.762052146350768567e+00 1.834490536039628950e+01
-4.407369230282027317e+00 2.831125962578092903e+00 1.837449508411734911e+01
-3.073608523949755256e+00 1.933058354036675475e+00 1.339741967687152169e+01
-3.129900703309207444e-02 -4.315644710469996426e+00 1.775121678382598844e+01
-3.769355660568145527e+00 -2.386795659883192755e+00 1.917316644519890900e+01
-3.434890528561490353e+00 -4.294168730028660175e-01 1.470569218004074230e+01
-2.562652049066912241e+00 1.912730092443393648e+00 1.877519765694860610e+01
-4.151701818396563048e+00 9.277106511921715537e-01 1.267499237311484706e+01
-3.471857384890644660e+00 -4.767689323686256309e+00 1.813433668171657587e+01
-2.325870592624621480e+00 1.119794738889723362e-02 1.403687396828756562e+01
-2.267706368716505771e+00 9.504777025354393949e-02 1.391412945783580568e+01
-3.469370541342259084e+00 8.284212983626472182e-01 1.895418671271592359e+01
-4.385461162292745740e+00 -1.397611801430392875e+00 1.907462455045316574e+01
-3.920088488325562892e+00 -4.226194403220513429e+00 1.732617516068899732e+01
-7.886361401957299400e+00 -6.414726973563402712e-01 1.589929115236355273e+01
-3.895434926042275148e+00 -4.069333992737335315e+00 1.724867092152221204e+01
-3.207609171026066797e+00 -4.847059348185868366e+00 1.821861662594980658e+01
-4.251546140656932593e+00 -4.328681375478950599e+00 1.740403208140795499e+01
1.242445851082643049e-01 -2.485431449509577284e+00 1.728953215103575047e+01
-6.702736733875346076e+00 -4.288906862448472523e+00 1.720793566757921411e+01
-4.429856213854266755e+00 -4.440816257870230821e+00 1.747045874040423286e+01
-4.467895887714892211e+00 -4.346131579948310453e+00 1.738758850857096405e+01
8.329554822477935883e-02 -2.958541370908070789e+00 1.844200174131866277e+01
-3.676043016023563315e+00 -4.167437571500725468e+00 1.908774324843466275e+01
-4.723947061848843276e+00 1.383336572538527820e+00 1.224231683267701953e+01
-4.294427850195974727e+00 -4.229645662113621363e+00 1.731734696576433663e+01
-3.787645533261004616e+00 2.985038847818868746e+00 1.473839377115132976e+01
-6.178013549136867510e+00 -1.932532006008888414e+00 1.532591417749478779e+01
-1.804149317793507068e+00 -1.470808068636347832e+00 1.575726186826155839e+01
-5.837916660622284759e+00 2.994831150714408530e+00 1.804865428145292583e+01
-2.611736792127581364e+00 2.548883587167543929e+00 1.517611563775837880e+01
-4.784099493210105081e+00 1.232805660131365499e+00 1.237925837164535636e+01
-5.570367655006542407e+00 -2.101662788915360736e+00 1.637895762589035797e+01
-3.947124536018291163e+00 8.745682544743169640e-01 1.277813584451127582e+01
-5.858622714510540952e+00 -2.083268689607830737e+00 1.617436642748447895e+01
-7.321031014079578902e+00 -5.026689733736606769e-01 1.857956050015619809e+01
2.010160740503486032e-02 -3.782156657405455924e+00 1.779639955320425315e+01
-5.856399494792638549e+00 -1.895393277496503215e+00 1.597678117334969983e+01
-4.997663126686815893e+00 -4.430244897746709043e-01 1.890071615301915386e+01
-5.694679134076214844e+00 7.830090818179202827e-01 1.867444107993198088e+01
-5.247204895235530131e+00 -4.316490788193427797e-02 1.882875063342336119e+01
-1.694493702668362634e+00 -4.158030452593286519e+00 1.742544283411296391e+01
-1.709818096899648476e-01 1.947544915102883412e-01 1.602390312338530265e+01
-1.505679680936706566e+00 -3.865454051817426517e+00 1.727386669553565213e+01
-4.060465898429184151e+00 -4.845880035936795949e+00 1.862267288498734530e+01
-6.325049796474161212e+00 3.883051695296905415e+00 1.740864559807177869e+01
-1.253579769566863789e+00 -3.604122289449242622e+00 1.712389796954406762e+01
-2.444558175027424340e+00 -1.118929382044057563e+00 1.915900696594118102e+01
-1.562870208994411536e+00 -1.371381010760254648e+00 1.544119500385951937e+01
-6.648799594304725114e-01 6.785099903670821497e-01 1.463288360528046184e+01
-4.159895201503232443e+00 -2.666328005402547774e+00 1.671476011194476285e+01
-3.663985655652297169e+00 6.353074000976385305e-01 1.897797122334796427e+01
-3.880665075512764961e+00 4.029070340868180500e-01 1.900196030057031038e+01
