-4.604052874378311344e+00 -8.414525868127396002e-01 1.933586545398746992e+01
-2.158449330394526910e+00 3.325856830984564638e+00 1.532311773208985883e+01
-8.352655217409841182e-01 -2.981831964538952384e-01 1.441165225401426042e+01
-3.186550594248492185e+00 4.411065291018129386e+00 1.710398520364872965e+01
-3.027388037562261047e+00 4.188936092856507365e+00 1.722655071738685351e+01
-7.067859751364236942e+00 3.058477831930225488e+00 1.632080409378430019e+01
-3.068817561746010725e+00 -2.679058199429410703e+00 1.936032082719268388e+01
-3.019664057144843650e+00 -3.944712685158393128e+00 1.884308891812076681e+01
-1.519671601376959114e+00 -8.492452989050547352e-01 1.429433897761792238e+01
-5.324515789907868779e+00 2.197758732603063869e+00 1.283495669064759070e+01
-7.570762220256421315e+00 -6.381995131947704181e-02 1.499047435443567267e+01
-6.603799696688499310e+00 2.416226623387673023e+00 1.791021105268855607e+01
-6.555157906566327242e+00 1.994899146342882013e+00 1.823732290169580850e+01
-3.706356089200887549e+00 -7.250385415580766768e-01 1.531717158263447587e+01
-4.082596307410045533e+00 -7.095546693882366363e-01 1.553379581896109940e+01
-1.357486141724776330e+00 2.256578248463241287e+00 1.785200752344322339e+01
7.048402230956585246e-02 -2.018154659937543283e-01 1.726643819847349093e+01
-3.394784975506914382e+00 2.398586724557595140e+00 1.809898262670693825e+01
-6.640902854304339797e+00 2.092568047902986006e+00 1.448301349280780315e+01
-3.571783307382757400e+00 2.000599321945743192e+00 1.827336900211149029e+01
-3.811606686138275357e+00 2.190308693216655556e+00 1.822191791374727998e+01
-3.929449077890075248e+00 3.417947534235820095e-01 1.274726458446193433e+01
-4.987154372274760661e+00 2.005743757594930621e+00 1.846923481366176034e+01
-7.307242266423587651e+00 2.143347665453178230e+00 1.729836036156336476e+01
3.646337529965471003e-02 -4.663662496791269874e-01 1.766520055930556410e+01
-4.757319564120180644e+00 9.942401879490061489e-01 1.159375004633183082e+01
-7.264626770260912414e-01 6.412375567954999855e-01 1.531391229064343307e+01
-6.544922745830163535e+00 1.768932038281548325e+00 1.403521098012378232e+01
-4.370913225190403040e+00 9.670610927568304982e-01 1.159629850671497664e+01
-4.346328723358904966e+00 7.734603334684326814e-01 1.198073366107154314e+01
-4.580383856596020209e+00 6.700076813107332940e-01 1.224935845882884777e+01
-4.163927490098881634e+00 6.985251723691356940e-01 1.211442512535711202e+01
-5.803775554047607699e+00 1.003025322270051811e+00 1.896955330080287538e+01
-4.613800454828085762e+00 -1.221645854953488763e+00 1.941271523546777544e+01
-4.744232472143787405e+00 -1.159951987406117047e+00 1.942299833287156829e+01
-4.827487790498301123e+00 -1.218194155638447018e+00 1.945192881096844317e+01
-4.247486231085929376e+00 3.830165561278251474e+00 1.473143261343903632e+01
1.359923877099900036e-02 -2.409839850759399882e-01 1.764663818334682688e+01
-6.639268044490395093e-01 -1.413255119021548101e-01 1.485802348667126083e+01
-7.147792398792677915e+00 -2.693864590969781148e-01 1.439873613487649706e+01
-7.140960489329696514e+00 -6.895024788967363261e-01 1.475047032051321239e+01
-7.042832848779292831e+00 -4.396269371193139985e-01 1.443938009186765115e+01
-6.276075198528292987e+00 4.345194146293344772e+00 1.607174774353863356e+01
-3.884046938531029891e+00 -2.186714465444306477e+00 1.709067203755327924e+01
-7.604924831129112661e+00 -1.938908170436735912e+00 1.720220201878605693e+01
-4.586540594230054779e+00 -1.048073542278099124e+00 1.937761257642909030e+01
-1.140221924649064134e+00 1.206216414129162029e+00 1.496554814005351020e+01
-3.236633157914256209e+00 -3.059188944835156576e+00 1.938734230716351092e+01
-3.813208430352251543e+00 1.069553930568600819e+00 1.863995878042424792e+01
-5.009022979976208489e+00 3.046342291086453491e-01 1.908995833753789739e+01
-3.794860565710661771e+00 5.588768773617235341e-01 1.881268592190665245e+01
-4.013060572481190746e+00 5.797187770156573272e-01 1.883076452128675626e+01
-4.001271828168827760e+00 3.528805736876535204e-01 1.890559661948220693e+01
-1.058463447824132597e+00 2.231717032463524486e+00 1.615261132673530042e+01
-1.875297125379029595e+00 -1.046390471278848322e+00 1.472901985586574725e+01
-1.825601150527850436e+00 -3.697595455896404815e+00 1.898421905071103666e+01
-4.991101499736675606e+00 2.388774165087814261e+00 1.831909049149853175e+01
-5.215352133236343946e+00 2.453466345366918766e+00 1.831516170813125299e+01
-8.057565726076345580e-01 1.658129532504531545e+00 1.612654249691505370e+01
-4.992639396040221555e+00 3.000538531871865811e+00 1.806432708237032259e+01
-4.784268467991648066e+00 2.799482327026789452e+00 1.811932373354497017e+01
-5.011092568793870328e+00 2.584649130961357955e+00 1.824100000149693912e+01
-3.824276500629748110e+00 -3.051395693863289793e+00 1.948757472759418974e+01
-5.018373108040915298e+00 2.740092426001882853e+00 1.817724474924594702e+01
-4.205907367737118818e+00 4.819280284423632210e+00 1.693908033696576254e+01
-3.799527041913175474e+00 4.212174859690895445e+00 1.728648766234423206e+01
-4.035211345757290680e+00 4.260051109333863550e+00 1.727988403020720298e+01
-3.359517535441788549e+00 1.076404691940878067e+00 1.145638233701238207e+01
-2.571034122223360363e+00 3.318764492929034748e+00 1.473330081032275629e+01
-3.603882416626065233e+00 4.224259434623848009e+00 1.726039496112992211e+01
-4.014117319832701369e+00 4.613586012182707918e+00 1.705348208389206732e+01
-8.817133085773216639e-01 9.478005014991721655e-01 1.821844821388906510e+01
-4.040531565910394640e+00 4.378092948955046637e+00 1.720547239876601608e+01
-6.119541420398300957e+00 3.576638020187188349e+00 1.504219839181939378e+01
-3.369662969173454758e+00 4.584732109906803466e+00 1.701247428714279053e+01
-3.000709212517023161e-01 3.218148787397558941e-01 1.801332518293894580e+01
-3.602365582186451753e+00 3.582276849279321773e+00 1.762697170388961965e+01
-7.471065903547688958e-01 1.874827042302054325e+00 1.650065568938600435e+01
-3.010700987531612860e+00 3.792955798740315743e+00 1.746025214275178783e+01
-6.536943483402033905e+00 1.514563918372639373e+00 1.856183628366951055e+01
-6.391394882876582528e+00 1.546187331146900767e+00 1.859997187859474721e+01
-3.518112486793405935e+00 -6.361125925800814596e-01 1.495288647357408607e+01
-2.372364392851644688e-02 -1.383201475678410564e+00 1.603701537067732730e+01
-1.425896049782494623e+00 -2.513091919149395004e+00 1.626103087304887751e+01
-1.171236473963754410e+00 6.409310212765411130e-01 1.435959164573728586e+01
-4.400176805742825437e+00 2.029703537579854444e-01 1.900743146612179046e+01
-5.482791040684505290e+00 2.706100223684283268e+00 1.350566881789962181e+01
-2.400223777542860870e-01 -1.557891314490051471e+00 1.559123683168094843e+01
-4.407498243052980769e+00 5.448900278416366483e-01 1.889356994690931302e+01
-4.006029871275464060e+00 1.051170169342273031e+00 1.866732170784619527e+01
-4.222820015179092223e+00 6.097283752504161214e-01 1.884444746254292724e+01
-2.162506329369246139e+00 3.463017446070359995e-05 1.315285449839731413e+01
-3.467709768993833652e+00 4.936608489431729474e+00 1.680900299500142481e+01
-2.748138369620222843e+00 2.867560399633535817e-01 1.268542993037533151e+01
-1.053265230448311218e+00 -3.752062831052057845e+00 1.759133211588977375e+01
-1.666485001018235268e+00 3.231084134494408122e+00 1.600891980221473787e+01
-1.263269759516641333e+00 -2.098490134743221436e+00 1.570197384628855630e+01
-4.273440034588088743e+00 -1.973299602633121097e+00 1.706069774290365970e+01
-4.465026286515211495e+00 -2.195545668329846212e+00 1.724867282595951323e+01
-2.327074307746570980e+00 -2.639320136387216520e-01 1.351330637855192762e+01
-3.856032374781000360e+00 -3.195188584307016022e+00 1.763968836810309782e+01
-2.079182763090775765e+00 -3.891205635966171528e+00 1.815398456821612072e+01
-5.417175588819304721e+00 -2.429861080518762595e+00 1.970002111749346696e+01
-5.383830083338551731e+00 7.677700606429969099e-01 1.900344449127169710e+01
-5.210979157473282442e+00 1.000808877655374518e+00 1.888689338899458292e+01
-5.219575111660482492e+00 5.036440335372135202e+00 1.615063504000839956e+01
-2.755638848050507850e+00 3.232074749040314998e+00 1.771098467250888220e+01
-5.203529245550324589e+00 1.575432526590274662e+00 1.867066594131256707e+01
-1.053503191745840617e+00 -2.663841938603488835e+00 1.896507243244728969e+01
-2.195797614956134680e+00 -2.040663211107907937e+00 1.914096756922806364e+01
-5.195647733507437138e+00 -1.634547562443327440e+00 1.961056795008555653e+01
-2.244985291656616422e+00 -2.245394526531915513e+00 1.916273864008627825e+01
-6.997916268340951262e+00 1.912745658793610914e+00 1.492345757240685700e+01
-5.314573947727749825e-01 1.211694239343054535e+00 1.777870544308317946e+01
-6.384374980480959749e+00 2.412534132022993827e+00 1.806606091356595911e+01
-9.676035743832618330e-01 2.978421074566972582e-02 1.429627340045066219e+01
-6.436879619396645325e+00 3.485197116985514931e+00 1.734887483075064196e+01
-8.147427281265714472e-01 1.573065283879446774e-01 1.849011448564096938e+01
-4.060650165929637900e+00 3.926829239389586501e+00 1.487686477337453894e+01
-6.394172221621058583e+00 3.638042008121878723e+00 1.728314378293969966e+01
-5.017279673748690882e+00 -1.256403140361120441e+00 1.950318376575489410e+01
-5.022242127190947869e+00 -1.458497385988254402e+00 1.954055738744557047e+01
-5.363056985993692294e+00 -1.420424939695900335e+00 1.962048168912884094e+01
-6.037364424827105225e+00 1.871986954828036565e+00 1.851996982280044435e+01
-4.497054484800535157e+00 2.538332075773521712e+00 1.284565499787357723e+01
-1.790978264496040806e+00 3.893668822679277941e+00 1.659071693854230389e+01
-1.568011317173616526e+00 3.641031468963942253e+00 1.680230536123125873e+01
-1.505937052391846276e+00 3.357357361041066746e+00 1.646074173533331830e+01
-4.286543516414486277e+00 3.360599076704155141e+00 1.405027047860867739e+01
-1.636398939111607387e-01 9.579937932214168672e-01 1.731284692130441627e+01
-3.511336351635511721e-01 8.526184708251538513e-01 1.776613876088345378e+01
-4.820185722598248290e+00 -2.812349117693713652e+00 1.961344713934681394e+01
-7.427018002340030733e+00 -3.690232651472536984e-01 1.482966948844194022e+01
-5.029468495769751968e+00 -2.834278480432398162e+00 1.963320922720022921e+01
-5.612250839100308752e+00 -8.449948335171331149e-01 1.957033467616118472e+01
-8.344492586596355954e-01 -2.278489003846350780e+00 1.893229292619507831e+01
-7.417194441751775003e+00 -1.732641966705392722e-01 1.466040492298558817e+01
-2.847392555261374358e+00 -3.910805543074763690e+00 1.903878460410372142e+01
-6.445886150640854240e+00 2.729500489145380016e+00 1.469216925882654934e+01
-1.754819120553502199e+00 -2.444640403009746166e+00 1.657419680857689670e+01
-5.407689524532010239e+00 2.218320399208598026e+00 1.842204489506034903e+01
-1.452160073053204936e+00 -3.962517617834733663e+00 1.816386745441037576e+01
-6.221706079071431361e+00 1.446032654715721177e+00 1.870901225093209419e+01
-7.807731274009379163e+00 -1.207794927198121426e-01 1.661313723087832628e+01
-2.413059549529354975e+00 7.687786600840433859e-01 1.859231942226623957e+01
-2.001471429560362836e+00 7.398403002698081821e-01 1.856907896910344036e+01
-7.471831994451992642e+00 7.415593766495681693e-01 1.504667881029617504e+01
-2.589511895849068157e+00 9.847501247517503886e-01 1.854289198744654854e+01
-7.508621859267270437e+00 1.517784599237423482e+00 1.605535491191558961e+01
-2.989372613419886360e+00 1.190871034830451425e+00 1.851702157536673710e+01
-2.292261511698427512e+00 9.505305085664560449e-01 1.255556650995659496e+01
-1.629585531810454402e+00 -2.109985918310203878e+00 1.605041691749116595e+01
-2.403386103219178338e+00 3.209421707429986004e+00 1.768440958073418656e+01
-2.606738643687706691e+00 2.593581467986077360e+00 1.795852707083049538e+01
-2.440613629208173485e+00 2.278396981623562745e+00 1.807210825423632272e+01
-7.905916352262717384e-01 -1.957939521156021323e-01 1.454286315346673675e+01
-9.558433044847278737e-01 5.868986826561757297e-01 1.839908587911015658e+01
-2.836088470826139130e+00 1.976645286291075054e+00 1.822208441977603499e+01
-2.799530975713831360e+00 2.818876010606394367e+00 1.788440384213107492e+01
-3.209960273696715660e+00 2.752589667477725932e+00 1.794429060852261060e+01
-3.172522940916012057e+00 2.578739680479529284e+00 1.801007062432409711e+01
-2.842823218398684570e+00 2.392424343869235859e+00 1.805880413889441982e+01
-7.490627331718762605e+00 4.487728297230939023e-01 1.826502266775956329e+01
-2.517629933534736963e+00 -1.110572683816427597e+00 1.546662327188462527e+01
-6.369666308166868518e+00 3.142135889398661508e+00 1.762078735552732311e+01
-5.261080175828883654e+00 -1.931667583353619655e+00 1.715011974282515084e+01
-4.005570010137454950e+00 2.608321529544426198e+00 1.807729360826471421e+01
-2.301443281985046774e+00 -3.919466935145533348e+00 1.834339560724826512e+01
-1.087045314281438912e+00 1.000673949353731440e-01 1.408471011228593639e+01
-2.048180347651959554e+00 1.549228609934024670e+00 1.351946063697197431e+01
-7.232937832641592735e+00 2.668563563035106334e+00 1.669349107855360970e+01
-5.045802189277608818e+00 3.930752861656935160e+00 1.482309193697181016e+01
-2.884672044038503635e+00 -3.038195260285586841e+00 1.736968991957899178e+01
-2.395538072421175002e+00 4.564576288544602178e+00 1.682411939893514230e+01
-5.792101448890974780e+00 1.476064564971718784e+00 1.254481974300874114e+01
-1.283788237423840517e+00 1.278758158565516112e+00 1.474074166512498962e+01
-4.590480639981009858e+00 2.390110986376681623e+00 1.825197597273288252e+01
9.457374042433386307e-02 -8.869760188197335360e-01 1.709221790320546219e+01
-4.808204996417950738e+00 1.993741417621843537e+00 1.844358784196940704e+01
-3.481977128687641088e+00 2.936073218079485514e+00 1.362233602830417922e+01
-5.422539139085523985e+00 1.933607368882351185e+00 1.854813975454032615e+01
-6.535272502608844292e-01 9.316527069892640567e-01 1.806435248001386995e+01
-6.942998868593452499e+00 -4.185875356431978389e-02 1.912714119511158017e+01
-5.364842147416460705e+00 5.834400107787364176e-01 1.906723574870439464e+01
-2.247213691094311017e+00 -3.266695613567407008e+00 1.914126901903504674e+01
-6.133595428358276536e+00 2.557218227515154041e+00 1.404160320976568599e+01
-3.976614287815350313e+00 -3.642299708840640582e-01 1.452892971372489583e+01
-3.719747813723640828e+00 -5.597666864825345812e-01 1.488280026233509190e+01
-1.430249160927529850e+00 -2.717904062324484116e+00 1.649942320930257367e+01
-1.056183905311036231e+00 -3.998325550421276020e+00 1.818205721922701557e+01
-7.817425318857626593e+00 9.125254348576417041e-02 1.664299777595262597e+01
-7.785035291032388116e+00 -3.199934944114669610e-01 1.644202948987697610e+01
-9.005920186077300826e-01 2.522496711096439803e+00 1.692057129873480292e+01
-7.790592569996304562e+00 2.918244220991806914e-01 1.646624138032653306e+01
-5.404249274136944337e+00 -4.239663643720149588e-01 1.941269753458732694e+01
-5.080881602807995279e+00 2.731243482513558973e+00 1.328092596312802343e+01
-7.075463125550362165e+00 -6.123405081664319294e-01 1.462473511013605432e+01
-7.534724844699013602e+00 -1.090316293895467137e+00 1.555904684763317292e+01
-3.669219452728041730e+00 4.222823922323687640e+00 1.534166079953832806e+01
-3.580208741013680029e+00 3.012688155364204867e+00 1.787365317618028016e+01
-4.300466641165105131e+00 2.709683902529527177e+00 1.306161972888088840e+01
-3.055896750045891341e+00 -3.027319418615095792e+00 1.934915460783964747e+01
-4.038522353934981268e+00 2.800218530641414461e+00 1.800570804751584220e+01
-4.810319865626613733e+00 2.993450270966942828e+00 1.804274820884695529e+01
-5.947540844069544974e+00 3.410692471479789933e+00 1.464984338033306344e+01
-4.827783364908247776e+00 3.131330884926169400e+00 1.798672424328790598e+01
-4.822543829493350032e+00 3.238213325235253848e+00 1.794014589308667595e+01
-5.725827173713680551e+00 -8.327894125636368106e-01 1.538166474806096673e+01
-7.653070365480221682e+00 1.225862408416618088e+00 1.726382463642892517e+01
-2.813664046589173573e+00 -1.064555677133971479e-02 1.885676663399182118e+01
-4.371075737201580935e+00 4.970172726429031407e+00 1.685273852040164755e+01
-4.602466595848328623e+00 4.978693205470442251e+00 1.685700521491919446e+01
-6.851194666602408390e+00 5.391236374115520036e-01 1.351073841848915080e+01
-2.408737024419613348e+00 -1.662144349521682551e-02 1.880805677946955612e+01
-1.279762560338433719e+00 -1.891853028659604252e+00 1.549544612711229874e+01
-5.819012767261863672e+00 4.886754397402964578e+00 1.617852703948209481e+01
-3.017741524712066692e+00 5.554039363933225282e-01 1.871540532274908841e+01
-2.040239389160294792e+00 9.627789183305064391e-01 1.850934905788054508e+01
-1.993021337741456511e+00 1.223397586726743036e+00 1.842642740054353467e+01
-2.493218574691145051e+00 1.256616371081040295e+00 1.845374032431618261e+01
-4.809646248969864146e+00 4.012118981043676591e+00 1.751112417972719371e+01
-1.670289990613326836e+00 7.298371288846841054e-01 1.348086920441854986e+01
-7.326475070937014777e+00 1.343121622275078142e+00 1.799868261040368722e+01
-5.577169944325294892e+00 3.636339839021024645e+00 1.459363704224563563e+01
-2.638753882709085286e+00 -3.962796096367765308e+00 1.892682216515997240e+01
-7.553897602675599288e+00 -5.061035266196626248e-01 1.515472687017733833e+01
-4.050333601186304477e+00 3.738153444476772336e+00 1.758850719237294769e+01
-5.830562507709684539e+00 3.850391334885520322e+00 1.496371853656238571e+01
-4.419997835394825714e+00 3.211574910094862290e+00 1.788731220465433935e+01
-4.591884041646641990e+00 3.398581650792409814e+00 1.783114420913197407e+01
-7.439165637144885324e+00 1.742696686324654909e+00 1.602362978034195251e+01
-1.589281588246852284e+00 1.604718056951508043e+00 1.823082080100542512e+01
-6.686031437005269140e+00 2.240670832309186178e+00 1.796951439422869257e+01
-9.831950610325119744e-01 2.614789742790585514e+00 1.676912037151764068e+01
-3.610726781887448666e+00 1.610791747429324294e+00 1.842741270566319045e+01
-3.219709426950846165e+00 1.327189232313797262e+00 1.849445981771187419e+01
-5.925965432979932723e-01 1.199725797373855096e-01 1.520463081652048842e+01
-5.518822526395243955e+00 6.623151122378537758e-01 1.244023827079483269e+01
-3.240423741863140084e+00 1.441973498538861254e+00 1.845763584696608817e+01
-3.645051810619628352e+00 -3.251917067163407005e+00 1.944722942943553434e+01
-4.236591441883971854e+00 -3.256041709672568008e+00 1.951384879130701577e+01
-4.242387204884993324e+00 -3.047377863223449168e+00 1.953360783630234820e+01
-5.908329898479125930e+00 8.203570145554277548e-01 1.243372803871987387e+01
-6.086126964649819726e+00 7.762926175419038177e-01 1.265525758716744420e+01
-3.451657590870848669e+00 -3.904334227294182114e+00 1.882090436008364165e+01
-2.223869259535459442e+00 2.137754382349840832e+00 1.810860228366527380e+01
-2.567653395295928398e+00 2.168338403226371724e+00 1.812589048055341934e+01
-1.127465719709162650e+00 1.893565229144434370e-01 1.858407298392426199e+01
-1.013424968932792547e+00 1.677969774331325992e-01 1.855827088433511207e+01
-4.919108521662531430e+00 1.938134117054049144e+00 1.225972038255598662e+01
-5.645124089268826140e+00 4.096559176254665147e+00 1.513171018380276323e+01
-1.225297026058384198e+00 7.417038351231156623e-01 1.844028935221899346e+01
-5.748484854339876549e+00 2.297041600692188545e+00 1.835819852032708965e+01
-5.786011452538906141e+00 2.392458045939825695e+00 1.830378812160786950e+01
-5.609688965234225222e+00 2.430697642241172574e+00 1.831004897054939207e+01
-4.398241780060686779e+00 2.809943573604590572e+00 1.805281418244262071e+01
-4.006627128616340627e+00 3.038846772273550378e+00 1.790509408027344662e+01
-1.591453848940918459e+00 2.903326919042969134e+00 1.576947551446638229e+01
-2.429434981089870771e+00 -8.528967461398935246e-01 1.901933583664828475e+01
1.381222777603394736e-01 -2.439184381463352480e+00 1.723504094101174999e+01
-4.164723422922227414e+00 -3.276060783417187317e+00 1.777010233043610654e+01
-5.721191985404901814e+00 -3.594363430208235011e-01 1.946293767065452940e+01
-3.067072448770864934e+00 -3.618838220767236713e+00 1.781432295322287374e+01
-2.969518149910778337e+00 4.305495045684581967e+00 1.714743453651681548e+01
-5.764501109353826536e+00 1.009326176995885227e+00 1.221198440661892803e+01
-3.598451220866468736e-01 5.744410580669770949e-01 1.794741307059480917e+01
-2.463857889088747477e+00 -3.970349734528533681e+00 1.859835454314242398e+01
-3.392137623155467185e+00 -1.835145201393137970e+00 1.937017277244398272e+01
-3.033948511966552797e+00 -1.858179299448770916e+00 1.930201866157925039e+01
-2.606275344610326616e+00 2.989215607743042735e+00 1.779906051929389221e+01
-2.993821617580443739e+00 3.023319041744756852e+00 1.781945119856132109e+01
-3.022116035834845338e+00 3.209990920388689606e+00 1.774664563894009817e+01
-5.137844654496179331e+00 2.812637406313757360e+00 1.340877203805056084e+01
1.185183666467386487e-01 -1.604929358394910022e+00 1.722134807131554979e+01
-3.078421468584875420e+00 -3.272297129442993668e+00 1.933637667029381291e+01
-5.244406591455796018e+00 -2.234025017078612230e+00 1.967809759764516642e+01
-3.888672221635164128e+00 -1.558527562040456615e+00 1.668224902221852446e+01
-1.381411411052076321e+00 3.244019852640602775e+00 1.657531547481661605e+01
-5.408811050775428342e+00 4.595214128624702354e+00 1.707360519716042901e+01
-1.657379808304971780e-01 -1.531507269384315917e+00 1.568624003918970899e+01
-6.687374279235795527e+00 3.885983315654184089e+00 1.678483572747121499e+01
-6.694159038881203116e+00 3.916422273276393806e+00 1.633261755892057110e+01
-6.607637007791947070e+00 4.044666761625727247e+00 1.633317259430598156e+01
-2.902337085071462486e+00 -3.194192268470280371e+00 1.745780533677530499e+01
-8.441629690529772745e-01 -3.956253022598448688e+00 1.798256759629032686e+01
-5.508505953310068648e+00 1.550423442448056743e+00 1.226405802335743900e+01
-3.705490890389633751e+00 -2.451917733353965456e+00 1.719193111358744019e+01
-3.283435185396559319e+00 -3.971028287881196439e-01 1.414501795463294442e+01
-3.857904257268589099e+00 -2.586956158069798839e+00 1.730432363702922416e+01
-3.667601500109610946e+00 -2.363160340721002672e+00 1.713641594075177110e+01
-3.273900176586783672e+00 -2.782384189898354343e+00 1.728770231837352256e+01
-3.217404640738569910e+00 -3.697910040411816368e+00 1.792578559938999305e+01
-1.006870170815986398e+00 1.178004029442230038e+00 1.818852473176753293e+01
-4.222611043567210842e+00 -3.448899447533026574e+00 1.947914217503183565e+01
-4.347868844456852067e+00 8.653949403427817488e-01 1.178742116561063469e+01
-5.318744523542390468e+00 1.355810330670095043e+00 1.185301972268998227e+01
-6.041668133294595400e-01 1.394934868140356166e+00 1.774409438143475981e+01
-6.267628526773087572e+00 1.156915075740879484e+00 1.306004138172899687e+01
-7.759632436402135625e+00 2.580108135093642230e-01 1.763877016382904728e+01
-3.121677707568213833e+00 -1.897005978916765923e-01 1.353578411612006605e+01
-4.084769436099374929e+00 -2.005734687556052886e+00 1.703400376829930352e+01
-4.738102958638819473e+00 5.980402415603793820e-01 1.893228223216333461e+01
-1.897348209503799010e+00 -3.911347737073857189e+00 1.815347645297029189e+01
-4.974251558789616112e+00 6.188270607516961341e-01 1.897454317552526604e+01
-1.374987969917298436e+00 2.492029718199707311e+00 1.573967339617072625e+01
-4.582493589132383249e+00 7.798561764446909628e-01 1.884275564478734921e+01
-4.993060295395725490e+00 7.849959545419482598e-01 1.892007057781219359e+01
-2.925963242264372877e+00 3.284576991652320643e+00 1.770533809642112644e+01
-4.217860071435094227e+00 9.511196968878887770e-01 1.872600807054049810e+01
-7.363009545849948267e+00 2.251949129525765869e+00 1.636557413816342077e+01
-7.299518548363357340e+00 2.475137966425482006e+00 1.648128455534904546e+01
-1.509681298379825787e+00 -6.784306991375483875e-01 1.409031128065943150e+01
-6.939677925112007761e-01 1.615177998497515421e+00 1.634064974433490036e+01
-1.686520392446534844e+00 -3.291799957666888821e-01 1.366749110903283437e+01
-5.229878746214081886e+00 4.299244400106251973e+00 1.526430821711509722e+01
-5.816906797025263032e+00 3.070867936667491360e+00 1.795657353936259071e+01
-7.366578553379270033e+00 1.146485203531026009e+00 1.499954748288181960e+01
-3.293552619230649903e+00 -2.606370745473141071e+00 1.719684360288383473e+01
-3.777148830877205654e+00 4.703539042748110965e+00 1.697704959975586902e+01
-4.408485039544896900e+00 9.996994742884327545e-01 1.873552438436876955e+01
-7.773740369545112827e+00 8.499204737688395017e-01 1.705557807494065159e+01
-1.415076291626702343e+00 -6.494659722408484548e-01 1.884442588357148551e+01
-6.687141168461208096e+00 7.776644042998568374e-01 1.346051769416485300e+01
-2.009381439925919111e+00 -1.458381463893197116e+00 1.906362796614338251e+01
-2.023644708711482831e+00 -1.247424851270036328e+00 1.903364456850983188e+01
-4.627137864445483473e+00 -1.933943225238617947e-01 1.442065280358438528e+01
-2.531762227625924400e+00 1.351100828610184434e-01 1.291527525987686786e+01
-1.990848425130004484e+00 2.249740683988382450e+00 1.803419869945331655e+01
-2.745163268867458761e+00 1.956835667223066344e-01 1.280867431871223872e+01
-2.837376832283410533e+00 -2.663718806805978723e+00 1.930625356058384412e+01
2.978322886258344404e-02 1.900849179653831267e-01 1.686155728997556835e+01
6.709629606091471743e-02 -1.929811584193269480e-02 1.704055922690170277e+01
4.328083125208626036e-02 2.292745217761219811e-01 1.709646472722498700e+01
-4.289532142661304448e+00 -2.933375503529669359e-01 1.454118629720154487e+01
-4.294010855759305301e+00 -1.827378955550625905e-01 1.421962506366075374e+01
-4.528012171860499535e+00 -1.656120456752893100e-01 1.429414740700494590e+01
-2.404738718077794601e+00 2.993394304437673181e+00 1.777764266261338477e+01
-3.546036227335123581e+00 8.307568552620780977e-02 1.309604093025797411e+01
-6.732446811441121781e+00 2.378949647445101512e+00 1.783010006038774620e+01
-2.150503081248274384e+00 2.231535944537603733e+00 1.407620481585062677e+01
-4.823368352466943065e+00 -2.639464481816571784e+00 1.962155992731881682e+01
-3.443572607483791348e+00 -3.047066806768387259e+00 1.943132689515470801e+01
-3.826473722838432234e+00 -2.841175246453048864e+00 1.949567491554421039e+01
-1.813400866624988117e+00 3.445863979618628559e+00 1.601569611705913232e+01
-3.440519077793035674e+00 -2.421034772135516544e+00 1.942811052508917058e+01
-6.031765395314421241e-01 3.563430924240271747e-01 1.830028514807620255e+01
-7.356441147840390826e+00 -9.072379515295465602e-01 1.515848895240133132e+01
-1.873748290953778151e+00 2.472454880914133568e+00 1.479363413935984894e+01
-5.379808951859825328e+00 1.810916490157134628e+00 1.859836091174645745e+01
-8.749032042604165671e-01 1.939689567440595619e+00 1.767863009913022765e+01
-7.535476016106397168e-01 1.865815346562379018e+00 1.759812294464935079e+01
-6.070249047263375886e+00 4.100592087430389832e+00 1.719457437004622236e+01
-2.817382186774517461e+00 -1.066375685862850808e+00 1.913287941904683365e+01
-2.361923188300980136e+00 4.223830979039198685e-01 1.261131338056847895e+01
-6.891590065765406337e+00 3.517508123684800037e+00 1.630567857571424994e+01
-6.915198926874305485e+00 3.309183527002233394e+00 1.609591267516877267e+01
-6.755660512065057688e+00 3.645139227831572182e+00 1.688749564731334019e+01
-1.461882885909330021e+00 -3.893483235339147974e+00 1.796794173461531940e+01
-1.284453357554435016e+00 -3.915549113468720144e+00 1.797962480118571094e+01
-7.023841415934775512e+00 1.672179830506590470e+00 1.808162219652190217e+01
-7.155492508011930042e+00 1.554715516941258091e+00 1.803330294846425730e+01
-6.803954913208874800e+00 3.046399886315953598e+00 1.729831193065531991e+01
-7.776002795196855777e-01 2.224613915080468907e+00 1.737283061707372056e+01
-9.052853484501258707e-01 1.072434514663242133e+00 1.532250535665230373e+01
-3.078701401832435458e+00 -2.815269200866294508e+00 1.727567191507230504e+01
-4.431871272631438430e+00 5.374445249412680425e+00 1.654304676576017030e+01
-3.210608004704646135e+00 4.833787551048678743e+00 1.684390930956929466e+01
-2.806659469295802900e+00 3.401656594021535085e+00 1.764137606844089490e+01
-5.003872842616862826e+00 1.434285640778463211e+00 1.868961248198729308e+01
-2.351532470255984109e+00 2.085418999027019105e+00 1.359079732826134190e+01
-4.892039469090212478e+00 1.315565906343758584e+00 1.871266376825493083e+01
-1.522134019285210638e-01 1.795461084200711821e-01 1.635229295846714237e+01
-3.499942065914290357e+00 -3.227797753659952473e+00 1.757799746755414461e+01
-2.155104188338031967e+00 -3.498929206967949845e+00 1.751606861091397249e+01
-2.097477986587388710e+00 -3.703948176782100532e+00 1.772342446719465059e+01
-3.628617655723529456e+00 -1.485467549248095764e+00 1.656666472399274070e+01
-3.452017573937184558e+00 -1.513111136258558309e+00 1.655253003904928377e+01
-1.941367958242985026e+00 -4.336007015923811769e-01 1.374656593257340020e+01
-1.840387265106551817e+00 6.025067240913005717e-01 1.306916106955583601e+01
-1.935840386590175877e+00 5.470677763564046892e-01 1.291639942926364526e+01
-5.205633861434016296e+00 2.191185250823294517e+00 1.842567448526562757e+01
-5.429121559957181375e+00 1.628389131196752437e+00 1.867849168584737996e+01
-1.221788683652501373e+00 2.571849422371976335e+00 1.758344936862929941e+01
-3.655876943204587004e+00 -1.705365454304153428e+00 1.674213804174798170e+01
-4.297091859327498042e+00 -6.602449482369792122e-01 1.555696668249251857e+01
-4.091612351230511813e+00 -4.898713705013014730e-01 1.495824499088081083e+01
-6.922752154566602201e+00 1.966438681005212574e+00 1.484315773901236568e+01
-3.300122051585679728e+00 -8.858081131516180040e-01 1.548084929912326047e+01
-5.649341572235130116e+00 -2.850910528244767761e+00 1.781900404268207083e+01
-1.855232311371159737e+00 -3.431363155162757916e+00 1.904427387744578581e+01
-6.175495366625138871e+00 3.821544405472350192e+00 1.536971503371242065e+01
-1.235640181121224312e+00 -3.239393017888513526e+00 1.895073508021883768e+01
-1.489069768367032642e+00 3.396325425191554226e-01 1.348495712175760630e+01
-3.644574142638595804e-01 1.438589093059855495e+00 1.692340819611660052e+01
-4.562216617903081861e+00 7.113846988683063532e-01 1.215457541632204297e+01
-4.994151125135414260e-01 1.780628378119319954e+00 1.696862361918718065e+01
-2.209480868491967342e+00 7.616070834521035948e-01 1.857878698594914724e+01
-6.819519458588723992e+00 3.329345246328029084e+00 1.590469279217034781e+01
-2.233957856307387857e+00 -3.675747218228619495e+00 1.907913146756681400e+01
-1.056229953018908096e+00 1.522171412948946978e+00 1.806351927888399800e+01
-1.796457319331000058e+00 -2.726410110490623540e-01 1.880881955298746178e+01
-1.987268100243119617e+00 2.402871760967147274e+00 1.796941280516912443e+01
-1.999558539320907879e+00 1.965399279636284691e+00 1.815284622723568120e+01
-3.895149250579590383e-01 6.298368279595036867e-01 1.607480809105022601e+01
-1.771762418441880316e+00 1.628646730330110648e+00 1.825514813292567950e+01
-1.791253446568840779e+00 1.992075068461476750e+00 1.810999383429356513e+01
-5.176667771478609126e+00 1.424932858980660910e+00 1.180397578017893423e+01
-5.013510065446888930e+00 4.637599595301710842e+00 1.709387888858843851e+01
-2.951573602906367166e-01 -7.845307388949096516e-02 1.822914168190310491e+01
-8.911779840855376111e-01 -3.924544712948450531e+00 1.790192792447114201e+01
-5.123382765635140501e+00 1.983831514137741614e+00 1.244251217928700370e+01
-5.410170815925548382e+00 -2.019842153128688977e+00 1.969856802286867392e+01
-5.198180817438576184e+00 -2.040598878203300437e+00 1.966056641255459070e+01
-6.247400151721024031e+00 1.520506347902832456e+00 1.331073696749952617e+01
-3.495735386771369413e+00 -9.370376020472639400e-01 1.572336207699469313e+01
-3.484555299518820703e+00 -8.694935702071397987e-01 1.554591361705875485e+01
-7.672200300854269628e+00 1.284015479849153873e+00 1.706488990080895363e+01
-7.695068506956454613e+00 1.056143020035777980e+00 1.726098619621273755e+01
-2.224261791625118612e+00 -9.047893416447903014e-01 1.899777341322843327e+01
-2.414376437985355839e+00 -1.073750371482635302e+00 1.906209402532656227e+01
-2.233405308451645865e+00 -1.247997596190435488e+00 1.906300272056072131e+01
-2.718034464803428918e+00 -3.323375471559950167e+00 1.750824537293401661e+01
-2.877393621555126124e+00 -3.423256377754858804e+00 1.760571818645381725e+01
-3.842208596841531598e+00 -6.597316354440525554e-01 1.919464629528546951e+01
-3.606991006439888015e+00 -6.379047712082264177e-01 1.915907944779086947e+01
-3.393197919314862698e+00 -8.317728978047862487e-01 1.917818085483996171e+01
-6.439138426983085139e+00 7.313598297598100650e-01 1.309971356769538531e+01
-6.504029505089874874e+00 3.901091584829915249e+00 1.700549980159304297e+01
-5.774552418783914121e+00 -3.928245395159668529e-01 1.424302900046201259e+01
-6.722745570891339284e+00 2.341597623403525841e+00 1.483932828136404325e+01
-3.424119249739530968e+00 -1.044346719981153582e+00 1.923906797834582605e+01
-7.748923550144301231e+00 6.438952579453123271e-01 1.638271105650777670e+01
-7.727399332232050000e+00 2.772601148920699199e-01 1.621651121118665984e+01
-2.507040053250919054e-01 -7.391456006591050620e-01 1.548069813686469232e+01
-3.673948474747844584e-01 -5.844074707930171364e-01 1.527999656940952988e+01
-7.375094106322306331e+00 9.571486393844039764e-01 1.481429427331091020e+01
1.118900341667455889e-01 -1.848128463674367783e+00 1.700669660824633311e+01
1.563032191868899412e-01 -1.836575718191864492e+00 1.762056837681891253e+01
1.495347129205512049e-01 -2.043314732313493476e+00 1.760988035548178132e+01
1.311219864480140940e-01 -2.039860118183650872e+00 1.720635329864508734e+01
1.051801204421241032e-01 -1.028057377444625997e+00 1.741776142900156188e+01
8.822075510715077229e-02 -7.822457705468430778e-01 1.723644696961512679e+01
5.191053215920771180e-02 -8.230876438706453690e-01 1.680646787682339394e+01
-5.843201307172696257e-02 1.989882717964802650e-02 1.646976100096182094e+01
-3.184255318674250046e-01 1.143362321624344702e+00 1.673523182777151064e+01
-4.530067109714566165e-01 1.220410386189496155e+00 1.648962156340293816e+01
-8.797853877655503751e-01 4.858900967091256407e-02 1.451009383163217947e+01
-8.771030220761422136e-01 -2.207041690701188497e+00 1.578178328733794800e+01
-7.709377307440943738e+00 1.220495320749989121e-01 1.600555978214827846e+01
-7.685062971869472292e+00 5.040553448505459277e-01 1.604952870112962771e+01
-2.351789573442271131e+00 2.285992045332359446e+00 1.382393854909972575e+01
-7.653416771570116239e+00 4.845036880270833235e-01 1.583761939308603317e+01
-1.200429561590509397e+00 8.362220025988369443e-01 1.840125092233231996e+01
-7.470072843997972001e+00 5.234625597130816432e-01 1.482956312301150703e+01
-7.509647915543180119e+00 1.680269477363110386e+00 1.624109887173815636e+01
-7.189092750025492862e+00 2.689783769736513008e+00 1.631107658977780162e+01
-7.218653656141988506e+00 2.477025761248146107e+00 1.606495188923859629e+01
-1.150434016056099740e+00 3.058056425132575917e-01 1.410399316102970246e+01
-8.737945475299802034e-01 2.548266480485549268e-01 1.468239661027381615e+01
-6.875388441521484983e-01 1.979811922862116713e+00 1.676301373599856603e+01
-4.900318240206471554e-01 1.602490172723355366e+00 1.677889221123207264e+01
-7.258474998851648152e+00 9.160913679219664374e-01 1.446210659933695908e+01
-4.371932108929762251e+00 2.662958481140642597e+00 1.810768702668611141e+01
-7.060949926319677772e+00 9.015084019081458511e-01 1.409581717229309206e+01
-7.050885273994733637e+00 1.125099352487459736e+00 1.430518619692316307e+01
-6.299391855525477979e+00 9.729825311890309969e-01 1.300723639040651491e+01
-6.390851359399336573e+00 9.740558659453795176e-01 1.316271687997704376e+01
-7.142565426638768145e+00 2.147976142928635923e+00 1.543426296725182922e+01
-7.003714947570488292e+00 2.300149566652911926e+00 1.529326450261785553e+01
-1.341479214678356291e+00 1.656824850781627889e+00 1.498003590073624380e+01
-6.436665743181931632e+00 1.099903606353441976e+00 1.330674839443554802e+01
-6.926949951693361029e+00 3.083092040290695390e+00 1.588882576262731661e+01
-2.068002696019130671e+00 3.645931755903611293e+00 1.586013884917990779e+01
-2.242177989088627754e+00 3.828706344503265413e+00 1.582729505687521865e+01
-2.238881711657222162e+00 3.668986621528345982e+00 1.562704922500475035e+01
-6.038931172748503329e+00 4.103361003769562032e+00 1.550326377475042605e+01
-5.899555455680003391e+00 2.148902670995526343e+00 1.328101183099740368e+01
-2.452301849542698697e+00 3.892151459772445588e+00 1.560986097369436365e+01
-2.687423789963417686e+00 4.385773724004456753e+00 1.606811115264686052e+01
-2.513040553208706118e+00 2.682207462410135079e+00 1.404133670764775488e+01
-3.122553756373536160e+00 -3.861381540050302652e-01 1.901388827915193858e+01
-4.546563869860957396e+00 1.558487731349137650e+00 1.161845605537122950e+01
-4.526082303964478193e+00 1.672078433124216446e+00 1.173973997172484118e+01
-2.455239682736336082e+00 2.540230489799822688e+00 1.396204662131180285e+01
-4.711392400833645411e+00 1.724333779753634888e+00 1.188136845722285884e+01
-5.528610588423713779e+00 2.605564630794083847e+00 1.343701972912528575e+01
-5.157075987585246324e+00 2.446501717380860086e+00 1.298627993670558212e+01
-5.676342098509406853e+00 4.437632835579906398e+00 1.551824344640072084e+01
-5.627187493582443523e+00 4.842001583191974490e+00 1.597301608204402967e+01
-5.648313104150773256e+00 4.559888471034844848e+00 1.565336678005645510e+01
-5.462636071085718470e+00 4.837861265197025418e+00 1.592847688019560692e+01
-5.231301038243605817e+00 4.477663749923188163e+00 1.546966929172836913e+01
-4.012136584124411876e+00 5.005834449768080674e+00 1.618221229322217525e+01
-4.024196036790542053e+00 4.885536767284870407e+00 1.607740608387802084e+01
-3.973354664305228212e+00 4.686292152323024318e+00 1.587461837906732498e+01
-2.768096457265432964e+00 2.273258459060331305e+00 1.319000497048519449e+01
-4.026604624866092053e+00 4.583170926981081195e+00 1.573900750995664666e+01
-3.891681283300068017e+00 4.386458839394281384e+00 1.553205909444713839e+01
-3.845818804546568437e+00 4.303779890340339698e+00 1.543344224386517638e+01
-4.541118494310637743e+00 2.209925837110543689e+00 1.240127619436440298e+01
-3.527620807032064931e+00 4.206297242422040839e+00 1.532622666062098560e+01
-4.154166975531797590e+00 2.253267981558801925e+00 1.235763869837577644e+01
-3.451792061571547610e+00 4.154683220568420765e+00 1.526678453809958214e+01
-2.889355982227060693e+00 1.915754143290403944e+00 1.262513727059920754e+01
-2.606767078334168986e+00 2.582255689939719989e+00 1.378001720940479302e+01
-2.574814498128876306e+00 2.810309672365116196e+00 1.409886825109279940e+01
-2.861977581517795688e+00 4.415856801817197308e+00 1.592048174616383349e+01
-3.336196936478000641e+00 2.157990180896748988e+00 1.260056776223274611e+01
-3.748291762506173352e+00 2.020948839482492154e+00 1.217447110147269385e+01
-3.136369166596828961e+00 1.820549072177451100e+00 1.231062245102727459e+01
-3.546961123901981150e+00 1.929479550561024270e+00 1.216854372402945828e+01
-5.829383502216447965e+00 2.657197593432399252e+00 1.816183570533263136e+01
-3.491544825763467141e+00 2.061741660879158111e+00 1.235944592813777732e+01
-3.627205041306027944e+00 1.322828696600126808e+00 1.125707533235260982e+01
-7.784185148868726145e+00 -9.174964498228714849e-01 1.646081082292309006e+01
-6.289543664113351085e+00 3.324816673830509384e+00 1.756515667059985120e+01
-5.863994534085259502e+00 -1.449524786803820797e-01 1.369662654116416789e+01
-7.353652205076215864e+00 -2.514338755943310133e+00 1.828083104716873564e+01
-2.553460527995310869e+00 6.478610808548648237e-01 1.863683602836087871e+01
-2.901691024628369586e+00 7.103211388045933550e-01 1.865305897625394138e+01
-2.294389058296768535e+00 -3.464829213779658801e+00 1.752669017304013366e+01
-5.912141151713765197e+00 7.856539823326924576e-02 1.332030543153575408e+01
-5.645031234364980222e+00 -4.871400560832395144e-01 1.948427297204775144e+01
-5.781310303531865813e+00 1.899424267344610673e+00 1.854868382890292722e+01
-2.773921378399865301e+00 -1.797943469219795976e-01 1.340977618696163987e+01
-1.600863727583268670e+00 2.438864314998286709e+00 1.786338638974523363e+01
-1.379139946137847739e+00 2.156104169280801841e+00 1.791422682623469242e+01
-2.974453774647795590e-01 1.347888090517717075e+00 1.712296701975408908e+01
-1.869245177929289570e+00 2.931567713012915188e+00 1.771447792332121551e+01
-3.225157460800565090e+00 7.611895993649735459e-01 1.867883343062283430e+01
-1.470245697392988493e+00 1.690173981815599413e+00 1.475119760714845896e+01
-3.003439536815594391e+00 7.107265281074806040e-01 1.866678890517879452e+01
-4.018619954154289964e+00 5.226712975543644113e+00 1.664644797356431738e+01
-4.425854662286556440e+00 5.224116244065744041e+00 1.633455137735321117e+01
-3.283011269030585488e+00 -1.734141105940789629e-01 1.356651119509078640e+01
-2.308509253956605001e+00 3.603743895054779323e+00 1.544446167439180684e+01
-3.038451829826289696e+00 -4.007580962186299001e-01 1.401142403438226935e+01
-2.990760047109018771e+00 -3.620175038389925604e-01 1.389484817171053876e+01
-1.955521595264763102e+00 -2.459125563017309446e+00 1.673936656776065135e+01
-4.543787318187174407e+00 3.885850037703713511e+00 1.756659617685587094e+01
-4.147464587288299143e+00 3.902080408891590579e-01 1.272745557619425583e+01
-4.355577983117725260e+00 5.064579567628908485e-01 1.255654384725900385e+01
-4.679942429463084252e+00 -4.426922454705671806e-01 1.925424213381230132e+01
-6.888397602789133600e+00 2.260069488040264307e+00 1.776446001097704297e+01
-1.999771992823535793e+00 -3.606543062553213552e-02 1.877198732877773679e+01
-2.621845496657234875e+00 2.090926997189695991e-02 1.882001493872308018e+01
-9.210378971093670097e-01 -3.697880268811409188e+00 1.748064430404038561e+01
-7.783771751592668764e+00 -5.308289463677149378e-01 1.643419696861191071e+01
-3.489138631459308471e+00 3.192987219083066597e-01 1.885339055403422392e+01
-2.581790444997753120e+00 1.516875049628800376e+00 1.262328757881233443e+01
-3.393448549875494713e+00 -3.211678364336368885e-01 1.903755966189298121e+01
-7.297930592272635408e+00 8.876334701146217920e-01 1.831463601176975331e+01
-4.485333291084698359e+00 2.702324082936011340e+00 1.308791160513694152e+01
-3.901783483235446770e+00 -3.172124280311929834e-01 1.434519744409454134e+01
-2.077755034013904378e+00 -3.137104199475657218e+00 1.911451686656025473e+01
-3.031543072372413050e+00 4.203301712585336247e+00 1.552113148737781145e+01
-4.044590946260898434e+00 -1.520504292609564656e+00 1.940834651314311188e+01
-1.550397149752909876e+00 4.370077667065914717e-01 1.860335893256210582e+01
-7.594077905809008655e+00 4.889726506960374031e-01 1.544710440546233698e+01
-2.936281118946680202e+00 -5.215951811183591191e-01 1.426476098336954479e+01
-2.481618012015199604e+00 -2.813427775540759068e+00 1.718032513562667063e+01
-2.089750007241116592e+00 -3.753124112685291891e+00 1.780318192213789885e+01
-6.700206315807813340e+00 1.101228013017813145e+00 1.872865743674485017e+01
-3.121152316403317251e+00 -3.462955251721417493e+00 1.932833263799626522e+01
-4.813047348719482699e+00 -3.250648634697116179e+00 1.955519565030834528e+01
-5.043726674664414489e+00 -3.167926895069975490e+00 1.958507529047829721e+01
-3.502769714709997650e+00 -4.835690916347953339e-01 1.452974912953651554e+01
-1.089692668922207286e+00 2.937257471895919014e+00 1.712335251863861529e+01
-3.536954100314924077e+00 -6.051775872923663702e-01 1.488141986972886244e+01
-1.994089629136468922e+00 -2.473441780231783182e-01 1.882311073591688810e+01
-6.536696452742480901e+00 1.557977153840740314e+00 1.384397285739157368e+01
-3.755929847794407639e+00 1.790107346961045121e+00 1.837449892136986662e+01
-4.185644538418211269e+00 1.939601869094302877e+00 1.836366022608398296e+01
-4.493964763864855883e+00 -4.079537027000134097e-01 1.498875523457764913e+01
-4.293406180526119442e+00 -4.990357725326597382e-01 1.512809742163319626e+01
-5.393948502587603500e+00 4.357796099186591832e+00 1.725066863738949152e+01
-5.425476703815482082e+00 3.916808515694081727e+00 1.755644826640083878e+01
-5.236607698394001531e+00 4.481597003853918793e+00 1.718724827827348278e+01
-9.797758635498219348e-01 4.188364565187578936e-01 1.457703434004301002e+01
-1.658639296998577706e+00 3.149288219321957349e+00 1.752021470318841878e+01
-1.717534857222229094e+00 3.274636538678796782e+00 1.747417029895610696e+01
-5.573593903509593162e+00 1.833226393367110241e+00 1.260784152298366578e+01
-5.372536821681922703e+00 -3.931630720847090199e-01 1.462355802978742858e+01
-5.530303776359721368e+00 -3.874844405445918571e-01 1.445633045152141349e+01
-5.586011222986323688e+00 -3.139989181945872065e+00 1.959510792591033734e+01
-4.815799676685788011e-01 -1.491294684176271979e-01 1.526742677616237742e+01
-4.705004382658710682e+00 2.786731254430482085e+00 1.325494322758472165e+01
-3.650289470534515690e+00 -1.852139296795809464e-01 1.381152840127847625e+01
-3.887575058225479996e+00 -1.985654689244146232e-01 1.400219268084651603e+01
-7.216340042540178246e+00 1.772121693068455794e-01 1.410114141517641073e+01
-3.060368080245075895e+00 1.288412706136953689e+00 1.849273591295018448e+01
-7.810592476995317224e-01 -1.305254850004143208e+00 1.491453034918469811e+01
-2.376897574717503403e+00 2.393226788370708569e+00 1.802071990443771554e+01
-3.935794598968407332e+00 2.315379480071170892e+00 1.247394165330513616e+01
-7.427806167739927190e+00 -6.662476882454568816e-01 1.505941743330556548e+01
-7.598333576582570359e+00 -7.869603878190551960e-01 1.542252465528462935e+01
-3.731100909354904127e-01 -1.328094365455649184e+00 1.531488207997339757e+01
-3.146603465450219961e+00 1.733034298423697939e+00 1.218678156704318027e+01
-4.303897889107516916e-01 -1.562160696084706313e+00 1.535111039097951036e+01
-3.863367774616607853e-01 -1.731876610275561834e+00 1.548273826435235279e+01
-4.520810436982602099e+00 4.009970015007502386e-02 1.368676623812931936e+01
-2.207015140790933749e+00 -1.253654156881736537e+00 1.551140570423059373e+01
-6.272868642135714268e+00 -9.480747448742190553e-01 1.491108071859509820e+01
1.337798563549701392e-01 -2.268263086303378806e+00 1.719111974370241214e+01
-3.604024892835738125e+00 4.844902025026794234e+00 1.687495798275512371e+01
-3.050013026217106127e+00 4.543620868098988019e+00 1.699927859259790708e+01
-1.360589842139295680e+00 -2.157146808538645821e-01 1.374207602201268585e+01
-1.479690779338128870e+00 -3.801969890246592598e-01 1.380901634805590206e+01
-5.541627455662773372e+00 2.321276805089965034e+00 1.836892349153039916e+01
-4.942676061820947098e+00 -9.892407537381713301e-01 1.943687284328931142e+01
-3.497073496836529127e+00 4.102368587457455362e+00 1.732615840150520015e+01
-3.220673779297014150e+00 4.531529339144211299e+00 1.703183747715091911e+01
-6.247449779363815736e+00 3.058431614580119362e+00 1.775871888891471784e+01
-6.511064057355815393e+00 2.347463991150733342e+00 1.803094685323881308e+01
-3.677685543671761259e+00 -6.606638977488479281e-01 1.512440516569064286e+01
-5.862228430627704157e+00 -3.454035565433586363e-01 1.408447804904484357e+01
-3.353721348088235299e+00 1.814194369779087879e+00 1.832892520094035049e+01
-4.510865176458568548e+00 -3.933989175034223962e+00 1.894625583880108266e+01
8.548755886807046789e-02 -2.208704269973963408e-01 1.702253533998228008e+01
5.535618548483367540e-02 -2.205945516283686070e-02 1.730972601921832776e+01
-4.122160264656404394e+00 2.420457923447103532e+00 1.259231434310565234e+01
-1.311772739427889745e+00 2.518789025214297705e+00 1.768630283839107520e+01
6.927885925036347814e-02 -3.049667478071566018e-01 1.736647675341825803e+01
-2.697641526509988452e+00 -8.305172379287051321e-01 1.490315104049774320e+01
-3.113316125526101708e+00 -8.246460477014647683e-01 1.519845645693287750e+01
-3.449928135585493827e+00 2.303947187401961472e+00 1.814198860686146375e+01
-6.542907952490952805e-01 -3.362491489741763928e+00 1.700069565376557179e+01
-4.793341003017735247e+00 2.585451157618393836e+00 1.820807530219222414e+01
