-1.731622819748071418e+00 6.544024283537563935e-02 1.433754288019655121e+01
-9.927717256701580339e+00 -3.348173407296936022e-01 1.659111729994688034e+01
-8.364165883174111471e+00 1.619150034528610504e+00 1.865992599912550531e+01
-8.845065815879776139e+00 2.714729784582518679e+00 1.511123074644201836e+01
-1.002606266556836623e+01 -2.375089963038796714e+00 1.650653052640356577e+01
-3.948936561771740905e+00 4.264869147999981180e+00 1.655475843404046543e+01
-2.402207882820572848e+00 1.448016146348981792e+00 1.858599028352131199e+01
-5.989572832906106647e+00 1.743138010620900236e+00 1.908551535408018651e+01
-2.743364472847457769e+00 1.423255999522627491e+00 1.869075657829479553e+01
-5.776759738912581099e+00 2.016044573562895348e+00 1.905889063161535546e+01
-2.561334651599286527e+00 1.253417928248793167e+00 1.864374322690242991e+01
-6.806125824438122862e+00 3.213989336537399932e+00 1.876889020757137416e+01
-6.001971279878357990e+00 4.256943525562394193e+00 1.846251803157623783e+01
-3.881921345142052893e+00 -1.844362923752513428e+00 1.487725721920979538e+01
-9.662329106757892916e+00 -1.187392924872745503e+00 1.768493596025226822e+01
-6.377315372930428161e+00 4.432041099228327674e+00 1.829837834107388517e+01
-2.749325715075785492e+00 -5.706543049506801468e-01 1.349264443273681735e+01
-2.732008763656299077e+00 -1.729031672731406122e+00 1.830897074151634740e+01
-6.042066500326980005e+00 -3.082274517615679610e+00 1.631682194066107172e+01
-5.906204923190805367e+00 4.217525196263217424e+00 1.563822207615439908e+01
-3.551119281232463454e+00 3.627133627308650965e+00 1.853180976861391827e+01
-2.210928743369477534e+00 -3.002197979384767734e+00 1.512154628755217800e+01
-4.213828461801508496e+00 2.881974041732854319e-01 1.293635000113589939e+01
-2.730824428956849292e+00 2.464890627846273219e+00 1.857732697226853702e+01
-9.111054161331050949e+00 2.495801468445532301e+00 1.567879209277948860e+01
-8.556375422350543047e+00 -2.125409385883008540e+00 1.547068059012244845e+01
-9.064315002409667699e+00 2.538441311843275372e+00 1.530726665409672194e+01
-3.727086074614032629e+00 -1.923875015833014679e+00 1.847915934297564888e+01
-5.278195975989572020e+00 -3.290754643574441030e+00 1.619146907932128698e+01
-3.457827754792343722e+00 -1.278833757777476432e+00 1.399940249600757625e+01
-5.057187459172018507e+00 -3.257756489175973602e+00 1.612556993190963794e+01
-5.558912700045773647e+00 2.141260284588026863e+00 1.119697158718397390e+01
-1.000824127335258140e+01 -1.321299249011099519e+00 1.598300028704480269e+01
-1.319374209149747346e+00 -1.373022928267551901e+00 1.555649846026987859e+01
-7.007350894855660428e+00 -1.476562320332740708e+00 1.592042541805355427e+01
-6.686815569088745193e+00 3.835550132752933994e+00 1.500646891141375505e+01
-7.737037109063120255e+00 4.167593271192767013e+00 1.619914903242953130e+01
-3.182848413137415733e+00 3.275492288957636777e+00 1.851869312049267080e+01
-4.790515365572765916e+00 2.983526962066206156e+00 1.891249491611920774e+01
-4.929004686507698629e+00 -2.388201662108240697e+00 1.864966116423337894e+01
-6.104097876008300894e+00 -3.543823207453747681e+00 1.831269768042881907e+01
-6.679207599987629251e+00 -3.127588996491778239e+00 1.646760629055471270e+01
-4.083778586110311082e+00 3.822792225212714001e+00 1.530771736191579890e+01
-1.610878331067745473e+00 2.269239393406072836e+00 1.775527991015035667e+01
-6.168318859419307465e+00 4.255400875410233930e+00 1.844349286561477186e+01
-1.007083129527987175e+01 -1.941885180709736591e+00 1.625297554442137482e+01
-6.937143435568780880e+00 7.431018915229365973e-01 1.298647967262922265e+01
-9.453242970196205519e+00 1.464221124151707354e+00 1.724971120232326172e+01
-1.003927005901996949e+01 -2.103674984513374202e+00 1.652442689655949692e+01
-4.994727503642260480e+00 1.234931682382188312e+00 1.910816144849898990e+01
-3.825221884331301503e+00 -1.014678963449762161e+00 1.382878129102974896e+01
-5.582634238702070206e+00 6.591635934688563347e-01 1.294344776766526195e+01
-6.046442115804581796e+00 -7.981146983138772688e-01 1.528415017228495287e+01
-6.236397064104880705e+00 3.125872994159359486e+00 1.337864382761416238e+01
-5.142461226748560321e+00 -7.307209187814872609e-01 1.478028804365482785e+01
-6.192028504757624674e+00 -6.914115704656650374e-01 1.520280623746639037e+01
-8.431214219064317561e+00 -2.065434175515553417e+00 1.551942807169498906e+01
-6.260146269446975609e+00 -6.073715832633036493e-01 1.511081671003416460e+01
-8.391224585989817797e+00 3.452319853139402372e+00 1.733829988058926119e+01
-8.917568923294268757e+00 -3.677593787328138353e-01 1.817504653339392462e+01
-5.662399920722667623e+00 -3.483779759344258320e+00 1.637048260725562443e+01
-8.281274048382172737e+00 1.650555526330788947e+00 1.345350840010772941e+01
-1.959515653028077509e+00 -1.107912435190752110e+00 1.829964261669557857e+01
-4.839508902769832588e+00 -3.832579979029727024e+00 1.638179510164945185e+01
-5.078036895963021990e+00 -3.893061398442258625e+00 1.658849515787593987e+01
-4.866021620446366214e+00 -1.816999064945819864e+00 1.563868840086897904e+01
-5.268853007637301467e+00 -3.083565157053806072e+00 1.613375720199326224e+01
-5.732215885665357114e+00 -2.515587373064583687e+00 1.611707020395317613e+01
-7.079811905914564996e+00 -3.658835430186889059e+00 1.731342155332789901e+01
-8.574347679497449803e+00 -1.367119848422866379e+00 1.841929133159548115e+01
-1.657887137459467031e+00 -3.474628051421159380e+00 1.609444091861175252e+01
-9.994066872977956706e+00 -7.178144157978446627e-01 1.618778205447994623e+01
-5.218885984892859931e+00 2.767732111188844768e-01 1.334747714871872404e+01
-9.572329119802271080e+00 1.251250194537663951e+00 1.604647034612756329e+01
-2.412153405726180644e+00 1.028586185874725834e+00 1.859877811088109212e+01
-3.168529311894015432e+00 1.630750178391378924e+00 1.878828842913575414e+01
-6.486398066462692569e+00 -3.709789232625643418e+00 1.793713153199400523e+01
-2.231884381619694047e+00 -9.405125531695940344e-01 1.403104230429162413e+01
-8.347627748392719482e+00 2.873695305799090605e+00 1.818046815812979133e+01
-3.128280829494994197e+00 2.141054234959161029e+00 1.381528221880915908e+01
-1.835779092609272301e+00 -3.719107379393921331e+00 1.748504933577062559e+01
-5.728925809025247062e+00 2.087274057088988055e+00 1.124208948106112160e+01
-2.206922447441025614e+00 3.035945948931386251e+00 1.817235043208921041e+01
-1.157617144873067661e+00 -2.213639899934056743e-01 1.604027174369212361e+01
-1.976199194300418682e+00 -3.862629413800157341e+00 1.759852047553075494e+01
-7.898789026804466928e+00 -3.304647582538200457e+00 1.825880839160277702e+01
-1.004924917183763711e+01 -1.701287716475962331e+00 1.651116121725294050e+01
-9.741916705657429176e+00 6.672617579145070366e-01 1.680110776685896212e+01
-2.852700081144490252e+00 3.003741783766890716e+00 1.611176864805239717e+01
-3.969923818375023394e+00 5.457813740556504145e-01 1.262656337179640786e+01
-3.161424123111206352e+00 -2.903955847073050212e+00 1.818820825832454346e+01
-5.754188068253477617e+00 -1.796691472176803472e-01 1.904568947335841500e+01
-9.358054167304473481e+00 6.211238383338681945e-01 1.784760945925270903e+01
-6.702067640927594105e+00 -1.216036470548350401e+00 1.569878220295312587e+01
-6.376190323567761276e+00 9.318401549352958169e-01 1.250167033062980693e+01
-9.892587440899442086e+00 -1.156569902349356305e+00 1.715297661526766149e+01
-8.775214506561930250e+00 2.906561282079526798e+00 1.712305617740813801e+01
-8.676633690544209188e+00 2.989150451268654418e+00 1.735751958572493692e+01
-2.451603156529503114e+00 2.603032358588501793e+00 1.629631519062908040e+01
-2.528894485443009987e+00 -2.533691337469778038e+00 1.816655006554363183e+01
-7.089792152672806047e+00 -1.885727771093667737e+00 1.612940307520364769e+01
-7.583980431597862726e+00 4.514574402798075425e+00 1.724668273276571284e+01
-7.258912028657046100e+00 -3.565964400243725185e-01 1.424647119597364764e+01
-5.776115420462310190e+00 9.576886957766133079e-01 1.242607525091606391e+01
-7.624606883944186286e+00 3.846226410769027382e+00 1.807204611004775074e+01
-7.566283738163824601e+00 -4.387015260854988385e-01 1.890440582337983955e+01
-7.029954409444771457e+00 1.412036077179788407e+00 1.225219956947271527e+01
-4.191140960967209672e+00 -9.007185250486527961e-01 1.399491603918693983e+01
-3.931912301301032642e+00 2.718944665416862083e+00 1.326438206910266615e+01
-8.895583276481685786e+00 -3.420065356553668945e+00 1.726350323826638089e+01
-5.279729769935342709e+00 -3.544460642579884802e+00 1.629190192699965678e+01
-1.681836329820830978e+00 -1.904942016947330785e-01 1.447136369220527996e+01
-4.378954586495411583e+00 4.637756911558420292e+00 1.834759979971737209e+01
-9.093804770907865986e+00 1.965662594870033697e+00 1.469013020702221439e+01
-4.178593528297973592e+00 4.929981119433514358e+00 1.792163577410162389e+01
-4.250381567364814650e+00 -1.215347974295856837e+00 1.448215426031057262e+01
-1.315225581978342717e+00 -2.375998299423857318e+00 1.596200655387831802e+01
-6.985084691638410170e+00 3.813138318416375849e-01 1.907493773840364071e+01
-9.708346465519525736e+00 -1.299463096783460614e+00 1.526733290452518332e+01
-3.263567497268764495e+00 -2.969990789382906282e+00 1.512704493929742711e+01
-9.464372277531776234e+00 1.214582087891471485e+00 1.740318792982727558e+01
-4.441429948418196716e+00 2.328300823723798540e+00 1.895923722236758380e+01
-5.018640902911849722e+00 1.977409752304760904e+00 1.906026839526597172e+01
-4.944558718346788950e+00 -1.671262766814741063e+00 1.559077289578936387e+01
-7.660565158115620221e+00 -2.911837597532679567e+00 1.649017698102473872e+01
-5.831543529073454302e+00 -2.063337650725043382e+00 1.603148895743564850e+01
-2.325356883508350236e+00 -3.487426729102890421e-01 1.846731725426322157e+01
-6.320267610890127230e+00 4.739926733428411865e+00 1.667299848563688158e+01
-9.085114900705853813e+00 9.379856530786471192e-01 1.441295911773921290e+01
-1.479846729148936113e+00 -5.279095874577753866e-01 1.806275089139732160e+01
-4.181495688418857881e+00 -3.094184806303170276e+00 1.833757466053680218e+01
-7.743342636121532507e+00 -1.608262352332769485e+00 1.883012763293721292e+01
-2.695248083828240215e+00 -3.148991790206737473e+00 1.806997967712467812e+01
-7.416509377281076176e+00 1.203295018780601744e+00 1.900452023591110162e+01
-3.682688106741960787e+00 2.791955962393828372e+00 1.390039192770387899e+01
-7.899912764317203795e+00 4.275816486058046983e+00 1.659984411347850397e+01
-5.425959315816131223e+00 3.247754931822611990e+00 1.346090688019707926e+01
-7.120243444074454864e+00 2.378128646238145905e+00 1.284621410616679071e+01
-9.094186190804306236e+00 2.488793891189694296e+00 1.652932591157062348e+01
-1.895083251276273639e+00 -4.925838604729134707e-01 1.428872432797950154e+01
-6.960029963700185007e+00 4.441455505319211738e+00 1.804616184491185038e+01
-2.690886075919617593e+00 -4.102052405328636908e+00 1.776734527376714112e+01
-3.882835318619844323e+00 3.215255489183481696e+00 1.430507169468172179e+01
-7.801353257231192551e+00 8.083031003276107684e-01 1.893487105709482421e+01
-5.034142761203836081e+00 7.703656549354676031e-03 1.357928200197520141e+01
-6.583072624003175832e+00 -4.700705409218189912e-01 1.478450547489035927e+01
-7.278125763788755087e+00 -3.603681114168967081e+00 1.693648559923553876e+01
-8.298217538565436868e+00 8.956061865721708370e-01 1.338724928193636288e+01
-8.996023143325796667e+00 2.707537662468213924e+00 1.535870736262967995e+01
-8.997062912500741305e+00 -2.143883778853201694e-01 1.422693020147847420e+01
-3.820912084126284469e+00 -2.931949448909127121e+00 1.553523710855952800e+01
-9.483196423120149987e+00 1.544338260502843063e+00 1.586233994381486667e+01
-3.731760200468270394e+00 -2.528069957276247948e+00 1.837764911971951420e+01
-6.563450848671437576e+00 1.909925819455388751e+00 1.173990899406927468e+01
-2.401820272911680210e+00 -7.149806038316800505e-01 1.380104384439546550e+01
-2.569753538928284176e+00 -7.577308521253037776e-01 1.370633057224763007e+01
-3.596698533054247360e+00 4.625189676485640611e+00 1.796549674847881306e+01
-9.736361335381717552e+00 -3.222922770855487951e+00 1.662126505431476886e+01
-6.480621301825956415e+00 3.878688531179226295e-01 1.322579996489567833e+01
-4.982634096529909407e+00 4.819239994768695468e+00 1.715289878955781688e+01
-6.055517901925386859e+00 -9.733699935278398163e-01 1.545242238299251625e+01
-6.968700679120122921e+00 -1.812313818840266322e+00 1.890616831786468310e+01
-7.315646665296065443e+00 -8.108450547219915316e-01 1.893824253719213857e+01
-3.950843044455075059e+00 3.134092605143697696e+00 1.401595786547274969e+01
-7.895208843814586430e+00 -3.560566634385770701e+00 1.707811342673853261e+01
-6.271492442412071711e+00 -1.203251101405685475e+00 1.570208705607092980e+01
-9.004562286649079539e+00 7.618178611943081657e-01 1.424745157361196135e+01
-3.404856173223776761e+00 -2.831818841258857855e+00 1.511907242840381116e+01
-5.789495206301544350e+00 3.635203900109374775e+00 1.872187031229080389e+01
-2.623850366779028054e+00 -3.975116502458650114e+00 1.589948220690207847e+01
-3.598908717262860879e+00 3.449264190151085874e+00 1.857878203028045760e+01
-3.376254310133663505e+00 8.285960424025859972e-01 1.881468624011861834e+01
-7.800629523949131006e+00 2.246944031850441892e+00 1.880925896110677797e+01
-6.415236209340044127e+00 4.215735265820768518e+00 1.841626712798854726e+01
-3.679904290619581353e+00 -3.678036175097045390e+00 1.577977590715396161e+01
-6.602020681525512025e+00 4.053607135399056816e+00 1.845818308284177789e+01
-5.574671010612063604e+00 3.416137654217281217e+00 1.880332699852365863e+01
-7.971192739201628186e+00 -1.202687487350573292e+00 1.872539963028402354e+01
-7.291977706557500660e+00 -3.360227994150837727e+00 1.664821549957029845e+01
-2.212592168750767474e+00 1.256835931021912156e+00 1.446766301871134175e+01
-8.751683585638200924e+00 1.698289834812896082e+00 1.407947980561323931e+01
-3.587437841981599540e+00 2.887526196218883179e+00 1.427795445138396246e+01
-7.070802439306647535e+00 -3.524085739670103745e+00 1.673624195691646577e+01
-3.225856234431540681e+00 -3.080233665986488401e+00 1.519365017041982213e+01
-9.891527537528654435e+00 -2.573108385633829265e+00 1.729699148274049492e+01
-2.854662988104166299e+00 1.116054373647412890e+00 1.286391831789907059e+01
-6.781342490930927447e+00 1.407761636550252105e+00 1.907660943733785075e+01
-7.593738925587476984e+00 2.187176844017618027e+00 1.887827799303276777e+01
-5.178228953499037779e+00 2.005655264036750651e+00 1.906216218969060350e+01
-2.382748875801031563e+00 -1.574317670063782870e-01 1.361911246822036503e+01
-2.758723494614644167e+00 2.701853185524062173e+00 1.575661929483522528e+01
-4.450317975014794314e+00 3.422833240424755896e+00 1.409656195797296618e+01
-1.899299138325577729e+00 -2.937877448244330392e+00 1.796122515048583779e+01
-5.204935757806027574e+00 3.015881069525645497e+00 1.285789946185703769e+01
-8.198031225545976852e+00 -2.326073229039440804e+00 1.605530959060581608e+01
-2.920020252052653920e+00 -3.152147911710442063e+00 1.809100931933699741e+01
-2.444115393052158858e+00 -4.092023413118157649e+00 1.601168400234605826e+01
-4.242649434161816835e+00 -8.028059978511355999e-01 1.391705533498126357e+01
-3.042645006289879994e+00 1.849543284078379202e+00 1.346718654651096614e+01
-7.280682032921736990e+00 -2.877635420854753878e+00 1.646782942309406650e+01
-2.940580062715081766e+00 -5.368837450970865843e-01 1.854890593239120022e+01
-9.575991556455617726e+00 1.339359389948360679e+00 1.651743202872286531e+01
-1.189472504372428796e+00 -1.762821029244348026e-01 1.565027113865524910e+01
-9.605194346211165524e+00 1.375316851891532632e-01 1.498752795195859733e+01
-2.268291271610106463e+00 1.230290645099671121e+00 1.428779695567245511e+01
-9.386468644815575857e+00 4.360205019438359586e-01 1.783272984010396556e+01
-8.368076597409352502e+00 -2.117218810299910103e-01 1.847087744058776337e+01
-2.638746962768367066e+00 1.631707441651862656e+00 1.407229273416796644e+01
-6.365867467141547387e+00 5.233769706533832000e+00 1.754191561697398072e+01
-4.129620318942197166e+00 -3.373030774985223079e+00 1.820572626184301157e+01
-2.644837376517861660e+00 2.829525428745311544e+00 1.626448922536055619e+01
-7.400979120923866894e+00 -1.795055315989106060e+00 1.888409651201508410e+01
-7.386706640488862163e+00 -5.655051034818281419e-02 1.378903178831013321e+01
-3.417662653783327009e+00 5.335003707567664843e-01 1.263236333546625190e+01
-7.963996418367027985e+00 -2.005285248775980467e+00 1.880465450184739495e+01
-7.609961581712235024e+00 4.348092727284186942e+00 1.752737611874098889e+01
-2.482980409369496932e+00 1.416221454882832465e+00 1.408460583652242093e+01
-8.005687549229586253e+00 -1.295460134417409925e+00 1.493049690460470913e+01
-2.776825217970384951e+00 3.281655941434986623e+00 1.838747387851086046e+01
-4.941730954276724930e+00 2.810833334749325285e+00 1.231926597030758330e+01
-3.171509469941600656e+00 1.057148227678494923e+00 1.879084168429110946e+01
-9.960557242274278522e+00 -1.512818561195721667e+00 1.582496255052860334e+01
-3.596590513305667258e+00 8.510705542763747911e-01 1.886102546332345753e+01
-4.962885042244188583e+00 1.684217897004819164e+00 1.140036235461439418e+01
-1.560631798466552977e+00 -3.361717001905949243e+00 1.648599650630044522e+01
-9.362659965829285724e+00 1.805215005589253963e+00 1.558808423875256466e+01
-1.619617645826767927e+00 -3.489592340768095990e+00 1.644531594237457028e+01
-6.407936769372633456e+00 1.218578786694212379e+00 1.213194216141639714e+01
-8.570657763650030958e+00 -1.623572400580771458e+00 1.851517934438886925e+01
-2.213262946074696202e+00 -4.334700958263154824e+00 1.750546235145431950e+01
-5.824414278218198682e+00 -3.303779299946125736e+00 1.633141536596365739e+01
-6.667732904432812191e+00 1.565482130829930485e-01 1.360290574775218175e+01
-9.348897155442577045e+00 -2.178707459297159144e+00 1.815433790950751103e+01
-6.773540855382471193e+00 2.439693553618937027e+00 1.260152688961906620e+01
-9.999532487105835088e+00 -9.168490216358217149e-01 1.650686185462301125e+01
-3.966550341706512661e+00 -1.580312231326360894e+00 1.449877032234731900e+01
-8.243733060647995714e+00 -6.361686644838319138e-01 1.849974908659389428e+01
-6.177813833515084063e+00 4.960236708710517917e+00 1.708182112540703912e+01
-2.718040116488545710e+00 2.734256234039924571e+00 1.591357729092622009e+01
-3.967744008025405833e+00 -9.509483623985482970e-01 1.869468230572216072e+01
-2.260108566665701701e+00 -3.394899636621568906e+00 1.795801362442968951e+01
-6.261095617393225510e+00 -3.276534429175089524e+00 1.643258772966306935e+01
-5.174019655061362855e+00 4.648221728881983594e+00 1.836791711735244093e+01
-9.722049171205407347e+00 -3.409479123549002955e-01 1.739589223096610482e+01
-3.972815187169918438e+00 4.472719266535132299e+00 1.834603073037724386e+01
-3.593710499667723379e+00 -1.814671555593480701e+00 1.444438305768475317e+01
-2.928192195453417135e+00 2.564692339485959760e+00 1.860981069087718964e+01
-8.781450919636272445e+00 -9.713608572987227907e-01 1.444494440232525534e+01
-3.183066070164920269e+00 2.621462578154589274e+00 1.865866184817308238e+01
-2.248994722629271692e+00 1.993218924313099105e+00 1.568127349761261513e+01
-9.682776437652444557e+00 4.280168751612190015e-02 1.738746739604907532e+01
-7.624015991129248881e+00 3.515349432289573084e+00 1.503818973814619397e+01
-1.803223119033538602e+00 -9.893096713725776370e-01 1.455923345043978401e+01
-7.798868446674911858e+00 1.648524427653342839e-01 1.889413812896639655e+01
-5.565721641123642982e+00 2.406226070404498429e+00 1.158884058565407571e+01
-9.103178536248206498e+00 -1.609567718711189421e+00 1.828215732299378971e+01
-8.859649231011880843e+00 4.162773670891171673e-01 1.838370722688425474e+01
-5.977079790593682773e+00 1.411330808593327157e+00 1.909884386201840556e+01
-9.311831028109635255e+00 -2.494884114771124262e-01 1.450816289063968156e+01
-9.688484406873968169e+00 -6.672088926086626737e-01 1.514144279866387421e+01
-8.637482648138542274e+00 -2.839829314389025861e+00 1.615201246607018959e+01
-8.646361317921821055e+00 -2.645931582696323670e+00 1.597490726566766028e+01
-8.196827312844265023e+00 1.050597264194359060e+00 1.326043793047121966e+01
-8.613132559364126806e+00 -2.506504118451892360e+00 1.586224868810081290e+01
-7.996109756320292306e+00 -1.012686926614518423e+00 1.868969446090378028e+01
-7.868802699404424672e+00 -3.359141282717697852e+00 1.667192355612468901e+01
-1.784449640229730294e+00 8.714337583983650104e-01 1.484929329828457867e+01
-8.055034926711851284e+00 -1.881352915272893167e+00 1.575877140103100515e+01
-8.015675909346072103e+00 -1.965015389586392214e+00 1.589355956005500303e+01
-2.446172255420716368e+00 -3.884406583443693162e+00 1.580287963687973019e+01
-8.006868374084874063e+00 3.235445548423072193e+00 1.823683983603894632e+01
-4.124902169255560302e+00 1.239965464132520623e+00 1.191709130115034299e+01
-6.637870520633846638e+00 7.930573052831692005e-01 1.282741612249324703e+01
-2.130077150599720248e+00 -5.192900114688353552e-01 1.840489357767363998e+01
-6.747952845893942175e+00 1.349029075173928893e+00 1.214607953047858757e+01
-5.230859169307070289e+00 3.351365070402637869e+00 1.374773189873177159e+01
-9.631796063226675031e+00 -2.010754317153724102e+00 1.783265736731197393e+01
-1.426577829565418343e+00 -3.030137032117302898e+00 1.646041742174477207e+01
-4.686426750121391649e+00 -1.900386828576945852e+00 1.559102134802891726e+01
-9.075626295572780222e+00 1.349104774450193167e+00 1.446348807570583261e+01
-5.172674881379077938e+00 -3.474718259444918633e+00 1.832794663555679904e+01
-3.785658192231915908e+00 -3.673501540989770886e-01 1.875786796255810174e+01
-3.655150709054403979e+00 -3.813304404222776167e+00 1.587210528276733612e+01
-5.243801151761288359e+00 -6.032660425121794123e-02 1.387735166658539043e+01
-1.879333608764608421e+00 -4.074941258470527572e+00 1.661027986653717647e+01
-9.462342178410946048e+00 2.307254399041280268e-01 1.774509459798338895e+01
-7.051635045873071661e+00 4.529239360231714251e+00 1.790844488143623892e+01
-8.694952117160072547e+00 -3.072753190609702756e+00 1.632369099464100515e+01
-4.586490287572718039e+00 4.637114347173261764e-01 1.902613263643768704e+01
-8.251429058720775700e+00 -3.358032291647195411e+00 1.664513874268998705e+01
-1.728913985711441503e+00 1.104239586981250465e+00 1.536624672857219309e+01
-8.508212830178949915e+00 -3.383992361528715076e+00 1.664214923297244297e+01
-4.639512068492721575e+00 3.493044894032274250e+00 1.424397650664071335e+01
-6.196823350984935530e+00 7.025066199151996926e-02 1.369135777014909650e+01
-1.170901552293727832e+00 6.665324040899400782e-01 1.760545098133954411e+01
-8.345194687762905517e+00 -9.690719947590814565e-01 1.846006275537601482e+01
-8.614002600897132211e+00 -7.691388412549343689e-01 1.427231360418019079e+01
-3.576130024454149847e+00 1.004528340444288403e-01 1.299259490691859042e+01
-6.044772131966333006e+00 7.660663813129542365e-02 1.388655843918975563e+01
-8.113858176971746161e+00 -3.119096794204939016e+00 1.846128985375417386e+01
-1.224516106683641636e+00 -1.220616510492546158e+00 1.603677067869687534e+01
-5.913068405554628093e+00 1.217737607997759763e-01 1.396925650199146673e+01
-6.561610979007096667e+00 4.186449631739844079e+00 1.838851585335867611e+01
-4.812663080249302894e+00 -3.600672976426199101e-01 1.392100626923154039e+01
-5.668418272496607457e+00 -3.702968123291106028e+00 1.655425796229062740e+01
-4.663131529230896355e+00 -2.453295342819187486e+00 1.580123971701293328e+01
-2.904108493902401555e+00 -4.321534347439507151e+00 1.638765297602380855e+01
-8.953912344184075778e+00 2.437427510771633887e+00 1.750977069924394414e+01
-2.722772180912279349e+00 1.769679025539273809e+00 1.410374407367206118e+01
-2.282053645437061018e+00 -2.157597415725265311e+00 1.820000391334475154e+01
-7.316019469898578542e+00 1.531062155480808151e+00 1.237046092703565847e+01
-6.567436635276495238e+00 1.122249029027430067e+00 1.234515176293696470e+01
-6.615522983970882009e+00 1.027615428966133893e+00 1.250652405265577016e+01
-9.525335066771312142e+00 -2.571637290040310386e+00 1.560825705977323707e+01
-6.796745829969436770e+00 1.100873365012180694e+00 1.251361345082919740e+01
-3.441092538030360526e+00 -4.248841882223378441e+00 1.657450709928693300e+01
-2.251609548943088512e+00 -4.359632703036981916e+00 1.630447309198459038e+01
-3.516147041468398182e+00 -4.159993351038665743e+00 1.633312804214573077e+01
-9.932046140184692007e+00 -2.559239572365047177e+00 1.710844608756728746e+01
-8.687453108072988428e+00 -3.482930798974340103e+00 1.686515850586428655e+01
-3.912472093364010917e+00 -2.158871334831962141e+00 1.848069788336327690e+01
-8.007925259605579882e+00 4.175904150685182614e+00 1.658440737023188660e+01
-5.708370740776940622e+00 4.346388596650366587e+00 1.588567672322211166e+01
-5.479633911786013556e+00 -1.554110577450451114e+00 1.573523864070765654e+01
-6.860480967114739315e+00 -3.617171952577451943e+00 1.680660156775482506e+01
-4.131738812875901168e+00 4.748891466231515146e+00 1.770010396015869958e+01
-1.270671089099543183e+00 5.616889738796030374e-01 1.588107363082986723e+01
-8.473389999380762205e+00 5.899184440867307755e-01 1.358937224961179879e+01
-2.808603985002841252e+00 -1.842103384115152842e+00 1.442495085868783633e+01
-8.983175434821866645e+00 2.493848642096235135e+00 1.729170540331745087e+01
-9.200673935416187277e+00 -8.156075170587814283e-01 1.458528538571413691e+01
-4.420508409465653266e+00 -3.992320688691630703e+00 1.639192527041131342e+01
-1.189223089228866437e+00 -1.425257681743923310e+00 1.657515761134574461e+01
-1.196191487191668124e+00 -8.808169380548297456e-01 1.758279681476491874e+01
-1.203692757104348088e+00 -6.827710381892603264e-01 1.758836544993091167e+01
-5.753104558704825955e+00 1.386817511001368519e+00 1.177905804897709885e+01
-7.224776378540949118e+00 -3.648015938044969264e+00 1.758176196332139085e+01
-1.233436996549671871e+00 -1.088485063354435400e+00 1.767718462493014897e+01
-6.216724282889918740e+00 3.058133702751047789e+00 1.322452311756720178e+01
-4.769772786981826052e+00 2.768041624942211065e+00 1.225227945890276970e+01
-9.174086687137794627e+00 -4.516668047526114504e-01 1.444865697543114891e+01
-3.611810541418805975e+00 4.453506807715249316e+00 1.827734868339493346e+01
-3.603682331169968833e+00 4.557536617219215991e+00 1.823613891657983999e+01
-2.528257894373004522e+00 9.621913212050222652e-01 1.336747643903589022e+01
-7.441218527389253268e+00 3.703287134580882878e+00 1.831692714708897540e+01
-2.797256656234663907e+00 2.270652084668812964e+00 1.863518374522600851e+01
-2.410168860083191866e+00 3.174079056947123778e+00 1.827395018935752091e+01
-4.414532483118630779e+00 -1.570226167361643110e+00 1.510438277622651526e+01
-2.734213198067921624e+00 1.663870553044990874e+00 1.867912973922566522e+01
-8.536686907625385956e+00 -3.234978078404431745e+00 1.803839925256385612e+01
-8.542826646755091957e+00 2.213980761265641029e+00 1.833567880646140935e+01
-6.864991406844259458e+00 1.989444390840704013e+00 1.208948974876656735e+01
-4.721257762628577659e+00 4.078169155692251913e+00 1.576886388028194830e+01
-8.848986576839452667e+00 -3.442553248501752261e+00 1.670171021306980208e+01
-3.131262309564564195e+00 3.148346767549099479e+00 1.574439613407803762e+01
-1.736834768167595744e+00 2.674672500957445687e-01 1.435606599285359408e+01
-4.283097310025241633e+00 3.842630867601923406e+00 1.528978356266105720e+01
-7.087687522461335377e+00 5.005535836682556194e+00 1.740582389193691171e+01
-1.146803835404176297e+00 -4.322965599826799066e-01 1.684188272798666475e+01
-8.848129458184144980e+00 -3.279063312141480946e+00 1.647406350156148136e+01
-9.797341746501878390e+00 -1.033711985383265475e+00 1.542234666113246533e+01
-8.210102572340057137e+00 1.558808763638050987e-01 1.870023303960218897e+01
-3.427316691392050085e+00 7.817294101014844454e-01 1.248175024650589648e+01
-3.804598058700584318e+00 1.545341568904882612e+00 1.188627745613438691e+01
-8.491284996281937225e+00 2.551054312982292127e-01 1.858122804831810271e+01
-4.780232220936410314e+00 -3.580810217685529429e-01 1.895959008965515835e+01
-6.050500940185659537e+00 -3.820469438247157346e+00 1.709195504388433307e+01
-4.574226713987563642e+00 -9.669601621131497238e-01 1.882091222040202183e+01
-8.266729506736336219e+00 2.614880166349782264e+00 1.433676840446904777e+01
-8.073786957008863396e+00 4.028629769147483941e+00 1.628953274223294301e+01
-9.186855254207886290e+00 2.400660694354138647e-01 1.807263818442471859e+01
-4.026566992788226607e+00 1.888016364957259885e+00 1.168871891833391885e+01
-3.905603310366791092e+00 -1.877990094360919571e+00 1.500715705429969660e+01
-3.543096746167918365e+00 1.726087910409892956e+00 1.224163628714069318e+01
-3.950734703873745701e+00 -1.958977456678455464e+00 1.514868679171114962e+01
-8.365919796166032540e+00 8.227403815891120020e-01 1.346374228906673665e+01
-2.239990298764406695e+00 6.336043106443328687e-01 1.363867014854459825e+01
-7.425021847921692064e+00 1.221603067190212943e+00 1.266194796483325291e+01
-9.373326252775537881e+00 1.983750773526410605e+00 1.625755091741037717e+01
-4.372231525020638720e+00 4.922757041966337788e+00 1.821586273207457651e+01
-6.791641757456356565e+00 2.838627952892243123e+00 1.320580690399835788e+01
-1.596592957590604156e+00 -2.408308029148412910e+00 1.531245080437562223e+01
-9.379885695888351194e+00 1.976943705955829689e+00 1.612520678219357251e+01
-8.160433876886646232e+00 1.786923109928158393e+00 1.874080183335892968e+01
-8.013953169925077447e+00 1.816110217011459138e+00 1.880285445377859332e+01
-4.219969829712942655e+00 4.218873630197226277e+00 1.847743848650808474e+01
-3.334824572768582573e+00 -3.679046027381752015e+00 1.796284875881477916e+01
-5.529093330192218048e+00 4.646379952342584829e+00 1.654546995744186688e+01
-2.668598605990549988e+00 7.079183211563173650e-01 1.309320642292701109e+01
-8.870143195328886065e+00 2.187127812405419203e+00 1.793489720345945670e+01
-2.507246439583379338e+00 2.123490970542179834e+00 1.856377238791759510e+01
-1.155641791036658539e+00 1.317008230939065827e+00 1.733431961573044333e+01
-9.980888684512873255e+00 -2.137914178384290764e+00 1.692498002548007463e+01
-6.607220572972819284e+00 1.596672218038982738e+00 1.907747165050524529e+01
-2.554065292710392843e+00 2.223071197977549485e+00 1.856434992880629409e+01
-5.578984765158198300e+00 7.504955631438501307e-01 1.278685225898225752e+01
-5.592368704728403195e+00 8.899890459007647747e-01 1.253988754893008206e+01
-9.481008886323753160e+00 -4.592885192092629465e-01 1.476379890469683431e+01
-3.203900298501499933e+00 2.785045229930173338e+00 1.862620385511547738e+01
-3.435028413289879623e+00 2.654692141059977750e+00 1.870728773930863298e+01
-9.474563696879210184e+00 -7.952873114162373192e-03 1.775776652246072729e+01
-1.186289280107026167e+00 -8.401675470355646214e-01 1.620475472774146652e+01
-9.480952002532278655e+00 -1.764357810640478919e-01 1.776061804146659284e+01
-4.521307135426972046e+00 4.189496936694848017e+00 1.612660119012408444e+01
-4.463960478584662717e+00 -3.852582556525446567e+00 1.622002662979389243e+01
-9.380266510953921610e+00 -1.608240362152931979e+00 1.496799767701388362e+01
-3.577285436465746482e+00 3.894771926963437991e+00 1.620077027572678219e+01
-9.657822959004588981e+00 -3.674825691229440805e-01 1.752961531306511489e+01
-5.770747955440226562e+00 5.306852456351107250e+00 1.771930418095085713e+01
-9.529329463547462353e+00 -4.028387544213166693e-01 1.772994656504661037e+01
-2.435672499567169247e+00 -3.661958845825264763e+00 1.560517109193622787e+01
-3.969115065071062709e+00 -1.888160665397824456e-01 1.882718510649404919e+01
-8.334283353691319007e+00 -3.434683337289804239e+00 1.775573475002919110e+01
-8.841928695276736860e+00 -4.151318956009714123e-01 1.421155922556229001e+01
-5.189808062463733940e+00 -7.814699696973920195e-01 1.894421187296443065e+01
-2.327760634501358172e+00 1.265807901544123482e+00 1.856614109894147902e+01
-8.659624426095252403e+00 -4.398699866781560219e-01 1.412214417266647359e+01
-1.894284309167516778e+00 -2.113278315643430272e+00 1.479329338057098653e+01
-1.965237279759758149e+00 4.595801268296596520e-01 1.399473906086772246e+01
-1.791650738356867834e+00 -1.572381645264269601e+00 1.474776117839913780e+01
-1.374204868276613478e+00 -1.657124364564570129e+00 1.552422459960249057e+01
-9.710904294776636192e+00 -4.336918332026565848e-01 1.516977477229806937e+01
-6.995060513091821086e+00 2.190316963166783815e+00 1.896855904463471632e+01
-9.562494742388947699e+00 -3.231914758118579201e+00 1.727861336887444565e+01
-7.683465311416336263e+00 3.578264964117111813e+00 1.518683650674381624e+01
-6.407426331235199335e+00 3.473027366260828419e+00 1.873808055873043088e+01
-7.968565591075408960e+00 4.171840366792233468e+00 1.680854386324875804e+01
-8.757458301438804327e+00 2.430659011785337498e+00 1.793083567168120140e+01
-6.082985185359179425e+00 4.026894499699509744e+00 1.526558013342999232e+01
-4.901428457085733825e+00 -3.918994530054675796e+00 1.755872611049708354e+01
-9.451097639016758478e+00 1.712043901884909403e+00 1.590405654730817986e+01
-3.135306215307715583e+00 -3.947685583615343941e+00 1.782481584013636677e+01
-2.930764111708803465e+00 -4.182478031100270499e+00 1.770555024654102994e+01
-8.145622982796867362e+00 -2.406566896731802352e+00 1.878156795765441700e+01
-2.541122411836625350e+00 2.733874674723665965e+00 1.632811202016316088e+01
-9.856502767778199114e+00 -1.355196705600250073e+00 1.734417732126842537e+01
-7.962430306495244636e+00 -2.202365632512192306e+00 1.880896153265563697e+01
-4.331909594842753286e+00 -6.903384865655494140e-01 1.385957023410652056e+01
-8.674538818810994201e+00 2.407853813397365705e+00 1.448984144693081078e+01
-8.527618556011473672e+00 -2.402383286890184877e+00 1.581652544484798995e+01
-2.057255330972784346e+00 1.653514052348696417e+00 1.841737879682118262e+01
-8.723316649362809372e+00 2.832872147058383305e+00 1.753069498964069339e+01
-5.927235987680082197e+00 5.384616742867900818e+00 1.784263893424158454e+01
-1.674059554812249440e+00 1.472593454083908071e+00 1.817926169303208894e+01
-9.517165099400008543e+00 3.884958105549351504e-01 1.493477490487054382e+01
-9.196475572427180722e+00 1.254961520227429350e+00 1.793139685510046633e+01
-7.407712454115776168e+00 -2.428663134030644155e-01 1.399982373678364667e+01
-9.314916716545079467e+00 1.031261862181408695e+00 1.780946901956350104e+01
-5.622320448000645676e+00 3.140117576180457615e+00 1.319074863672454256e+01
-5.979554771992557249e+00 3.720343091516495893e-01 1.327090950863347274e+01
-6.569002064717007983e+00 2.197357445514199537e+00 1.900825017843400389e+01
-5.773188667948458530e+00 3.667571592813760883e-01 1.346870414147877426e+01
-9.041742786940663024e+00 2.654084412826593464e+00 1.592833203654069507e+01
-7.307373315688892035e+00 -3.296542318739786648e+00 1.843715488913444034e+01
-1.317188217793705984e+00 3.831737403709239986e-01 1.546771308209219598e+01
-9.167460991218799649e+00 -2.186874289907996705e+00 1.832980816761837417e+01
-9.050825070699442421e+00 -2.509296203012585824e+00 1.842244272396520444e+01
-9.456919054049230056e+00 -3.014508719342091858e+00 1.609213497042613028e+01
-2.051955724005571913e+00 -2.345242834174734448e+00 1.476676988471342611e+01
-3.598442435601747036e+00 2.682428794923620519e+00 1.386145062749538681e+01
-5.155400275868832871e+00 8.188170612241676416e-01 1.252749628826840933e+01
-9.059661941744574065e+00 -2.355156838882781933e+00 1.542927464870543020e+01
-4.989748902852527479e+00 8.104600972811697446e-01 1.247392133891670341e+01
-5.283597323368002030e+00 -3.847600087077813757e+00 1.771925625280039895e+01
-6.695929633459241082e+00 4.038133045921830089e+00 1.538870680526551382e+01
-3.072725536701966575e+00 1.635956390023154405e+00 1.306403700491937059e+01
-5.345171989652233613e+00 -2.611545757756689401e+00 1.868784599539816327e+01
-3.167991075675968382e+00 -7.268603096448044143e-01 1.856280066194044309e+01
-6.172687978124471897e+00 5.247048645179624771e+00 1.784507338446436364e+01
-1.963192461000938138e+00 2.307336909748474607e+00 1.693360039897614655e+01
-5.199265473356555312e+00 1.829199934938998240e+00 1.127094906455208445e+01
-2.843535497147709812e+00 -2.743603132127971467e+00 1.494340810130584885e+01
-4.698299316908654433e+00 2.682346832475410281e+00 1.895020765307571509e+01
-4.461976689943599972e+00 -4.042095377098968711e+00 1.720460911811694160e+01
-2.562247254481135883e+00 1.498184017373283661e+00 1.403041230485924729e+01
-4.508977279520017589e+00 -3.712741966655989767e+00 1.612900178173335775e+01
-3.361952437183334030e+00 4.088728138127079248e+00 1.834270351335967320e+01
-3.571516271873123927e+00 4.295891500249065409e+00 1.716013390533198191e+01
-8.717821565466559619e+00 -1.314809860895101323e+00 1.466874402505621333e+01
-8.823274289538320048e+00 -1.567783981929681048e+00 1.484461992229388727e+01
-3.966089500097028875e+00 2.337279308392468558e+00 1.244660513431909976e+01
-9.803207488267922542e+00 4.466929413466659282e-01 1.661226753415254365e+01
-4.589165065488818307e+00 -1.160390012561379747e-01 1.339040877136162777e+01
-1.514385345636077629e+00 -3.065195955028910957e-01 1.471228627573226788e+01
-4.725706639647765606e+00 -3.701645223372530769e+00 1.795212114609690701e+01
-4.906598368011251488e+00 -3.698637822042841083e+00 1.798377795346208785e+01
-5.952365501774568912e+00 2.091389499742263069e+00 1.141875790949993075e+01
-3.725992775554499925e+00 -3.199228881805464386e+00 1.821099594914460340e+01
-6.362846738614842401e+00 5.246878574569900699e+00 1.767879642786909500e+01
-3.989889538831740801e+00 4.791404938307131545e+00 1.783485054468730624e+01
-7.084572531283328090e+00 -1.681988016310908218e+00 1.602689273942777959e+01
-6.991591414939440696e+00 3.508085005667891387e+00 1.448137384144742867e+01
-2.625832614506563356e+00 -1.751505488492331342e+00 1.436562479729838060e+01
-6.730289280613684255e+00 5.166290764495768961e+00 1.760098558266550839e+01
-5.517351904066686075e+00 -3.880321828516976712e+00 1.715864560345332990e+01
-2.891709202986523231e+00 3.370482412422660445e+00 1.673595817513388084e+01
-1.308910782998450095e+00 -2.206481068535091072e-01 1.506699093363396713e+01
-1.304877111614737961e+00 -6.639797180420971001e-01 1.782873863953012261e+01
-6.453881347018006309e+00 -1.293612010897765341e+00 1.580125291561103751e+01
-2.384021210866925422e+00 -4.576279986660606980e+00 1.667948064246214557e+01
-5.614707264676071397e+00 3.013426118627995809e+00 1.287854536527079574e+01
-4.055893340334109531e+00 -3.002506679423611935e+00 1.569716944628687827e+01
-4.048338274481036336e+00 -3.227884705144383748e+00 1.575700587385517792e+01
-7.655938772656429414e+00 4.130491068161422086e-01 1.896177424291343527e+01
-2.480131498417303515e+00 3.256714461781800019e+00 1.821496386838428094e+01
-9.344344334240197725e+00 -7.662717627589693548e-01 1.797249155008572785e+01
-1.594482110348133919e+00 8.483525949925030396e-02 1.818687489832101534e+01
-3.746771255421430080e+00 3.314909667428596496e+00 1.476569669656452533e+01
-5.473239583332608404e+00 3.837183536896850988e+00 1.488898618405545449e+01
-7.648997279993140275e+00 -5.648268418535454805e-01 1.422912947478330636e+01
-1.492031467210354734e+00 4.830938249178158284e-01 1.810807744920410300e+01
-1.455229338691285568e+00 4.123630378149672482e-01 1.505943787677500723e+01
-1.597819012227158275e+00 4.938839011976483562e-01 1.819955493758052256e+01
-2.127568370558880151e+00 2.104307790868021666e+00 1.837531243417529936e+01
-7.352423063688186211e+00 1.380692885742449194e+00 1.900784118568580539e+01
-4.513489969606017560e+00 -3.672797712726063590e+00 1.795800447552188217e+01
-5.861912891682540483e+00 -3.845961084189152945e+00 1.693463330346303053e+01
-1.633331022860042392e+00 1.008055907925794692e+00 1.543447411588729778e+01
-8.782551252620878657e+00 2.699065624453134138e+00 1.499905366238492377e+01
-4.867701033954286771e+00 -2.505449604950356068e+00 1.589348368186482929e+01
-2.181528163089156980e+00 -1.746030016885756986e+00 1.825177891942911401e+01
-6.285269439223488241e+00 4.003748273161052751e+00 1.526231470279861924e+01
-4.107075582679807546e+00 -1.896957619423095043e+00 1.520448412689420792e+01
-6.318345749873423678e+00 4.311076221527884833e+00 1.588546246733440626e+01
-4.183403829863002521e+00 2.536226426818122270e+00 1.243230532496362883e+01
-3.913462267472398892e+00 -2.053605240183247638e+00 1.520900397310351337e+01
-1.895721670925843316e+00 -1.330264162986521281e+00 1.825201001305044457e+01
-7.821925736666377915e+00 4.376654144590965245e+00 1.675422625246457642e+01
-1.936401564738373882e+00 1.936802387469207520e+00 1.633137917417860052e+01
-5.199564230069168680e+00 3.864559745788674228e+00 1.866065355789804414e+01
-3.004356604187919277e+00 3.640017370414916797e+00 1.699980062168116746e+01
-7.976960321816308763e+00 4.121317846100351900e+00 1.700814100641666471e+01
-5.397344402628538873e+00 2.755899238015741659e+00 1.222882878073136936e+01
-8.848662740457076126e+00 -1.192974542396754156e+00 1.460126334346240640e+01
-1.734518882157744857e+00 -3.186427885844890229e-01 1.826488048662240260e+01
-5.711423146995988631e+00 -3.685439740726168534e+00 1.810719781975016929e+01
-7.582214453168917956e+00 -1.990263498268654452e+00 1.886219471437050288e+01
-3.342721854583358354e+00 -3.347462790039670733e+00 1.809461952668007001e+01
-7.079273604040024814e+00 4.996164812253200083e+00 1.727199200282024805e+01
-7.259223015721747885e+00 -1.314282110150858163e+00 1.563711697771012155e+01
-4.000373096185097843e+00 3.244994820410363801e+00 1.869403998205368111e+01
-3.203932739256577733e+00 -9.765267984473561258e-01 1.371827376080867822e+01
-6.156227005930568374e+00 2.804965281682897160e+00 1.266424276306393182e+01
-1.208766662689215510e+00 -2.830367046161709199e-01 1.763638858905581941e+01
-8.851988725146098247e+00 -3.457592656232806316e+00 1.707358412183921814e+01
-3.947580505834807241e+00 -1.332922087663411137e+00 1.415990502915759208e+01
-9.047734520845549966e+00 -3.439156856334711687e+00 1.701747954178565436e+01
-9.137416843477595307e+00 -5.831515914311602433e-02 1.429449595681289509e+01
-4.939630902248744349e+00 3.862574750743341667e+00 1.865749205535703226e+01
-4.531788504003029239e+00 -5.567762065770111013e-01 1.888505262711768751e+01
-3.374115015247943550e+00 2.986690556083681503e-01 1.281233473600542538e+01
-7.558218372791867701e+00 1.518924469907247499e+00 1.256881408869910643e+01
-7.744602156437091267e+00 1.655733379072771960e+00 1.276521194923689251e+01
-2.771248350898752211e+00 -2.110076741445331194e+00 1.457908715437951486e+01
-6.822689131988664002e+00 1.343185466607713652e-01 1.367168099426838523e+01
-8.407216971836911412e+00 3.521249052803445245e+00 1.700650740312804743e+01
-4.407498068214838582e+00 3.111715601207626580e+00 1.328636662406903923e+01
-6.550945389504168048e+00 5.212614491753744694e+00 1.750988596358660487e+01
-3.631560154012077657e+00 3.045263677681000924e+00 1.448776971168906158e+01
-8.561830398289535182e+00 3.286733329551916327e+00 1.695907568139543997e+01
-2.067283562257992369e+00 2.408542086697550655e+00 1.687042855145755027e+01
-1.641333624282932169e+00 -1.992417320497624544e+00 1.803945553681667491e+01
-7.616460197572591184e+00 -1.194361499919586400e+00 1.519390868305865894e+01
-7.706842870163047365e+00 -1.192770111064378913e+00 1.509640925207720130e+01
-9.482704665257328358e+00 -2.344052605682020118e+00 1.800673337119641104e+01
-6.357560495485742535e+00 1.901369884674438016e+00 1.159783763188683281e+01
-9.638519726298079959e+00 -2.187746997547227235e+00 1.782767203158314118e+01
-9.952754834659865324e+00 -8.984321018253685898e-01 1.588622372766671731e+01
-9.654087365871500737e+00 -2.357906895928012947e+00 1.780625011092698884e+01
-7.639735456044000728e+00 2.639076706762538471e+00 1.374759699045024774e+01
-9.728522485447374635e+00 -2.153516069280234646e+00 1.771570020099964893e+01
-1.001984048575929442e+01 -1.054881650667754744e+00 1.616731210860004353e+01
-7.913396424355601866e+00 -3.540177761234074350e+00 1.766960903500152114e+01
-5.369456812292934700e+00 -1.414428758727131807e+00 1.887877679910647544e+01
-8.122554441640810197e+00 1.193465825038756423e+00 1.882576115929750671e+01
-9.908876212842793407e+00 -3.039381884369624087e-01 1.594587368600058852e+01
-5.053182671656335501e+00 -2.645724803805640235e+00 1.597990145332150291e+01
-2.425486971048363749e+00 2.499211894342197482e+00 1.844261483960431747e+01
-7.793883248501697558e+00 1.550270556126776889e+00 1.891321596029009555e+01
-2.551257376986453718e+00 6.617615519160380266e-01 1.862753573806718776e+01
-2.750323717859723960e+00 4.613633506612145885e-01 1.865236454025718160e+01
-4.723659365347971040e+00 -1.540383279844816045e+00 1.875293271565016795e+01
-2.474971589927001503e+00 2.705618652328525275e+00 1.841422440890380585e+01
-1.686546314313651429e+00 -2.366453898375961540e+00 1.515623147347150734e+01
-2.156032019494549701e+00 2.493462606657486536e+00 1.829630191680307405e+01
-2.298086407888832117e+00 2.665169683343878493e+00 1.833566635805149758e+01
-8.972063801671671612e+00 -3.249629716613665842e+00 1.770784512236889441e+01
-8.798494293229570218e+00 9.829315428963265600e-01 1.400384383535325128e+01
-7.719839441661594748e+00 -3.579733597518364174e+00 1.733184796758402513e+01
-3.841219274019434415e+00 1.570625454339545923e+00 1.893567917208596896e+01
-9.750683505349208247e+00 4.358354195292919453e-01 1.701415819445567479e+01
-3.909822905538997695e+00 -4.179804896496840172e+00 1.700924810567302359e+01
-3.329705317857306390e+00 -3.100483025724529274e+00 1.816839065754408722e+01
-2.815547414566505147e+00 3.221612743004420021e-01 1.305331082910329599e+01
-9.080029982965815094e+00 -2.930188359800958597e+00 1.819663422946197073e+01
-9.421568611208998689e+00 1.784530356101481363e+00 1.665704755156617978e+01
-7.746265711730877968e+00 -3.014253539313867858e+00 1.866091960911993652e+01
-8.574700262647281690e+00 3.366049331678341083e+00 1.638424953978871912e+01
-7.182916979569318627e+00 3.543396266386853011e+00 1.852938462090823180e+01
-3.764044626954652806e+00 -5.652501712509335752e-01 1.871879159846712071e+01
-4.964611684333278596e+00 3.987713556871852472e+00 1.861936717497788152e+01
-3.702090792632169336e+00 -2.262332008343301837e+00 1.517860507643700174e+01
-3.445846272443486846e+00 3.799503202244317812e+00 1.630117131803447705e+01
-3.738869765272277323e+00 4.446853518084012968e+00 1.736325796536509358e+01
-4.787263706058020318e+00 3.976149948773847420e+00 1.861741277728339838e+01
-3.377274271249639082e+00 3.516709697297977222e+00 1.590427232102642563e+01
-8.694088585259786228e+00 2.203826365541876608e+00 1.429731571265917722e+01
-8.817509358381039775e+00 -3.012400979481111296e-02 1.830916314813053702e+01
-3.981184060018787108e+00 6.305422558412289158e-01 1.252579141673540164e+01
-7.901730019221570700e+00 -1.362929487643587123e+00 1.519294533204894293e+01
-3.419201954381764885e+00 2.494919313346496637e+00 1.385873600715015641e+01
-3.551289939336500723e+00 -1.570682515294919979e-01 1.873709773055471572e+01
-9.459270835722522364e+00 -1.821046536991884679e+00 1.509973980355592005e+01
-7.786004508588808548e+00 3.562166375972049437e+00 1.817228627512215411e+01
-2.790497291726805162e+00 -3.304769381882369794e-01 1.335522730693860183e+01
-7.523045068510925582e+00 3.787585058780475578e+00 1.820249833382100491e+01
-3.473177082866268695e+00 4.392317992347551048e+00 1.826683487206048540e+01
-8.489430828938479223e+00 3.437240890318275177e+00 1.675280029693096395e+01
-9.576299367600409340e+00 -1.020141455896558913e+00 1.500603006501776804e+01
-2.422803375904281076e+00 -2.853042204905920087e+00 1.500196646921865096e+01
-8.410052852102184673e+00 3.541160293854411556e+00 1.683250133471511134e+01
-3.173778695493588486e+00 3.517499248340036022e+00 1.635041258814313636e+01
-8.422772849350311120e+00 3.544825538439481338e+00 1.667091496138608164e+01
-8.350989159073604284e+00 1.569051278650246406e+00 1.351613466945393327e+01
-3.818887560614212973e+00 3.449345969933011791e+00 1.487428525338027896e+01
-6.135208460381993412e+00 -1.274799639313271893e+00 1.574427205086917780e+01
-3.177281636659166963e+00 2.685125001288135582e-01 1.871001132746897611e+01
