-2.583756311666032701e+00 -9.926381540921416224e-01 1.616425255378301529e+01
-1.345604005822251814e-01 -1.232840097036647098e+00 1.439312323115727210e+01
-2.091618364668473617e+00 -4.336936874003342268e+00 1.402763049955960639e+01
-3.140881785116924174e+00 -4.258538661494537081e+00 1.413602798355741541e+01
-4.157919155764796315e+00 2.645756536378918611e+00 1.556406424115215970e+01
-4.697224993331616361e+00 -1.132536129800925551e+00 1.263178167170342547e+01
-4.069323001732481515e+00 -1.149811135299521947e+00 1.264444542391217752e+01
-3.483361476856290828e+00 -3.932554646782747465e+00 1.445546222734757436e+01
-7.085419193505477331e+00 -4.393219366432623119e+00 1.387374468986385168e+01
-5.871918261932895788e+00 2.187195673477044355e+00 1.405059826558638747e+01
-6.961215609178963426e+00 -3.985128208233757352e+00 1.430110872800766231e+01
-8.256109739782919732e-01 -2.533588944932918530e-02 1.581574863164033928e+01
-1.024912308643065373e+00 -1.659849223904606763e+00 1.561135590693839958e+01
-5.710569674573092058e+00 2.211822006213722602e+00 1.368039907858036841e+01
-4.558810032372360155e+00 -4.289903752696001327e+00 1.230313067721741760e+01
-4.577797686883167572e+00 -3.933518912754022434e+00 1.214012057851015669e+01
-3.293234037242035228e+00 -2.163563822996853681e+00 1.251419350097321370e+01
-4.088966205736420001e+00 -2.088242859794658735e+00 1.256301234152825330e+01
-2.133514803179420660e+00 2.120687618878183134e+00 1.613104928265586580e+01
-3.598829315972676968e-01 -3.318523411083135422e+00 1.207719648461210227e+01
-1.415210165389674257e-01 -3.174648869908020643e+00 1.214541740218389876e+01
-3.392938576337864998e+00 -1.201119970241427026e+00 1.607165474834165053e+01
-7.405329235021586243e+00 -4.930449520872803859e-01 1.545934578481065813e+01
-4.698851713191840140e+00 2.661486878601504458e-02 1.228424847844527079e+01
-3.990359437095269968e-02 -2.190028623840683863e+00 1.328224114538711476e+01
-5.581921440248372335e+00 -1.325968025020556773e+00 1.244385854033684424e+01
-6.965613757739776979e+00 1.748621576227507024e+00 1.447405831443168367e+01
-7.808005294005031516e+00 -4.084546523064693346e+00 1.316990614073412402e+01
-6.977243660728690067e+00 1.724885498602745759e+00 1.426103619967485159e+01
-2.943404204094570265e+00 5.879121172270529438e-01 1.673806802347752409e+01
-7.831984377689743759e+00 -4.118857537575973282e+00 1.298285854282577390e+01
-6.187183940103562207e-01 4.028745887600808651e-01 1.260275243872348483e+01
-6.586860529513785423e+00 -4.774800856298407226e+00 1.345982893452743312e+01
-7.756313550561175774e+00 -2.884302667229799777e+00 1.445190304981042928e+01
-1.899696910112566917e+00 -2.256916310925167757e+00 1.553437573380002590e+01
-6.348448394617801860e+00 2.151112123747844773e+00 1.585675755964054900e+01
-4.962656547777609006e+00 -5.477906581716232015e-01 1.622798491678098287e+01
-6.615829556235972575e+00 8.093612919402737305e-02 1.611095426631144534e+01
-2.740306652872875892e-01 -3.841252996658035546e+00 1.397800584766799048e+01
-8.198071820499123419e+00 -1.915303454483139545e+00 1.338426279505550909e+01
-7.692144246956750031e+00 9.130734321025020250e-01 1.499764219899891060e+01
-7.754544045134594832e+00 -6.562088587202632439e-01 1.499391031513257388e+01
-5.330108218450550162e+00 -4.439822193712092968e+00 1.388218239287308720e+01
-6.320547108514694701e-01 -2.478524296815191041e-01 1.549445871327719715e+01
-1.563462949296019922e+00 -4.865604132478848598e+00 1.345399496558354357e+01
-6.790399208799937192e+00 1.773446487982608399e+00 1.385637521910778247e+01
-7.819914386272965423e+00 -2.208260564451002494e+00 1.194429586014148015e+01
-7.486571202476542730e+00 -1.073018364886126452e+00 1.530623348280295914e+01
-6.621427138114384547e+00 -2.270856738304095401e+00 1.533728664870251635e+01
-3.314672730495539010e+00 -9.323473680456679791e-01 1.257023207449490343e+01
-2.957698550309259655e+00 2.434202553485541376e+00 1.477603130644057572e+01
-3.642821880985884775e+00 -2.821640718239796897e+00 1.526574454026186700e+01
-6.313860568989044353e+00 8.247029583804046382e-01 1.171651829131557676e+01
-3.656898438128936224e+00 -2.644885602072154285e+00 1.537129587802552066e+01
-7.048852833543502783e+00 1.561079084297927633e+00 1.266726797147671135e+01
-3.648081375353032119e+00 -2.530199699753553411e+00 1.543495994766916368e+01
-6.636030146043511380e+00 1.688572520017689094e+00 1.184557171243244866e+01
-5.093188188864409049e+00 4.933101140055380363e-01 1.205741708756539410e+01
-4.836853240856601843e+00 4.662028498099299867e-01 1.208417814656268874e+01
-4.854179395094369909e+00 5.228264647068705528e-01 1.205656262841649351e+01
-7.968627602078259820e+00 -2.384021854109438232e-01 1.446161908691237130e+01
-7.955408010491589188e+00 5.808470904258071776e-01 1.294915980344739381e+01
-6.301239028002918907e+00 1.812016814372576778e+00 1.162011751162138751e+01
-8.192062578618847013e+00 -2.028223268330798135e+00 1.350570777336052330e+01
-5.995002236821071584e+00 -4.988891898658033952e+00 1.300472775892714949e+01
-4.193839581788941118e+00 -2.940191808443988641e+00 1.232587967452005273e+01
-8.506026008091752688e-01 -5.963822629613260151e-01 1.577016442142964081e+01
-4.244271852613976215e+00 -2.594494773250074271e+00 1.537318291177670204e+01
-1.198981781540515268e+00 1.424897628825177787e+00 1.430092145922675329e+01
-4.642598109286378616e+00 -2.698916936521643439e+00 1.525010925779164239e+01
-4.503082081416106774e+00 -2.801733802649768457e+00 1.521394109845519083e+01
-8.957788425875714555e-01 9.356734044249184201e-01 1.268894629576310606e+01
-3.372665683650466928e+00 -4.888170473730932386e+00 1.271620845267619870e+01
-2.504971896784604191e+00 -3.858417055330590539e+00 1.214375794625163962e+01
-4.459729032602405496e+00 1.516394846874635327e+00 1.153988445269673946e+01
-8.022276017848271934e+00 -4.481733949213749790e-01 1.309029110854071831e+01
-1.105708061305290091e+00 -8.512525264347813314e-01 1.592292753352320034e+01
-2.169076156589892612e+00 -3.312650910677694682e+00 1.214636724891360942e+01
-2.304322144631023583e+00 -3.304807995026555201e+00 1.215704127920727728e+01
-6.193760402466860882e+00 -3.918845611337951951e+00 1.207217701119427744e+01
-4.308579917042848484e-01 -3.469137559409123828e+00 1.443087309023018605e+01
-2.377651180781391593e-01 -3.645015345324000400e+00 1.404287299121610388e+01
-5.727631033386353820e+00 2.223542595073789929e+00 1.387071717149652983e+01
-4.843331923638336534e+00 -1.014567843659128554e+00 1.603923291896099101e+01
-4.339851100294335851e+00 -4.016843925681465421e+00 1.218767387965123206e+01
-4.421140699181618672e+00 2.564831838853649515e+00 1.340731069139295073e+01
-3.999625763225763908e+00 -4.131784717420432962e+00 1.225735378222509198e+01
-9.055709311823035845e-01 -2.239057715710102592e+00 1.534269413416731709e+01
-7.718192150478095037e+00 -1.827012653202979120e+00 1.490358294542602735e+01
-6.902824759501885232e+00 2.899111482497214176e-01 1.596945465538083653e+01
-5.355267337074709921e+00 -3.518565469878082164e-01 1.624429615688010387e+01
-2.281886652300759266e+00 1.987326382345277143e+00 1.172332388901489963e+01
-8.122259263729795009e+00 5.651002008975654078e-01 1.408065462119213507e+01
-4.216606312104639542e+00 2.555746522187124725e+00 1.259347527687715029e+01
-8.103767895799744991e+00 1.659464359567399683e-01 1.388073049015984495e+01
-3.093961785214091265e+00 2.496146700849294131e+00 1.575627841358986814e+01
-6.049384598369368149e+00 -1.885142565685156590e+00 1.553361960525040075e+01
-7.729157223152856027e+00 -2.631649849568620247e-01 1.503993682954753552e+01
-5.719568052499892197e+00 -2.050684647537485361e+00 1.234663373852366064e+01
-5.918003358471036535e+00 -2.304571247506685516e+00 1.225338273801784439e+01
-1.781576543916570721e+00 -8.207969249351897423e-01 1.619294746219672021e+01
-3.391420939118948485e+00 2.542218213100146063e+00 1.459632371007765528e+01
-7.162855797075217801e+00 -3.046867119433170235e+00 1.186885307633523468e+01
-1.733601044607902431e+00 -1.742943632939118581e+00 1.577473183091302644e+01
-2.354701652310811522e+00 -2.523371562627432230e+00 1.236855096170630475e+01
-3.124614375754485973e+00 -3.939315572258920373e+00 1.443401303348437281e+01
-7.429684147972803743e+00 -3.012278371999898230e+00 1.475902489009905949e+01
-7.302864946833397930e+00 -2.924393532045881372e+00 1.489082084333115574e+01
-2.969542415897251875e+00 -2.240337865645859461e-01 1.648302319586044007e+01
-1.328359947115267614e+00 1.617850077577133394e+00 1.549958976970136604e+01
-3.731010009356471091e+00 -2.662329121037075197e+00 1.241036165639447830e+01
-4.863347466363857841e+00 -2.321707122617469476e+00 1.541257479966775179e+01
-5.030028878649606128e+00 -2.322676158303996541e+00 1.538575841676450295e+01
-6.210208010396086387e+00 -1.314707791230913303e+00 1.576304841453605832e+01
-1.157459037313764538e+00 -1.971318631556147061e+00 1.209863677782271552e+01
-1.713991206926380739e-01 -2.242871535081803813e+00 1.222974477602717869e+01
-6.388263790299210321e+00 -4.301443010617584051e+00 1.228801184534442115e+01
-5.995014791284194011e+00 -4.959649724060723130e+00 1.292529152358963174e+01
-4.465536812239317754e+00 -2.619431603417946341e+00 1.242274722142950338e+01
-4.286050625175743534e+00 -1.488161577370632038e+00 1.265382395818547678e+01
-7.318510638581241068e+00 -3.908296087523657203e-01 1.555052178761555837e+01
-7.273455660590284477e-01 -3.021453219310762162e+00 1.206015786921667399e+01
-8.153542976096330719e-01 1.132949086096658231e+00 1.427848326637281318e+01
-2.908706807628475666e+00 -1.906237223584309248e+00 1.252454667045167724e+01
-1.124872442279836182e-01 -3.792168337102464815e+00 1.354699934126912808e+01
-2.966216228200812655e+00 2.440981853692470338e+00 1.415568329277853366e+01
-6.490915021103456084e+00 -3.440387133025840427e+00 1.471108631483862439e+01
-6.600093732409437308e+00 -3.181009879978315524e+00 1.487701527344655972e+01
-6.247902719391794868e+00 2.206985932668493078e+00 1.607641162509838750e+01
-8.130359146913705981e-01 4.840049345594996666e-01 1.237216906948987827e+01
-9.491742096619393276e-01 -4.588572846281941509e+00 1.256623517505390808e+01
-7.880794578640099024e-01 -4.442267808389563477e+00 1.248797658604023297e+01
-3.215954214730247784e+00 2.444465817394378515e+00 1.156448909308327799e+01
-3.847519852224744241e+00 -3.002440666419004422e+00 1.514817149676983732e+01
-4.047956529801125747e+00 -2.969605998988692708e+00 1.516166074124232210e+01
-4.475693408048874389e+00 -3.091130508331915827e+00 1.503281341096014145e+01
-2.411569100301119484e+00 -1.218475966032386060e+00 1.605490217233711547e+01
-4.084026712490079092e+00 -3.172849722260834948e+00 1.502271257326900411e+01
-2.077638981995916900e+00 2.071413261540189232e+00 1.554074329274850896e+01
-6.897119083561961794e+00 1.508636963884584237e+00 1.618301777660252583e+01
-3.202793451775661548e+00 2.511470054995248891e+00 1.198479400798614591e+01
-5.895358973892020238e+00 -1.085417418926861943e+00 1.232353505034707908e+01
-4.959863999393108180e+00 2.484354748852042771e+00 1.380876942560821874e+01
-1.001320281191392381e+00 -5.020590864708518453e-03 1.216140953800683633e+01
-3.870759095205893896e+00 1.860763917137193690e+00 1.708975219937178025e+01
-4.920475040663617960e+00 -5.470968846379488104e-01 1.249249429392393651e+01
-4.295386188732493338e+00 5.458726027552827098e-01 1.198096677183801617e+01
-4.231627517620664136e+00 -2.478693441482030302e+00 1.543917032487415497e+01
-3.606499535691071401e+00 -1.542482329980611411e+00 1.590991355692984399e+01
-3.749447324301361295e+00 6.259932051312202539e-01 1.677067012894527664e+01
-1.460575460714786944e-01 -1.045011638245523233e-01 1.301964672526728606e+01
-7.941942337152685383e+00 -2.299662001228064412e-01 1.283394398543198989e+01
-3.746781114092658349e+00 -4.225963459044740356e-01 1.244022757388297151e+01
-2.521031164913241529e+00 -1.990668883750883467e+00 1.247286383724262038e+01
-1.278875479616598865e+00 -1.027488159187325056e+00 1.597092409679959957e+01
-3.492123282213049240e+00 -3.730950919697034074e+00 1.462397885360548244e+01
-3.882327265613903400e+00 -3.587194669075677744e+00 1.473838027408080364e+01
-3.851867044350687941e+00 -3.829748445554322700e+00 1.455015150978853811e+01
-3.296626205350573269e+00 2.561635883971634442e+00 1.615533451794194519e+01
-3.697361160733205754e+00 -3.572382878450601762e+00 1.475225979489089312e+01
-7.178654841117331209e+00 -1.832456013628323888e+00 1.181477081748915126e+01
-3.070319417995369449e+00 1.031991714741717914e+00 1.173655266523284979e+01
-7.781103041193320635e+00 -1.034401190041521534e+00 1.236853115805583059e+01
-8.013820861814558327e+00 -1.233451990362383288e+00 1.272801599054217547e+01
-4.597054775578673258e+00 2.465688945748174543e+00 1.261765218401070143e+01
-8.006833608465282026e+00 -1.957276894851428750e+00 1.235457256273397775e+01
-7.950415112648999916e+00 -1.634724387213003727e+00 1.240410447981548003e+01
-4.684244979697803624e-01 7.377663105213267958e-01 1.486093125575653318e+01
-5.510779397251561740e+00 -2.050618551151164759e+00 1.548057335811684965e+01
-1.406292987487638424e-01 -1.033526607744574832e+00 1.443037154004239397e+01
-8.799857119123177807e-02 -1.080478715938519185e+00 1.417531479107375958e+01
-4.544470841878175960e-01 7.569845910296608693e-01 1.464992582491807838e+01
-7.567634914240239929e-02 -6.658899220682003017e-01 1.405123381921957204e+01
-3.678518823025145323e-02 -3.450914880504305504e+00 1.321803510487975331e+01
-2.752639710150497798e+00 2.370763041034346319e+00 1.495126227166317889e+01
-3.717105645035018391e+00 2.619063802208618341e+00 1.616575879472524235e+01
-1.251175139081729171e+00 1.500885426030863723e+00 1.469001794304987030e+01
-6.000479029052607771e+00 -4.536036750885617863e+00 1.244955040519161571e+01
-5.953392031978443910e+00 -1.292515476582403178e-01 1.623622818473926088e+01
-4.284288543161344776e-01 7.553902132551140181e-01 1.445188835859005039e+01
-3.907143796135748026e-01 5.593266411880994937e-01 1.462893638977943667e+01
-1.817173181924353065e-01 -3.260399128454135598e-01 1.277994522678497091e+01
-6.200702259657744797e+00 1.873680572084082563e+00 1.165875707756723045e+01
-1.496407116446920593e-01 -2.659585027796532719e-01 1.441292178302147065e+01
-1.620279231221954941e-01 -7.223063168585697191e-02 1.442688098770399563e+01
-1.156881962557624322e-01 -2.260656396551095071e-01 1.419284083051121925e+01
-3.131018209905802596e-01 5.307213944204132172e-01 1.349998874473548938e+01
-5.881345908703378811e+00 2.349179020248306937e+00 1.584273448665343409e+01
-8.122294280745052220e+00 -1.994435232963981397e+00 1.265099692408100651e+01
-8.165964920303146357e+00 -2.052933744739184441e+00 1.280917349320471743e+01
-8.183471007704287814e+00 -2.233702346709187658e+00 1.285954361217044450e+01
-4.793246164722290814e+00 2.536454887872429786e+00 1.381344510810383852e+01
-5.221103509206548310e-01 -4.054922688420749211e+00 1.231532056787867546e+01
-3.643455564756270526e+00 2.494684126657652712e+00 1.114041072973225965e+01
-5.882123664879434166e+00 -3.197550225591018425e+00 1.207336581025835898e+01
-7.447937657934595279e+00 -4.378047404506157037e+00 1.358262445989569756e+01
-6.619866322800674219e+00 -1.516927954526570144e+00 1.564761300418332013e+01
-6.021691619834994569e-01 -4.486444577701091063e+00 1.252822155680640037e+01
-2.798194575465081435e+00 -2.962126697364170891e+00 1.228518042526430420e+01
-6.430244768971615343e+00 1.876465544673277641e+00 1.656309361203528141e+01
-7.130142790350824100e+00 -4.925417709726132021e-01 1.195360053705287484e+01
-6.489806255206342911e+00 5.390349942239649472e-01 1.177962922291738579e+01
-3.758721674826749348e-01 -3.850443543789701106e+00 1.412312811095809550e+01
-3.969189936464379564e-01 -3.647212513385729604e+00 1.428591268275410187e+01
-2.438728507277900803e+00 -1.980911354067769636e+00 1.568739784961391592e+01
-3.725478186418108573e-01 6.132182030464026212e-01 1.361683856616299693e+01
-2.202067957674912702e+00 1.994569031883161703e+00 1.232261042078129165e+01
-5.607735236105192200e+00 -3.787252868854250387e+00 1.203113403051875707e+01
-5.217294838238395016e+00 -3.659364950014339701e+00 1.202384563426269537e+01
-1.401166809717077077e+00 -2.350305175709535010e+00 1.214093885062287725e+01
-5.372694846263963875e+00 -1.877389715601315956e+00 1.246091684972960323e+01
-8.001848282337563845e+00 -2.020035957209589395e-01 1.306716893190217732e+01
-2.895299340334647642e+00 -7.359260919806561718e-01 1.249775661209302058e+01
-3.381139026948340565e+00 -2.911134150753838412e+00 1.232886753688887538e+01
-7.039386011110224661e-01 9.088338370508375341e-01 1.332106067477189626e+01
-2.583625905959772595e+00 -6.091666609602169880e-01 1.633154442358195269e+01
-4.539260417539274783e+00 -3.194247652199928567e+00 1.495282400882559770e+01
-2.601043439835092563e+00 -2.679121597784366315e+00 1.534353666714342523e+01
-8.190549692218894506e+00 -1.985376839740588650e+00 1.304665790747130671e+01
-8.057032815617237276e+00 -2.875315880099128307e+00 1.232557015897359420e+01
-2.727866044023661729e+00 -3.292956439412693559e+00 1.218569406113078557e+01
-4.894243370369898649e+00 1.452379019761465440e+00 1.688011769443947685e+01
-7.369770953678004943e+00 1.582622313365623423e+00 1.490057388977726660e+01
-7.474017789249919552e+00 8.876068675606108016e-01 1.542746498623471041e+01
-5.552823349945740894e+00 -2.509450164928384019e+00 1.231671432196322158e+01
-5.529377936474380029e+00 -4.252316398377172568e+00 1.405818648051483422e+01
-4.944675113703997482e+00 -4.387430931398439427e+00 1.394418184890769297e+01
-5.420938494213217496e+00 -1.495087129764147704e+00 1.248430378197337731e+01
-4.384356078427920522e+00 -1.965811763934858014e+00 1.566366782434933214e+01
-6.290344749574027006e+00 1.696827069788483300e+00 1.659516979026366101e+01
-5.296769981125936333e+00 -2.114765457947451299e+00 1.244538118162309814e+01
-5.842012221101811065e+00 -3.284643022711275950e+00 1.204687245017912289e+01
-6.132738807822666338e-01 -5.042686637269162553e-01 1.234276109833137625e+01
-8.358152524341465606e-01 5.762823378402042174e-01 1.580803130695873904e+01
-7.469909657378217549e-01 3.728212250939189065e-01 1.567133869298340443e+01
-2.877632522110562974e+00 -1.313454443080049661e+00 1.601512963094116060e+01
-5.202129369611632193e+00 2.034947065320040771e-01 1.647468893763316800e+01
-3.868246324944800696e-01 -2.628023883502418112e+00 1.205329658354029121e+01
-7.708906598468762361e+00 1.247055397799803345e+00 1.325243883096503694e+01
-3.851214484470069532e+00 2.545426997184909279e+00 1.194321155287130765e+01
-6.933015530198431087e+00 6.927822077574916637e-01 1.600334918039146004e+01
-4.530557483556069687e-01 -2.033519655488891686e+00 1.501978251257427033e+01
-3.570675639193128692e+00 -3.972287107463994271e+00 1.219284297967497466e+01
-4.191946331781271518e+00 -3.866356088812323399e+00 1.213358069450682564e+01
-4.248294273180465153e-01 1.579625149097927395e-01 1.505290911894729078e+01
-2.802173638354931384e+00 -4.555095505212511497e+00 1.251779715812405414e+01
-3.998465567372643026e+00 -1.180529802271750750e+00 1.606252743476094480e+01
-2.944206205412579713e+00 2.450844969595058043e+00 1.556060374366390420e+01
-6.970769537410253847e+00 1.764351411338835440e+00 1.468460819533572348e+01
-2.844228024962253132e-01 -1.456349600295997693e+00 1.482231286077692900e+01
-1.029502883166502514e+00 -1.042031270695103151e+00 1.580939830486355646e+01
-5.735629407314227102e+00 -4.243243499651431883e+00 1.406563008686237382e+01
-4.789315300136877340e+00 2.605385452728232742e-01 1.656687213295440131e+01
-3.502617137969828764e+00 2.637983544289320914e+00 1.694893259790127615e+01
-3.409659117328129874e+00 7.660770337697175858e-01 1.183767112927952070e+01
-3.669983270440065670e+00 8.648318027800019347e-01 1.178090877777959378e+01
-7.292525978438052725e+00 -3.817208622810949858e+00 1.434531642565060139e+01
-6.957213848572095571e+00 -3.178393092595996450e+00 1.487587300533433776e+01
-1.835329703388042244e+00 -2.423533454155175182e+00 1.544466805656583119e+01
-3.812377835109040936e-01 -3.188290882923731751e+00 1.453064649741121528e+01
-7.855743201319778102e-01 8.012610046342776293e-01 1.261516351002758896e+01
-1.586462998910462829e+00 1.737835527050111128e+00 1.449847163276829320e+01
-6.765940944983277028e+00 -1.497408038904501026e+00 1.189069343638095333e+01
-6.738425722903848225e+00 -1.844002586987713688e+00 1.187457254371005888e+01
-6.653448862787762152e+00 -1.840872320717207522e+00 1.190729945407744950e+01
-5.609079620289040058e+00 -5.328793746420636968e-01 1.613762914420948391e+01
-2.899783015094017369e+00 -3.397420746478347908e+00 1.486749076435501493e+01
-5.393006883125773143e+00 -6.553359548372259535e-01 1.611454503995690146e+01
-5.182429420389164321e+00 -2.898674402027581198e-01 1.629723103247764016e+01
-9.430109705002460707e-01 -4.466452960747426815e+00 1.388306411871862167e+01
-7.930204700893186853e+00 -1.460511711545627200e+00 1.451754863772863047e+01
-7.435233696982913365e+00 -1.265374285849047986e+00 1.191969566059869123e+01
-7.497607865718681097e+00 -1.429283810109547748e+00 1.190870811951683450e+01
-7.180793071435273234e+00 -2.584258091704939808e+00 1.511342992090482795e+01
-3.628070898605894712e+00 -2.360392743940315619e+00 1.552441821272639544e+01
-5.827848771077934309e+00 -5.828250940913242140e-01 1.609064566771403548e+01
-3.674156582091196110e+00 -2.150946870855157567e+00 1.562665596868585993e+01
-5.583506942260424211e+00 -4.561767713152078407e+00 1.245823393416234737e+01
-2.516751055320428421e+00 -4.048126198068866088e+00 1.430991693022456346e+01
-7.171969219959573927e+00 1.123633999955148788e+00 1.585365009334349651e+01
-5.260479616063280517e+00 1.925788829492106391e+00 1.136602942310705444e+01
-6.977292063537414712e+00 -3.437486138957297044e+00 1.193222517287113860e+01
-4.003492989888997933e+00 1.133012768327287034e+00 1.166695886237057778e+01
-4.619624486395371932e+00 -2.161129055488973272e+00 1.553761886234143219e+01
-7.405096453469989903e+00 1.579854923871070849e+00 1.528670474453326378e+01
-8.195365929871659461e+00 -1.830915692883432255e+00 1.323018305827578089e+01
-4.933525240749692120e-02 -1.219992580600943510e+00 1.362999391990812370e+01
-6.783792176585565770e+00 1.930102908393309669e+00 1.632041888375228211e+01
-6.213283602453569365e+00 2.181849647741501474e+00 1.546998817182640096e+01
-6.010582141003421697e+00 -2.050433327752011259e+00 1.226565701416295440e+01
-2.634007694454964188e+00 -2.411146948047942828e+00 1.548278761681059024e+01
-2.424583777446073896e+00 -2.655500109614001847e+00 1.535096367791448557e+01
-2.138908975013759317e+00 1.936363320251816678e+00 1.227498830200464397e+01
9.929682148932528207e-04 -3.238823566354927852e+00 1.253283376352523248e+01
-7.273454270655943077e+00 -3.157082183649140283e-02 1.206585065958666547e+01
-1.295710324153905191e+00 1.199920155689143897e+00 1.233499846677982248e+01
-4.142413429280804138e+00 -4.766545890636824545e+00 1.259890254651300623e+01
-3.665621843592546725e+00 1.281821003101829337e+00 1.158797314545561363e+01
-3.656019366756966704e+00 1.045115107162369217e+00 1.169682101473670954e+01
-3.288322851977322880e+00 1.083098117872703714e+00 1.169643001059573706e+01
-8.209346450428757436e+00 -2.357065404608374770e+00 1.333859014937826970e+01
-1.600187943975596161e+00 -4.097310342299385511e+00 1.227592197479247815e+01
-8.208838754095012291e+00 -2.217585302957838511e+00 1.318931705501921314e+01
-2.988066850269895269e+00 -4.879821550293774735e+00 1.271736924334861385e+01
-6.382886755713290672e-02 -1.257487031278652578e+00 1.277534749058096608e+01
-2.896515480368024864e+00 2.173507950724591353e+00 1.713164384654558603e+01
-7.868902411326181401e+00 -3.842197354649438346e+00 1.340224065350150795e+01
-1.668915436365100868e+00 1.730949242075902283e+00 1.372081992343012757e+01
-7.389206383948098811e+00 1.506701077171686443e+00 1.407208165517875997e+01
-3.107213781712141021e+00 1.373696504847710109e-01 1.661353739650174788e+01
-2.606456436661845011e+00 -1.194691486917633272e+00 1.606891886129420755e+01
-2.939359308101072266e+00 2.650035031808863906e-01 1.664889845325461692e+01
-7.354047309697349988e+00 1.476307336408189563e+00 1.349797219749628141e+01
-3.189736184295749233e+00 2.556125491732008648e-01 1.665349846566168424e+01
-7.744992755793294492e+00 -1.061537692955561329e+00 1.497796857223689315e+01
-4.869998413308291418e+00 4.052889739260656654e-02 1.228273047803273954e+01
-3.562275073934770830e+00 -7.276612070168735347e-01 1.253914925529522861e+01
-4.078939881201804951e+00 -2.160021113501255030e+00 1.560510433921401585e+01
-8.043365944701527326e+00 -1.446957549735658377e+00 1.405584243072641115e+01
-4.016042146748497466e+00 -1.989717130785400023e+00 1.568711851743555741e+01
-2.232471388514515986e+00 -6.906308356684192074e-01 1.236980275858435618e+01
-5.674191003004017020e+00 -2.478243268880277128e+00 1.527326107583955306e+01
-3.803374948745299022e+00 -1.155313866517873711e+00 1.608484269154043034e+01
-4.501976079373365636e+00 1.425765302353315001e+00 1.693416338186507630e+01
-7.873431474355048643e+00 -1.853404152581321629e+00 1.458787736279238345e+01
-4.491922399776212771e+00 3.867156614214450894e-01 1.665480252118499749e+01
-7.573537652591349811e+00 5.174048231982970592e-01 1.528425480802887648e+01
-7.794562563134651789e+00 -2.430416764196468904e+00 1.455711076683520488e+01
-3.773115773457315081e-01 5.841732722401955513e-01 1.342690560747517736e+01
-4.787904898100153517e+00 -4.543625980947927800e+00 1.244147290091493119e+01
-5.093933592795142573e+00 1.052858533007676733e+00 1.673915255705060190e+01
-2.324815339793671942e+00 -3.952328826128514994e+00 1.439693760784127718e+01
-1.703306133920694521e+00 -4.065410291871511816e+00 1.429089125076267308e+01
-5.785675607332764869e+00 -1.353915048490953899e+00 1.577496939806844267e+01
-3.602122615467075128e+00 -5.052008590816726041e+00 1.292857221019740876e+01
-4.675344946147530933e+00 2.020655315645802919e+00 1.705872986068889219e+01
-2.792730064421474090e+00 -4.328763527772427011e+00 1.239491728895723455e+01
-3.376312330153736330e+00 -7.981059740243242606e-01 1.625476494655860193e+01
-2.969352342003284129e+00 -3.965316201567419263e+00 1.219305426164105199e+01
-7.235424446762733552e+00 7.043205400361554069e-01 1.575201308379125464e+01
-2.804308640340781533e+00 -8.019188064927709192e-01 1.625328479269064275e+01
-5.300519200382916019e+00 1.464938876327398720e+00 1.680895863870816953e+01
-2.507050511414719018e+00 9.835008416985813184e-01 1.681656203700502772e+01
-8.069569805275239816e+00 -2.342748727190416824e-01 1.365568840134098849e+01
-6.075662121483866862e+00 2.408710689180135756e+00 1.671773676828586019e+01
-4.322082222536741902e+00 -2.504568526098852388e+00 1.245708291084442720e+01
-5.213903375867894319e+00 -1.944178190038670095e+00 1.554810071792301329e+01
-7.232463838681435497e+00 -4.785023499461645846e-01 1.560847833732726286e+01
-1.295048430253497918e+00 -3.273818670307894863e+00 1.487894999671084051e+01
-5.154543368749131993e+00 -1.274484544258211116e+00 1.587270721509378291e+01
-4.810169190934361794e+00 -1.544875060781551124e+00 1.579217801112636010e+01
-1.982638360094920227e+00 -1.031679335550035770e+00 1.612062464370027470e+01
-3.510840666318625125e+00 1.204012485943415811e+00 1.692204727601484393e+01
-3.105713618992957059e+00 -3.413668017420870893e+00 1.485937808039832220e+01
-3.361535157228109139e+00 -3.866721158738445130e+00 1.214271420127401058e+01
-7.437197340014243707e+00 3.110481268386406928e-01 1.548951494254193761e+01
-5.330036765344160266e+00 8.563914796879912306e-01 1.664413381379588230e+01
-8.049942135812690580e+00 -2.017435912848007273e+00 1.404607015260152636e+01
-5.806171369862686227e+00 2.374405315571070041e+00 1.577263730505934092e+01
-6.252897808414638270e+00 2.194027504696101527e+00 1.582797075145867893e+01
-1.092497436899048324e+00 1.391647473209238317e+00 1.588326119726009722e+01
-7.234676236712100028e+00 4.941621394504467357e-01 1.573337544698654966e+01
-9.245187494647055804e-02 -2.248562891828230770e-01 1.344037782371988143e+01
-3.734979976429725124e+00 -2.911846424069294059e+00 1.233187880712189610e+01
-4.011508942731301097e+00 -4.414044380857087724e+00 1.239785263012882410e+01
-3.353088649118241893e+00 -2.550209023939993269e+00 1.242925337218384030e+01
-4.797184188530099647e+00 -1.147384785147520514e+00 1.598370522044152864e+01
-5.111799361581145007e+00 2.612866802299978364e+00 1.663114783810603114e+01
-7.500458182513189520e+00 5.116355133406156330e-01 1.540436083781853682e+01
-2.531374393464769224e-02 -3.059266523054446019e+00 1.299583156726951927e+01
-5.518349831228605007e-01 8.445084336373041012e-01 1.368560860689982306e+01
-7.838644601691995284e+00 1.151596072250461233e+00 1.471879891002562246e+01
-7.853340829307316362e+00 9.785519823521680038e-01 1.307770683977123483e+01
-6.810080348228137126e+00 1.679274699242438551e+00 1.266588105935257502e+01
-7.835319012792615334e-01 1.159177455817522073e+00 1.488466231830615527e+01
-1.843358984138269374e+00 1.686015155251960884e+00 1.212302861894713146e+01
-2.173151023543609561e+00 1.928433165909329006e+00 1.190190521274174174e+01
-2.910058875716910798e+00 2.459583007893016759e+00 1.596783728201398134e+01
-1.352157419909736369e+00 1.466001575717562400e+00 1.348495472980767218e+01
-1.338695315690789478e+00 1.584381374819030075e+00 1.487930470754549361e+01
-4.966287653687159853e+00 2.419267470086428062e+00 1.322942851138902398e+01
-1.385774540183668524e+00 1.550278423034599840e+00 1.410317366760254032e+01
-2.562179192537492600e+00 2.153469293941994600e+00 1.183446027428259484e+01
-2.414715173595845421e+00 2.187618887242252619e+00 1.293781561229050681e+01
-1.630252529472924650e+00 1.737643429209042800e+00 1.412136027183391462e+01
-1.720691802054573838e+00 1.849984289954802907e+00 1.493043171922229817e+01
-4.658994515857664886e+00 2.378309803215318041e+00 1.138264988239759390e+01
-2.348250235736995428e+00 2.121460773204480788e+00 1.253271920522146132e+01
-5.257896428672684586e+00 2.574623469115273622e+00 1.664490459244321841e+01
-2.063438632326178634e+00 1.970144705627997261e+00 1.313894799698002913e+01
-2.391963786749323972e+00 2.192949782860628805e+00 1.372994560315637003e+01
-1.926124732293508446e+00 2.002958422984558062e+00 1.587021446811439063e+01
-1.965214578363055242e+00 1.968574831492779342e+00 1.432543022387843124e+01
-2.444666982348183026e+00 2.270587872324697276e+00 1.595533713264352826e+01
-2.147133268786648230e+00 2.072100914844494213e+00 1.431450579579098203e+01
-2.349724172073014206e+00 2.201433184658132536e+00 1.515371387496890776e+01
-2.703048422219507696e+00 2.389841200583347813e+00 1.593880295478991371e+01
-2.709904700192216964e+00 2.354084076871433506e+00 1.271704441556627074e+01
-2.784968664728185495e+00 2.384127063968926485e+00 1.356538129543165638e+01
-2.959198975130428622e+00 2.436351209236597537e+00 1.436129175275317493e+01
-4.071469556535016743e+00 2.660500406095245740e+00 1.658172432596281709e+01
-3.697775177658598533e+00 2.609461593765404430e+00 1.596155352129110838e+01
-3.164218558052940278e+00 2.492489948203506778e+00 1.437298526813644983e+01
-2.994290613365154119e+00 2.463351180892336956e+00 1.355157372267502325e+01
-4.399555913345343239e-02 -2.002271279704727736e+00 1.362302720659035771e+01
-3.164213520034790061e+00 2.515558567942170587e+00 1.353446900218854765e+01
-6.006839972651722981e+00 2.172252125150237578e+00 1.444237507965350886e+01
-6.049672100264607444e+00 1.958446385779883947e+00 1.204727376618862422e+01
-3.881767961558094449e+00 2.631074197803180859e+00 1.577900104354872468e+01
-4.469692264379128588e+00 2.678884359585051556e+00 1.625157107949868163e+01
-4.326629615700992915e+00 2.655834119373709168e+00 1.561441284934032581e+01
-3.190782131041449254e+00 2.550149504047512394e+00 1.260903680871930277e+01
-3.576855796602666615e+00 2.573425463478911102e+00 1.339401063984549367e+01
-3.603093721225951729e+00 2.569565678496628092e+00 1.239426808509863775e+01
-3.425179440630797156e+00 2.558112229049402053e+00 1.215947519716588943e+01
-3.366450225356033332e+00 2.561143772133460228e+00 1.338956460737829346e+01
-6.120167361955216379e+00 2.298010230785152874e+00 1.645748418630761023e+01
-4.182057588435831974e+00 -4.506568823733764440e+00 1.244086656885670550e+01
-6.120939311761104840e+00 2.275373388491559012e+00 1.627405636838726366e+01
-6.386311739555893041e+00 -4.757968643837990008e+00 1.264801610977742996e+01
-5.887793469354703824e+00 2.016771441402286147e+00 1.204412482310584309e+01
-5.209239914335887178e+00 2.237043840761696156e+00 1.160983916734081589e+01
-6.583510498219449225e+00 1.956346937390030405e+00 1.484955625070947249e+01
-5.047368092239726600e+00 2.303132504663038649e+00 1.182246892893738632e+01
-3.675482248891120740e+00 2.410688378111365715e+00 1.721550271941939769e+01
-7.627136069158277465e+00 1.407526888661915443e+00 1.467627732520111650e+01
-5.458565536643730454e+00 2.197241712423220417e+00 1.242522813324792708e+01
-5.622831587996306446e+00 2.183755419589395341e+00 1.301078087569070973e+01
-5.586372345855288302e+00 2.252979247563655640e+00 1.364316685306183885e+01
-1.579649523089056151e-01 4.593648178731646325e-03 1.326302551992207412e+01
-5.501862308719492667e+00 2.512373138951472740e+00 1.607416020572083681e+01
-4.228439515273175076e+00 2.473814285506590771e+00 1.158069698881580578e+01
-4.843909580780609403e+00 2.365608244175362529e+00 1.204278410190586612e+01
-4.024498820233963770e+00 2.508388242982610539e+00 1.177945307859603830e+01
-8.056863428293045359e+00 -1.632868422981990086e+00 1.402798627056804648e+01
-4.798169036462484272e+00 2.447963319646036418e+00 1.302305316496322263e+01
-5.326803760718807013e+00 2.527274828053871047e+00 1.524063405666177573e+01
-5.151557411040051271e+00 2.493535194221117468e+00 1.442677547725060094e+01
-4.692317134591638128e-01 -8.191691729169577885e-01 1.519820578829040869e+01
-4.399920419340089595e+00 2.499753004081517904e+00 1.240369500576669282e+01
-4.374304577308296693e-02 -1.652949406757020068e+00 1.318004610921423847e+01
-4.782848283519361310e+00 2.472258915920908073e+00 1.321208763197281755e+01
-5.145972566158429018e+00 2.590794565874231736e+00 1.529592693059237618e+01
-5.002056316932962154e+00 2.563771985690177058e+00 1.460044068895488323e+01
-3.576612447774424997e+00 -4.664630367068685501e+00 1.255481973600247159e+01
-2.306311149674339589e+00 -3.834359395995899256e+00 1.450041926070484877e+01
-6.710423747721327103e+00 1.878900769964787276e+00 1.463063908216653175e+01
-2.511929694082613018e+00 -3.854974803296747243e+00 1.448755481185744642e+01
-1.912170411876314091e+00 -3.848612300484966386e+00 1.448147276026139352e+01
-1.917647991349197722e+00 -3.977299521067232391e+00 1.437085152051635362e+01
-2.106724277012218316e+00 -3.620114647472784775e+00 1.467368312068509439e+01
-2.301387041995071936e+00 -3.607404516396121696e+00 1.468881392453564771e+01
-3.460847872725752339e+00 -1.729097464819937535e+00 1.582293429772185078e+01
-2.228485733989167716e+00 -3.502765265067658174e+00 1.477062102436100943e+01
-7.630590224679250966e+00 1.368329094724418216e+00 1.509942792308725501e+01
-3.757086474048401126e+00 -8.622741036276146964e-01 1.622140614348591470e+01
-5.616202871308423106e+00 -1.526094821571365223e+00 1.571080461270447159e+01
-5.759025397310029604e+00 -4.545383156963305638e+00 1.244996475616200371e+01
-2.211504368929165132e+00 2.042327885205437177e+00 1.272249044104436422e+01
-3.265037313131932795e+00 -3.166763248733236669e+00 1.503971608550585870e+01
-6.581731970064590875e+00 -3.822050917920205571e+00 1.203484248402851620e+01
-4.386784060260598750e+00 2.582260328264594396e+00 1.416538492801285543e+01
-1.473716558474277516e+00 -4.080837310922444061e+00 1.427324147761367357e+01
-1.654136792586745397e+00 1.822753216640477181e+00 1.651126057096362842e+01
-8.024639204102701484e+00 -4.502589094709994466e-01 1.407880887252322211e+01
-1.565135583821207987e+00 1.312749869143338799e+00 1.202127044824270641e+01
-2.717427533128871531e+00 1.379235399279341578e+00 1.693725351147315195e+01
-5.408071490253289149e+00 -4.554023253777030433e+00 1.245050542424234052e+01
-4.596503954180626295e+00 2.422444080742179651e+00 1.201493348290052765e+01
-5.801321430672412127e+00 -4.435686273412249747e+00 1.237666425493896583e+01
-1.496363695285379602e+00 -4.279558287356680424e+00 1.409559504459258505e+01
-5.516195322249110689e+00 2.489408258017963060e+00 1.563865255811399635e+01
-1.535837855998292367e+00 -4.372883100034265169e+00 1.400081875527557074e+01
-8.069081013597342533e+00 -1.036010705097299756e+00 1.385994431362319190e+01
-4.386974276471621081e+00 -4.892321664882395282e+00 1.270606095338471775e+01
-6.168750427205472064e+00 2.116209500573884128e+00 1.673374397809147496e+01
-3.178588758047814267e+00 -4.549127652944105371e+00 1.250412216995157522e+01
-5.356278942644584262e+00 2.533907649259404149e+00 1.540079612220100813e+01
-2.979713252593267470e+00 -4.328581111203114062e+00 1.239004662560332903e+01
-4.471196464280225769e+00 2.649691927116315515e+00 1.679993531881054025e+01
-5.695808045016083732e+00 -3.712703340918629191e+00 1.450657802960939691e+01
-3.449910688363727829e+00 2.480997374179446879e+00 1.138053014799621820e+01
-3.913767311218054434e+00 -1.928038355269429793e+00 1.258566188292544652e+01
-4.874455478740069125e+00 1.339649891706631735e+00 1.165574776072324426e+01
-6.139581760282840861e+00 -1.230031659136475719e-01 1.620403588794111727e+01
-6.366162405506214483e+00 9.459486476778478092e-02 1.621471088320713250e+01
-7.204527786829008740e+00 -2.879345335278400420e-01 1.565839218469335492e+01
-1.765128794236075382e+00 -3.821082218717624990e+00 1.213408892601540501e+01
-2.957405256954767747e+00 -6.094561266585252213e-01 1.633435217906786363e+01
-2.513008128554306886e+00 8.055505792560608835e-01 1.677093450973978861e+01
-2.392277042570989387e-02 -2.831781542538687635e+00 1.339355459435833851e+01
-4.852064058188310547e+00 1.824638432608562955e+00 1.698272353425532089e+01
-5.505587670033657233e+00 1.443440278388244735e+00 1.676298999114017363e+01
-4.125373819291320743e+00 1.214444318648025156e+00 1.691176980900758053e+01
-6.954558780820892849e+00 -6.732489538753381186e-01 1.576839257134813010e+01
-1.090564714885966513e+00 5.642420256298932291e-01 1.615796982705538909e+01
-3.981496944589193898e+00 -4.887749615914144030e+00 1.270427607328653252e+01
-1.669285589368583178e+00 -3.979136966083443028e+00 1.436474116149781111e+01
-6.245157100383425863e+00 2.008051376736586846e+00 1.381310573915547479e+01
-1.504568866653541503e+00 -3.847908732858804637e+00 1.446654426974476593e+01
-2.743595543604158138e+00 -4.157931429769485376e+00 1.421071100683607469e+01
-5.509152100190404688e+00 1.659053067391305092e+00 1.681851480955819511e+01
-5.439920021421206009e+00 2.119588027025256061e+00 1.694772158343786828e+01
-5.926027865752639734e+00 -4.539796976643128978e+00 1.377420531455423003e+01
-2.064248596953560000e+00 -3.385826281715178965e+00 1.485453931601690059e+01
-2.307101717064119484e+00 -3.383421176993969937e+00 1.486399972524309376e+01
-4.819811888564649038e-01 -1.459838281987322128e+00 1.517296546121178125e+01
-2.566674480147288051e+00 -2.227562794487736308e-01 1.647594438612734535e+01
-8.063513026588562838e+00 -4.108398506360262381e-01 1.368660552446237944e+01
-7.965465413068067768e+00 -4.509567500931701556e-01 1.445213411237530465e+01
-1.804205841674973554e+00 1.812632601102344143e+00 1.351361640510377526e+01
-5.765482950634627457e+00 2.773462988401886875e-02 1.206408045864472101e+01
-5.257408802714336638e+00 2.726745366638660961e-01 1.212035680678123839e+01
-5.251684092509862900e+00 -1.780268493593306189e+00 1.562172781261909194e+01
-1.258259128510680114e+00 1.353587638824023553e+00 1.310817073629488405e+01
-1.992219231466978213e+00 -1.242668533138450160e+00 1.602577681839593282e+01
-2.812880675002587871e+00 -1.741325913984486995e+00 1.580816582002749016e+01
-2.623490454419532547e+00 -1.842432732036118459e+00 1.575677406682442694e+01
-2.513666384809626120e+00 -4.264851864591776121e+00 1.409619121279222043e+01
-2.817410365096515878e+00 -2.014229917013774074e+00 1.567831109604514950e+01
-6.827053538083618811e+00 -1.701077685879715418e+00 1.554622880037494781e+01
-5.497656421383668501e+00 2.542310452925909736e+00 1.684949414596956530e+01
-6.213828718535451934e+00 -4.209798040725718948e+00 1.223084977228293013e+01
-7.535208686485982410e-01 8.834339648232918396e-01 1.302986131686420279e+01
-2.710649092900934143e+00 7.759378054182488604e-01 1.677764834632379376e+01
-2.517204681725945470e+00 5.635093803908164389e-01 1.670601656969120796e+01
-2.319830859023930714e+00 3.758356664106501377e-01 1.664132354467857056e+01
-2.549339411318070958e+00 3.674081077597766143e-01 1.665622304924186636e+01
-6.782805434766059349e+00 -3.638038335725634731e+00 1.197925163778430502e+01
-6.984290039409994932e+00 -3.652201469531100919e+00 1.198316580072085813e+01
-2.154554841519416897e+00 -4.122155182856255706e+00 1.228404899189781574e+01
-1.767506918231465995e+00 -4.232665551239316315e+00 1.234998442547132669e+01
-1.568543891060795392e+00 -4.229002876836956304e+00 1.234911942501708992e+01
-6.756212531871348403e+00 1.915353050346259689e+00 1.524783759020436946e+01
-4.865488712347426081e-01 4.203286813197453231e-01 1.512888849032593086e+01
-2.594618874514964091e+00 -4.303276167497697813e+00 1.238340316011595732e+01
-1.988923068382875581e+00 4.265231718346915724e-01 1.661162752636226259e+01
-2.173384495270036521e-02 -3.614289277015915403e+00 1.278358485140690703e+01
-8.133804553319242459e+00 -1.429149525297327417e+00 1.347652125935425360e+01
-1.263319808297888258e+00 -3.425389455876163058e+00 1.477145998097090285e+01
-1.483865463965301279e+00 -3.618675082555533606e+00 1.464738669787253755e+01
-5.438211792594168870e+00 2.165050527388377777e+00 1.181725138796024410e+01
-4.348026617794253923e+00 -4.521109586795056146e+00 1.389418621394134234e+01
-3.768246090775191792e+00 -5.095760549988973764e+00 1.308130730335489034e+01
-7.405645714551660319e+00 1.548178591678525340e+00 1.548928043088683637e+01
-2.942292383591064375e+00 7.991748912589580200e-03 1.656523096048501742e+01
-5.338358409570874485e+00 2.427566316256263512e+00 1.442033501781177662e+01
-3.337795514680161446e+00 1.546826679512089964e-01 1.662397612566375926e+01
-1.795102252899565043e+00 1.917617264425426793e+00 1.556199670081172570e+01
-2.888429771029150217e+00 1.345777783472716482e+00 1.161828491058830792e+01
-2.852285151788501949e+00 1.475254389895483964e+00 1.156416971741192867e+01
-2.834781760937051143e+00 1.233284682707300739e+00 1.167115592695514081e+01
-3.854855455448269463e-02 -2.823367966345119662e+00 1.378152686171532437e+01
-5.234223978416522982e+00 -1.372581230654174700e+00 1.581702244132132762e+01
-5.629014354199468606e+00 -1.185794689802089907e+00 1.586271772547124215e+01
-4.809625267969507512e+00 -1.755308586960956596e+00 1.569196336848833795e+01
-1.268140670097187117e+00 -3.016234940761815864e+00 1.504399909468666863e+01
-5.022578197706477177e+00 -1.695420810068989370e+00 1.569028660340340764e+01
-5.018844457373266899e+00 -1.389414000343500932e+00 1.583668867676183112e+01
-2.690810923835131874e+00 2.189418541759332371e+00 1.138991519658722851e+01
-5.206402563712376974e+00 -1.126277794811801902e+00 1.593416601603411209e+01
-4.361306705478618095e-02 -1.433405370194250628e+00 1.335188019517105928e+01
-3.525862952303427278e+00 1.597991968401466956e+00 1.702774694488417140e+01
-4.186153381691273268e+00 2.577454532126814968e+00 1.387425622391090130e+01
-3.704511331710666155e+00 1.189882092012538806e+00 1.691787665646547367e+01
-3.488359527443432029e+00 1.403100865640888095e+00 1.697557509103192075e+01
-3.165082645922034921e+00 -4.515040603417384446e+00 1.387717979436784432e+01
-3.150208193372163734e+00 -4.757064489086536341e+00 1.361856539222659279e+01
-2.441697898618182982e+00 -2.394757601197064822e+00 1.548602397510440198e+01
-7.939379508618297443e+00 -6.429875329669924033e-01 1.457990313997588316e+01
-8.067715935642381098e+00 -8.491871995402417994e-01 1.366561288632770754e+01
-5.191297763882688265e+00 2.349210455392691799e+00 1.323983742408420028e+01
-4.916316027575036607e+00 6.422159386594648023e-01 1.666289705574664737e+01
-7.633059080725376866e+00 1.325806798338551307e+00 1.348768879301909607e+01
-5.334008387598935030e+00 6.179004931485561070e-01 1.657998404266693626e+01
-3.300886736684640166e+00 -3.728858490059400843e+00 1.462011553006009379e+01
-3.081898682046037230e+00 -3.626289197060827973e+00 1.469563380019479126e+01
-8.054910788547694267e+00 -4.301122017212354320e-01 1.348029042395269528e+01
-3.082308014155416664e+00 -3.267650161469022763e+00 1.496614879810566023e+01
-3.301927039044481482e+00 -3.504090853089567137e+00 1.479584009902482222e+01
-2.902810433660251821e+00 -3.520548934656437812e+00 1.477260966533597752e+01
-5.364411360226863934e+00 4.784988414517066246e-02 1.639215779860280975e+01
-3.697313442722122367e+00 -3.342109544218339057e+00 1.491848698059344969e+01
-6.438579486627898696e+00 2.002207912772965059e+00 1.464048614428048012e+01
-3.484575917413669011e+00 -3.399200808122520456e+00 1.487550605020492611e+01
-4.108745685403871306e+00 9.868035642887167391e-01 1.685425885901585730e+01
-3.902218768629830858e+00 1.026229683639761525e+00 1.687317864050461935e+01
-8.068476387367876868e+00 8.326739304417796195e-01 1.434798703790326257e+01
-4.674943218059427252e+00 5.358475191419855843e-01 1.203841782717706366e+01
-4.690049949007348395e+00 9.216804008778838320e-01 1.184960597821698869e+01
-4.941251284109446473e+00 2.992841962967673908e-02 1.645906055780578470e+01
-4.717970416808781486e+00 4.575312990974107485e-01 1.208081288835844802e+01
-2.883319045143633019e+00 -3.163877590164772435e+00 1.503753892809658765e+01
-2.456452731086138819e+00 -3.171397557237888076e+00 1.502276159854417159e+01
-2.274943127628771933e+00 -3.186120763938272482e+00 1.500737946741034889e+01
-2.905427682268469702e+00 -3.280119332407904320e+00 1.495388449066868120e+01
-6.251553955771376181e+00 -6.997785520594477227e-01 1.212108194487360535e+01
-6.083415138655499099e+00 -3.897496516082077811e+00 1.435962552481271715e+01
-5.887148858989563749e+00 -3.711120299146701829e+00 1.450609339057393754e+01
-3.486064199525039431e+00 -1.126888647032189050e+00 1.260555510527120049e+01
-3.560086132184721475e+00 -1.327435240474438505e+00 1.261779293831275339e+01
-1.293807659931177412e+00 -2.385132421708850536e+00 1.210706599905522651e+01
-3.718123247327131509e+00 -1.738010227669166907e+00 1.260248033517651933e+01
-5.208031460983852057e+00 -4.287258347936779401e+00 1.227956712956940066e+01
-4.971774245521029201e+00 -4.080615168089341438e+00 1.217772273899320012e+01
-3.383340700852895289e+00 -3.961654509685232028e+00 1.218861411700907027e+01
-5.215386494811559359e+00 2.304372126591353709e+00 1.282534941968684450e+01
-3.151557419490281564e+00 -3.872816020054974828e+00 1.214478564047400511e+01
-6.700312264956309605e+00 1.834951340227286121e+00 1.410006759834754320e+01
-4.133185145382610948e+00 2.627057492275284734e+00 1.519784146111995682e+01
-3.306805216693167626e+00 -3.823834889451271035e+00 1.454190769556391771e+01
-3.399460160502121298e+00 -4.545325731870716091e+00 1.249458962807568341e+01
-6.173138577862064658e+00 -4.034909041064308255e+00 1.212859372323177354e+01
-4.502391377132843431e+00 1.803744730819426767e+00 1.702864799512521898e+01
-4.595132490663607072e+00 -1.370386323910539605e+00 1.590653801046763505e+01
-4.803342072388579354e+00 2.570597976672817087e+00 1.440023153970239989e+01
-4.446191593072144954e+00 -1.595432191173013159e+00 1.582361468109272096e+01
-4.173736727344323327e+00 -1.553828256046595691e+00 1.587344027423029758e+01
-4.786037037435428410e+00 -4.032921631560467901e+00 1.216603302992184155e+01
-4.585355795407744850e+00 -4.141405543655191757e+00 1.222849465429121807e+01
-3.720776025205070781e+00 -2.125222088821923982e+00 1.254305783021338172e+01
-3.127054957488177411e+00 -2.337364818866356053e+00 1.246703674714335719e+01
-2.926297744461945793e+00 -1.737567703982779488e+00 1.254432974548591062e+01
-6.239541183208002550e+00 -1.715878257471075141e+00 1.559524197248438782e+01
-7.799794118569495227e-01 -3.179966442987927522e+00 1.206845114043771616e+01
-6.326919801216454253e+00 2.055560956771163905e+00 1.467972915107878507e+01
