-7.629153485202217588e+00 8.480678224532827159e-01 1.280486596997113224e+01
-8.279625102876394749e+00 1.279668358699023178e+00 1.371473938974333606e+01
-8.599828944438087319e+00 1.605113447048879483e+00 1.425284310743772664e+01
-8.976534984742912116e+00 2.172618443091575369e+00 1.506595206120645969e+01
-8.609632734612521432e+00 1.808020332212252557e+00 1.442178833603460930e+01
-2.870208066813242920e-01 6.071274054755178007e-01 1.628307284787140219e+01
-5.547044852850540941e+00 5.050694521942657111e+00 1.710719525862781865e+01
-5.991825167671639640e+00 5.012525929211178344e+00 1.696209978898010462e+01
-5.748290601571294012e+00 5.078505560573831623e+00 1.710505854873344589e+01
-8.928464557897502374e+00 2.536599037474836393e+00 1.531550198970688115e+01
-8.773397462640396327e+00 3.367466248486981950e+00 1.586358901946363886e+01
-8.618898737062405502e+00 3.445495196770042678e+00 1.580335823457858879e+01
-8.667944891388565054e+00 2.886866111482928154e+00 1.537446243802602908e+01
-6.012402343362690083e+00 1.016800660058209127e+00 1.160230677604739213e+01
-8.732308146937796778e+00 2.956147999401029569e+00 1.548531284148101150e+01
-8.590390932786444722e+00 2.792284861881409785e+00 1.523088265868421587e+01
-8.363690846525905442e+00 1.621860375162407442e+00 1.405987828866165046e+01
-8.388131905158044077e+00 1.800671093881572649e+00 1.422762580952014844e+01
-8.552265295025971881e+00 1.950404055069610454e+00 1.448802476287617935e+01
-8.474951228230583666e+00 2.115100449455625586e+00 1.456249631858377569e+01
-7.534308886597828270e+00 1.347719546093651077e+00 1.311959121418382779e+01
-7.789017770124322837e+00 1.208594316514015610e+00 1.322827682065020838e+01
-8.165042594730927306e+00 1.601760633135187017e+00 1.387357411390075868e+01
-8.032914551959905225e+00 1.857631940879547194e+00 1.397755542294776632e+01
-8.118282738821637423e+00 1.703287403765947339e+00 1.392001289632889893e+01
-7.286278281033966131e+00 1.103555655237156374e+00 1.270186036055060441e+01
-7.648847316383688977e+00 1.276255359285670465e+00 1.316041187958202130e+01
-7.364058867317115009e+00 1.195735212084950927e+00 1.284536129501101698e+01
-8.523012531692291560e+00 2.950651970882225861e+00 1.531368019709984196e+01
-8.268351472117181800e+00 2.071769766545656477e+00 1.435655894749066164e+01
-8.207309673139919326e+00 2.216872430129941396e+00 1.442961462656453620e+01
-8.458985311226548731e+00 2.856696824325733353e+00 1.518239807190457213e+01
-8.258522053627093129e+00 3.035839495128935361e+00 1.518284349630112473e+01
-7.986980606922170267e+00 2.416693940472846247e+00 1.442075190035590282e+01
-8.176138161665541304e+00 3.180340608329923491e+00 1.524838866540174109e+01
-8.011852540742708584e+00 2.834317984212161079e+00 1.481082939028181755e+01
-7.243224404335123268e+00 1.476812943031230452e+00 1.297403771373441117e+01
-6.304491908623470309e+00 1.120522246250724274e+00 1.189520162639119860e+01
-7.566538411562809152e+00 1.984900969169157481e+00 1.369013159321481510e+01
-7.332776454790793430e+00 1.553740581523118891e+00 1.311709504750346156e+01
-6.891615230109692902e+00 1.300611738721034749e+00 1.251806030863701835e+01
-7.187254148218526595e+00 1.615907131336961955e+00 1.304452105344753221e+01
-7.391209289231468915e+00 1.814831214993932074e+00 1.339215860861634155e+01
-7.033711983909364918e+00 1.664121249169023598e+00 1.296065181342428474e+01
-7.256290756996770064e+00 1.889837572566785084e+00 1.334607633255311043e+01
-7.558926066762629681e+00 2.394283005874271009e+00 1.404827111480623358e+01
-7.903002283289934482e+00 3.515897467958109868e+00 1.534117872818345774e+01
-7.711606063823333024e+00 2.757056527554009762e+00 1.450029885430199528e+01
-7.421327804480777779e+00 2.439614642479885021e+00 1.397887404503734388e+01
-7.206366627691031645e+00 2.223887451971998441e+00 1.361096166066504054e+01
-3.979281931708686493e+00 4.750398580175473562e+00 1.753452939652899545e+01
-3.343848482409966572e+00 4.588207613182007982e+00 1.789553641970493203e+01
-7.360230253344655971e+00 2.359246088861295831e+00 1.385647903301153860e+01
-7.593238216788963157e+00 3.006887901683017450e+00 1.463300722907906959e+01
-7.539152437737292267e+00 4.325752952922375272e+00 1.589864397185902334e+01
-5.030615755917352772e+00 1.590898745572646433e+00 1.181808122246425086e+01
-5.649049482195137806e+00 1.233420362592886788e+00 1.158628208758957356e+01
-6.904042024648546771e+00 1.930370936484226529e+00 1.310405943285620367e+01
-7.610014745844790873e+00 3.827251072326290693e+00 1.540869572229437523e+01
-7.050761727495489239e+00 2.289205544320513930e+00 1.354958814790641952e+01
-7.228134313101421959e+00 2.832570471611187468e+00 1.419162867616294932e+01
-7.061113124216854331e+00 2.483965954455065184e+00 1.374022671188016886e+01
-6.451502618747362305e+00 1.893387761754020904e+00 1.274285561227118535e+01
-6.670099727265736966e+00 2.124691899689362895e+00 1.311984898553389201e+01
-6.194558312077419693e+00 1.588665394284799914e+00 1.225547583591207967e+01
-3.184696109887676929e+00 2.754800140699958710e+00 1.498185671345500936e+01
-5.028871451338449816e+00 1.216700309894019449e+00 1.139699953432982227e+01
-5.249752236029635810e+00 1.205512734782724582e+00 1.141066312720723630e+01
-5.063543829661170115e+00 1.137040173369071372e+00 1.129151477798616554e+01
-5.404446103195661877e+00 1.187513390587372930e+00 1.143416260752618996e+01
-5.062659719576422468e+00 1.311241693828248511e+00 1.152545707890649851e+01
-6.234165226476983790e+00 1.858693276084074197e+00 1.257906519014716196e+01
-6.005320538470170888e+00 1.820065201628693341e+00 1.241332050217038585e+01
-6.233761094850320816e+00 2.046820604116441622e+00 1.278504007702805723e+01
-6.686539615029907679e+00 2.309913276723747355e+00 1.332209820703765502e+01
-4.585706063755459638e+00 2.814221534635735988e+00 1.380763283605008951e+01
-7.395150088710626513e+00 3.605606063436725073e+00 1.503696115799937871e+01
-7.252226755576161921e+00 3.260329378161150427e+00 1.461429622362254577e+01
-6.936655310717515732e+00 2.740551069452004107e+00 1.390684169779497381e+01
-7.167586283792102719e+00 3.379537694130411829e+00 1.466959749919470823e+01
-1.248451867698809448e+00 2.506772375038202050e+00 1.797755827767847592e+01
-1.040820083883308378e+00 2.147432162602361139e+00 1.775094332747490711e+01
-1.257144817768091949e+00 2.496525582962011214e+00 1.781533050704594245e+01
-1.218020094869369352e+00 2.392646351440847585e+00 1.756281095478428966e+01
-6.595048819187828704e-01 1.385542104915527206e+00 1.671392647947565280e+01
-5.780044420154312412e+00 1.772536789965583282e+00 1.224769940026087767e+01
-7.372491113390912787e+00 4.098251105379540071e+00 1.553631289206493449e+01
-7.241072399742352061e+00 3.655786641277356974e+00 1.498380110768496110e+01
-4.835937117711150535e+00 1.503530037425667709e+00 1.169408686685019916e+01
-6.835894965317415028e+00 2.861464318491748759e+00 1.396136983568592171e+01
-6.840009824801980720e+00 3.071354725826310084e+00 1.417541722820226369e+01
-6.064626575208651893e+00 2.108373751674740060e+00 1.275407574889730711e+01
-5.443614257999464634e+00 1.802128100528506138e+00 1.216917519520841751e+01
-5.602397128368568957e+00 1.973272845303251088e+00 1.244571389998697697e+01
-6.469085304531761338e+00 2.648218010666342437e+00 1.353645053563352718e+01
-6.027738215788214227e+00 2.439542220896155911e+00 1.320191948074590016e+01
-5.610706953365256489e+00 2.194103181933154900e+00 1.278668008365549014e+01
-5.631716093816694801e+00 2.289334431683598847e+00 1.293914382038253308e+01
-3.750006079296130501e+00 2.242440701800921588e+00 1.333822195032207247e+01
-6.382921436338222065e+00 2.755716356912718989e+00 1.366671342659642363e+01
-6.219390952970277553e+00 2.586652971259115752e+00 1.341982415405333739e+01
-1.090370186871728597e+00 4.408184446770679332e-01 1.393409144949080058e+01
-5.979832577161678486e+00 2.517377119494580207e+00 1.331079348219918046e+01
-6.802601902051864435e+00 3.517087794184791338e+00 1.473152444430583330e+01
-4.806352279284421769e+00 4.410771742516931937e+00 1.635148600764142657e+01
-6.818827877748689481e+00 3.156988283798871198e+00 1.427202265477810528e+01
-6.599823784019361206e+00 3.015347288831940364e+00 1.403752844353862628e+01
-6.216597378225368509e+00 2.754046639039699595e+00 1.365462666480888743e+01
-6.408036589066152366e+00 3.013619182590753010e+00 1.402019286088496131e+01
-6.052942317098911396e+00 2.762433740976770302e+00 1.365648075656503124e+01
-6.600950579409032848e+00 3.343841654309235079e+00 1.448288632876047188e+01
-5.227373836815794039e-01 1.106814389599140913e+00 1.634052864438374542e+01
-1.753558394552581001e+00 3.164645014096034270e+00 1.799248963408113156e+01
-2.245135555141761774e+00 3.699224705362134991e+00 1.803378394097363469e+01
-1.943122508325905162e+00 3.377845756317789938e+00 1.800211587716663786e+01
-9.322622502684227985e-01 1.841717300100663923e+00 1.692900706121243815e+01
-1.165625878505706314e+00 2.204154320009342083e+00 1.714722269144151312e+01
-1.716050687020721721e+00 3.043366072032482883e+00 1.774947125773498158e+01
-1.318945848958922307e+00 2.454419561037604502e+00 1.733592266237786106e+01
-7.320530230685013962e-01 1.460894035892529308e+00 1.652278810918623719e+01
-1.355514564196112381e+00 2.412163425434086683e+00 1.714160256513748237e+01
-4.019742459293422776e-01 6.305307146358951620e-01 1.546776544812857423e+01
-4.679017367579298425e-01 6.269506724806315212e-01 1.530413850621113170e+01
-6.380497592756519953e-01 1.194016151839114581e+00 1.612303785704266801e+01
-5.491601795778100481e-01 8.891475526440413280e-01 1.565596261295414848e+01
-6.157175604806759406e-01 3.073228470378093768e-01 1.447565046126769062e+01
-5.053184997649465826e-01 7.224417751460313064e-02 1.431477161358272809e+01
-4.145606831609423004e-01 7.364435141711564436e-02 1.448241311033667245e+01
-4.701432033911245867e-01 4.122227639449120296e-01 1.490490689448749606e+01
-5.762865290241478977e-01 7.136802800211849984e-01 1.526560579706077192e+01
-7.922644201654649443e-01 1.259531179289412162e+00 1.593047118994711298e+01
-5.789020752937014125e-01 5.182800236784603776e-01 1.490474747626070950e+01
-6.593668006306192542e-01 4.829306149100265899e-01 1.470825599479694290e+01
-8.071182821260748375e-01 3.560697199787955514e-01 1.424351589103056881e+01
-8.193425394911342252e-01 4.958332994851821218e-01 1.446725800858880717e+01
-1.461188039986439202e+00 5.189619632675752658e-01 1.351273894823868460e+01
-1.593717431525113692e+00 1.880867039463995916e+00 1.572771549044077943e+01
-8.771826075000390688e-01 1.363052884514672103e+00 1.597650518746480230e+01
-8.676787096546412226e-01 8.013374230915069063e-01 1.493865510967540189e+01
-9.948669361987290127e-01 5.489728175471770832e-01 1.427606917270544784e+01
-1.273625582584885230e+00 6.905569925829715405e-01 1.409741825001321303e+01
-1.222097020781210519e+00 5.212421454430462564e-01 1.387759915805222732e+01
-1.073448455051910111e+00 6.471194347998978635e-01 1.432977347080930031e+01
-1.043011500389185775e+00 7.047789757210558559e-01 1.448322894719222376e+01
-1.848805102604712758e+00 5.936557708156635638e-01 1.306762023855664978e+01
-1.252745013043603084e+00 2.134871732475210226e+00 1.679363987700920546e+01
-1.088639574197829418e+00 1.005715032468937675e+00 1.496394886977542882e+01
-1.627585911019001186e+00 7.700057877878396795e-01 1.370517266546815449e+01
-1.819963903846168130e+00 7.976329363957863627e-01 1.346241671818002317e+01
-1.201688632573361781e+00 1.287332207378427462e+00 1.530956034903404372e+01
-1.174856464236248899e+00 1.485269036136214638e+00 1.571289776861745224e+01
-1.336939594256707942e+00 1.711798613059230201e+00 1.586212984256121672e+01
-1.268337918411912124e+00 1.590976472457532820e+00 1.575430838681574386e+01
-1.354858116043936134e+00 1.517202865601950057e+00 1.548191453332390211e+01
-1.438161071321966800e+00 2.540045651719679665e+00 1.722715845040649896e+01
-1.644378565530851155e+00 2.744438169345312151e+00 1.719928559666207946e+01
-2.080911423603690302e+00 3.456594227166565503e+00 1.781281678546088898e+01
-1.517805531574801581e+00 2.473197571946589512e+00 1.693192115483479654e+01
-1.708895262051462138e+00 2.676957163322733813e+00 1.694539579981658051e+01
-1.475808182830527171e+00 1.784169515989803001e+00 1.575615001673444482e+01
-1.670816990259181178e+00 1.051792679394432328e+00 1.414712792971052835e+01
-1.571524308150934468e+00 1.149004452180364844e+00 1.447651046712289258e+01
-1.646281699107473129e+00 1.244130721805951856e+00 1.452722321467217625e+01
-2.303178939785782475e+00 9.242898035368012355e-01 1.295270692095399312e+01
-2.391169804933746423e+00 8.404535219074660279e-01 1.267459625140354973e+01
-1.550493703943667256e+00 2.075033100715915069e+00 1.614371240828261023e+01
-2.589179285192394708e+00 3.961147970079115233e+00 1.783644462837226286e+01
-1.620746032297512684e+00 2.042227617007534857e+00 1.596468590519714326e+01
-1.641926825896351971e+00 1.836642147270912018e+00 1.556971912672592850e+01
-1.668675873568994605e+00 1.630483450144727398e+00 1.516692792336267104e+01
-1.834571394569856295e+00 1.306604379632027024e+00 1.434182620374133421e+01
-2.008893115080177871e+00 9.873889207717840844e-01 1.351159930618969440e+01
-1.905006965060334734e+00 1.049808178297749528e+00 1.378197614665005943e+01
-1.810151752955552418e+00 2.592003179640546495e+00 1.660201172195381503e+01
-1.807340118475712520e+00 1.500717038146765603e+00 1.472096637925479001e+01
-1.882784769179297824e+00 1.622531782484085028e+00 1.481110003578136514e+01
-2.160390807068268693e+00 1.205625417992315596e+00 1.366159396676948035e+01
-4.583420770038264536e+00 3.895181230598797839e+00 1.563928918439476945e+01
-1.984405149161887039e+00 1.185007569888026469e+00 1.389788123141305221e+01
-1.947787540539468010e+00 1.355810900175763223e+00 1.425006045534765775e+01
-2.028444703944998651e+00 1.353247355436488775e+00 1.412112681418181381e+01
-1.841647795190658909e+00 2.389940600673640336e+00 1.619613059771953090e+01
-1.933857004573336313e+00 2.684542563455702968e+00 1.655004681504931341e+01
-1.883417805746742335e+00 2.552551235536815621e+00 1.640639194271995649e+01
-1.882967200791733298e+00 2.193829400632526738e+00 1.579257825524969405e+01
-1.861052268483382788e+00 1.684833478005677065e+00 1.495338536878364977e+01
-1.964441695402354693e+00 2.115991816483590693e+00 1.553630874600307976e+01
-2.021810858268630717e+00 2.425889145012217973e+00 1.598124557719037853e+01
-2.050373715743132763e+00 2.594687094137727801e+00 1.622436802325473337e+01
-2.175587347210790501e+00 3.039528272671668585e+00 1.678968678441727747e+01
-2.390043448579803442e+00 3.589164197488313057e+00 1.742223113122030753e+01
-2.934218963181058459e+00 4.011273209845321652e+00 1.741569428094332750e+01
-2.064665717144708701e+00 2.363620017946751695e+00 1.581475503287608575e+01
-2.134245528100559675e+00 2.142074796466090447e+00 1.532905715400858071e+01
-2.185944778224790497e+00 2.311829699433665120e+00 1.554881671916726305e+01
-2.137604853929476079e+00 2.361076015304294451e+00 1.570350735265930098e+01
-2.612363629858248881e+00 1.032015632747865785e+00 1.267638551468956365e+01
-2.451188735696967047e+00 1.164720219016840863e+00 1.314997055255633285e+01
-2.715340469293749948e+00 9.320739399865380914e-01 1.235065010380944983e+01
-2.290739603888551024e+00 1.266424382700973350e+00 1.356824453811654507e+01
-2.267313097619135576e+00 1.473562958188051164e+00 1.396458043885082390e+01
-2.440207243958702588e+00 1.353416884261575470e+00 1.349996137013601327e+01
-2.171474734200564249e+00 1.936428855843022045e+00 1.491549136249894758e+01
-2.510293085521863254e+00 1.831925909329490842e+00 1.424398651584844089e+01
-2.210556182098717404e+00 2.110851169056727539e+00 1.516230311332292757e+01
-2.226414603558814598e+00 1.893337839405520029e+00 1.475875972667662239e+01
-2.253248885046654326e+00 1.686474024563110907e+00 1.435714681101593015e+01
-3.108819550906820606e+00 1.134890238968251586e+00 1.216364962784503234e+01
-2.418494017879599500e+00 1.564141297196729674e+00 1.390187631241323629e+01
-2.300161473328728778e+00 1.629595939482534117e+00 1.418817520913281527e+01
-2.655920869298572740e+00 1.323497892207240234e+00 1.314070551642578977e+01
-2.580980730736837980e+00 3.238932170905163499e+00 1.660055304380799157e+01
-2.259510617875209348e+00 2.761785614462387350e+00 1.622017116384445501e+01
-2.378972600277644123e+00 2.715098795303749313e+00 1.597560620129472397e+01
-2.422439807395974753e+00 2.991669437191351921e+00 1.639201861953257122e+01
-2.290487214378361003e+00 2.188439792207197421e+00 1.518162772981704478e+01
-2.343423563121763920e+00 2.544333810834151777e+00 1.572855768737411353e+01
-2.390379825746340448e+00 1.771779229038185965e+00 1.430650285106600705e+01
-2.408154483914045407e+00 2.269561570322898181e+00 1.515643409013292597e+01
-2.426231515955946882e+00 2.063444381773085201e+00 1.476895927961624722e+01
-2.487889295032957637e+00 1.652766576738804893e+00 1.395867767286557637e+01
-8.007672376299179717e+00 3.250874434767521581e+00 1.518231437549231089e+01
-2.744760487964635676e+00 3.482851762206324420e+00 1.679419289895098899e+01
-2.788225565861764288e+00 3.414016328743608497e+00 1.662540355516750878e+01
-2.638182927542177314e+00 3.183917104367439688e+00 1.642931168517372242e+01
-2.513559760846807656e+00 2.925871920640146229e+00 1.615397915663847073e+01
-2.550123005019395706e+00 1.803453333145438098e+00 1.413815111920295209e+01
-2.560077507739243696e+00 2.168613284656019768e+00 1.476812635294843545e+01
-3.244091604519417693e+00 1.216201411529828524e+00 1.213347478295356296e+01
-2.765016487410464130e+00 1.615094737914779977e+00 1.350901685150792986e+01
-2.709926095975130789e+00 1.503397590723243082e+00 1.338624704033664159e+01
-2.649601900808499000e+00 1.673027091635565622e+00 1.377009464999429866e+01
-2.920184583105651654e+00 3.717297317175074500e+00 1.695550797252155917e+01
-3.154004409211870197e+00 3.901366610489484188e+00 1.698783088470754166e+01
-3.293277430605563438e+00 4.114643536835559168e+00 1.716764950902428666e+01
-8.157964609406501921e+00 3.430702460670656539e-01 1.287838840848085198e+01
-3.750990153188744625e+00 4.600427607613720049e+00 1.748442415208759826e+01
-3.100707900990315125e+00 3.718832852425873359e+00 1.675517307684565083e+01
-2.568698256700519433e+00 2.523430376050718849e+00 1.537991267444855481e+01
-2.640691649464031343e+00 2.251337500091479260e+00 1.480345910169376111e+01
-2.810019007830217852e+00 2.485225549275717594e+00 1.499077404718892836e+01
-2.765588266328647737e+00 2.190226256922950032e+00 1.452814811427477082e+01
-2.846138745109183965e+00 2.634558273992273936e+00 1.520659334715039535e+01
-9.269370401034663587e+00 6.317029560310133407e-02 1.392310655721924917e+01
-2.866064013251649278e+00 2.425018584905116459e+00 1.480966067514589923e+01
-3.069728649990555169e+00 1.534106637849913746e+00 1.294992109907497024e+01
-2.885842956722189268e+00 1.881818181931059986e+00 1.381876160285633404e+01
-3.048184334326564215e+00 1.741008173259221969e+00 1.335002339842552033e+01
-3.164075249628954811e+00 1.455454603422231319e+00 1.267888312435452036e+01
-2.818972660237589523e+00 2.837471408695827702e+00 1.559833094969870615e+01
-2.862033769957078366e+00 3.011932935370447151e+00 1.584624803582801178e+01
-2.934351046100477589e+00 3.125251955717283092e+00 1.595164386827255498e+01
-3.835911497635354550e+00 1.304038138023565274e+00 1.169144883802520241e+01
-3.938879324754605005e+00 4.317265802357907134e+00 1.683889911085652358e+01
-2.878573264996597381e+00 2.078876963363130326e+00 1.417932095573945617e+01
-2.983769869294670141e+00 2.371110805441428937e+00 1.455933507827219842e+01
-3.012556490315050794e+00 2.160189940534996467e+00 1.414546772463840796e+01
-3.188172981276030438e+00 1.833211995949208806e+00 1.332708615466570734e+01
-3.138987633080760453e+00 2.948692083473770875e+00 1.538535372775140075e+01
-3.496156295422364835e+00 3.740039274722756435e+00 1.633704736419251446e+01
-3.418963415870143852e+00 3.416593766058573678e+00 1.586101705748281887e+01
-4.016909477493224578e+00 4.387722209950936758e+00 1.687578799926389905e+01
-3.076424611291029176e+00 2.466690541881794374e+00 1.460814339872683121e+01
-3.152834037579904880e+00 2.025275751022920456e+00 1.371774428697791848e+01
-3.213240751584947930e+00 2.327420664957500662e+00 1.417939214693377892e+01
-3.230958108317169675e+00 2.116280956381336953e+00 1.377733189732718699e+01
-3.766619271641637567e+00 3.875519807019555785e+00 1.624225845941591473e+01
-3.455008954938026289e+00 3.226916626442820402e+00 1.547775828995235514e+01
-3.424310954267446583e+00 3.063626349520345293e+00 1.522491857863616360e+01
-3.344728613307374587e+00 2.612563381468485435e+00 1.451892097729729869e+01
-3.424050358166363495e+00 2.854252094134717588e+00 1.484968611871573074e+01
-3.356709954344609503e+00 2.407564035230356225e+00 1.413487293686533519e+01
-3.393597045034340898e+00 2.213604291604553520e+00 1.373767113398520934e+01
-3.444952248210066958e+00 2.490599539583679523e+00 1.416851696895578527e+01
-3.585302959780640730e+00 1.663837666923628555e+00 1.249665223490213606e+01
-3.772230879455049202e+00 3.520811695211131465e+00 1.559694727446121476e+01
-3.713787579828736529e+00 3.575677842708857135e+00 1.577070822871595368e+01
-4.273464063847159267e+00 4.721146821318700226e+00 1.719680997184402571e+01
-4.136297938569061472e+00 4.461912296297234626e+00 1.686327767938281141e+01
-3.565970366848323803e+00 1.869099797322603784e+00 1.289103053308382130e+01
-3.578604779144827663e+00 2.947437153585828362e+00 1.481617561114072856e+01
-3.742646573359300621e+00 3.378383796662923988e+00 1.537897540025796417e+01
-3.777418391386753171e+00 3.306050996490192073e+00 1.520740660190958948e+01
-3.663210098684182459e+00 3.041776206733388221e+00 1.487590474855201705e+01
-4.226638689898356560e+00 1.323781772674280655e+00 1.147970921416833079e+01
-4.111790552639059015e+00 3.945543809064635532e+00 1.598950404108229861e+01
-3.935505755329833377e+00 3.380148661812292676e+00 1.517611183634326721e+01
-3.801257491693591728e+00 2.528183720947541957e+00 1.380534376852052247e+01
-3.831103769300360007e+00 2.319277910263946030e+00 1.339192587467176310e+01
-7.162663544716941999e+00 4.022853744809079757e+00 1.539892799988486161e+01
-6.973941771280250279e+00 3.765776500231532875e+00 1.505729391022963171e+01
-6.796246265139041398e+00 3.600083252457165983e+00 1.483134499289169383e+01
-3.998564595229467944e+00 3.458309523087484294e+00 1.525996756289916334e+01
-4.542775747796825137e+00 4.729963215508141694e+00 1.701731374290970678e+01
-4.745698606927994057e+00 4.832254676046602526e+00 1.708653343079700448e+01
-4.348533427230475645e+00 4.454230629922718343e+00 1.667245327992441872e+01
-4.555558954533230676e+00 4.638867756882975257e+00 1.684906138363190564e+01
-4.367014500037730507e+00 4.608586118880300120e+00 1.692835246288503015e+01
-4.148601616024509831e+00 3.584364910211987443e+00 1.537446969050193246e+01
-4.555388619561321129e+00 4.120296402832218874e+00 1.601534478572794029e+01
-4.389360458868895698e+00 3.850333665709782416e+00 1.566873734954281616e+01
-4.001382881722852503e+00 3.092930774209796674e+00 1.463358172349467878e+01
-5.543304437632328607e+00 4.918993658585931072e+00 1.688656705974922545e+01
-4.753900499425419923e+00 4.325110825252766134e+00 1.624351640446214873e+01
-5.165363020360093316e+00 4.629463795478542032e+00 1.653000710249851579e+01
-4.927838722949077876e+00 4.368683100284616039e+00 1.623006506318439790e+01
-5.344966699954015965e+00 4.659159563762475642e+00 1.649820609299389673e+01
-4.981493504081199397e+00 4.444309791130005571e+00 1.632547255257177454e+01
-5.096138177075127729e+00 4.401127409318083217e+00 1.620566938067355522e+01
-5.179167191736228304e+00 4.474145513851856215e+00 1.628360015365218061e+01
-4.377878758422926175e+00 3.576831410503443998e+00 1.522367793819371684e+01
-4.789571504203550489e+00 3.945687399548766017e+00 1.562063239239351731e+01
-4.215238331261235594e+00 3.073688599269581712e+00 1.445532671566811445e+01
-4.527969023258723524e+00 3.625016696601514266e+00 1.522114488031981949e+01
-4.380913472361761762e+00 3.339985702486755414e+00 1.481878508631112368e+01
-3.987372322054056450e+00 2.605015584612285995e+00 1.377498417633398020e+01
-4.957696447253955085e+00 3.980663864359383908e+00 1.560261507015292892e+01
-6.556848331214071735e+00 4.758152431920987802e+00 1.647762890894185261e+01
-5.974151086666236843e+00 4.637019463995985191e+00 1.633095945407291794e+01
-5.364858895382190518e+00 4.260882366470869265e+00 1.589678142070559375e+01
-5.164041308245609585e+00 4.173984589869668582e+00 1.582626823775910196e+01
-5.977457865168039675e+00 4.578910399898477479e+00 1.624674330903948061e+01
-4.788185107300653165e+00 3.585399409047826502e+00 1.503134267949702974e+01
-5.378753082729194723e+00 4.108064934786737510e+00 1.566310558939212427e+01
-4.223757913683055421e+00 2.523982398640694402e+00 1.344169962856434353e+01
-4.071085304650143399e+00 2.132157665264938995e+00 1.281185430074570775e+01
-6.590288953620177637e+00 4.585390417500210702e+00 1.622937757827009619e+01
-6.890952331398226605e+00 4.665298777908676087e+00 1.634457667146060089e+01
-6.563037797894030412e+00 4.663711952739552302e+00 1.633749609115066903e+01
-5.282883790533400514e+00 4.020521535631822019e+00 1.555751451590293755e+01
-5.371317850590013876e+00 3.874219472185112423e+00 1.529855659775433452e+01
-4.775372928807500195e+00 3.432934647226001612e+00 1.477931070454796014e+01
-6.760712100375532607e+00 4.514081207480817426e+00 1.609126707881842577e+01
-5.575620840733771288e+00 4.054169642590322198e+00 1.552389935475135019e+01
-4.800365476088369832e+00 3.274772820490379655e+00 1.449902208319359431e+01
-4.968684779558672382e+00 3.391118003914071810e+00 1.463776426119813578e+01
-4.185033059823974000e+00 2.253465489783061049e+00 1.296132110480762378e+01
-4.228283104461807440e+00 1.401350107130118428e+00 1.158540633424127009e+01
-4.215523865731171327e+00 1.671346460991147920e+00 1.197476827133474586e+01
-4.087527937832382108e+00 1.555250704370060300e+00 1.185301427927665685e+01
-4.200395040118209522e+00 1.956697169657924729e+00 1.243308570274271574e+01
-6.774666849479400454e+00 4.139831642403995815e+00 1.552262077444512300e+01
-6.767969992244461608e+00 3.959136808051161083e+00 1.528636355927780244e+01
-6.578899594800965644e+00 3.938644295282853314e+00 1.526495794922958282e+01
-6.362022493784897925e+00 4.357785947050233588e+00 1.586476763287765834e+01
-6.145679301850957010e+00 4.024100346646808823e+00 1.540540189313864516e+01
-5.781480572325802036e+00 4.006172904195527629e+00 1.541960070287628781e+01
-6.166951072558862101e+00 4.097739822139034871e+00 1.550927933169932516e+01
-6.546460189677015151e+00 4.360922621847037384e+00 1.585334393633741712e+01
-6.980658808404681004e+00 4.514931642563952074e+00 1.608320316891882129e+01
-6.752519099978381512e+00 4.296666909724793371e+00 1.574413122600046933e+01
-5.170453121202498892e+00 3.554308519988966797e+00 1.484922164820788026e+01
-5.240204559930656814e+00 3.462387183324748818e+00 1.470424979565310508e+01
-4.779045622150805528e+00 3.045937640982593120e+00 1.413757460065338023e+01
-4.807871585861810182e+00 2.660123986729911572e+00 1.354609836241140641e+01
-4.593985231797161894e+00 2.646919002385247133e+00 1.354177439301636809e+01
-4.803497804574335284e+00 2.572406572213230991e+00 1.340197332354741633e+01
-5.015461427692596175e+00 2.978904846771295301e+00 1.400989070359067057e+01
-5.022344650011608458e+00 2.742402570554860031e+00 1.365009813269023908e+01
-4.819661676946849660e+00 2.881634109594579218e+00 1.388171454804383131e+01
-4.800466186844584371e+00 2.823571561919592909e+00 1.379565096166678018e+01
-5.219040680647092145e+00 2.144637441128297795e+00 1.267955708285231964e+01
-5.030280003518268650e+00 2.194906203484952911e+00 1.276268643691589233e+01
-5.284840016032571697e+00 2.291074118979445462e+00 1.292177418092370544e+01
-5.215794205789397786e+00 2.447622557783086350e+00 1.318226419766779856e+01
-4.436236089357363355e+00 2.180481295912134243e+00 1.277965352140360977e+01
-4.656620038623463742e+00 2.071625761586413983e+00 1.257238040062506457e+01
-4.428384452505017777e+00 2.058539107251889710e+00 1.257390623025893461e+01
-4.803768623332159926e+00 2.450790298525418631e+00 1.319744659001546694e+01
-4.822617702213868540e+00 2.206835602010297048e+00 1.278569478821024319e+01
-5.010360619274145222e+00 2.449162685327546551e+00 1.318606796320428032e+01
-4.616372537728375747e+00 2.279107632232465708e+00 1.292721015721985367e+01
-4.442617378238938208e+00 1.576300354382574653e+00 1.181888590389882410e+01
-4.461747380096642956e+00 1.410017034088728582e+00 1.157540665794854107e+01
-4.505029061570829718e+00 1.746526191167466768e+00 1.206105773888132404e+01
-5.599297407560935191e+00 2.586331792379786609e+00 1.339713534602346101e+01
-5.574331663456888464e+00 2.900253669155313574e+00 1.385616616662250777e+01
-5.827190362093567444e+00 2.754268037246650369e+00 1.364175478527849350e+01
-5.381072966693408510e+00 2.676094466627663593e+00 1.353598023938498329e+01
-6.052664071150512193e+00 2.932250556522965290e+00 1.390216033204817592e+01
-5.818975021741526810e+00 2.851458803920443597e+00 1.378419758593913258e+01
-5.445231802496869555e+00 2.921262842464587894e+00 1.389196459873139133e+01
-5.392652808121252583e+00 2.840355791132890051e+00 1.377572519357209302e+01
-6.405004422191192148e+00 3.338660271701181514e+00 1.447019095139522449e+01
-6.201682809331333424e+00 3.018632994661924585e+00 1.402068369951251015e+01
-6.000995319581996057e+00 3.018549428362595322e+00 1.402304393363875334e+01
-6.156223396719210150e+00 3.532951809421579714e+00 1.473020750934156098e+01
-6.317520349906012633e+00 3.690108564680466330e+00 1.494252738847581696e+01
-6.004854829704759034e+00 3.681982921950451182e+00 1.494011604821827888e+01
-6.209989192694616023e+00 3.585336990465398443e+00 1.480098333410241906e+01
-5.783202491822402536e+00 3.578565063161944337e+00 1.481392122300994174e+01
-5.973341498372230163e+00 3.592375697422242720e+00 1.482018660962477696e+01
-4.743406815332536830e+00 4.974351245216953821e+00 1.736823378572430698e+01
-5.356181264695676347e+00 -1.027790325887637524e+00 1.858151175790521847e+01
-1.469910375935952862e+00 2.865814180382272980e+00 1.814550239860903957e+01
-4.540573166787239323e+00 -1.498958884059120367e+00 1.875412340528622224e+01
-3.168615691611896601e+00 -1.722697396885359167e+00 1.893894505757513258e+01
-4.867129648568811362e+00 1.132248568733136063e+00 1.126383556646337780e+01
-4.546543538702079168e+00 1.153934462979328224e+00 1.124885911341970512e+01
-3.417248684219899690e+00 4.537527205021346433e+00 1.773512947843653365e+01
-3.984710645818543284e+00 4.943138997621315589e+00 1.775706517358342751e+01
-9.117818105919514693e+00 2.529096139171873592e+00 1.550527053023432700e+01
-9.114269186033634895e+00 2.767127993942279929e+00 1.571479233292537003e+01
-9.068018693484258819e+00 2.867262487288456008e+00 1.574648623916027645e+01
-4.764552907947846805e+00 4.183397904804440515e+00 1.601300348619853509e+01
-9.421227809714398660e+00 -1.766595280382760036e+00 1.452589796803736277e+01
-9.411817090359438254e+00 -1.895553574213393544e+00 1.455062834936928340e+01
-8.950626556086263008e+00 -1.332045434620557689e+00 1.344659303509693871e+01
-9.199366323514265531e+00 -1.479260557586957736e+00 1.398338285011320892e+01
-9.366774385772117739e+00 -2.974186398568046119e-01 1.402441965854388428e+01
-9.193694179186842064e+00 -5.394310961447936759e-01 1.376298828647660599e+01
-9.203693081628998129e+00 -6.906374878082879309e-01 1.380406035701894041e+01
-5.599558742093401875e+00 3.487433294857075428e+00 1.470194751215316131e+01
-9.145881154390412604e+00 -3.179157521302160561e-01 1.367384139444712332e+01
3.634540443057676651e-02 -2.623203811340832026e+00 1.678708283245423871e+01
3.438380687019071402e-02 -2.044322380662004335e+00 1.713251520035822040e+01
3.580513583434696834e-02 -1.805368374676846299e+00 1.706146672252529584e+01
3.998991184441652580e-02 -1.699867609775839394e+00 1.680673215993056147e+01
3.413909036026396837e-02 -1.352841520393434083e+00 1.647242275672486755e+01
4.364786686105004421e-02 -1.281139792026871227e+00 1.614209552473548825e+01
3.882285682412950356e-02 -7.106608473037065998e-01 1.533102191831032002e+01
-3.267017915514857651e-01 6.613739905064126567e-01 1.766145973724857043e+01
-1.454691965863121883e-01 -2.139107544317693788e-01 1.474081758090061101e+01
-8.942878215663522923e+00 7.705564745788132108e-02 1.345419942492385701e+01
-1.318732305224306622e-01 1.272956963677984721e-01 1.638333523705128414e+01
-9.358311525822674781e+00 7.809236270610500075e-01 1.441241039174448701e+01
-8.593074890279595479e+00 4.195661027589836500e-03 1.302776171408460471e+01
-8.747681773275161277e+00 1.464782910669080729e-01 1.328565555119830321e+01
-9.164912345192703924e+00 5.822403971152856350e-01 1.402969298025972478e+01
-9.311325267519531934e+00 1.966213376069807062e+00 1.529589180080456856e+01
-9.001472060513915352e+00 8.310788578317296338e-01 1.404884769476997519e+01
-8.782098347630892476e+00 6.055365477417098408e-01 1.365257940170336326e+01
-9.111101284011642321e+00 1.282783386012807947e+00 1.451184743876810046e+01
-8.500081986701829351e+00 4.921784672818096396e-01 1.329892283730738001e+01
-6.946465966276336168e+00 3.658343511481275123e-01 1.185658095400147261e+01
-5.080001809699773441e-01 1.086069468276327443e+00 1.716078760188023011e+01
-3.241021317716608618e-01 6.777033956003530868e-01 1.654523846942358034e+01
-9.101915828997427127e+00 1.820220334542904883e+00 1.491260687018679221e+01
-5.632348021629693946e+00 2.846214459238403105e+00 1.377686396379004918e+01
-8.516871500171379950e+00 7.057334554215206612e-01 1.348460442427285955e+01
-8.551650662679680437e+00 6.152815016001074166e-01 1.344575534080999546e+01
-7.376362224878467266e+00 3.871647538340468597e-01 1.223189349146836236e+01
-6.120732140399693044e+00 7.589954180350424462e-01 1.147928580240739649e+01
-6.179961876213117655e+00 6.047695522121112610e-01 1.140816247584024268e+01
-6.765118175197449624e+00 5.577706578175070096e-01 1.184242290983052470e+01
-7.742606538743791234e+00 5.494192954535161988e-01 1.267426923164526187e+01
-8.173688030341519806e+00 8.048802807909820611e-01 1.325419021472619363e+01
-8.751809217820955666e+00 1.191589923282889041e+00 1.407047143091737240e+01
-8.320693640444471129e+00 9.575704262405471123e-01 1.350265254111981506e+01
-8.562703129420917492e+00 1.404087600300995220e+00 1.406426606849130678e+01
-7.320669608757418345e+00 7.494393279892612725e-01 1.245533229736658143e+01
-6.328685986607351488e+00 7.856089671463659663e-01 1.165320398863944007e+01
-7.574924094320240719e+00 9.758956629024444496e-01 1.285564816627714180e+01
-7.920308207719130245e+00 1.152653726373763066e+00 1.329844979974581065e+01
-8.509167698250365675e+00 1.525832261197327622e+00 1.410853005013918704e+01
-8.905049822824786077e+00 2.086337935222094764e+00 1.492144462226919899e+01
-6.144446843069141018e+00 5.026205128819762002e+00 1.694639509909371355e+01
-5.831369494391127617e+00 4.998907852858323508e+00 1.698285232987772986e+01
-8.942162563955807997e+00 2.748889940830077094e+00 1.550573357030422272e+01
-8.885857594263665504e+00 2.664363027470093126e+00 1.537716840621564529e+01
-8.708506469455475241e+00 3.291416107127192348e+00 1.574674018527765895e+01
-8.717458650594902991e+00 2.774450360191749620e+00 1.531968839367034718e+01
-8.642898408932932597e+00 2.642845072666744954e+00 1.514604507631749897e+01
-8.719912579238187078e+00 2.516151812695050616e+00 1.510172704715593994e+01
-8.299247376757865169e+00 1.511323113541798380e+00 1.391518032284832884e+01
-8.564979889104179733e+00 2.161848858963294706e+00 1.467428334637570231e+01
-8.498588730484623710e+00 2.276771055638696417e+00 1.471872155053794273e+01
-7.933443523121685992e+00 1.571554619577250511e+00 1.365242277165413753e+01
-7.863512425408244688e+00 1.702814201807067995e+00 1.370152627708715443e+01
-8.455902745359406225e+00 4.024890264253710548e+00 1.619407186205350513e+01
-8.264008991887935807e+00 4.118972448991612190e+00 1.617846667192731758e+01
-7.913709506470372190e+00 1.919587164194529461e+00 1.392934007454432788e+01
-8.147802724802188479e+00 2.351923430879521604e+00 1.449586267066577960e+01
-8.205581280949592937e+00 3.271809312476213982e+00 1.535282372999837719e+01
-7.307303646001064301e+00 1.319409823579143604e+00 1.289754643178360993e+01
-7.698922263552749001e+00 1.681840790943302411e+00 1.354257670993683149e+01
-7.719582907149431961e+00 1.924390244055615984e+00 1.376810217834023575e+01
-7.964476066156715994e+00 2.751937832867088041e+00 1.469936206496261377e+01
-8.058066436050497217e+00 3.420251451303090828e+00 1.537323454120570432e+01
-7.377292366301372084e+00 1.622600190786642971e+00 1.321439134188042885e+01
-7.176905051875237085e+00 1.394238929672159122e+00 1.284631360438678627e+01
-6.387653631280408639e+00 9.833174442184762221e-01 1.183610294740389435e+01
-7.721648912994775849e+00 2.530235083067133406e+00 1.430394498435114770e+01
-7.519074839704853019e+00 2.129662746052568334e+00 1.377720723080290810e+01
-3.001271695174533960e+00 4.314236408595233385e+00 1.792584788877233137e+01
-3.852795990753572042e+00 4.717156244867687143e+00 1.759618789152754204e+01
-6.543948585139061969e+00 1.355634651006057290e+00 1.228409733042747121e+01
-6.774619577172789064e+00 1.571641703456324812e+00 1.266980147599583972e+01
-7.630466827154783971e+00 3.099027894763238589e+00 1.474638303113120941e+01
-5.886484266066050353e+00 1.175759720147042220e+00 1.165690196117323296e+01
-5.779457534995722234e+00 1.211084627324469531e+00 1.162922612229323960e+01
-5.945141238371524750e+00 1.358862852492905615e+00 1.186858173441960673e+01
-7.141438719219798337e+00 2.156940388199757308e+00 1.349819634271852209e+01
-6.676480148155365946e+00 1.911696438929233910e+00 1.291344374282233076e+01
-7.315442034659056070e+00 3.120434381689887626e+00 1.452443525876387298e+01
-6.562931687366379663e+00 1.954353657941926947e+00 1.287787814885431459e+01
-4.855117627232893973e+00 1.222392671336172576e+00 1.138578877832033243e+01
-6.566849107024371968e+00 2.146568815773862937e+00 1.308269859777288247e+01
-7.330357631237294669e+00 3.314616936054341156e+00 1.471958988425002701e+01
-7.077632983196894934e+00 2.900470953368333049e+00 1.415382740023143526e+01
-9.024008794949459622e-01 1.873259959291655452e+00 1.729278729244993684e+01
-3.262213491349417738e-01 7.102591102125868083e-01 1.607112367076047121e+01
-7.026702114541788502e-01 1.498029507140996142e+00 1.697999175044055420e+01
-4.637991132098783886e+00 1.324396413260951366e+00 1.148128975398821439e+01
-5.900661080694463934e+00 1.747633311748623353e+00 1.227610059223829353e+01
-6.180975395009296491e+00 1.958392484705353098e+00 1.266287372805292222e+01
-6.525184209738248420e+00 2.361659949159798710e+00 1.328013169424328055e+01
-6.288437668849476303e+00 2.122349469003769862e+00 1.289523608113353248e+01
-6.653986627237515883e+00 2.526376196940697927e+00 1.352201410301390183e+01
-5.186810122790701527e+00 1.570123507626513426e+00 1.182201969695076116e+01
-6.981573156875986896e+00 4.453180500135244024e+00 1.596729883081722789e+01
-6.551403313131975104e+00 2.549676926413124267e+00 1.348124309434216173e+01
-5.821392536159322617e+00 1.964348306636411134e+00 1.246808811691990115e+01
-6.055608455523691092e+00 2.195488790256288958e+00 1.284923345085513802e+01
-6.144029332889171080e+00 2.194040024368265840e+00 1.288656165818388644e+01
-6.432169331156305070e+00 2.573844364870510493e+00 1.343962330735638488e+01
-5.127656603650366129e+00 1.750870174875429175e+00 1.205706176694899767e+01
-6.126215459663836072e+00 2.355956834461326643e+00 1.308702706714853292e+01
-5.860100215344596464e+00 2.300819201861393104e+00 1.298342998378963387e+01
-5.467618546900017584e+00 2.307363563442970555e+00 1.294873495121304074e+01
-5.441108691065624114e+00 2.139581951576900121e+00 1.268132611010501876e+01
-5.637216783693820510e+00 2.361884421527121081e+00 1.305409272864594783e+01
-6.189943013388604420e+00 2.687176068523997596e+00 1.356073208360817262e+01
-6.624634725503996791e+00 2.922565684579346179e+00 1.391503358424739645e+01
-6.367312167310260840e+00 3.097723686772108298e+00 1.413400461279764642e+01
-3.585761673287578555e-01 6.672641842729913897e-01 1.566192157394047513e+01
-2.045755962101939662e+00 3.499141966777115531e+00 1.803918052422382345e+01
-3.211205005189683437e-01 3.955447477443479465e-01 1.517837686114302187e+01
-9.202500175951311423e-01 1.674172296685805028e+00 1.651735138558172622e+01
-5.505854410006297828e-01 3.532790698915093119e-01 1.465617213441946376e+01
-9.109991427416045395e-01 6.087785969268770803e-01 1.451883340070042294e+01
-1.375388312906066890e+00 4.033577286671524154e-01 1.343317065305962643e+01
-1.346941277989580632e+00 4.323996854056333938e-01 1.352985522355435677e+01
-8.428860735055837550e-01 9.949900844036403402e-01 1.533470456811731708e+01
-9.482431000498319218e-01 9.269906035188726356e-01 1.503876653613098568e+01
-9.277275489272447384e-01 1.112517138026202224e+00 1.541701258296524202e+01
-8.985635122782150708e-01 1.156283955729001223e+00 1.554712091490688408e+01
-1.135892268362353796e+00 6.185020411167772014e-01 1.417833166352019703e+01
-1.162512465932486139e+00 5.732448274777914854e-01 1.405889242460707322e+01
-1.306558236359195213e+00 6.363253816679133035e-01 1.395266868725414611e+01
-1.107191105686392341e+00 8.120383946484996951e-01 1.457648387824472991e+01
-1.761251325715132321e+00 6.302560108268360217e-01 1.325647699619868547e+01
-1.585332044226417381e+00 6.079782588689019995e-01 1.348028533918913752e+01
-1.475569180440146733e+00 6.493100472611874618e-01 1.371875686204565170e+01
-2.146579945794510280e+00 6.917103886753885877e-01 1.279031928151815123e+01
-1.745275357980544229e+00 8.235157421241656728e-01 1.362122397629258330e+01
-1.532645387865815723e+00 8.379630794301444752e-01 1.397375338309798565e+01
-1.256014719283096159e+00 1.937224957030327044e+00 1.641656870972975923e+01
-1.298479067706285628e+00 1.776745613682241931e+00 1.604161301168407761e+01
-2.264411500995035631e+00 3.641395898701096812e+00 1.778601918720212893e+01
-1.498127100957193036e+00 2.108643008194733159e+00 1.629915755724723425e+01
-1.511404601564037886e+00 1.405047820495831212e+00 1.502692195958483268e+01
-2.063501034351160612e+00 3.325074824049413902e+00 1.749763522389336146e+01
-1.910257318804418070e+00 2.886641538737183765e+00 1.694511626008635119e+01
-2.490162663010084820e+00 3.869890550815734187e+00 1.782157361907961501e+01
-2.403546304294892355e+00 3.723454988907309637e+00 1.766687313053193265e+01
-1.763197721682794761e+00 1.200083773959167655e+00 1.426665309762206135e+01
-1.963306566610166559e+00 1.020992730363345480e+00 1.364076676097102592e+01
-1.679302121133043890e+00 2.340644894046077784e+00 1.639028761797893452e+01
-1.705757103253525475e+00 2.299714173253885274e+00 1.627020523082861558e+01
-1.926881209063581180e+00 1.567782837133807616e+00 1.464842220341052581e+01
-1.896018302335343408e+00 2.516399785627600139e+00 1.632237210028188201e+01
-1.859770183010390987e+00 1.974943288370974326e+00 1.545252133958719298e+01
-1.930672303724254579e+00 1.931687293194145116e+00 1.527050628547851829e+01
-2.054908203713933013e+00 2.017596727275223767e+00 1.523080222891853452e+01
-2.795181351103389389e+00 4.131440734501616419e+00 1.785205491676286016e+01
-2.666356517260990877e+00 3.876581236802399744e+00 1.754080538279381329e+01
-3.069187371471622683e+00 4.110718673796720068e+00 1.741603931321452592e+01
-2.485664693775087475e+00 3.515621747358281368e+00 1.715233714346321392e+01
-2.577262583450026234e+00 8.737725799573181629e-01 1.245195095233558646e+01
-2.537411418979233613e+00 9.102384406648675874e-01 1.257501166449905128e+01
-2.496951992723634106e+00 1.103491590277977386e+00 1.297278651487561518e+01
-2.383863240065019706e+00 1.053260740839393028e+00 1.305481399652045837e+01
-2.314202136619923689e+00 1.076379261241567686e+00 1.320122271964793725e+01
-2.353545801488554634e+00 1.244486975843123622e+00 1.343406505016189811e+01
-2.124100080853948747e+00 1.982480542192888606e+00 1.506709605663618134e+01
-2.971642073072832346e+00 1.079996055881145223e+00 1.224582736312657261e+01
-2.379093312072360522e+00 1.404448203294057285e+00 1.367882652623365658e+01
-2.354688072652935560e+00 1.612107172654373644e+00 1.407786412604933446e+01
-2.676694753146042327e+00 1.278137999385256851e+00 1.303030151163201111e+01
-2.569797646738483099e+00 1.430407389822210273e+00 1.345211104133782243e+01
-2.305385965576778773e+00 2.369101334590812957e+00 1.547643124969633277e+01
-2.533650157998506458e+00 1.631251837046768793e+00 1.385635912558798566e+01
-2.471173716882558047e+00 2.958095448243781789e+00 1.626873635190314360e+01
-2.681849106810808347e+00 3.146593949249461453e+00 1.630910229235272624e+01
-2.870538618886312676e+00 3.541689675574615670e+00 1.673596340379623371e+01
-2.849423166275989239e+00 3.376238680853534735e+00 1.648670366845142610e+01
-3.214648972018239625e+00 4.150857410089116684e+00 1.731158138493407250e+01
-4.059457602858745240e+00 4.729463163894103594e+00 1.742065747185793612e+01
-3.578587423028084302e+00 4.542742984991951616e+00 1.754510603513064382e+01
-2.916719820659768203e+00 3.337977281400384744e+00 1.633815594588087805e+01
-2.694671965579079842e+00 2.951346365462191201e+00 1.595622742995855958e+01
-2.774896429507349271e+00 1.829908714001884817e+00 1.387637046246665307e+01
-2.939770400379940973e+00 1.837156370559231311e+00 1.366667715667308869e+01
-2.907718557042098251e+00 1.681298439661183863e+00 1.343307473382100170e+01
-3.347293537518940543e+00 1.312172832378871057e+00 1.216996646534506965e+01
-2.899469433437940946e+00 2.960351889590401520e+00 1.571055930534600975e+01
-3.051233915672175723e+00 3.390577357610073506e+00 1.626357963359237147e+01
-3.082218544047738540e+00 3.339028050554478710e+00 1.613808270602387296e+01
-3.646178601922430040e+00 1.322227556944286730e+00 1.184383889170504034e+01
-2.907354330072644988e+00 2.262617714576109051e+00 1.446769633864855820e+01
-3.054329987080212749e+00 2.820509919331807946e+00 1.526563830438956160e+01
-2.964754273955150676e+00 2.211379204721209746e+00 1.430014311267719052e+01
-3.064817838105272862e+00 2.259074192276611992e+00 1.425257239991825742e+01
-3.108732357813422276e+00 1.689679400474332516e+00 1.317723553595126162e+01
-3.317768083432260262e+00 1.524639947124458050e+00 1.259791429722832135e+01
-3.268491974927735022e+00 2.279034190783468361e+00 1.401983146731468821e+01
-3.297269565240210198e+00 3.374623248182829993e+00 1.593638487331445930e+01
-3.115314321827562960e+00 2.771285411719718095e+00 1.510107371188665581e+01
-3.243466690731745317e+00 2.837960372584559021e+00 1.505467014691776484e+01
-3.491893368522135610e+00 3.389544799757355786e+00 1.572129807215915065e+01
-3.305935482096744593e+00 2.077602838908286120e+00 1.360887381192001300e+01
-3.315076641005846536e+00 2.809936836319657960e+00 1.491171916328615765e+01
-3.519634314065770653e+00 1.892181863609954107e+00 1.299367449744186587e+01
-3.714504409938184093e+00 1.730982342399846496e+00 1.244681126912951896e+01
-3.518779671712755963e+00 3.005073778014537123e+00 1.499768798272359049e+01
-3.838124319448629418e+00 3.618741304537159476e+00 1.568815083785341358e+01
-3.713402302757019324e+00 3.018063696107092131e+00 1.476810815810605249e+01
-3.992651297580457559e+00 1.534839898747726084e+00 1.186760469851778055e+01
-4.239418189663830994e+00 4.202713928892586104e+00 1.631252502835609164e+01
-4.061513694422598242e+00 4.008809009632791742e+00 1.613996577143035438e+01
-3.928425945018120480e+00 3.584426700948526889e+00 1.553748382863317090e+01
-6.960200969693230988e+00 4.118495526591159361e+00 1.549003022536147967e+01
-3.906695532312360442e+00 3.225629667759863484e+00 1.492863788052825669e+01
-4.675516427140233411e+00 4.759831994420950174e+00 1.698699356933224180e+01
-4.475123099815559335e+00 4.562551806725593018e+00 1.677267645429940046e+01
-4.708080177515993725e+00 4.568342030922389441e+00 1.662071404604695601e+01
-4.464355962708230763e+00 4.010073034183790242e+00 1.588371320140915799e+01
-3.967756765398634755e+00 3.017322694864846611e+00 1.452698411506383991e+01
-4.040475896947234524e+00 3.254894630253986509e+00 1.488420402516158703e+01
-5.412542771039035472e+00 4.829427516775576024e+00 1.673037326821445703e+01
