-6.517698148898403154e+00 -4.125350385411560294e-01 1.262989813047473220e+01
-4.327841216101358413e+00 2.238393917345104622e+00 1.173682634027246863e+01
-5.617944106356135059e+00 -2.663963238322714755e+00 1.622285768131731842e+01
-5.090861755488785612e+00 -4.224963004198039052e+00 1.843485679582303405e+01
-4.120898432190237770e+00 -2.871799088599935601e-01 1.255496918369121673e+01
-2.838802936227590834e+00 -1.705306405180764262e+00 1.827782752322025672e+01
-7.101391539194204405e+00 -2.405644233593176029e+00 1.488985380435403627e+01
-6.469650216610911553e-01 -3.782803534925275990e+00 1.739661127050181832e+01
-6.803729456213097215e+00 5.394742435384874968e-01 1.799183959521220189e+01
-6.132323967321010372e+00 1.148646756389021917e+00 1.201061216594895953e+01
-3.304668321754008264e+00 1.551473458322522592e-01 1.154413760022751845e+01
-3.413119481307259395e+00 3.504924533667784559e+00 1.719704575291843085e+01
-8.697359458037765556e-01 -3.797701939945198113e+00 1.736743704139970035e+01
-6.277910201901618414e+00 -1.364972012844691829e+00 1.427834496073267090e+01
-7.719750982433286168e+00 -3.802950538153021753e+00 1.746033752563468155e+01
-5.986340567490874953e+00 4.844351201499501158e+00 1.641461344470565464e+01
-9.430859413875234409e-01 2.567348636759378966e+00 1.599562953586065461e+01
-8.133034711518721593e+00 1.485900950396127573e+00 1.579840752114491309e+01
-4.408152199578790231e+00 5.023002050686836029e+00 1.662181869176020044e+01
-2.618596186579985607e-02 -8.549572164789357442e-01 1.546314522340360398e+01
-6.213005720591552539e+00 -2.671370088078356630e+00 1.877701949916695767e+01
-2.470513086387123192e+00 1.670017491588881686e+00 1.280154975168533937e+01
-7.753064756177137973e+00 -3.728961697717358525e+00 1.751647903698062336e+01
-4.687027181994217528e+00 2.759602366072248181e+00 1.241885596819041027e+01
-3.038432520259366498e+00 4.496525014128784914e-01 1.126264500193071072e+01
-5.290024572261932789e+00 -3.242370569197833063e+00 1.666278400945889970e+01
-1.743515140735525937e-01 -1.624773322920738394e+00 1.468341066290860297e+01
-2.075400239755176734e+00 -3.690981266409274930e+00 1.696877883333821657e+01
-1.249280069303982721e+00 -6.352111750692513992e-01 1.341293895118868207e+01
-7.877413080814522850e+00 -2.788654569538201233e+00 1.529829298797032422e+01
-2.616423673206281997e+00 6.983560843798605200e-01 1.780652672210961995e+01
-1.590027945203405513e-01 -1.429764046395946675e+00 1.464404370972472336e+01
-7.716484090267783369e-01 1.808912625623396941e+00 1.552431894525310341e+01
-4.852190931564414278e+00 -7.723440723016120613e-01 1.393700572445769481e+01
-7.298443899564087900e+00 -1.112604099755323261e+00 1.353977745306342584e+01
-5.846254506780141469e+00 -1.087751605793940257e+00 1.846814660859574886e+01
-8.230575739872868724e+00 -1.917022086207238019e+00 1.537644124248162214e+01
-1.707750610482268394e+00 -1.183606443528397278e+00 1.429425849661611281e+01
-5.243160227169195942e+00 -4.299889646295102175e+00 1.779918504365469900e+01
-7.096310297138327172e+00 -1.995107129444093630e+00 1.447701064202100341e+01
-5.856725238807491074e+00 9.408809375321310897e-01 1.144674939716465545e+01
-4.408885263063772042e-02 -6.449632227004978846e-01 1.545624843008929972e+01
-3.131478278346388588e+00 2.803706796626307174e+00 1.330066033721150021e+01
-6.614586965325604417e+00 4.153811461219987677e+00 1.651087295653875131e+01
-8.055856847572121282e+00 1.641311516262966119e+00 1.568710622296972801e+01
-2.535486219997907575e+00 4.774150189467004424e+00 1.625811148709821552e+01
-5.506373346262212642e+00 6.000711756198024993e-01 1.079764937984088036e+01
-7.084512506802472132e+00 3.399211516777758124e+00 1.569885485492978816e+01
-5.904120894711970990e+00 -9.816654068411790890e-01 1.378934369034918817e+01
-3.398804546999647513e+00 1.313582211233356833e+00 1.777040351834153498e+01
-8.738455122771373595e-01 -2.711032505558568673e+00 1.807730508755879484e+01
-6.977617072648869545e-01 -9.601713630477716199e-01 1.777687197829400745e+01
-2.476933699994861016e+00 -3.684485675455435150e+00 1.701149565005597353e+01
-8.353727512158139135e+00 -2.042514234602984757e+00 1.662585448763806184e+01
-5.809943814566219444e+00 3.235059547490992227e+00 1.373458574251078446e+01
-7.930686024351826013e+00 -7.067361908714139274e-01 1.399154828744992685e+01
-4.715408893909127208e+00 -4.932707425633590104e-01 1.314257118914337141e+01
-7.981390127833288162e+00 -1.250810646584853192e+00 1.757240741250981486e+01
-6.396465368454328448e+00 2.934995651363072611e+00 1.726378883402443520e+01
-5.338458820568044771e+00 1.864421691293404182e-01 1.117242534695109768e+01
-3.855408822345605113e+00 -1.636947790633270561e+00 1.547050273072484217e+01
-3.874640719386222010e+00 6.986502176719124879e-01 1.053625521515673213e+01
-4.314717575386575632e+00 6.029747593056106192e-01 1.055100598644316179e+01
-2.786473155574664684e-01 -7.291442119120500331e-01 1.748204301834172369e+01
-2.680784249580306366e-01 -1.522738627164215153e+00 1.765184367451218961e+01
-8.175611352003127053e+00 9.721137661955856490e-01 1.515035896928085535e+01
-8.044032835010392901e+00 -1.936109268798314798e+00 1.500112466796525368e+01
-6.682893732073920567e+00 -1.899343362709005945e+00 1.456070545088008217e+01
-7.040080677574886536e+00 1.421316589265581576e-01 1.807785344022719798e+01
-1.074883956375049632e+00 2.931591455832943893e+00 1.622547341529504550e+01
-3.104433749315286262e-01 -1.145508534949649437e+00 1.761486149626601971e+01
-4.513811928157029030e+00 1.552708795447625079e+00 1.105854778567829655e+01
-1.782152666507851868e-01 -7.279789745428640879e-01 1.733673283826415812e+01
-4.805647528920986566e+00 4.163313940387396883e+00 1.698396249713883677e+01
-6.766151171646161977e+00 3.380532917704778928e+00 1.515662521250172645e+01
-5.953061925250780817e+00 -8.282755005168823681e-01 1.334255134955744992e+01
-2.102707662100756103e+00 -2.048073022838839297e+00 1.561726907439268430e+01
-3.865462021023312822e+00 -2.189831047846780177e+00 1.592402999890904525e+01
-6.541963650025362398e+00 3.931314009992950886e+00 1.667712238299208494e+01
-6.889183529151324592e+00 7.385659305664689089e-01 1.262563289807631506e+01
-6.839252526230918949e-01 -1.220185472876209154e+00 1.424246260050040647e+01
-4.967799617073160867e+00 5.421043654351190177e+00 1.617363454846898563e+01
-3.882913223166698735e+00 -3.238485544095502267e+00 1.660644423695805827e+01
-3.653919939852985799e+00 4.360649554033192210e+00 1.477070476531401866e+01
-6.615218752460798157e+00 9.397477359915094031e-01 1.790324370157207667e+01
-7.803843086002009599e+00 1.386330250180525914e+00 1.706068683895289340e+01
-7.679993399548386890e+00 -3.570477200047293742e+00 1.626149721279709226e+01
-7.773281083186522444e+00 -1.378358459423886906e+00 1.408762498935303498e+01
-5.526112427882456934e+00 -6.484528454889239013e-01 1.317838569499354762e+01
-3.752261625775116904e+00 1.078893409347256860e+00 1.061712583903866758e+01
-5.200771657928430436e+00 2.533717228966485990e+00 1.759541325401576373e+01
-8.548086772233343122e-01 -1.743778995814716293e+00 1.798485843418488983e+01
-7.704290110890050336e+00 -1.260977932118668488e+00 1.803920876716436439e+01
-8.347029458326984397e+00 4.402591810704367115e-01 1.562505437739627112e+01
-4.912081792396204349e+00 -4.201741857186132911e+00 1.832599666220675871e+01
-2.468341820309448931e+00 -8.319370539348215354e-01 1.400294041024292468e+01
-5.397008686589319204e+00 -4.184761614980557987e+00 1.871123359960362009e+01
-6.642432621118263825e+00 9.240833540522300771e-01 1.249676290840794124e+01
-8.356569277241725047e+00 1.941011759997401942e-01 1.578258343365686400e+01
1.909662930498908784e-01 -2.890597476971191959e+00 1.677065795241563606e+01
-1.575985502994305287e+00 7.632104612041922254e-01 1.763845944020365053e+01
-8.342132028463190352e+00 4.050938655864368965e-01 1.583544248162493417e+01
-6.811262402535414040e+00 -3.732088352448111879e-01 1.264286923299250631e+01
-5.230049076175222744e+00 4.764090801562775646e+00 1.517275804814095963e+01
-4.890764938363791892e+00 -8.367830730691224739e-01 1.413113863158938344e+01
-3.437635408660539404e+00 -3.503750312073567130e+00 1.853703719039294029e+01
-3.922666047391691446e+00 -1.543800164824133958e-01 1.212735209005595394e+01
-3.488647698701771827e+00 -1.668281099478096774e+00 1.549786566976611013e+01
-3.110397255128995564e+00 -4.665621857106209136e-01 1.314217100927211490e+01
-1.415043073308501764e-01 -1.795687328832295204e+00 1.484553041030673270e+01
-2.229489923764850445e+00 2.899939094008749940e+00 1.723292156263011421e+01
-8.350700269447713708e+00 -2.388839543561783518e+00 1.652363858578721434e+01
-2.628103417834056987e+00 2.272115012964076586e-01 1.184063188993182436e+01
-2.722681996118681003e+00 -2.296331279238831291e-01 1.259036703612843766e+01
-2.861583724282819041e+00 -3.762141051638019817e+00 1.718003153420150042e+01
-3.634842225147770112e+00 -2.107577955650042245e+00 1.842536163986687470e+01
-6.199863212205376506e+00 7.375709829160247422e-01 1.803169047557858207e+01
-6.939399253607469120e+00 -1.684299304761715188e+00 1.418424273314041173e+01
-5.119695331521889159e+00 -7.341146292298280640e-01 1.353729379943202460e+01
-3.120341379664452131e+00 5.284152052151435131e-01 1.112819795367638065e+01
-1.105304339539668335e-01 8.694980380379754292e-01 1.653300265422516091e+01
-6.062497215389853977e+00 -2.672688048169250319e+00 1.875991396751592433e+01
-5.425584663388136164e+00 1.902904017013614890e+00 1.776298579218458329e+01
-6.002224642372434360e+00 3.769843479994635427e+00 1.695323601385906542e+01
-7.376147567540074945e+00 -2.642780007744823134e+00 1.846283758054734747e+01
-2.266907629740432473e+00 -1.861491871626212546e+00 1.549449946194075167e+01
-1.978030461164427711e+00 -8.093270451559776424e-01 1.364215661827912740e+01
-1.395105855201554057e+00 2.393546074318474659e+00 1.500784934651489166e+01
-4.498498224594732697e+00 -4.867254245311225525e-02 1.175955935096299143e+01
-2.091122342661234423e+00 -9.062015531181261130e-01 1.392053752487796103e+01
-3.323375959907571175e+00 -9.051157852699190931e-01 1.460308839301042738e+01
-7.273670216157000823e+00 -2.799541959615452491e+00 1.526892005626873683e+01
-2.511379575838066813e+00 -3.846173620241174484e-01 1.293555019949204521e+01
-4.443657210095130594e+00 3.799995149967729802e+00 1.376192467356863958e+01
-2.319922765240156615e+00 -3.559684154036043546e-01 1.289196288665477041e+01
-7.677494930038013088e+00 -2.649705729227153750e+00 1.811714349996771389e+01
-7.695218835875206942e+00 1.038876796004176040e+00 1.732895425814772139e+01
-5.996596755234421927e+00 2.321547481737954666e+00 1.760383239400924893e+01
-3.280893438190745748e+00 -2.055503013920888744e+00 1.581955536275918561e+01
-4.220396999390928272e+00 1.524533157519464943e+00 1.780636626353056684e+01
-2.095196812529930064e+00 -5.020711401988459111e-01 1.311811769547116668e+01
-5.179254708621643388e+00 7.864575118274512722e-01 1.055863916558611848e+01
-4.648209608057503495e+00 -3.123929976440618983e+00 1.863508571187399454e+01
-1.840669785348039156e+00 1.911732610224025741e+00 1.743035645253307209e+01
-5.886105629301358277e+00 5.794603458054063960e-01 1.124031029479236210e+01
-2.882238563471120951e+00 -2.184640097882489584e+00 1.589828009941672704e+01
-5.673645382363575074e+00 -4.351586798929247379e+00 1.754206762949023712e+01
-7.672356022472071935e+00 -8.337312792969512332e-01 1.799581046015165597e+01
-7.488842236561891852e+00 -3.441292784602122623e+00 1.605894696805905042e+01
-7.179507895639161141e+00 3.468977474538704975e+00 1.608860005799047244e+01
-5.031300817858557650e+00 -3.307821741899104495e+00 1.868984828105061879e+01
-7.375315588964077129e+00 2.249936559874515574e+00 1.490483564922100967e+01
-2.670745045681345964e+00 -2.072408840757529180e+00 1.578562934218752289e+01
-4.408658409939593348e+00 -1.431351171443055570e+00 1.838454633357798329e+01
-7.606023297871344901e+00 -1.272462803418210608e+00 1.814513663327501902e+01
-2.672102200376362813e+00 -3.765591500791212631e+00 1.718354742890692322e+01
-3.074408951677772173e+00 -2.440895599232234314e+00 1.609130793331808107e+01
-2.847412822736209437e-01 1.278625410598119183e+00 1.671628387915530212e+01
-1.484604325781494705e+00 -1.210430126499175696e+00 1.428188830842159618e+01
-7.201992702863635465e+00 3.447018183651345824e-01 1.795709666802559568e+01
-7.333590192249134887e+00 2.985761785474976282e-01 1.792059356492004341e+01
-7.784094798534589188e+00 -1.854385299931062825e+00 1.794326199512221720e+01
-4.331725646831829479e+00 -9.014338991321869665e-01 1.455254594373686317e+01
-4.535623170487327327e-01 -1.122892085153589292e+00 1.769904810222868363e+01
-7.749341234539282475e+00 3.487338550603779064e-01 1.756247683472642152e+01
-6.628318804180222124e+00 -3.665920371145380052e+00 1.878477886082309212e+01
-4.022400390994594233e+00 -4.038851748827542387e+00 1.837379225282076689e+01
-1.034121713909601947e+00 -3.433335295943393817e-01 1.775536251480079741e+01
-4.087485685569253846e+00 -8.351790000398965352e-01 1.444727419599898965e+01
-2.477060198765488774e+00 -2.193426877033779476e+00 1.585200840662894350e+01
-1.847246093595627414e+00 1.652277902969679690e+00 1.355867872755365156e+01
-2.569915215482946103e+00 4.776184039780487112e+00 1.654888721646741701e+01
-2.454197279217415151e+00 -3.706206937092604292e+00 1.841691452104611315e+01
-6.473446928654343679e+00 4.467931971663937851e+00 1.617334379147017032e+01
-4.987594755057680018e+00 2.929302967545782455e+00 1.747153023081861889e+01
-8.669068181738899259e-01 -2.835672539440870388e+00 1.588103756419515022e+01
-3.751439429560397443e+00 3.187963036161913788e+00 1.736470312278059325e+01
-1.608622216287835860e+00 3.304636354171396562e+00 1.687438261604417633e+01
-4.818052055738641926e+00 3.092613398332809016e+00 1.741801107038956431e+01
-2.263168527913719696e+00 -3.875289193535263799e+00 1.835306877508833523e+01
-8.097514294371329413e+00 -3.200440079464943022e+00 1.693059398427473994e+01
-9.870496632118976876e-01 2.964847029180978089e-01 1.759134601272401355e+01
-5.646854873271209385e+00 -1.865473121636395337e+00 1.548676078963015712e+01
-6.222136586430854877e+00 9.312148908678815618e-01 1.797557406716373762e+01
-6.844909706626083334e+00 -2.876876386921621620e+00 1.874331647921847477e+01
-4.873444972234906913e+00 3.257216288258853343e+00 1.310615843504512057e+01
-3.710851319107278279e+00 -7.683942102890836123e-01 1.433295352841300385e+01
-4.212175860219189438e+00 2.531987032603125520e+00 1.760793834556450932e+01
-8.398686442225567816e+00 -2.204878735413614343e+00 1.582250211333802881e+01
-7.783388595283036615e+00 -1.237765832854402781e+00 1.792509804096348702e+01
5.696924376253398314e-02 -2.886964524993673731e+00 1.643847256941009860e+01
-1.481694812197474009e+00 -3.720306408879475724e-01 1.307742519547133853e+01
-2.873290338115805920e+00 -1.343004918535017467e+00 1.512605527553500551e+01
-3.352113634544503729e+00 7.263227457541741039e-01 1.081124270579664781e+01
-1.626585084036999973e+00 3.702798818395823588e+00 1.665543635757473240e+01
-1.710321683323289932e+00 -3.068825064492327614e-01 1.293279562686480588e+01
-6.492567909944090054e+00 -9.274924922489927726e-01 1.333177662881187686e+01
-4.496315646805327582e+00 2.330294601248196873e+00 1.184747167054392847e+01
-6.265016760853778344e+00 7.448017573334593244e-01 1.183858372066637443e+01
-5.687834784829314927e+00 -2.451232127491805635e+00 1.602142379200585154e+01
-3.474466415683825193e+00 -4.018184260333793389e+00 1.818693638305547822e+01
-1.627609377646177968e+00 2.502229375151734381e+00 1.720909077542572518e+01
-2.546138913855365615e+00 4.073882245581314621e+00 1.540305782387897793e+01
-7.691680271919298928e-01 1.903174223699200862e+00 1.702149954111224517e+01
-1.740220307366018959e+00 2.898962366422212167e+00 1.709393337795178169e+01
-7.010805600959934658e+00 3.400698748128783588e+00 1.670314173849954287e+01
-2.944201533823462391e+00 2.386192933257633708e+00 1.751843370491507201e+01
-5.318085310317217207e+00 -5.019831891664109369e-01 1.296928343496592007e+01
-6.924401349741754252e+00 -1.061182797542587597e+00 1.846192906087847163e+01
-2.090338109242804165e+00 -2.925573028890545935e+00 1.635242925834448968e+01
-1.368018676330225558e+00 4.082378107733779515e-01 1.297570801940760887e+01
-3.059372284262548813e+00 -1.259655244193681245e+00 1.506299569404601257e+01
-5.911279055008283656e+00 -3.144733179749518381e+00 1.653918793105967566e+01
-7.739925654735066551e+00 1.688475528270129367e+00 1.703185621429672736e+01
-6.980470614492561010e-01 2.134665699568982777e-01 1.414422520675038797e+01
-2.473762570981337117e+00 3.746499294324545648e+00 1.511072192312076012e+01
-1.075999722597952957e+00 -3.554486902061014142e+00 1.811466315761255075e+01
-2.692145002727161174e+00 -3.263207772638150317e+00 1.663498162652976831e+01
-9.252959351754983519e-01 7.741059148329427764e-01 1.417362095766682373e+01
-7.327759740663227106e+00 3.144112164362526052e+00 1.646990189022196560e+01
1.073167126669816174e-02 -3.067774140543823247e+00 1.704533422936209419e+01
-5.013878020274572300e+00 2.257374441165615142e+00 1.192737931594195189e+01
-4.995944157527118179e+00 5.375732342016526388e+00 1.597410291204134936e+01
-7.874816902454385037e+00 -3.057867022344475494e+00 1.770936901568948585e+01
-4.441026561464262556e+00 -3.105180434507617271e+00 1.861270492679718203e+01
-3.993529243492802916e+00 3.723698241426054434e+00 1.715667535453706094e+01
-2.858516632189012086e+00 2.280181066637973597e+00 1.302328113643146068e+01
-8.851580333937605349e-01 1.941876086681850744e+00 1.539987213198340399e+01
-4.373771204962515924e+00 1.320478987525092851e+00 1.785134773176852363e+01
-6.620328000883209718e+00 -3.455458508654013272e+00 1.879474278546158317e+01
-6.246793248328936343e+00 4.493547564598201483e+00 1.565475691198965436e+01
-6.002999607989595532e+00 3.219333548154462044e+00 1.395809995894294886e+01
-4.928943523560212370e+00 -4.051607252835769835e+00 1.719351912814628136e+01
-7.041315732438116370e+00 -1.701119062383749103e-02 1.247728701127327966e+01
-3.801980698003096126e+00 3.328397391472081246e+00 1.731107403157066571e+01
-7.557417245123820848e+00 -5.842453441933659342e-02 1.318922564951969534e+01
-5.342433974077742675e+00 -2.089875712803834773e-03 1.151948386356084697e+01
-3.096552022809543558e+00 -3.491348866689942376e+00 1.681091416924004633e+01
-7.148076858819285562e-02 -3.503155785086014440e+00 1.739596777415357920e+01
-2.470578438700818058e+00 -1.160907322365072325e+00 1.470407977882201678e+01
-4.884234973911826039e+00 -5.868835511278004402e-01 1.329678090455497497e+01
-7.559043874631272253e+00 1.154146890585011853e+00 1.399989694643231886e+01
-2.484988089453923910e-01 1.093876150203582975e+00 1.674189987411333291e+01
-7.957756645117274097e+00 -3.467233342533752705e+00 1.710911660878421614e+01
-3.968321728683827487e+00 4.158762667706963789e+00 1.697544054891379872e+01
-7.453235987653362038e+00 1.174250527358446039e+00 1.749735189402725766e+01
-3.628603425422607831e+00 2.125811732123085385e+00 1.766234424174824014e+01
-8.250250379551372859e+00 -3.242007270770769223e-01 1.484704924206926435e+01
-4.071687334723694818e+00 -3.641143324093818912e+00 1.686759570865198654e+01
-5.761586065268462953e+00 5.113171542727538821e+00 1.627285800177472552e+01
-3.687403888519682926e+00 -8.386813889083369888e-01 1.448395855734570503e+01
-3.010646535393731948e+00 5.147636948383113698e+00 1.631956059174796891e+01
-5.468167113741676744e+00 -4.343665085292302663e+00 1.761089450641384602e+01
-4.693831742815429919e+00 -7.795171907444106152e-01 1.416081155306043016e+01
-5.797652084783309512e+00 -1.922259832354120235e+00 1.862365289034846327e+01
-8.429558694639304406e+00 -9.491283235352275804e-01 1.581535479788096055e+01
-4.064266889799021065e+00 3.405915548121254854e+00 1.332053816314944683e+01
-7.253511299430481785e+00 -3.486999353358452680e+00 1.848531041305766465e+01
-4.985250941840716488e-01 -1.277913202181317320e+00 1.435885924501742394e+01
-5.818687113716019432e+00 1.365242642841857368e-01 1.819199317819429851e+01
-5.943640367016194581e+00 -4.836722561709122514e-01 1.280361612543550720e+01
-3.480212369247546178e+00 4.051673955516099657e-02 1.170313032607936421e+01
-6.104520906748026832e+00 -3.989616961133709561e-01 1.256932163577887351e+01
-5.876354000390024979e+00 -3.344788992492382373e-01 1.238106790863241358e+01
-5.832998975579450018e+00 9.277538795366975233e-01 1.799898087632623955e+01
-7.080862861209901382e+00 1.295777966275664550e+00 1.346998452952599123e+01
-3.017840567163959431e+00 2.123031799073699766e+00 1.758874088031499738e+01
-1.813613797589253895e+00 4.762893527595813969e-01 1.774405701723683038e+01
-1.692949142311715782e+00 -3.316388289704101933e+00 1.656646824357923364e+01
-2.924505050892158398e+00 1.565528983708434074e-01 1.175727733640618666e+01
-6.904429084641394709e+00 1.910648747618462373e+00 1.384476149482011564e+01
-2.968510860690062314e-01 -2.976432888064026727e+00 1.603760908760545689e+01
-3.000972108244140957e-01 -3.688395316644648148e-01 1.740889335371199209e+01
-5.877177286886774432e+00 -5.498525719916017573e-01 1.294304054665280646e+01
-1.500701652486464921e+00 -3.449010605775372440e+00 1.663077982179876457e+01
-6.542629113687115527e+00 -2.517044798582603438e+00 1.536409477427423909e+01
-6.637725664816021443e+00 4.210609320096175168e+00 1.637521715720962234e+01
-1.665952268319629725e+00 2.877767433460861612e-01 1.250998669009524988e+01
-7.239425295432237561e+00 -2.802947053451576576e-02 1.807412512741528232e+01
-4.300430749434116962e+00 2.673996539199497979e-01 1.106721088076771409e+01
-1.849278108407564902e+00 -2.330811538859000276e+00 1.826420516713288933e+01
-1.564495663957635285e+00 2.758441800907412977e-01 1.258535896017505351e+01
-8.383249644221759667e+00 -3.821264795835309647e-01 1.599539218205365998e+01
-2.654997091841289958e+00 -2.796076196541885661e+00 1.631620234947662240e+01
-4.375844258459586911e+00 5.519008269121536969e+00 1.619340922006076866e+01
-1.139674853565741053e+00 -2.494181592614754361e+00 1.558185868730033619e+01
-1.263859383187885488e+00 -3.347711433149942462e+00 1.820068850251390202e+01
-1.060379283565635156e+00 -3.347353710403821569e+00 1.813445512713123620e+01
-8.375453306184510893e+00 4.854768881762983046e-02 1.562691917623667237e+01
-7.959039821904952738e+00 1.137919886698890437e+00 1.476231453718575537e+01
-1.877083670231887380e+00 -3.079329280230386878e+00 1.642915444540298964e+01
-2.317639598425627945e+00 5.546172107388092076e-02 1.229882822831494238e+01
-1.862591389966721911e+00 -3.887554679610628838e+00 1.779758718283887120e+01
-2.639195609832827749e+00 4.898474841584955719e+00 1.651219437205989138e+01
-7.284332100611048411e+00 1.404316915851059999e+00 1.752423278015364261e+01
-4.568108360365623177e+00 7.565022217456029985e-01 1.031376054209247073e+01
-7.970791036908507543e+00 -8.768161072145573831e-01 1.757270646486903942e+01
-2.522004836540565620e+00 -1.570939435188698496e-01 1.252896832799356375e+01
-2.440880535730098444e+00 -2.056688977806907515e-01 1.263629939284936299e+01
-4.509621390476096892e+00 4.082689768223932703e-01 1.081574979833348138e+01
-6.898177723194960365e+00 -1.967244925566164149e+00 1.451214531507880778e+01
-4.806343341336942743e+00 4.917030844354548513e+00 1.667291755366290218e+01
-1.268290076799273303e+00 -3.065999551398018941e+00 1.624254806273227913e+01
-2.601026192928205472e+00 3.507829854819482840e+00 1.705624856226091524e+01
-3.419589248171658991e+00 1.745420192244612423e+00 1.770419306859756503e+01
-5.735583279587823213e+00 -2.406226075885697924e-03 1.156082267815858344e+01
-1.799714749979667294e+00 3.559734648244078148e+00 1.583828220316767599e+01
-3.455847705990572116e+00 2.532343407390993839e+00 1.264164097578408885e+01
-5.910805487365001554e+00 1.606964704303151525e-01 1.138739669484233374e+01
-4.203173733949975066e+00 4.967053746273426107e+00 1.535462184300218880e+01
-5.708338338970365911e+00 -1.740420508276722789e+00 1.533926407617263621e+01
-2.182388641474915847e+00 1.708610081857674157e+00 1.754214899337739197e+01
-4.484854212080506386e+00 -1.855754966912197101e+00 1.565001656134759500e+01
-2.740168214713155859e+00 2.204279416762440214e+00 1.307919218620898150e+01
-4.178078495056721131e+00 -2.262483756779527067e+00 1.597725310959331679e+01
-7.475546585290700818e+00 1.288683347787273004e+00 1.403256529122022656e+01
-5.679771018605030974e+00 -1.666363849736329783e+00 1.526865630477142943e+01
-5.437518264623347086e+00 -1.633257655966910527e+00 1.528992200270673507e+01
-5.822682977850999642e+00 6.829100488496318011e-01 1.806089314300323068e+01
-6.999361490500564109e+00 2.233861516579286555e+00 1.430221552362136705e+01
-1.717453032343520203e+00 -3.195389658216545303e+00 1.830936693341044830e+01
-5.768864130836720783e+00 1.796845531636381832e+00 1.217537089081048762e+01
-7.231045861540816411e+00 1.146636968755819552e+00 1.763730353931686423e+01
-1.813152717613718767e+00 1.747242387509433836e+00 1.746302025075115338e+01
-2.066425942159916040e+00 -1.598998381702651184e+00 1.508393064688429419e+01
-7.276610809729399776e+00 -2.710926075011736991e-01 1.275490302077294658e+01
-3.852348806096048239e+00 -3.931596420751221288e+00 1.760417379346845834e+01
-2.883740030550008271e-01 -1.628020894846269773e+00 1.462364346333183462e+01
-8.411812418650438161e+00 -1.559595205272928276e+00 1.578697361452575976e+01
-4.923437968889612826e+00 -2.398852606923575159e+00 1.859017186785981224e+01
-7.111690591750681634e+00 -1.222391836182020963e+00 1.362379267879373046e+01
-5.058086935935991457e-01 -1.645441771259899433e+00 1.458647512614229313e+01
-7.697354209278459258e+00 -3.459434903443355580e+00 1.606780939041010114e+01
-3.219514063896315115e+00 7.342121915502786145e-02 1.798229054564805196e+01
-2.743089365792307444e+00 -4.528986468175536517e-01 1.309155771029221782e+01
-6.760255703621429468e+00 -1.034637728820267943e-01 1.232414756672913470e+01
-5.567132067263664830e+00 2.221116772747884660e+00 1.236412231037438758e+01
-6.935139187368127622e+00 -2.412209049736672162e-01 1.257082790986954635e+01
-8.410006969335904969e+00 -3.692981655214009340e-01 1.562005125868948241e+01
-4.425866872935024787e+00 -7.497805412093369037e-01 1.825442946280551482e+01
-2.447825973576953196e+00 -3.951232000789643095e+00 1.797786316043125154e+01
-5.835446607793676854e+00 -3.110784322580423256e-01 1.829666439162299341e+01
-2.739880856208075421e+00 -1.431355902711191952e+00 1.520083707752881352e+01
-7.422240004023074711e+00 2.992712910686368577e+00 1.630208916621841198e+01
-4.045954788401093793e+00 -3.702766300453307124e+00 1.859074809162586561e+01
-7.997448698725157179e+00 1.411301274075775325e+00 1.671822003479414676e+01
-2.873650736260017213e-01 8.844127768339153928e-01 1.689941706056221804e+01
-2.434560827177691511e+00 -3.596603713630578625e+00 1.688934397573844493e+01
-6.436848154221173068e+00 3.031538457776329132e+00 1.719989755250928809e+01
-6.280191061885178616e-01 -1.238254023347803434e-01 1.755297232744811353e+01
-9.413404742643324274e-01 -7.536806528642697733e-01 1.371464992231606672e+01
-2.261463513286274374e+00 -3.594998099238427613e+00 1.687507843968333177e+01
-1.071242365863554369e+00 -7.898798080234986640e-01 1.365831202924767140e+01
-7.413818938671147940e+00 -3.063148690131033636e+00 1.841076078479173717e+01
-4.671075879334802394e+00 -2.067219798774208028e-01 1.222054313600778741e+01
-1.085333397551661694e+00 -5.947900599043899339e-01 1.348958175834797046e+01
-3.910848570072157582e+00 -2.213971613751261058e-01 1.233864837011983795e+01
-1.314761906001760794e+00 -7.354572352640166288e-01 1.348447475593622258e+01
-7.429585888322231213e+00 2.231724596322344656e+00 1.711652331455765719e+01
-1.042172649514441218e+00 -4.435742063559798831e-01 1.341461126428572825e+01
-4.045915031355281855e+00 2.522533802704470141e+00 1.760833161199870389e+01
-5.708085689683552566e+00 -3.594263421720474305e+00 1.690050850010969086e+01
-3.616644937133938864e+00 -2.311855575224092352e+00 1.600994918887642271e+01
-7.306099932683340903e-01 -7.833491570138461091e-01 1.391397018443111833e+01
-4.051422271868787561e+00 -1.130850520317784991e+00 1.829263741100838203e+01
-4.058205608828037825e+00 -2.423772335276188628e+00 1.608797098246013135e+01
-1.083305435031787223e+00 -2.200811967754490617e+00 1.522981790895923737e+01
-3.636555408168436365e+00 3.309477183586079896e+00 1.345484784354995256e+01
-7.976685781269148734e+00 -1.106899903115639905e+00 1.437110883982915155e+01
-7.611489913368490789e+00 -4.382368501168488750e-01 1.303607785567131216e+01
-2.630096649877151194e+00 2.815613464162775248e+00 1.734854200230342869e+01
-7.282077715993891864e+00 -2.067072576772346792e+00 1.850485521626403695e+01
-2.253318501600271695e+00 -1.555712279639417606e+00 1.818943546779147269e+01
-7.461875474003138109e+00 -1.857748564432801341e+00 1.835284109648570094e+01
-1.927946800642443392e+00 3.824089611144403378e+00 1.598770770244462014e+01
-3.579639011655688208e+00 3.942269626494679713e+00 1.703397007150845255e+01
-3.260635256200050236e+00 -5.539343297620175077e-01 1.350117690780133373e+01
-6.655534087419517242e+00 -8.208848509487228773e-01 1.317826364074676704e+01
-4.422973156721490717e+00 -6.581744978701539184e-01 1.823595290234220911e+01
-7.471760401855314093e+00 -4.160055936321082060e-01 1.806130355423169576e+01
-1.860210154888166656e+00 -1.405818564383481739e+00 1.468215258188400796e+01
-7.381920788936602307e+00 -3.221986643352535928e+00 1.842045770659815318e+01
-6.530480754695211942e+00 8.609656718864752145e-01 1.794689426820485423e+01
-4.790123033518584705e+00 4.329783825129144503e+00 1.692090660452058515e+01
-6.216165739079041685e+00 1.155494680004627739e+00 1.791140360008548171e+01
-8.115527467440257325e+00 4.030218191249336224e-01 1.684319806420934285e+01
-4.553201397862622457e+00 4.779666503776573983e+00 1.673884813139795469e+01
-6.801605999796867863e+00 1.736264131757327522e+00 1.761216596770649900e+01
-4.998094235886989090e+00 4.588637246824569971e+00 1.680794092790795347e+01
-3.032870744513181727e+00 5.354158101458907915e-01 1.787725018618791140e+01
-8.047401428800577960e+00 -3.385021149176036914e+00 1.633264900929779273e+01
-3.002707013858894936e+00 3.290078101498501884e+00 1.722494239053225940e+01
-1.511500265257837983e+00 4.355119292460397640e-01 1.276516299392320164e+01
-7.953734825752968973e+00 -4.864834617588996712e-01 1.400458485747533288e+01
-2.025983618146018461e+00 1.928434577642803127e+00 1.746403492589999118e+01
-6.007316520730904941e+00 1.747701552665108959e+00 1.777127030368415816e+01
-2.054817381972131152e+00 -1.969867119847461101e+00 1.551545714421807887e+01
-5.086585733519587649e+00 -1.772572026702406767e+00 1.550621505561308666e+01
-9.259231849419630178e-02 -6.319894916765739223e-01 1.526121683985249078e+01
-2.073765801363576244e+00 -3.236384116624776208e+00 1.657295680929545156e+01
-1.930980102084574046e+00 -2.956185487596911354e+00 1.634885683339827622e+01
-9.710707152171615952e-01 -5.220047401674591248e-01 1.352885264500567430e+01
-1.099540220038254468e+00 -1.431607285102125982e+00 1.446566505083436383e+01
-4.171785802535635246e-01 7.006791845517772455e-01 1.715962261834979685e+01
-6.867564984920544013e+00 -4.093232528482641186e+00 1.861122244624406008e+01
-5.410915005916006049e-01 1.994739161710714193e+00 1.660765505912101858e+01
-3.893227239994884847e+00 -7.773536046240078212e-01 1.433544438533475684e+01
-8.952146819964112989e-01 -1.414673621360005740e+00 1.441276103769105887e+01
-4.400767941677532491e+00 2.103407717309409453e+00 1.771652417932110879e+01
2.769750566921502788e-02 -4.507625709154373661e-01 1.607176512267786350e+01
-2.754572314960240798e-01 -9.668223660192133417e-01 1.433081503750440433e+01
-5.123281382792388428e-03 -1.269846826515060201e+00 1.543670949865397191e+01
-7.508799930098387421e+00 -1.532899890642696938e+00 1.397232401243229916e+01
-7.499560725111565240e+00 -1.897743874148366761e+00 1.433655626857445853e+01
-3.485991861042240902e+00 1.209738503901771400e+00 1.113779857607275758e+01
-4.929346968595240241e+00 -3.255312235583649461e-01 1.255431495017140620e+01
-2.466299627326853816e+00 -3.863928578645519529e+00 1.758052911919054750e+01
-7.710004981004699331e+00 -1.331297104301857548e+00 1.393693407804646611e+01
2.138237840291832281e-01 -2.540359753531936438e+00 1.678182443530125667e+01
-7.305302026283610140e+00 -3.675223281460388236e+00 1.644935811002210713e+01
-6.085079480953546671e+00 -8.788429724105303320e-01 1.338252414625734943e+01
-3.990990276633830991e+00 4.855365439211521306e+00 1.528233636941289930e+01
-3.661137772692838244e+00 -9.543649285716589992e-01 1.469121364536855978e+01
-8.254650104613904915e+00 -8.151677328232828090e-01 1.678816243595018065e+01
-3.871362408047040571e+00 -4.039687930153686324e+00 1.820329102555467315e+01
-5.811187531212084423e+00 1.514244287692107838e+00 1.784892050014025600e+01
-4.268082765548683710e+00 -4.078943400544989828e+00 1.819234651086846455e+01
-2.631444371394432657e+00 -1.720944433177239219e+00 1.825838978228389564e+01
-4.033085384876608614e+00 -4.051491557090020734e+00 1.818950412263967920e+01
-1.481897671289823970e+00 -3.757224849895453467e+00 1.696417744391086657e+01
-2.022051097933363906e+00 2.723400844680436972e+00 1.724716081470957718e+01
-4.290082804850702480e+00 -4.049616683104128256e+00 1.841959612597343821e+01
-5.655103400754375897e+00 -4.114006239687573618e+00 1.877168789146680794e+01
-4.828643085121621104e-01 -3.232658869918584976e+00 1.620920173298340572e+01
-4.654217811036971852e+00 -3.929547442610243024e+00 1.866019086482801370e+01
-6.066054282664328667e+00 -1.230972601889561258e+00 1.431152963086386265e+01
-2.765571992958163250e+00 5.326375918416847988e-01 1.141010928029321647e+01
-1.432027686134706546e+00 1.889435382146530173e+00 1.732635421503922757e+01
-8.372737364487633727e+00 -2.419055361232095969e+00 1.615316614817163909e+01
-3.006790432307891781e+00 -5.197242243982126420e-01 1.807729455596332357e+01
-8.301787686530552435e+00 -2.781511700491943628e+00 1.614233217072205306e+01
-4.291966124863913379e+00 -1.836627694692930302e+00 1.563999116863809391e+01
8.494598902709649124e-04 -1.140480875180158282e+00 1.707782259163927918e+01
-6.203543374817510170e+00 2.613005971434828822e+00 1.358103571438283197e+01
-5.465255874636432587e+00 -4.348535502505654016e+00 1.784658595716441098e+01
-8.722610331072236933e-01 -3.576750186905948148e+00 1.803115976624989614e+01
-4.953868089471963110e+00 4.330540207033157785e+00 1.691219416588760893e+01
-6.426995714695620698e+00 -6.851658137547876892e-01 1.841269303833265170e+01
-1.217705037335561791e+00 -2.799387033922117185e-01 1.778952409105053434e+01
-5.923206073078083556e+00 -2.180212179940787642e+00 1.570585976011306073e+01
-1.792301515216868646e-01 -4.834599307547816638e-01 1.726882153699339639e+01
-1.242431643602751379e+00 -2.184692890961651646e+00 1.526567353204629640e+01
-7.993975799652267789e+00 -7.486606800634766357e-01 1.421259221995670785e+01
-6.318585633590333650e+00 -2.051047465573644368e-01 1.220618073862548059e+01
-7.925738113579525290e+00 -3.490379089170241755e+00 1.630139843898718155e+01
-6.096622944892339468e+00 -2.287368471378987689e-01 1.215332870294839651e+01
-1.851414779169130220e+00 8.457394697960535224e-01 1.767102714747717940e+01
-2.607552198022584644e-01 -3.760426616639020558e+00 1.695252123121034415e+01
-4.728880256084982969e-01 -2.107119609484862099e+00 1.496628356321056330e+01
-5.952044088663566157e+00 -1.940550501871358691e-01 1.827740715662984528e+01
-1.840177081552636151e+00 -1.263183641633108589e+00 1.446440122817971385e+01
-6.495015090844941774e+00 3.485838790613493998e+00 1.486564745613570082e+01
-1.970448848700218747e+00 2.349547121963626140e+00 1.735018989555721092e+01
-8.396716888595509687e+00 -1.951343200385355470e+00 1.577266264490212322e+01
-2.367271136771522233e+00 4.386362117125538695e+00 1.606800351719148878e+01
-2.552752750347186961e-02 -2.521759038220940941e+00 1.721587699581421660e+01
-5.004731355830830175e+00 -1.122594857702819748e+00 1.838496802013441211e+01
-5.106745723493133049e+00 -4.228062621877537453e+00 1.742831763964618474e+01
-6.011153767823933514e+00 4.650321821448294202e+00 1.556129959456826484e+01
-5.244581641907908320e+00 -4.183211223445293392e+00 1.730454200064385972e+01
-7.249153740961078896e+00 -1.032039382779744052e+00 1.345156076688925495e+01
8.903943462857999425e-02 -3.441044065818807063e+00 1.658552208779193293e+01
-8.403923520938491265e+00 -5.533538836906332081e-01 1.581138568776067288e+01
-1.852794559153194687e+00 -1.492448714091300754e+00 1.480116923371565107e+01
-8.377716661120125252e+00 -1.407029388989272656e-01 1.580803289625172070e+01
-5.287552306383451750e+00 -1.589843699627962792e+00 1.527329606286295061e+01
-3.814765374265987052e+00 3.031959322322707040e-01 1.799069953585010140e+01
-4.317003956711339185e+00 -1.257055899304795776e+00 1.505317193977696277e+01
-8.425742461033658870e+00 -5.292749780970938955e-01 1.560195884724281612e+01
-9.302637389769763399e-02 -2.306899022034084812e+00 1.740781224974834984e+01
-8.175575294805753401e+00 -6.373968195171350049e-01 1.701571676660282506e+01
-2.929967370853677089e+00 -5.280802736344814008e-02 1.214497216398030943e+01
-1.237643563074015018e+00 -2.729070400184264944e+00 1.819290050164643091e+01
-7.560530280180172147e-01 -5.296365517461262273e-01 1.374439181774762986e+01
-3.366559050886186899e+00 5.022557376797943895e+00 1.661826994447733696e+01
-4.591480133343258885e+00 1.909573476587474339e+00 1.775977060344741787e+01
-3.992573188112337412e+00 2.665849296687114567e+00 1.756671843513546705e+01
-8.384783035296900167e+00 -1.012061459343830627e+00 1.633707949999088882e+01
-4.251112587262250386e+00 -1.986161259967230919e+00 1.576530318735448688e+01
-4.084671951978004145e+00 -1.941411601818323618e+00 1.573231296842341820e+01
-1.299161515988059179e+00 -1.132892996623313664e+00 1.798285026042782064e+01
-3.985078827530133871e+00 5.373918492464064833e+00 1.636748771210806908e+01
-7.729243407843030766e+00 -3.119998975818124354e+00 1.558199557437341198e+01
-1.500132044991339120e+00 -8.531337112192386440e-01 1.361872189775099784e+01
-6.407433411549493307e+00 1.504471364680392664e+00 1.778251514116152165e+01
-6.149722264816219308e+00 3.933207435475034153e+00 1.684238688857115918e+01
-6.501235491924689747e+00 3.302168026055445349e+00 1.468074163107675290e+01
-3.354745134770578563e+00 5.307533535341129038e+00 1.635638483576727609e+01
-1.884317842698274514e+00 -2.201636433417169858e+00 1.566686138981097898e+01
-1.247873483735104205e+00 3.289207444110432643e+00 1.646161709425777175e+01
-1.022673904379684195e+00 -1.356913720368857490e-01 1.770507026916996907e+01
-1.261692650220991752e+00 3.337845237360356432e+00 1.664421937958823960e+01
-7.565763612445804753e+00 -8.897229470576851762e-01 1.810750750424559996e+01
-3.590911164254620314e+00 1.798335065030293389e+00 1.771259219513753536e+01
-8.519375595264999657e-01 -8.524110022182499469e-01 1.384827041839222872e+01
-4.345753234768871209e+00 1.038355281706788702e+00 1.038549761795047388e+01
-3.314532536396012752e+00 5.568540412158251574e-01 1.095562701951424955e+01
-4.113751971206800917e+00 1.028190886970921536e+00 1.039321239015273690e+01
-7.644077553081036314e+00 -1.447322879023169584e+00 1.397722733838262243e+01
-7.749202132801366716e+00 2.347404562205088308e+00 1.629340955769270138e+01
-5.774591907660751033e+00 1.705872830869183954e+00 1.780083303318068388e+01
-4.323012727140850942e+00 -2.354066052230687767e-01 1.237631071833510177e+01
-5.793140239532716951e-01 1.176120592090175165e+00 1.532906446461425887e+01
-4.012843826182962204e+00 5.426654380184674942e+00 1.612589589113464328e+01
-3.519279825150895213e+00 2.808870582579590991e+00 1.291201361213204635e+01
-6.088605696518794019e+00 1.175503745988095705e+00 1.792100955136139717e+01
-3.231767782811490797e+00 2.313457455993466638e+00 1.757943535319917672e+01
-2.870445532860410154e+00 1.913213454797457302e+00 1.260291813605721600e+01
-5.046636374978011652e+00 -3.937510209264419636e+00 1.871003888930863113e+01
-4.913318047870932626e-01 -3.727999033239272286e+00 1.675179160737060258e+01
-1.804145498284138727e-01 -2.580165176796599624e+00 1.764229000620462884e+01
-1.209796657631936778e+00 -2.914464725386353372e+00 1.819074891867898103e+01
-3.909738188522116076e+00 2.242502569666022239e-01 1.120043197976333360e+01
-8.318908473349813093e+00 -2.578843900472779893e+00 1.649081375392915660e+01
-2.617285816290314759e+00 4.131203556689178491e+00 1.681976683889163482e+01
-3.680158928444751787e+00 -6.437845140819985490e-01 1.389236002934398684e+01
-6.188899392384277220e+00 4.780665800979551072e+00 1.632992959746455952e+01
-3.657718377084755002e+00 -1.138909704687681934e+00 1.494863845070495145e+01
-1.857566559849837429e+00 1.295462073625568422e+00 1.757546360968882126e+01
-6.015712149642093109e+00 5.028577345615028449e+00 1.616574084357834451e+01
-5.131738965574211164e+00 -8.651843939915467852e-01 1.393484453685796254e+01
1.318894107555068640e-02 -1.055935784443952308e+00 1.565870218094672950e+01
-3.037402893362182610e+00 -2.073843391946125880e+00 1.835874366966265470e+01
3.328130990520483667e-03 -8.762595786882630966e-01 1.567442205370737085e+01
-1.424967652242471905e+00 2.311137426250069016e+00 1.720010825711969105e+01
-6.898081621600232971e+00 -1.133576531310448221e+00 1.352368463584543790e+01
-1.248662276260588122e+00 -3.750468746803113929e-01 1.781744900856665126e+01
-6.138407035686563873e+00 4.955133301584393024e+00 1.614542306970512797e+01
-4.028579091016942115e+00 1.516705736095035117e+00 1.779333621947065680e+01
-5.657037213651740615e+00 -3.900488855707112457e+00 1.878199150133014328e+01
-6.618780418862939996e+00 -1.262425376379789466e+00 1.854762909007446936e+01
-1.337188524811766310e+00 6.019159382641647849e-02 1.293662141691498491e+01
-5.581830488714777161e+00 3.735717226691108284e+00 1.706912717551638181e+01
-4.607839470204440069e-01 -3.775429143241336938e+00 1.697331001739704348e+01
-2.858464924491694870e+00 -3.975040657597159743e+00 1.800382122078125136e+01
-3.585882800184360786e+00 9.573926311523490718e-01 1.061063654595545458e+01
-1.659777341607265422e+00 -3.741665369670272412e+00 1.822794376795579652e+01
-6.824264619269268195e+00 3.977684240583360342e+00 1.611135591137383116e+01
-6.813582103386820243e+00 -1.905940443765173242e+00 1.865683814492346571e+01
-6.801441293966065338e+00 -2.280593798421804319e+00 1.871372015840757896e+01
-7.984209211922491889e+00 -3.015631913334602121e+00 1.744026997136187518e+01
-8.142363245014214712e+00 -3.220266419888392573e+00 1.630815721565720722e+01
-6.111624119800259436e+00 -1.110342622185484185e+00 1.394224373673593576e+01
-6.670743708631673208e+00 -2.577940603751667226e+00 1.530462810397543549e+01
-1.494564818486258995e+00 -5.910616291313345316e-01 1.328016634637932825e+01
-7.429700079970703364e+00 8.601934494993289659e-01 1.347237371553432794e+01
-2.632984053911587186e+00 1.117964579939141334e+00 1.772650918326295155e+01
-6.716577165201631505e-03 -2.115635618609466029e+00 1.561123047020187826e+01
-7.053164015636342654e+00 -1.027924034222482241e+00 1.340172508239616533e+01
-6.658606018716564989e+00 -1.563233118085287199e+00 1.417234547548007484e+01
-5.115241335516376608e+00 -1.420970316581948723e+00 1.511113935351162141e+01
-1.408876630891284787e+00 9.343940586377535995e-01 1.345352625191572926e+01
-8.055098453943669412e+00 -3.402968332357611203e+00 1.668523791290207114e+01
-2.272326351483747509e+00 -2.907586059939928802e+00 1.636198517167508371e+01
-6.259540772860140656e+00 -4.462573786015768817e+00 1.786585507138782347e+01
-4.814898793911302377e+00 9.111606489350505544e-01 1.795610986067409343e+01
-6.492689210942675926e-01 1.923042016498108353e+00 1.690875117479498257e+01
-6.182472905343303182e+00 4.806779522994365728e+00 1.599736126647482237e+01
-6.227354055540139655e+00 2.577888078400208283e+00 1.747443850523356801e+01
-7.684701447926154394e+00 -2.911489297334930448e+00 1.533339538162468685e+01
-6.896311078747926260e+00 2.318021831497559804e-01 1.807938540724557797e+01
-7.001901790489881705e+00 -3.500343854215103967e+00 1.864751889112502070e+01
-5.925613577459425407e+00 -9.770710306386620747e-02 1.181340049071369336e+01
-3.048001364240589872e+00 -3.943207809004546149e+00 1.840923161631606675e+01
-4.909194923691684309e+00 5.310032763134751477e+00 1.586109722249902276e+01
-1.449820699859643014e+00 -3.113148141220046572e+00 1.825565629703811865e+01
-3.909300869270031953e+00 -3.394855446395919074e+00 1.670359237915316086e+01
-7.031410934583554706e+00 3.356561551495245710e-01 1.248302015220226835e+01
-4.622637098337610162e+00 -3.681582199503844244e+00 1.866846837228196776e+01
-3.482658615025314486e+00 -2.070473483473198595e+00 1.583675202459643216e+01
-5.332570836598099717e+00 9.673675946113806656e-01 1.082616608605544073e+01
-8.407964469007161989e-02 -2.664800782891695530e+00 1.738687460664925410e+01
-6.637556226340906029e+00 4.005346689468120225e+00 1.659097671046066225e+01
-3.872930328911240672e+00 -6.615322308954599828e-01 1.396114990051264826e+01
-7.480700196975963223e+00 -2.622975783594694743e+00 1.504127944125379557e+01
-1.952529581872451403e-01 -2.095077581290048840e+00 1.763840268341832385e+01
-5.117432900574722332e+00 -7.976518845488670406e-01 1.373385235017340378e+01
-1.150529913565891960e+00 -2.126843538649251020e+00 1.517249467713766720e+01
-8.422454385832388368e+00 -9.622287854392456152e-01 1.599119208313686968e+01
-8.670193497280026529e-02 1.823234040781873122e-01 1.589562469562521230e+01
-7.409957734655621131e+00 4.554397453393429496e-01 1.308465373502074769e+01
-7.326025510472080171e+00 5.483438036421939277e-01 1.301799580326746408e+01
-8.190814832200457474e+00 1.243350279716194606e+00 1.561286051303325095e+01
-2.103683994332484986e+00 -7.362609647665796508e-02 1.255014147866014085e+01
-6.021543340373484376e+00 9.394119772168429972e-01 1.167238030399348858e+01
-1.644404378819908530e+00 -2.313122964686303185e+00 1.823485653508103255e+01
-2.280575536387483560e+00 -1.966886965217237160e-01 1.265955214461606104e+01
-5.438844158465432344e+00 -8.726737639173157701e-01 1.838060132424612547e+01
-1.945801964949616547e+00 -6.616788718203582276e-01 1.799241327301765025e+01
-3.250567308925329080e+00 -3.590845132313968513e+00 1.852208374556346016e+01
-8.285956845778077451e+00 8.479177106058696234e-01 1.541867864649371356e+01
-3.257786607495786857e+00 -3.955401116422407881e+00 1.782568692316454317e+01
-7.645559424150780714e+00 1.269137040961420215e+00 1.426044132555696464e+01
-3.020898329935382431e+00 3.959286143441196781e+00 1.695810485645133880e+01
-3.448117601566527135e+00 -7.027706155833642887e-01 1.815363544799012274e+01
-5.889543941012961525e+00 -2.827117095334211516e+00 1.628906498649989132e+01
-2.065180305141916417e+00 -6.123286499307371011e-01 1.329043099309182807e+01
-1.890321075564159736e+00 -3.838039937915063149e+00 1.741261133468573874e+01
-5.614851867334916591e+00 -2.704396813506457331e+00 1.870569310216029280e+01
-4.230020062042287421e+00 -3.700886090649066595e+00 1.862151805738422539e+01
-4.169015817943372504e+00 4.187756908919983090e+00 1.697499950492764142e+01
-3.672348514981056855e+00 -3.912833106757795498e+00 1.762320765277759094e+01
-5.998050166651421655e+00 -2.916925329695760016e+00 1.877416146011067255e+01
-3.597162988662524707e+00 3.596890233968361272e+00 1.717967065064886256e+01
-3.088469652586940395e+00 -3.673323416157670884e+00 1.699385789632083643e+01
-7.020880632382049846e+00 1.343234917658754579e+00 1.765477947080090715e+01
-5.836646336738649410e+00 -2.490358111221279369e+00 1.871096681178315535e+01
-7.520840403586311673e+00 -3.693945686355779578e+00 1.816266449813556605e+01
-6.640036653488330387e+00 -1.859889815490181952e+00 1.867142278682646506e+01
-6.816613507144476891e+00 1.564106953395161481e+00 1.765790682753732810e+01
-6.912899675631975605e+00 -2.544966183566410134e+00 1.512371752786820522e+01
-8.224490758422895453e+00 -4.013854394608254994e-01 1.678349416205318434e+01
-8.392035501755167104e+00 -7.960523120381554074e-01 1.618985693505966239e+01
-6.688456606738592214e+00 -3.197419314842227855e+00 1.605368091246372231e+01
-6.943159677278199382e+00 -2.936307546585360306e+00 1.556417421887007535e+01
-1.459781671387970325e+00 -2.902811022633388305e+00 1.825555233279410672e+01
