-3.092348232344356518e+00 6.165176011112938337e-01 1.252846822152287842e+01
2.629751330868467241e-01 -3.298706116947821343e+00 1.915384564498724274e+01
-4.279820035992749183e+00 -1.123583491348739916e+00 1.581316211258080529e+01
-4.904248905601284569e+00 -2.745151326489233767e+00 1.955079485011582818e+01
-7.145129647730557032e+00 -3.680818265868444072e+00 1.639842568849363147e+01
-5.266487062851779477e+00 5.746823463400201337e-01 1.290905272451585262e+01
-2.302224238765155029e+00 -1.287490357605077129e+00 1.660403282978747086e+01
-4.216838432822160421e+00 4.900377648897045191e-01 1.948996381814113477e+01
-7.024666016777936228e+00 3.386236609087212024e-02 1.427432254779808574e+01
-4.567771703779435200e-01 1.513163461170428103e-01 1.532330501275915680e+01
-7.149092055202689089e+00 3.017470224104946475e+00 1.654367332058824047e+01
-2.618075077757954894e+00 4.957352468148939373e+00 1.849565714560734619e+01
-3.829208738254461508e+00 -1.417411562022957927e+00 1.652323558135154968e+01
-2.344601924249898328e-01 -1.372176033686840935e+00 1.581452183633415132e+01
-7.597521731967334269e+00 -2.239109771640665159e+00 1.571459788318861683e+01
-6.958398107037715441e+00 -4.318637829853373411e+00 1.775639661773352174e+01
-7.700632069591272888e+00 -2.510865580787739582e+00 1.605021826018344200e+01
-3.468777315796058858e+00 -4.369351034833851344e+00 1.969393293068269202e+01
-3.576297985212057995e+00 -5.028008525227400938e-01 1.971384848855763749e+01
-6.345429551537510982e+00 -4.478516840690971001e+00 1.856127363130198660e+01
-7.433588557622470283e+00 -3.706048823762003508e+00 1.678493367484652055e+01
-5.050862873366989803e+00 -2.316519421546714419e+00 1.654359378041655759e+01
-5.759760396927450010e+00 -3.346391971231388318e-01 1.898688968012560707e+01
-2.086902439926417330e+00 -1.304998516691684873e+00 1.655867473691574787e+01
-1.109413908129809556e+00 -2.444443311502782379e+00 2.016892289403988769e+01
-6.189378939134430269e+00 8.389756894535009835e-01 1.860033629751072226e+01
-5.754683729379591384e+00 4.312749019646471282e+00 1.786292744046246384e+01
-3.083636073495632068e+00 1.747689101441710413e+00 1.953099890310041076e+01
-5.802405890629929175e+00 -4.518535336037555084e+00 1.876849565136237175e+01
1.460950603695854166e-01 -2.934913952521609026e+00 1.955791597634307522e+01
-3.090224255196586611e+00 -5.456903764279696922e-01 1.977167795032775643e+01
-5.587325679668992962e-01 1.690962381082687482e+00 1.935060648241632464e+01
-9.391191460908410171e-01 2.632279553951169415e+00 1.903878893295380692e+01
-4.298291989074589203e+00 1.909422122455089132e+00 1.933958834465617116e+01
-3.683612398659191101e+00 -1.494064533301481923e+00 1.660536619418097359e+01
-5.596917354440196668e+00 5.314314337339154370e-02 1.898915460274743339e+01
-5.373762979566501841e+00 8.581430409825490102e-01 1.322511101703067027e+01
-7.375324702061221593e+00 1.959523609001719846e+00 1.597372520656936246e+01
-5.766035845565610884e+00 -2.753406529784701462e+00 1.526052626081585117e+01
-7.405363047331904092e+00 4.567458285915055871e-01 1.784719491358463017e+01
-1.324729547936152052e+00 2.933698518267788380e+00 1.826879024662266460e+01
-2.250617737504858606e+00 -1.202934414359499993e+00 1.647592425955171791e+01
-7.474862925754188758e-02 5.733411405639547986e-01 1.762730244856324902e+01
-7.653312942785079009e+00 -3.374993083527291660e+00 1.761324790216826841e+01
-1.045604548442438109e+00 1.852045346636020495e+00 1.958570397039585487e+01
-1.219607889363504949e+00 -2.008038745196510710e+00 1.638446490069757999e+01
-1.478252535155028635e+00 2.792489071625465780e-01 1.371034169761590960e+01
-7.397636645622228890e+00 -1.823318398678095420e-01 1.802284162051216043e+01
-1.682863619289579837e+00 1.222428845936333275e+00 1.983609467468819076e+01
-1.651123095291853637e+00 7.915182816231980389e-01 1.987157895191550239e+01
-2.450123943270083426e+00 1.537033970729275278e+00 1.970844671289901839e+01
-2.632865418406921343e+00 -3.740476623305228010e+00 1.833601970420779281e+01
-2.398329077394189657e+00 -2.743346867349216289e+00 1.785295849038357119e+01
-3.900814210519547132e+00 2.069135701145443651e-01 1.304103015800016863e+01
-7.421258749997229565e+00 -1.170544425217637130e+00 1.823271704185609821e+01
-7.807601295078199222e+00 1.137541550856255634e+00 1.604517479515035916e+01
1.329176344033649038e-01 -2.728890109278921727e+00 1.721997638332585012e+01
-8.061819721023049112e+00 -1.947783815200508695e+00 1.688089680460364406e+01
-4.481243532717675393e+00 2.442894807199762486e-01 1.286547974055970656e+01
-1.495943598410349296e+00 6.987828459968250527e-01 1.311691850832323070e+01
-1.051705724478426696e+00 -2.660363831783844724e+00 1.695275323235299680e+01
-3.694281280708725745e+00 2.170604119846986091e+00 1.940577702358389445e+01
-2.235661059599038936e-01 -1.856778632214628466e-02 1.569677692392141921e+01
2.313817399638650185e-01 -5.055577459354281267e-01 1.576006790969290705e+01
-7.822031303542643421e+00 1.323762936666032175e+00 1.593957318504242693e+01
3.964955698564155417e-01 -2.398363019526669859e+00 1.717145273635919267e+01
-7.927811577574616742e+00 -5.658363792015586036e-01 1.714100473595219398e+01
-2.964769852494304914e+00 1.063153724777833764e+00 1.201199248658905816e+01
-5.741868438027321275e+00 4.696022480929576304e+00 1.765867620370242008e+01
-4.450293444922136743e+00 -2.521778953059173212e+00 1.712909613614282733e+01
-7.282902437757429404e+00 2.126848994765062173e+00 1.738255865335271011e+01
-3.946845021000775500e-01 -1.005885081343001808e+00 2.002110772602218702e+01
-5.196403979552484564e+00 -2.906316993281885530e-01 1.333235802431781281e+01
-4.740159907877814049e+00 -3.355141369054623901e-01 1.939328543846733055e+01
-6.630701480442065865e+00 -2.590622998789209319e+00 1.500281456796995627e+01
-2.609253354788988677e+00 -2.922203934914569423e+00 1.792873842121965566e+01
-6.974555611394412047e+00 -3.202154031141033919e+00 1.565089695584021712e+01
-2.631946234563358633e+00 -4.083288707942543283e+00 1.993379872675296127e+01
-5.238335512609491040e+00 -3.586788507616935462e+00 1.731824063153183602e+01
-1.005056742583372742e+00 -3.851196689019751318e-01 1.997787064134650592e+01
-2.899776598246237569e+00 -2.471846891976319682e+00 1.992679106176209558e+01
-3.735016991496483918e+00 4.214017919146429314e+00 1.676250628841779644e+01
-2.890057483597310295e+00 -1.434033316682195913e+00 1.668984989440066613e+01
-7.095947730875754367e+00 -3.166807929750333983e+00 1.570219134201374089e+01
-2.525713303517931330e-01 -5.056904457550026599e-02 1.552968281624978886e+01
-1.074503541792016570e+00 -1.976565042026578567e+00 1.621196335583833559e+01
-5.846427060312722190e-01 1.811229741078756117e+00 1.836143729432295402e+01
-1.018085368726031170e+00 -2.367435719502124947e+00 1.654483543935823064e+01
-7.993416634468807125e+00 -4.938236701814515683e-01 1.656385426497126900e+01
-1.558684333447995840e+00 6.950421449758454884e-01 1.335734202008291760e+01
3.391076856259110928e-01 -2.357696604518394246e+00 1.704668108099745183e+01
-3.537738629319963302e+00 2.960084073255319304e+00 1.922600022658317442e+01
-4.066417064469809439e-01 1.527435602232261935e+00 1.841897829718476487e+01
-3.517220888224059649e+00 3.518502211361760335e-01 1.289976596676056175e+01
-8.823394507648374407e-01 -1.051619642088132522e+00 1.532030745166522934e+01
-5.414000154661768427e+00 4.657891253416663879e-01 1.901302812951434618e+01
-5.220301206761987167e+00 -2.100074747861545355e+00 1.514586678032617328e+01
-7.129949025443553801e+00 -3.404150862684748091e+00 1.600648130725711837e+01
-2.566231083092054721e+00 3.845168584227667274e+00 1.755323113011293401e+01
-4.396593452183346962e+00 1.489796795521191264e+00 1.324043123304143421e+01
-2.896426650151869175e+00 -2.873309240515093066e+00 1.993937223300948602e+01
-5.560054639845269264e+00 -4.355144209786701914e+00 1.799760786007170310e+01
-4.212226702661447497e+00 -3.696119042453950954e+00 1.976593967512149419e+01
-7.894468160317482663e+00 -1.707753061694987196e+00 1.770052121181092275e+01
-5.091848683233751061e+00 -1.801017734898350042e+00 1.502303197030856552e+01
-2.628366528920853984e+00 -4.253273879695739446e+00 1.982247963700989146e+01
-4.038640977982385749e+00 5.319545781088160119e+00 1.798402667233812480e+01
-2.704220689637301334e+00 1.527379050894561718e+00 1.964186862420783086e+01
-6.903769141964800404e+00 -1.619731220432728769e+00 1.864951495576829643e+01
-3.891320061200384650e+00 -2.131406984628658741e-01 1.404066362331693796e+01
-3.055839704389290645e+00 2.787781256010249287e+00 1.523341173159972328e+01
-3.123896908783888371e+00 2.342509208956806699e+00 1.942739753735661878e+01
-6.055685409946767628e+00 1.461790066382050668e+00 1.856981353961823800e+01
-5.805134410382350119e+00 -3.806002905673111059e+00 1.705225654949685321e+01
-3.536812068876896475e+00 3.361837813747008852e+00 1.910980207486023374e+01
-4.696182744941983955e+00 4.622778437794985429e-01 1.269823642390988994e+01
1.834720963740565924e-01 -2.949264575261926424e+00 1.755805230246424742e+01
-2.668265146103681928e+00 -1.397897544961410166e+00 1.670359415684664839e+01
-7.769739177765015548e+00 1.336476661179571757e+00 1.607678033265900552e+01
-5.353113079121406770e+00 -2.117197627837927421e+00 1.490107593001894060e+01
-3.892214346030731242e+00 -8.897204590340663799e-01 1.578939876197710390e+01
-4.964751372575934241e+00 -1.343026578417382488e+00 1.944927259297894295e+01
-5.447884463123549459e+00 -2.256414477049893286e+00 1.492961734095788984e+01
-4.126586561976737677e+00 9.299684183596197418e-01 1.248091364657659597e+01
-5.378964472150508769e+00 -2.303486866325156868e+00 1.509502082587986393e+01
-4.090218464891333561e+00 1.956597390509797973e+00 1.938747975830494852e+01
-7.191462452549202133e+00 -2.181908790237310214e+00 1.508363527630613277e+01
-2.276957877174526690e+00 -1.872979849694531573e+00 2.000995173608711042e+01
-1.824952802037759891e+00 2.818765445951000093e+00 1.701058467207497671e+01
-4.667138782848354595e+00 -3.187502258473493555e-01 1.344055049519246836e+01
-2.739125419288947594e+00 -1.881970627502398852e+00 1.995853150612473570e+01
-2.322445692745187085e+00 2.959462970753821587e+00 1.940582270523422892e+01
1.547857162008512422e-01 -4.846094779866478852e-01 1.566896647096594108e+01
-2.442492405314260484e-01 -7.194257306353146753e-01 1.529718117754021023e+01
-5.152603519286951261e+00 3.110146134828162712e+00 1.869803042483705724e+01
-3.046521521277610667e+00 5.477388715380506756e-01 1.965943499152082552e+01
-5.467249118717844247e+00 -2.960034631739286937e+00 1.669344737454372307e+01
-2.827237715751953928e+00 2.851191182570943283e+00 1.561223536880778084e+01
-6.578437780962577364e+00 8.365512759473716642e-01 1.838655330066299598e+01
-5.563346778325465536e+00 5.149342846789636496e+00 1.748464256255031302e+01
-4.055611757860421385e+00 3.525790456340756052e+00 1.566293105434053246e+01
-7.839947014412032011e+00 -2.685596307857640141e+00 1.644336823928137647e+01
-5.840875473593005296e+00 -2.472577852439742152e+00 1.484948403727311472e+01
-8.073135692953577802e+00 -1.154215689303709436e+00 1.694592839544473861e+01
-5.709811777069244698e+00 -1.331457503155830224e+00 1.916952198042883282e+01
-6.006317546252472717e+00 -3.197502124992798400e+00 1.624258273929964957e+01
-7.916298782568154557e+00 -2.574964813096103811e+00 1.744312334832922318e+01
-8.688259442712582548e-01 1.443276680479192775e+00 1.960968668922207314e+01
-7.171916429877803090e+00 -1.834310700248745096e+00 1.493721159743032700e+01
-3.531141205362820834e+00 1.126467523495406020e+00 1.277399009185188561e+01
-6.110844737086164713e+00 1.297453471158317218e+00 1.856845117917309551e+01
-1.589227872138887943e+00 8.813173591902476733e-01 1.397026586497077716e+01
-7.155559462378081825e+00 -4.108929640177281684e+00 1.777258839133946111e+01
-2.425615672517564825e+00 -4.243212850199484798e+00 1.984622794941746093e+01
-7.482799884238525046e+00 -3.392148967403872284e+00 1.801660127007756529e+01
-1.887210274860380288e+00 -2.867362990653584909e+00 2.005935981175313998e+01
-6.676955821757088572e+00 -2.225457055921284066e+00 1.480502174863784148e+01
-1.488741350523978380e+00 -7.061834299537990134e-01 1.506300906188038624e+01
-6.690628114018954520e+00 -4.621934507725700136e-01 1.379018578357901958e+01
-6.874787577772070613e+00 -4.211901845708901249e+00 1.822898962735616379e+01
-1.111427633516111069e+00 -1.841845665655376330e+00 1.611399855183972107e+01
-7.740110482441131090e+00 1.516448458114239672e+00 1.612213703473079818e+01
-3.992475282968401373e+00 -7.515813634788215403e-02 1.960157074457949022e+01
-5.193485206609612881e+00 -4.512049229377444348e+00 1.897307444556690115e+01
-3.240392887681608158e+00 -2.793572735319551192e+00 1.768023931944667737e+01
-3.501520960166827123e+00 4.494982575914987066e+00 1.749205893508040077e+01
-5.318543584761726173e+00 -2.296666020195048397e+00 1.570414606203873120e+01
-7.940779793183460278e+00 -2.624986226713006410e+00 1.670967066120134348e+01
-6.359823209220865081e+00 -4.030532840687791385e+00 1.701335175842897485e+01
-4.636281445913330579e+00 -1.959621400219557774e+00 1.654836725735108161e+01
-5.630479549953459895e+00 -3.412414835117487222e+00 1.688619297982098999e+01
-3.888162281872377335e+00 5.309829682735391465e+00 1.806249080827225839e+01
-5.415560853312762823e+00 -3.070042001889997429e+00 1.683198390786322562e+01
-7.609376674575849542e+00 1.950334966297663009e+00 1.631730532054802296e+01
-1.302106758113651619e+00 -2.222741127408176531e+00 1.677744544287165951e+01
-6.045196240270659160e+00 -3.769436011523038310e+00 1.687371256067088865e+01
-7.843256205172978390e+00 -3.101741336863557130e+00 1.721796759067029114e+01
-4.091294469313081272e+00 -2.367677219780820685e+00 1.717027968133093907e+01
-7.181295123318172990e+00 -3.023485256687513889e+00 1.565792748917883870e+01
-5.275140011613385305e+00 -1.171029414483834685e+00 1.404435439278877595e+01
-2.610830539896496827e+00 -3.690676521997078297e+00 1.998546392789506854e+01
-7.086788929227522793e+00 -2.244530164598907973e+00 1.505007655744189066e+01
-4.910550329129748981e+00 -1.456573666908102638e+00 1.535621988567591245e+01
-5.924634392173315334e+00 5.734760736220063659e-01 1.340627934706809299e+01
-1.805676614161062510e-01 -2.627595537663051317e+00 1.692518867638528945e+01
-6.779164175946465143e+00 -8.419771175958454812e-01 1.401883028767837658e+01
-4.260963929192675970e-01 -2.606708562164792298e-01 1.484532616753816825e+01
-7.875447226682070756e+00 -1.374215431226101014e+00 1.771164066350488042e+01
-2.020930399576863934e+00 5.795134096350940123e-01 1.985701253516027265e+01
-5.065902029531015316e+00 1.087505145246138172e+00 1.911583935715904659e+01
-3.289337376665876000e+00 3.134482941952335011e+00 1.551876892226119509e+01
7.260981821724565854e-02 1.374082599633976276e+00 1.890989239716917325e+01
-3.228340378919128284e+00 -3.168746237056376813e+00 1.788386455244219775e+01
-4.810436256843694913e+00 -1.338622218001082054e+00 1.537028131169941503e+01
-4.596744042965127619e+00 4.478820970949630720e+00 1.844985079619053892e+01
-5.219607046340049905e+00 -3.942940523091211347e+00 1.940646030555755175e+01
-3.890929678913576772e+00 -6.999429456459149712e-01 1.541705838313893651e+01
-1.557557544305951058e+00 1.891567532054769130e+00 1.595314445287317540e+01
-5.089014196113372801e-01 1.721320447462940217e+00 1.844143272070877515e+01
-2.521681077051232123e-01 1.143431005850920723e+00 1.819999576473977498e+01
-7.431360075365149420e+00 -3.203850894426357065e+00 1.820728318316199079e+01
-6.507273532274707506e+00 -2.821333482336262577e+00 1.891134423103900986e+01
-2.954153866317269284e+00 4.280208570900682297e+00 1.772468827838380889e+01
-2.355377075021492406e+00 3.180855548533614297e+00 1.932604952910894269e+01
-5.034452153185011714e-01 -2.554551849831143251e+00 2.014087648924230223e+01
-1.017647999804198733e+00 -4.054071089386361848e+00 1.987292571388380225e+01
-8.662775252871255383e-01 2.504924755404578818e+00 1.906826954705643828e+01
-2.707294850998223978e+00 3.925605879593794256e+00 1.751209362919676948e+01
-6.400159851077065198e+00 -4.188087412604132531e+00 1.873014092555231258e+01
-2.192508301598075082e-01 -3.768218130599850113e+00 1.972250364421397251e+01
-1.526255254940663608e+00 -3.034404737528891616e+00 2.011925283770614925e+01
-1.468765149914525114e+00 6.306651335683641779e-01 1.318892181103375094e+01
-8.979190689996419117e-01 -4.384044373615112455e-01 1.474286275665600243e+01
-3.411366396548046964e+00 -3.820724281161434810e+00 1.812832535270831613e+01
-5.052892329975564145e+00 -3.607316928337005457e+00 1.743958039164381546e+01
-2.046379401510573626e+00 -4.062386426330175659e+00 1.999664095116763463e+01
-1.366123762857139212e+00 6.627336600560334023e-01 1.317232819694803680e+01
-1.733386580313366121e+00 3.076075589652171871e+00 1.936251481874791835e+01
-6.766787612620059456e+00 3.618808841703535339e+00 1.675771849404392100e+01
-4.500081427593368488e+00 2.110492126296289239e+00 1.923480451986581130e+01
-6.123867502900763427e+00 1.150168413026373404e+00 1.858536615278843129e+01
-3.674599151975622924e+00 -1.696461513911453167e+00 1.676997877610453713e+01
2.076146813621380094e-01 -3.091732780266658764e+00 1.942628033202661442e+01
-3.122516430609989513e+00 4.724635552929123961e-03 1.365251659128034589e+01
-1.927300331633062136e+00 3.121067048786617448e+00 1.730186951976585163e+01
-4.629440890778601769e+00 2.900675186800333538e+00 1.486820561216951830e+01
-4.008043277330751941e+00 -4.456634508668603445e+00 1.944264539708112238e+01
-6.901688686994182920e-01 2.072637123417599092e+00 1.930342665291289705e+01
-3.425312312030314388e+00 3.190858890195258368e-01 1.962860558210983442e+01
-6.375081096329530794e+00 1.129271115567662465e+00 1.426182973750445626e+01
-6.375205449660100498e+00 -4.509603004808168336e+00 1.833592375355603821e+01
-4.056718759565218768e+00 -3.101668673328679127e+00 1.981247751277187064e+01
-7.982601570967227111e-01 2.395721102775956179e+00 1.894708020561964190e+01
-1.263291441405493654e+00 -2.871335454629806883e+00 1.771715605676112659e+01
-1.804781141478083661e+00 -1.354958034255568933e+00 1.644836921894848558e+01
-4.041603498480783152e+00 -2.219957135179216223e+00 1.707589066333386540e+01
-1.199046604470217492e+00 -2.826093049276641622e+00 1.757592701659944368e+01
-7.183441135357880647e+00 -4.147542522677696297e+00 1.737368877467634576e+01
-1.205616568948940426e+00 1.255399645848956025e+00 1.560345105327904491e+01
-6.787881374271885981e+00 1.088100203854222681e+00 1.462820509039458727e+01
-1.374449597768583331e+00 1.812904392609443249e+00 1.621227479963023654e+01
-6.191279266002378101e+00 -3.954395742547763604e+00 1.892087804029704046e+01
-6.935260650350959288e+00 1.957267041582939626e+00 1.542035217798143520e+01
-6.958705959736792401e+00 -4.118803597479356426e+00 1.697477286244575367e+01
-3.252559041747907997e+00 1.079221075190640811e+00 1.197034636330293011e+01
-7.179334624115118579e+00 -4.123694076813776199e+00 1.716648459681598382e+01
-7.422035919453096042e-02 1.520158959487954320e+00 1.899772288802115838e+01
3.991589255369221156e-01 -1.426613246768703380e+00 1.807670083458179278e+01
-4.873469711625016743e+00 -1.479069364502857642e+00 1.555974283204220399e+01
-3.673864086108617144e+00 -1.148585750104130998e+00 1.623938726363128637e+01
-1.630204521344516433e+00 -3.932978624242320365e+00 1.868957123164415890e+01
-4.374466783472239939e+00 3.377902965686465198e+00 1.895056060277698862e+01
-3.110237901994547194e+00 -5.802049960318824695e-01 1.522551789997449134e+01
-4.415274949285343808e+00 -2.423083459384367977e+00 1.707465794093227629e+01
-5.901757587321934118e-01 4.236616147505274377e-01 1.973924274578219951e+01
-5.809105357940764769e+00 -3.614826433284052065e+00 1.688702929782995454e+01
-5.473591137029813147e+00 -3.769996009368292711e-02 1.319005989156462277e+01
-5.946300956479405819e+00 2.028105833180689821e+00 1.462618780549475872e+01
-8.299423342776592882e-01 -4.017066192981415540e+00 1.991182097878721180e+01
-5.600376476558112770e+00 3.982796787620376033e+00 1.813736276921213175e+01
-6.604231525844197925e+00 -3.237084695908754028e+00 1.561344127579471319e+01
-2.503169292048165850e+00 -2.000582128971259976e-01 1.449980097786802702e+01
-6.813225625958275522e+00 1.687750380555875562e+00 1.806191707675554170e+01
-1.081702352328932637e+00 2.335900084309257441e+00 1.785728379662760545e+01
-4.502035950325655733e+00 -7.866591807569340844e-01 1.439643374164583634e+01
-7.172616483140058286e+00 -3.589341355762400987e-01 1.455044229809578127e+01
-7.906697393116361106e+00 7.391478770912613960e-01 1.609122638025018404e+01
-3.406664015321917205e+00 -2.451003663659014897e-01 1.969550392949246032e+01
1.638539080507919188e-01 -2.316447528127484112e+00 1.680605104228144597e+01
-5.760635761523487552e+00 -3.484827294577756973e+00 1.681368441297278338e+01
-1.160001596374422128e+00 6.978560925908732226e-01 1.457033477773214258e+01
-2.949414059954462708e+00 3.428481994569833269e+00 1.916549700665460421e+01
-5.950240707921932604e+00 -3.067408958956246323e+00 1.605109875786829576e+01
-2.826557155341849814e+00 5.332544251289135229e-01 1.970072180028621034e+01
-7.541471218648806207e+00 -3.491253723594518021e+00 1.779643977243771502e+01
-1.308778746313103536e+00 -2.707737766027994653e+00 1.756027519318897845e+01
-3.683026270242518940e+00 9.442410452015936873e-01 1.213842183720520040e+01
-6.554607726384656274e+00 3.931833538145137474e+00 1.725333431987150590e+01
-3.267656172439420637e+00 -5.895258635974487404e-01 1.525204874624607498e+01
-5.349409565871989791e+00 3.703204247577009056e+00 1.841367279690638270e+01
-2.905100561104253742e+00 1.003422339562629606e+00 1.215606003310885086e+01
-2.046049575579254043e-01 4.335938131854011335e-01 1.676532593698470919e+01
-2.900254133838362947e+00 -7.100888150271607024e-01 1.558502012087345889e+01
-6.184747137934452077e-01 -3.945437774341076675e+00 1.990356631099683682e+01
-6.887864743774456677e-01 1.935582869629249414e+00 1.825566577961346582e+01
-7.961504088283811065e+00 1.043733134194297918e-01 1.639950840236321739e+01
-3.780343351795179885e+00 5.312737476518533342e+00 1.814464907796805448e+01
-7.607068362293916586e+00 -2.053193326601034929e+00 1.566400501597271244e+01
-4.620592107627818912e+00 -2.831500742886232658e+00 1.725084819661269364e+01
4.470167384937798749e-01 -2.186982737157437739e+00 1.820221466217176243e+01
-5.877161057602285688e+00 -4.003358490485805277e+00 1.908111234190032945e+01
-1.729011653953088423e+00 2.923824512329921355e+00 1.729626423570095284e+01
3.487613467539653067e-01 -1.234811012195889290e+00 1.828757077147774623e+01
-2.089166742077049665e+00 -7.616254580600885227e-01 1.565689866082077941e+01
-7.368190003354311735e+00 -1.863625522524010591e-01 1.497190903803873852e+01
-6.279340289369256922e+00 -4.347369802311522591e-01 1.363515566189287398e+01
-5.806628424691909984e+00 -7.525032546909828923e-01 1.903964300163324452e+01
-2.653445409316399495e+00 -1.043808247651155874e+00 1.624552879815603745e+01
-5.355815525639363806e+00 4.589894098118043608e+00 1.711099797885977836e+01
-6.555790177095269122e+00 -2.774594926422770058e+00 1.509417484007231280e+01
-7.419279464852697181e+00 2.313648691746823527e-01 1.514257615750611308e+01
-6.188798865071932553e+00 -3.539968540408047204e-01 1.879309511035295799e+01
-5.472261766332859878e+00 -2.770780500432309168e+00 1.934411498802449358e+01
-3.702167267211431412e-01 -1.163956497058169504e+00 2.003150358334993086e+01
-3.515093496345835788e-01 -1.375579557878159331e+00 2.003736895504652438e+01
-6.345169390974694679e+00 3.984038762587707616e+00 1.682122507422739233e+01
-6.416919659880085725e+00 -3.311555146650143833e+00 1.590625212186061077e+01
-3.683946889906767552e+00 -6.645768567454779507e-01 1.543144059382389344e+01
-3.985034336373297847e+00 -7.748314774911189140e-01 1.551199777130052126e+01
-4.734291473998069044e+00 4.115549385648471947e+00 1.626364926599229932e+01
-6.374576560443835582e+00 1.982721852864837819e+00 1.827188342374271457e+01
-3.499443828274912960e+00 2.365180893765216119e+00 1.938498466001979637e+01
4.138030618167969354e-01 -2.577941977439659027e+00 1.738225696008841936e+01
-7.232676991372010811e+00 1.044493289729413910e+00 1.787433093450079724e+01
-2.102019794031699362e+00 -2.681769087114529881e+00 2.002122899631270769e+01
-4.991389078008240610e+00 -2.854627303298935992e+00 1.704133361238999811e+01
4.308715989572875493e-02 -2.301306593177490534e+00 1.975232135233911634e+01
-8.896982988439008366e-01 -3.187601512162829387e+00 2.015720218658991314e+01
-6.596069876866894610e+00 -3.650432286223414202e+00 1.641731133497779638e+01
-3.089084390176719097e+00 -4.899672164995343415e-01 1.497384138539941745e+01
2.964120125636406922e-01 -4.875105742486067761e-01 1.592515819865472082e+01
-4.087919937719761698e+00 -1.262416125369596021e+00 1.620772589638941241e+01
-6.258701877635838073e+00 1.441653230895348692e+00 1.846195657124179945e+01
-6.777516721427319091e+00 -3.705864277640450233e+00 1.640920494135904306e+01
-7.793167358185310256e+00 -3.154852154122614216e+00 1.742103846462877215e+01
-1.635126648460066612e+00 -3.096949863603539299e+00 1.809110897679487806e+01
-5.742127928625109234e+00 4.953833578899648593e+00 1.747583140200764973e+01
-1.042906967365308191e+00 -2.182466062450725275e+00 1.638225039209659428e+01
-1.093208915534542580e+00 3.574310106039524371e-01 1.394374991500124850e+01
-1.228516371611684033e+00 -3.512533331796162450e+00 1.829583197188348720e+01
-7.412713156580280405e+00 2.243056904036741184e+00 1.707100751115186910e+01
-3.850953941270565117e+00 -3.118878586153075005e+00 1.985924110287739097e+01
-2.865146497116679569e+00 3.760685811140739521e+00 1.705027595352299130e+01
1.054578696187125075e-02 -3.544277208227293308e+00 1.956690054785190114e+01
-6.811462483972277049e+00 2.011645098822994360e+00 1.533912024795692020e+01
1.658126242594937239e-02 -1.916134203461080876e+00 1.980998600020105727e+01
-7.214674685256507125e+00 1.254881057382661425e+00 1.783620289540856163e+01
-3.313508497672160935e+00 9.801144549216395108e-01 1.212589220973666926e+01
-1.712928817317899366e+00 2.191254888791985600e+00 1.967942566322930276e+01
-5.570359741199296444e+00 -4.138623640493430678e+00 1.752926253991422101e+01
-7.174462469647418850e+00 3.998446432814661833e-02 1.459222125414321880e+01
-8.487280622749771020e-02 -3.559469840534164042e+00 1.970029455079527736e+01
-5.527808994578026436e+00 -1.142524432627009201e+00 1.921211932077898865e+01
-1.044548942447818707e+00 -3.552895801747185445e+00 1.827112594649302224e+01
-5.539754020849202654e+00 2.244810450715604144e-01 1.898695028121383643e+01
-1.708314625179764068e+00 2.116981447750919898e+00 1.604373480393859808e+01
-4.288622235502732138e+00 -1.246405795551145168e+00 1.600425990600614767e+01
-6.183567758937332570e+00 -2.690274604018828342e+00 1.493637055085925880e+01
-3.437661357598378764e+00 2.843029625977706143e+00 1.503373750301362577e+01
-4.423903334483207495e+00 -4.439638060360082683e-01 1.377555741344828277e+01
-5.946282059080389537e+00 1.139690171366876781e+00 1.388578977269221326e+01
-7.907607152428716368e+00 -2.490868145157099534e+00 1.645763181766906058e+01
-7.424154726386126946e+00 -3.713765075319122033e-01 1.804583335361720486e+01
-1.297721536353576344e+00 2.030970468479583069e+00 1.963781842070676475e+01
1.982676930662140569e-01 -3.335750471152867824e+00 1.931270496118033719e+01
-7.809358054672796534e+00 -2.384782077981585147e+00 1.787603022971867262e+01
-2.945109398250314037e+00 -9.719356732787325370e-01 1.607846757504474766e+01
-3.691391336810688095e+00 5.109375572377916619e-02 1.348140656911667179e+01
-5.971796278541718905e+00 -2.531605213038745639e+00 1.484772495394851433e+01
-5.798021230232193624e+00 -2.678023454538610792e+00 1.508766997693737721e+01
4.864558042900465340e-01 -2.395582125869530898e+00 1.741409798216148630e+01
-6.680770975498940167e+00 3.105035649559581223e+00 1.757173043148898017e+01
2.159056524883625761e-01 -2.107023702636785067e+00 1.940066288818889007e+01
-4.535415767627566375e+00 3.908756690659970001e+00 1.871496072028249813e+01
-7.600467967799430902e+00 -7.719522051900966630e-01 1.799134935136206082e+01
-7.061033645082262389e+00 -2.152786668998373010e+00 1.863313371127694751e+01
-4.825261183769776530e+00 7.834397222697344620e-01 1.277380655229703876e+01
-2.103538901120554971e+00 1.317993762093860433e+00 1.980549309612791120e+01
-4.171825465322672066e+00 4.498671260674063532e+00 1.691853584772804453e+01
-5.432775139174654377e+00 -2.501324118164089505e+00 1.550673151793049698e+01
-4.397800645330141478e+00 -7.258647318401849624e-01 1.454384272043270698e+01
-3.889716954265694859e+00 -6.287803427346498886e-01 1.524530517704697274e+01
-2.790103330485876221e+00 -4.339009772800462628e+00 1.964573442780009316e+01
-1.504292890200720212e-01 -6.311142481618179367e-01 1.531652577907638602e+01
-5.228841737629439379e+00 -2.141010305600302033e+00 1.532123582804527473e+01
4.810999004264532308e-01 -1.985930618133970871e+00 1.785698059922991376e+01
-6.536252569776942245e+00 -1.928501456278652881e-01 1.858249412022938429e+01
3.530037808210284567e-02 -3.102567302411679329e+00 1.967131886801082885e+01
-6.770150704198620417e+00 -3.476031585896820708e+00 1.600714482983848796e+01
-5.437810155246363131e+00 1.078762818623211661e+00 1.893851388750616138e+01
2.899796750047783922e-01 -2.508700797395132298e+00 1.919138922152522042e+01
-3.507475008205619638e+00 -7.232244585843257134e-01 1.555782031360075734e+01
-3.134602080561510462e-02 1.680090818856640800e+00 1.890803977342351061e+01
-6.073850725130464312e+00 -2.570805006115326030e+00 1.910352890607651233e+01
-3.275200429608872810e+00 -1.895004646113610747e+00 1.703372742876593549e+01
-2.827534072641388896e-01 1.872924998717059752e+00 1.904438036863298578e+01
1.936177881039611304e-01 -2.210688092494644152e+00 1.675148779461945026e+01
5.148524388814834651e-02 1.501788161972577473e+00 1.890320116993232347e+01
-2.031446858335598904e+00 -6.948053179737567753e-01 1.550560609551887836e+01
-5.285345372418507992e+00 -2.240318914293972341e+00 1.519416516770388625e+01
-4.954456535169001974e+00 -5.360901523739229901e-01 1.933951831078322670e+01
-4.401787094648410559e+00 -4.317964992449057071e+00 1.957419448685533325e+01
-6.464739755106303498e+00 -5.446923099823108849e-02 1.344568794291092928e+01
-1.579759080144083949e+00 -4.066917956033792692e+00 1.918357605581928738e+01
-1.505277534593824296e+00 -1.206462594488351137e+00 1.579050328737070430e+01
-3.407807010498193456e+00 3.814752716391568210e+00 1.897820256020099805e+01
-2.448570285454239048e+00 -2.112690263455458961e+00 1.736412839172893285e+01
-3.392321432596434150e+00 5.170529459909470660e+00 1.829416334042978320e+01
-5.039084945957503781e-01 1.869282698689012312e+00 1.924155163703548510e+01
-9.965829516256974330e-01 -1.895474913534645367e+00 1.610423117859804876e+01
1.329028878887454912e-01 -2.694665452375371473e+00 1.960068888021066158e+01
-9.198558253972999310e-02 -3.710254932980319609e+00 1.955971977059045486e+01
-7.213505005828044325e+00 2.534307612187913783e+00 1.618170724594617127e+01
-7.928054286575160425e+00 5.776831386947209879e-01 1.612320190109838336e+01
-5.042720365199476973e+00 3.742206135673505241e+00 1.856670613252256885e+01
-4.358710213727483573e-01 -3.905975041108370682e+00 1.977786417283071074e+01
-4.184917228208522744e+00 -4.277521050992820761e+00 1.841614427244103069e+01
-3.490932540093930392e+00 -4.870601330572807974e-01 1.500083943191546609e+01
-7.986521118797353047e+00 -2.510231304816790576e+00 1.684444902112386444e+01
-2.859488974783134019e+00 4.051128885370869348e-01 1.291962324962078412e+01
-1.201066411041365800e+00 3.023267718842680196e+00 1.908376560665599442e+01
-3.882503562082105120e+00 -1.568834898607853745e-01 1.388304889874289216e+01
-5.115382627475290711e+00 -1.857861398769400374e+00 1.549776616419647723e+01
-2.973150788760075436e+00 -1.265276146564800364e+00 1.987958898572895095e+01
-3.999369903051697150e-02 -3.698444834533633596e+00 1.934447013790192216e+01
-5.088796516752027710e-01 1.542514147826888671e+00 1.803090342301399573e+01
-3.307020949712602409e-02 -3.677383910047451465e+00 1.914793721087534095e+01
5.006934591659542022e-01 -2.208432637743823257e+00 1.744665726124015492e+01
-3.059915702966340412e+00 1.805035639382752022e+00 1.366528529369031730e+01
-7.078098658653755315e+00 1.455159272262889658e+00 1.791361557742581567e+01
-6.208356111889421491e+00 -4.171774161503757128e+00 1.884865255274556262e+01
-6.221153333855995449e+00 -1.908863627492685122e+00 1.446089162475038137e+01
-1.075198687572206158e+00 1.639675272803249317e-01 1.409758653605778989e+01
-3.279187318673566054e+00 2.733920933717752799e-01 1.308287702228520288e+01
-4.456298344890205598e+00 2.745601607809105005e+00 1.463170862972346953e+01
-4.854104983676203133e+00 -8.552194266980879256e-01 1.397412263735544258e+01
-2.290898119060966298e+00 1.603047943271949105e-01 1.367203588669901393e+01
1.771422047831819890e-01 -3.044298678230841659e+00 1.772088241512767581e+01
-3.774538531394792784e+00 4.091992258954927131e+00 1.882390060151880107e+01
-7.929801138654291925e+00 -1.293458246907834841e-01 1.678779986621228915e+01
-2.088005849532179159e+00 3.741178748752813643e-01 1.331262777442942280e+01
-2.918228752223399169e+00 2.530638032160101858e+00 1.941692557898862503e+01
-6.455181640123170084e+00 -4.353679897888308226e+00 1.861393733890508173e+01
-3.905969966836818408e+00 1.955679306233471859e+00 1.942206260401287210e+01
-4.099642761850970096e+00 -2.124046688460909493e+00 1.979319905799568602e+01
-2.755005910138346170e-01 5.141149666550541841e-01 1.668072596768990223e+01
-2.133277284488651837e+00 -1.839438239758894422e+00 2.002879789248291331e+01
-5.916548979622723969e+00 -1.532517021710707805e+00 1.911548551172600696e+01
-3.541701768387047977e+00 1.049993623161677547e+00 1.258334764963965569e+01
-7.943814152447912669e+00 -7.220394533059644182e-01 1.634590130515233142e+01
-5.293670488088470627e+00 -6.311608648296429536e-02 1.913648478923891361e+01
-5.071032462633271010e+00 -6.294156673032915705e-01 1.361707319761615054e+01
-2.340245131818818880e+00 3.630329632652023797e+00 1.916167893083757434e+01
-3.854625185358952599e+00 9.275233109847211832e-01 1.954051429319237343e+01
-4.021946679819781156e-01 -3.589525243539614330e+00 1.998158418011496451e+01
-8.845009860874095686e-01 1.102441386746186414e+00 1.611205203556971810e+01
-7.858357041431148993e+00 1.207137261824937857e+00 1.593285259640829565e+01
-1.034280671150317410e+00 -3.975123704662592239e+00 2.003721645288267439e+01
-6.037452239118519248e-01 -2.418596528266740542e+00 1.656629349275551988e+01
-1.419635338868189045e+00 -2.101667267968654329e-01 1.995598230468650769e+01
-5.557496525744745952e+00 4.153855908638943717e+00 1.809857939451517694e+01
-8.251783246678545680e-01 -3.938763964000623119e+00 2.002193542677735394e+01
-5.395036202139305459e+00 5.163376534666197948e+00 1.740988444188833739e+01
-4.238424183990730398e+00 2.747981214838379316e+00 1.464671434574936626e+01
-8.387071913949029067e-01 -3.832306877774080967e+00 2.007249339917996878e+01
-1.697661776351191865e+00 1.258460777593604085e-01 1.390196416484166519e+01
-3.972273338237948259e+00 2.521488742384106807e+00 1.929450023100991984e+01
1.581053058238546249e-02 3.075331727066057397e-01 1.934830731226940514e+01
-2.414057221405072617e-01 -3.749142159095329774e+00 1.915583381203635582e+01
-6.146115959335427537e-01 -3.408841608616321572e+00 1.798006710675053910e+01
-6.588139564736225751e+00 -3.128564714962537963e+00 1.543840314291141880e+01
-5.639561176502493112e+00 -2.742848108704257548e+00 1.567958530899937841e+01
-2.651912514145356781e+00 -2.629277351775280991e+00 1.772805137511610241e+01
-2.208928432252271978e+00 2.249423608372687067e+00 1.541740899954481847e+01
-2.784300141486000246e-01 -3.354603345727666941e+00 1.798900422627618667e+01
-4.370071890124189729e+00 4.978214968070248325e+00 1.827973512463811545e+01
-1.228273100874571533e+00 2.969641569310343954e+00 1.864373853239052181e+01
-1.250308806634786052e+00 -8.393713985054898075e-01 1.512822208824881898e+01
-1.211993181375827344e+00 -3.281222803886871375e+00 1.810665059149002332e+01
-6.287587472841010161e+00 2.891350969674672200e+00 1.803132754826808082e+01
-6.308938034695872332e+00 1.740968725329796740e-01 1.340551013989770013e+01
4.530004433589245316e-01 -2.784131689251045927e+00 1.811965718117640733e+01
4.426789035301808006e-01 -1.399366646272113712e+00 1.769755267050434355e+01
-1.546239713971748753e-01 -2.702724290002068486e+00 1.992025294173645023e+01
-6.214727172174863590e+00 -3.184895315142180827e+00 1.584141330414924909e+01
2.268611958113333493e-01 -1.971143059934239439e-01 1.773601158920234866e+01
-1.423135146636697268e+00 -3.132860032372144943e+00 1.807628964366234925e+01
-7.764464226052440132e+00 -2.693623287487882045e+00 1.627622662902019357e+01
1.439340056239166721e-01 -1.720346190060545233e+00 1.641544675698211364e+01
-1.640142696026773983e+00 -2.674017839562191412e+00 1.773361232191341230e+01
-2.588863120785132921e+00 -1.041257395174045808e+00 1.990453284573192150e+01
-2.273365670214563927e+00 -6.272474414592918990e-01 1.545096482649402958e+01
-7.463361948865881779e+00 -3.775620843686935402e+00 1.699345254875589006e+01
-1.879779999989805717e+00 -1.192875562634809317e+00 1.628681321160186002e+01
-1.593156025637305628e+00 1.638595125519443751e+00 1.540620066925659870e+01
-2.466654974175631398e+00 -1.893630330346110835e+00 1.718936233973764871e+01
-1.507004348623073309e-01 9.390945585395792383e-01 1.925304872816881385e+01
-8.010838495982465446e+00 -2.349707059882824467e+00 1.688404773128964109e+01
-3.387966130708096379e+00 -4.767866963661826496e-01 1.972888432644355561e+01
-6.173721797087066143e+00 4.230377913651415689e+00 1.698706454569140334e+01
-3.557407479388980498e+00 3.121327214263337257e+00 1.917774464009229263e+01
-7.823273190245868314e+00 9.587074401692334824e-01 1.604935527489018909e+01
-1.699229086085722429e+00 5.754985655110493870e-01 1.314618055810849739e+01
-6.660056368805844507e-01 -7.071270015963020406e-01 1.505207538278028778e+01
-1.353513136806401285e+00 2.637922675471442879e+00 1.943735791132345270e+01
-8.403044110010786660e-01 -1.891436099869233889e+00 1.607271174717976692e+01
-7.669826639973831739e+00 1.745385635704139959e+00 1.627179891364558273e+01
-1.999780896769967065e+00 -4.173182921828757941e+00 1.930810824629265454e+01
3.116060638403459482e-01 -3.297641831886163999e+00 1.894427295938616140e+01
-8.509213812286375855e-01 -3.324600240440427790e+00 1.791960636300994736e+01
-3.316315837815434264e+00 4.526530762857228218e-01 1.274898732293669923e+01
-4.202793341344309930e+00 -4.329999875040113189e+00 1.961659355672971117e+01
-1.706107145693668059e+00 -7.294662198847290391e-01 1.526316287734529453e+01
2.725817050678867037e-01 -3.404607238136901692e+00 1.891311705690552003e+01
-3.925437010035055962e+00 -3.015962991172904673e-01 1.426180702858655280e+01
-3.827031004544884318e+00 -3.911333451287585916e+00 1.984209960695866215e+01
-3.677179963451648881e+00 -2.704999682046573817e+00 1.988573333410641908e+01
3.309335444143136629e-01 -3.292836905558514715e+00 1.874930766346319899e+01
-2.208836241229314989e-01 -3.783403452202892758e+00 1.935563564116502278e+01
-7.186075524312601992e+00 -3.979366073592463415e+00 1.796755962363393877e+01
-5.855592419089419742e+00 8.558574644458849523e-01 1.876328093926457541e+01
-8.939775484014020890e-01 1.526930680939628138e+00 1.688524501584101500e+01
-1.421486245561295103e+00 3.229052210993004657e+00 1.921806228362576974e+01
7.115143666069956296e-02 -8.229820025704226438e-02 1.937281118580852279e+01
-7.790518769938755916e+00 1.123309364796406085e+00 1.626866930552597523e+01
-1.398686927131143065e+00 -2.966137208751671750e+00 1.791284765123550216e+01
-6.051356951618411806e+00 -1.132840782196797846e-02 1.328550936203051691e+01
-4.722910522056496418e+00 -3.893768770696308223e+00 1.775998716859694326e+01
-4.183395917053036150e+00 -6.886889631245267651e-01 1.962792921688215131e+01
-2.647591878267382182e+00 1.983183907474791896e+00 1.442858568668115282e+01
-1.507239963849344555e+00 -1.510782969988162527e-01 1.435047617313715307e+01
-2.729527218101246433e-02 -3.510115008182067342e+00 1.856491294530259495e+01
-2.987731886877084797e+00 -6.658626501167499434e-01 1.980162308047083286e+01
-2.253356134325659177e+00 -1.681270166633235696e+00 1.700605641816996894e+01
-2.964964761718925423e+00 -3.662774471809661314e+00 1.819485396349988804e+01
-2.138578048091044792e+00 3.068473986259880881e+00 1.695530957545002337e+01
-1.625121627961018778e+00 -2.925145581645337778e+00 1.795722951710780535e+01
-2.302574621877493399e+00 -2.697493112965787532e-02 1.412335660913436186e+01
-7.558126269534073849e+00 1.656043979931595578e+00 1.707478041245423839e+01
-8.013358958054855208e+00 -2.327352038352078267e+00 1.703676651011717524e+01
-1.026376233288039952e+00 -3.354035253529052518e+00 1.807930828490745512e+01
-6.518204139954721921e-01 -3.124413472419565352e+00 1.746582610697502247e+01
-6.422960170903570187e+00 1.174562258658051750e-01 1.347694727530500103e+01
-4.521475328295706753e+00 -1.928532096228115833e+00 1.660540345468079693e+01
-3.492346552702415785e+00 -8.510493854045586559e-02 1.388512805019657037e+01
-2.691887918460365015e+00 9.773276460197797277e-01 1.229361040211318112e+01
-3.116088074019581100e+00 1.022778085127270753e+00 1.228991098492966927e+01
4.016705246639191706e-01 -1.019981995434864785e+00 1.747879268149564069e+01
-9.813369383699019899e-01 -2.752880847620149396e+00 1.699516799857897809e+01
-6.879685000663923411e+00 -2.370392857489991734e+00 1.500023229588192919e+01
-8.253060127414908465e-01 -3.491994229892178225e+00 1.814465373700266326e+01
-7.963395639851271746e+00 -2.495028638938341814e+00 1.663868478089406722e+01
-3.067274764222981176e+00 -1.745859858088834482e+00 1.695011782539937428e+01
-1.512177166450419552e+00 3.442340180794769999e+00 1.868954584759396909e+01
-3.788550347498483184e+00 3.172290264761697731e+00 1.913596028883176814e+01
-6.156454315849184677e-01 -3.274677320499120192e+00 1.774573749519604604e+01
-4.102314308866961134e+00 9.837469874212612098e-01 1.263462991305800642e+01
-6.030628781555252615e+00 -4.510835720884140088e+00 1.875006737736233475e+01
-4.915894699479505192e+00 -1.427291455713490365e+00 1.947701159677166061e+01
-1.581831976449759036e-01 -2.381475430483551037e+00 1.993531640126724369e+01
-6.779892037032008822e+00 -4.356648730757869181e+00 1.815704548804058760e+01
-3.006899669696911914e-01 -5.003952273769565195e-01 1.508725496965781332e+01
-3.897234362245188599e+00 -8.076908102783262322e-01 1.564386968965377633e+01
-5.032544335743788011e+00 5.090082764093386558e+00 1.744173266417715240e+01
-2.089467517003264607e+00 -1.190166706432180810e+00 1.640058403119199681e+01
-1.000959076421193306e+00 -3.272003682038172379e+00 1.796510187803816194e+01
-4.124482185532611034e+00 -7.991863084946815299e-01 1.537442189381704338e+01
-3.752422420112907275e+00 -1.325097292373438318e+00 1.980942181267586477e+01
-4.451122111800029924e-01 -2.377474817825470765e+00 1.656929743612633388e+01
-2.411858439675182098e+00 4.866034548197074372e+00 1.855416078023483095e+01
-4.103676139298877423e+00 1.533238767518766199e+00 1.944479711124476751e+01
8.473325325862179902e-02 1.307702065147784642e+00 1.893926678173481548e+01
-4.902151451657901227e+00 -1.427666379512475103e+00 1.516475512436827700e+01
2.023128510905871646e-01 -3.605301678670564947e-01 1.652346573329435131e+01
-4.942696684849261501e+00 1.266184922137574054e+00 1.326878335274987109e+01
-1.023925933232008312e+00 1.229282289273543993e+00 1.600082951114436725e+01
-5.789822121390295173e+00 1.556292204089381848e+00 1.408592079815061027e+01
-7.770339972528705452e+00 -2.033535977241416770e+00 1.603203131409729565e+01
-6.395177504564887982e+00 -2.962651232801331247e+00 1.522325338027570751e+01
-2.916966232783969382e+00 3.708377373612292693e+00 1.689989977809131716e+01
-7.010543179323160068e+00 -1.101843149314245540e+00 1.436796979213118419e+01
-3.235862767730936618e+00 -1.766166181359229537e+00 1.692716932631756066e+01
-4.116486392501048641e-01 1.706044023792321340e+00 1.884287505696261888e+01
-6.581612769567043664e+00 -1.107519608229368124e-01 1.345559905017427837e+01
-5.312064297361311915e-01 -3.596607784511292039e+00 2.003779527333628607e+01
9.340374734424261582e-02 1.129785996248938496e+00 1.899870713863728611e+01
-3.517389760923101072e+00 -2.098647417391185321e+00 1.988637359955938422e+01
-7.543215930032673988e+00 -3.690019442924764803e+00 1.717322163793287615e+01
-3.907730185371408815e+00 -5.591708339431482599e-01 1.503776936471405179e+01
-3.824809804850350936e+00 3.246221806764539863e-01 1.958708782468358578e+01
-5.823752873154854015e+00 1.044246282886684973e-02 1.890053268978664391e+01
-5.404094861746321143e+00 -2.959280287955584399e+00 1.937375940417874176e+01
-4.998293337017453375e+00 -4.128799380410624664e+00 1.946047749443321351e+01
-4.495375765906689303e+00 -1.358155352759137013e+00 1.594993909981664615e+01
-9.158541325511793119e-01 2.432829612381674611e+00 1.928734341435735899e+01
-6.008831913888450060e+00 2.783174155811317441e+00 1.827736836869355130e+01
-6.118184129124765391e+00 -7.998460000434075567e-01 1.890896290285206049e+01
-2.515134629602116423e+00 -1.511963808193486969e+00 1.997107716353394125e+01
-3.735867953185351809e+00 -1.685700477970073052e+00 1.984790304098354596e+01
-5.217360247457058620e+00 2.083533889504244119e+00 1.891864287624959928e+01
-5.086947911395427901e+00 2.963895511355823409e+00 1.514867249654472658e+01
-4.852629324113236109e+00 -2.554781758340920028e+00 1.690679772515535717e+01
-5.484653983351406303e+00 3.454760481938679906e+00 1.584965309182689452e+01
-5.765307668434267008e+00 4.564999706268233481e+00 1.772022142918835641e+01
-5.761566718340646709e+00 -3.912528364989435126e+00 1.718046469830198930e+01
-6.626476379656413229e+00 -3.353495369707371943e+00 1.582485733056963539e+01
-4.003824559838669472e+00 -3.190708249183854761e+00 1.769336609808255645e+01
-8.375997731271800362e-01 -2.406097260229436152e+00 1.653814179404118789e+01
-1.135229939471294358e+00 -3.624773072715580469e+00 1.836521203332792851e+01
-6.271100672201344040e+00 3.529870947536386971e+00 1.630667233177172903e+01
-3.709467408429939717e+00 -5.023876285683530618e-01 1.502659356852786487e+01
-4.790683667914736432e+00 -4.024557639882094584e+00 1.780535095427509873e+01
-3.792600018292866970e+00 -3.780491035041463554e+00 1.801856586458180942e+01
-4.602834035810220215e+00 4.609131072057840228e+00 1.838025640046291898e+01
-7.190255428972032625e+00 -9.519362564235112067e-01 1.459104428939804166e+01
-3.889376838384130508e+00 1.419523689490609364e-02 1.341344386995989169e+01
-2.283085054198134678e+00 9.729794742243556005e-01 1.277652466669332654e+01
-7.596389803895253756e+00 -3.486622897335822202e+00 1.679790850288834037e+01
-1.020990558924972369e-02 -3.086337638455324495e+00 1.766209744470528875e+01
-5.339297731073539666e+00 -2.204475456917895038e+00 1.501555145782396039e+01
-2.494490446806505446e+00 -1.038465167155225632e+00 1.624843285465254894e+01
-5.963026088132379332e-01 2.364812600193397785e-01 1.979049354692463680e+01
-3.087583757102642323e+00 -1.460552431117411398e+00 1.666526470336525989e+01
-5.752848423214687479e+00 -2.802556696381133250e+00 1.544087358881689909e+01
-1.883035962782461326e+00 -1.399187867152895670e-02 1.413535373340975099e+01
-4.861007371294402191e+00 9.732701520333902900e-01 1.295258210064849891e+01
-4.041916568764600370e+00 -2.946094320579469183e+00 1.756193906690617013e+01
-2.543358355818468919e+00 -3.391783044431455174e+00 1.819742080110624727e+01
3.687848448806673174e-01 -9.371790871183676153e-01 1.773244441405835659e+01
3.137313191237046661e-01 -3.188611529677507939e+00 1.822312773186139623e+01
-3.062872156879357100e+00 -2.999577956891288366e-01 1.444895632646108652e+01
-4.385636789776781619e+00 4.826757163923975469e+00 1.734839632737024573e+01
-1.510801918597675542e+00 -1.356425427772083747e+00 1.604358129401358468e+01
1.400462875890202685e-01 -6.875143477678498094e-01 1.570661018166675404e+01
-5.677777754232162799e+00 -5.027109549855945936e-01 1.353031399893748699e+01
-7.038648853025192942e+00 -4.153961918876848181e+00 1.798688692288633462e+01
1.909564312908832440e-01 -3.320072923616070426e+00 1.833707914335616351e+01
