-4.778580076616506744e+00 -3.883981663815312846e+00 2.048981502399313115e+01
-4.107356846759865121e+00 1.749031780926198598e+00 1.396248968858171224e+01
-7.988020801532016435e+00 -3.017543488204010860e+00 1.884411244090415494e+01
-3.969506964693706230e+00 -5.993907107590651373e-01 1.647633131249805416e+01
-4.342420453313338591e+00 3.357575037898339332e+00 2.069236096731417973e+01
-7.916124190928389703e-01 -4.992884354025672877e-01 1.649070023492644310e+01
-3.562678712957321192e+00 -2.108471321472710880e+00 1.954523560242246560e+01
-5.867735986851404517e-01 -3.321365121556412170e-01 1.668757891867297616e+01
-5.821417349278668496e+00 -1.166353093009228292e+00 1.596396531759091175e+01
-1.786323465064953986e+00 6.388273600326456816e-03 2.198277520601465795e+01
-1.426127666117512183e+00 5.356213196530147658e-02 2.199421719080515913e+01
-1.932444678223245171e+00 1.800986058425459446e-01 2.191505061293144507e+01
-6.962794777288817016e+00 4.756436888587687317e-01 2.079139627907301957e+01
-8.319181953897373916e+00 -2.922362267947996806e+00 2.000577861594891260e+01
-1.434606604161327903e+00 -4.009029609054357124e+00 2.138176629868824108e+01
-4.661236210158884674e+00 5.748519188559004789e+00 1.905545811758398855e+01
-1.739800439576793423e+00 3.811559107824436410e+00 2.051750205092726986e+01
-1.774108078388908494e+00 -2.049082864363338530e+00 2.224696604942805322e+01
-4.510218864467931077e+00 5.669028864270467594e+00 1.918674568441222306e+01
-4.999697860132119587e+00 -1.038027521099788686e+00 1.787627537356058838e+01
-5.694980916775160829e+00 -3.057343413427905610e+00 2.173794266956943488e+01
-6.105154603099227195e+00 4.669806523352093564e+00 1.721369192674935533e+01
-1.909872226040154830e+00 4.246308402879481747e+00 1.895437787315318445e+01
-6.951570272525540162e+00 -1.962243216923078570e+00 2.123577232630221800e+01
-3.165313766854097821e+00 -7.600639613814156315e-01 1.667837753299255610e+01
-4.178626540278256307e+00 -1.383854101571805328e+00 2.207502661517430198e+01
-4.008488260445961515e+00 -1.589426463702987125e+00 2.211879111408897813e+01
-3.752655161255642913e+00 -1.584572483840361867e+00 1.900630642294990480e+01
-1.791243249022133277e+00 1.688640263564252120e+00 1.593181462339598653e+01
-5.738684327785265715e+00 -1.555564133296704732e+00 1.801694164536020537e+01
-5.889217277080861734e+00 -1.208361669554202766e+00 2.157488674982962351e+01
-2.061623133612739522e+00 4.281380411426681576e+00 1.875221353656865375e+01
-6.138073078071906608e+00 1.752953996790664881e+00 1.532555641953263859e+01
-4.712756205212567551e+00 6.210667725405716766e+00 1.857681939866689902e+01
-5.991837997929649440e+00 4.068477886976930691e+00 1.965117465517595718e+01
-3.218152157229764221e+00 -4.308547087648374685e+00 2.174912900092256507e+01
-1.056243748739579491e+00 -1.874964906579351387e-01 1.596395964768630904e+01
-2.941626606603033878e-01 -2.032125395111142041e-01 2.115231805449040792e+01
-3.093964706658305364e+00 5.645177602311132858e+00 1.947624146630477071e+01
-3.596126833611211771e-01 -4.069496399322294899e-01 2.128574199214227747e+01
-5.030595601462332922e-02 -9.312275623048463791e-01 1.790293248994171194e+01
-4.359556992264748132e+00 2.710891472412980008e+00 1.498924888628300778e+01
-2.222651548378079323e+00 -3.935309498538589690e+00 2.194924537625391991e+01
-8.423714537614689135e+00 -1.464468175676777451e+00 1.766722213305368427e+01
-5.555441883380746404e+00 8.583815115455268874e-01 2.111764928939942365e+01
-5.364595660671932720e+00 1.627094017450814833e+00 2.092531635701177350e+01
-9.008847086045188579e-01 9.696828032817930709e-02 1.627353031602596900e+01
-6.466471033842330129e+00 7.565749095068288188e-01 2.084274114005464185e+01
-5.903505405210821344e+00 -2.419685586164797453e+00 1.921275738739333860e+01
-8.637621442143359474e+00 -2.323243248925577653e+00 1.907046843955988180e+01
-6.625287715236388486e+00 -3.773556077771934802e+00 2.126160226678185694e+01
-6.869729195840537983e+00 2.406388560107940222e+00 2.006435104301345973e+01
-2.836212014009945825e+00 2.233073899872328294e+00 1.520508175817162311e+01
-6.742030195352987088e-01 2.456235334539948134e+00 2.058707407917889043e+01
-3.912470250879082734e+00 3.015086294803785538e+00 2.092114720080066803e+01
-6.533946814208946741e+00 -3.731310995119116569e+00 2.133456311311603315e+01
-6.227307968963024187e+00 -2.048487011500244481e+00 1.806542993325753343e+01
-6.429138271626318790e+00 -2.269391402231921706e+00 1.827109200453244853e+01
-2.489230174593480616e+00 4.166052453488628515e+00 2.049101199625808789e+01
-3.740860967164752804e+00 3.084543449473116095e+00 1.560612138818103745e+01
-8.302709275629149843e-01 -4.350365165680760149e-01 2.184046776223043196e+01
-6.304255103807538063e+00 -2.148668839140610132e+00 1.824893813540759169e+01
-7.295713430721865400e+00 3.439916367758450999e+00 1.911324581625905239e+01
-5.104330248979405127e+00 4.832790549852180817e+00 1.706960003477291821e+01
-2.401873696704897920e+00 4.023670492864692250e+00 1.804028640112390747e+01
-1.373969912569212193e+00 1.382105042125378880e+00 2.155760538213129252e+01
-2.341926603064612422e+00 2.510393025766537001e+00 1.614544847501079516e+01
-4.079735728008489493e-01 7.745423376442147623e-01 2.108139616773915037e+01
-6.764063679481759017e+00 -3.130952580309045441e+00 1.943299614401043129e+01
-8.757587060320743078e+00 -1.057386887784806717e+00 1.865384185239184234e+01
-7.220323503167035639e+00 -3.025125328944747949e+00 1.911929857596516058e+01
-1.107158156680391636e+00 -1.679704600813480386e+00 1.753623004045192602e+01
-2.190152307855919300e+00 -3.969970260514654292e+00 2.102644369247740030e+01
-5.635619045924316950e+00 -1.201591886354190342e+00 1.670572474069583535e+01
-1.932802050988515985e+00 7.410489312406877138e-01 1.452217346112494312e+01
-1.476039645715716553e+00 -1.248456474729482624e+00 1.715097610163612529e+01
-1.557759861680335423e+00 -1.141252860163828986e+00 1.702879988113807030e+01
-3.217345879636928530e+00 -2.611877852595525074e+00 2.220223394182542620e+01
-8.250576366968804365e+00 1.486089598029266767e+00 1.776922158062107826e+01
-3.749446211567661336e-01 -2.194120672878431932e+00 2.126177291894413202e+01
-2.165804254618186153e+00 -3.221853042151876512e+00 2.035212430358411240e+01
-6.195402025303034854e+00 -3.812633810229757891e+00 2.034797848468063108e+01
-5.492425223204872253e+00 5.874191701235302432e+00 1.820457965170271564e+01
-8.232327755654981871e+00 1.160825178720137574e+00 1.703824402039074926e+01
-7.383649938353571862e+00 -2.594023691479649951e+00 2.089929945942594713e+01
-4.090423983897078841e+00 6.097729269458129764e+00 1.853752981803420852e+01
-7.423566332821729397e+00 -2.406191522703069463e+00 2.092041718876484424e+01
-5.762564179495885064e+00 -1.934206310571583209e+00 1.868818503485930194e+01
-2.988472754809906817e+00 -9.902697278056240560e-01 2.206750466195006055e+01
-3.937038743995564083e+00 6.091006063473885845e+00 1.858027489789625264e+01
-3.724763159568333926e+00 -5.350787060788914085e-01 1.591151286586725178e+01
-5.400742638974318943e+00 -1.979820461519757879e+00 2.185729146085297003e+01
-6.347411999964739593e+00 -2.390484384524356631e+00 1.882151576070494770e+01
-7.415098092440860711e+00 3.769678445289062818e+00 1.831790308739994089e+01
-1.635348150876732465e+00 -7.612036030909409556e-03 1.514175911938830410e+01
-5.166321127552906844e+00 8.409931499483724870e-01 2.126794698346267154e+01
-5.889342478864333152e+00 4.608173650500262397e+00 1.934511425423424669e+01
-1.167141012272719491e+00 3.382394000246181864e+00 2.048311246142603181e+01
-5.919276028464749650e+00 4.719071184945290653e+00 1.923672873339069866e+01
-6.551575019502411834e+00 -2.759242399470573037e+00 2.137209849235843251e+01
-4.512984122365442552e+00 5.313887510889935939e+00 1.947846619767516074e+01
-3.361009643704637284e+00 -3.263403457651218864e-01 1.501306428135898585e+01
-8.315211590123780638e+00 5.385889389609335165e-01 1.710619052460850043e+01
-6.770917706015572080e+00 -2.541273114204229522e+00 2.128299786561328233e+01
-2.961228419837184767e+00 3.957562294246865786e-01 2.174010517165359602e+01
-1.432887515311910276e+00 3.295577427355651512e-01 1.514573683923305936e+01
-8.479449805305947052e+00 -2.733692788013420305e+00 1.896047890334682506e+01
-4.708847636163594474e-01 -2.791871509239438609e+00 2.121067966928876558e+01
-2.755219402228215486e+00 1.200046680289711398e+00 2.154582283488198868e+01
-6.390829274663349047e+00 -3.158056483752996968e+00 2.140410068045112979e+01
-6.387039872390898765e+00 -3.365991098255177505e+00 2.141302150776247970e+01
-4.311171896463904751e+00 3.497702116282980889e+00 1.579850599393167698e+01
-5.631187676500640116e+00 -3.540261431259017932e+00 2.009045215314797872e+01
-4.198617598470200996e+00 -4.207938996508957530e+00 2.103216252062406966e+01
-3.741918622956434071e+00 -9.602261534670585297e-01 1.805290269354059518e+01
-8.518692358487086835e+00 -2.675311236938267889e+00 1.904237344246529773e+01
-2.819390979697665167e-01 -3.108015579461592903e+00 2.018381468108346866e+01
-8.668929249462827613e+00 -1.074596488500360936e+00 1.822421111304733898e+01
-1.749229051525763579e+00 -2.140343835567864172e-01 2.203865667525590055e+01
-4.350510875724069138e+00 2.022050348364789141e+00 1.427165507164072977e+01
-3.475164413842298794e-01 -2.607534681998132875e+00 2.102584533113127918e+01
-2.639228382034797704e+00 -1.205062516917827065e+00 1.819064365197407795e+01
-8.638070986836915433e-02 -1.165311868664563599e+00 1.806678549109805232e+01
-6.784450296798801183e+00 -3.355958752664370159e+00 2.121696416458448198e+01
-5.615777585516221193e-02 -7.336979989538106040e-01 2.067031400034979072e+01
-6.786532230311638436e+00 1.166994968168654001e+00 1.566813021995032784e+01
-6.612940540112646759e-02 -9.834960503496936735e-01 2.064947434638347090e+01
-5.584014321287757099e+00 -1.551898608771369981e+00 2.173701256549256300e+01
-5.657845937487231858e+00 -1.223878442414158663e+00 1.649123713144861370e+01
-2.096242412238917829e+00 1.798551659984367390e+00 2.145138393938334787e+01
-5.716320723245066127e+00 5.643174890656812437e+00 1.854201238564229470e+01
-5.963615583200012615e+00 5.530054203636366239e+00 1.843067019353848224e+01
-3.784700783700694959e+00 -4.024368699224810442e+00 2.075720758712299130e+01
-3.359525926260496842e+00 -5.705042874063558367e-01 2.196533609036896451e+01
-3.776389107722849747e+00 -3.353859330716141951e+00 2.024599307768978207e+01
-4.817107229397444179e+00 -2.091937059896181506e+00 1.933525202090955730e+01
-7.380581130407136037e+00 -3.628220304376149619e-01 2.090484909995538487e+01
-4.356576431207496825e+00 -2.179060395852356002e+00 1.949662190759607228e+01
-7.618157037067891935e+00 -2.767609675822247706e+00 1.776669208342848805e+01
-1.626524403898853999e+00 -3.769118180111793670e+00 2.192017810659577037e+01
-2.924277951610464665e+00 3.713830184480533703e+00 1.694324808799362359e+01
-9.582743591717763909e-01 2.402891598465041412e+00 2.091593626243766835e+01
-3.878507769105806968e+00 4.379416105627967681e+00 1.711158999415470561e+01
-3.348397631953705211e+00 1.534888855557678067e+00 1.395472881465511250e+01
-4.753769992409521805e+00 -1.147384777307461023e+00 1.830597475274918651e+01
-1.770123204478975198e+00 -2.571103993498708995e-01 1.551098628373502208e+01
-1.770728561654360877e+00 2.772854708674846069e+00 2.107093894317478089e+01
-6.622807985723436097e+00 -1.472160687627304343e+00 2.133950365864509990e+01
-1.961424572197682625e+00 -3.920582821262117990e-01 1.570999309761693752e+01
-2.121172314305422191e+00 1.354864598360475680e+00 1.492742799181591806e+01
-4.752670551823463541e+00 -1.049212846810854360e+00 1.812657311729937248e+01
-6.708587633157493180e+00 3.237555801559238500e+00 1.971309593888410916e+01
-2.775229175337611043e+00 -1.710564337981801408e+00 1.914343888527251636e+01
-3.360355967994095749e+00 -1.309052535407290385e+00 1.864476222942029437e+01
-2.136555226871596602e+00 -8.157987943791549235e-01 1.692705924870814727e+01
-5.014560184640577845e+00 -4.232032420365909431e+00 2.118945887812507323e+01
-2.618454347409352678e+00 -1.410587990326558794e+00 1.859669996165489181e+01
-1.045590284621288779e+00 8.413795432329749246e-01 1.656912692071082915e+01
-4.580761678408439508e+00 -5.072794316681640270e-01 1.608347012744338400e+01
-4.784245793286328041e-01 9.825728569560897574e-01 2.111623486840456110e+01
-2.797816127701068467e+00 -4.047403858346646288e+00 2.098240146849394705e+01
-6.010416877930533364e-01 -2.248242251202935194e+00 1.813222135348015485e+01
-6.179609034201027917e+00 -7.203743306070486963e-01 1.526835146098471796e+01
2.644755047473858200e-02 -7.636604188177051888e-01 1.886940665229369074e+01
-3.991507334767702808e+00 -4.253709646131174082e+00 2.186574957322169865e+01
-5.858036824138040721e+00 -1.597695850917180360e+00 1.785129830408990870e+01
-4.183023066662580725e+00 4.067647665477898133e-01 2.167097927133599455e+01
-5.539496773768160409e+00 -1.399366466280423271e+00 1.798328323662321537e+01
-1.874528421569892744e+00 4.287600943280057919e+00 2.024531764126939493e+01
-7.700083286993226750e+00 1.300294825842178925e+00 1.660643554284887102e+01
-2.750543425223503924e+00 -7.254539939097531809e-01 1.649518191815204915e+01
-2.351102801471778303e+00 2.005268753215669442e+00 2.137510546829513203e+01
-4.381477714269764512e+00 -3.187485723107122970e-01 1.527914186399840446e+01
-4.546227401674287627e+00 -2.382972494854341261e-01 1.504952466157683233e+01
-7.173250238294619940e+00 -2.370841437872084789e+00 1.687810169430849783e+01
-4.803770950537440854e+00 -4.248965590434414352e+00 2.119528979763253318e+01
-6.746560467669905137e+00 3.678523769370749541e+00 1.940761748321654068e+01
-6.982712242692985960e+00 -2.336761821600214617e+00 1.681566731088700095e+01
-7.952468438610387214e-01 -9.282186598484982731e-01 1.687033320835114125e+01
-6.760376771463169732e+00 4.949758621228099287e+00 1.802352418440312931e+01
-3.034987328764142678e-01 5.750416572327408105e-01 2.096458527182228693e+01
-4.114455496109397536e+00 -3.863159130848979883e-01 1.543099053890336592e+01
-8.288058456212267444e+00 1.319424587444578689e+00 1.835420307397346562e+01
-1.012347831248514352e+00 -3.025125460219010076e+00 1.925547842460486692e+01
-5.825348955833877795e+00 -3.000801048456557041e+00 2.169266210550973284e+01
-1.699135606943096843e-01 1.260644112884950346e-02 2.085767844729618758e+01
-1.668060667219834370e+00 4.056003489682305840e+00 1.916094780547037857e+01
-8.666981437992749449e+00 -1.170330440293417151e+00 1.950460586393248974e+01
-7.237026188979700514e+00 -6.614397505089605334e-01 1.581260393072787451e+01
-5.785360443031145827e+00 -3.303887829865781001e+00 1.989452694493436269e+01
-1.778763031124142913e+00 3.981725803997934743e-01 2.188020616963877529e+01
-3.494070047959282110e+00 6.212934768759252435e+00 1.893948996083425129e+01
-1.707804412880204348e+00 2.316513805210548949e+00 1.691866897829404337e+01
-5.109866232077387771e+00 3.480457687874559003e+00 1.581644261579067035e+01
-6.999686623461132129e-02 2.036555044276860127e-01 2.057466946550656672e+01
-8.427060100135548737e+00 -7.132351975512467579e-01 1.738197612989893059e+01
-8.133222670158225753e+00 -3.245492990157990310e+00 1.943114082150412258e+01
-2.775805090746674697e+00 4.239403815250286200e+00 1.779961813103812318e+01
-6.868569768252727137e+00 -2.620164749959483341e+00 1.849873364225759076e+01
-2.166431000589237765e+00 2.449434858121523728e+00 2.123653222323186185e+01
-6.517639367733996103e+00 -2.360061699863634121e+00 1.841642688844960674e+01
-3.812730739158447069e+00 -4.324959430449286657e+00 2.177087987378063616e+01
-8.715655143108596903e+00 -4.603880647869912357e-01 1.866157496303679864e+01
-3.557188086864361942e+00 -6.811634196026603583e-01 1.669075474005828141e+01
-4.167830432503155436e+00 4.841062657664155111e+00 1.746168726333092280e+01
-3.723239102411270096e+00 -6.798605087206791575e-01 1.692109135434954226e+01
-9.674900772415070960e-02 -2.153485853913282622e+00 1.964752133023314684e+01
-5.711883680218154069e+00 4.682831200953581074e+00 1.702344742957804158e+01
-5.357348112670980989e+00 -1.877539440329408116e+00 1.891507816306342704e+01
-2.962966136418348828e+00 -1.343132740110470624e-01 1.447961825005248215e+01
-4.747044397671853488e+00 -1.477310965098805662e+00 1.875193749255387132e+01
-4.140216697838118520e+00 -2.382940832301677414e+00 2.216909529514029487e+01
-4.221862359641388451e+00 -2.116603234401655875e+00 2.214729060724135223e+01
-4.129660183092861203e+00 -2.246601993698732702e+00 2.216468530484014110e+01
-2.903046789076370593e-01 -3.073645361374979235e+00 2.030317264527511156e+01
-4.774796584551351586e+00 -2.197045806943485946e+00 2.205996421686225517e+01
-5.334225936619536590e+00 4.533671175765427108e+00 1.678631755439399598e+01
-4.335384386290735748e+00 -1.147977425124744988e+00 1.842269462509339917e+01
-4.357608428273135992e+00 -1.332625782177405904e+00 1.867164352552386219e+01
-8.222621101850897674e+00 8.969288818789891149e-01 1.970514700268530817e+01
-6.922112091606492434e+00 1.486547255951440993e+00 2.044441901208133316e+01
-6.723986055401929285e+00 4.323867253769629215e+00 1.738762491717758252e+01
-4.776526598755860498e+00 -7.914257963066181345e-01 2.187252081262307968e+01
-4.698234240137586504e+00 4.937123866147237194e+00 1.968492058990904781e+01
-4.560208206365011507e-02 -2.460940744591933460e-01 2.062283797640034777e+01
-3.127779322940352214e-01 -1.026738777906250011e+00 1.737441898206640900e+01
-4.258371601503728177e-01 -1.317381640526800402e+00 1.750132178499214319e+01
-7.520358795335304158e+00 -1.562369391956630382e+00 2.098271340671760044e+01
-4.777867581560682808e+00 1.733255601371676002e+00 1.417332078084503166e+01
-2.074977957413665308e+00 1.402526014520581787e+00 1.506006174544539533e+01
-7.354157862145175528e+00 -1.737594659682243803e+00 2.105275967533565051e+01
-3.497703800339321933e+00 -8.253889191028531691e-01 1.735741397313150003e+01
-7.769482480635497623e+00 -1.149995507707455289e+00 2.086014405436733199e+01
-2.913277668830881684e+00 1.608460120118470060e+00 1.431377924852742467e+01
-3.144340438129294313e+00 -4.266243356776620033e-01 1.528613769695712676e+01
-8.258350357359940830e+00 1.438586738196337755e+00 1.785860415760996034e+01
-6.785694816589584732e+00 -1.739972345868667114e+00 1.621384384463129180e+01
-8.563984232920944351e+00 -1.498231583250852816e+00 1.984428992998541474e+01
-7.691835614536384647e+00 -2.297534605276082775e+00 2.078029070731286509e+01
-2.816719178147145897e+00 -8.520094142715332053e-01 1.710348115957896198e+01
-8.466891728828974450e+00 -2.474299738973374296e+00 1.990175082788276484e+01
-1.878337580329022094e+00 3.322225298635465007e-01 1.444037496922883435e+01
-2.226742868036210243e+00 3.674384255114363507e-01 1.394623093086818244e+01
-2.060963259285620186e+00 2.493241437689863171e-01 1.422096122869749024e+01
-6.114218412412061987e+00 -3.792755914533781247e+00 2.153761410227514261e+01
-8.716351457674743841e+00 -1.872551979478590312e+00 1.902101627436265829e+01
-8.687554070759844649e+00 -1.836676256722012068e+00 1.866186621108273869e+01
-2.456967001898898939e+00 2.583805466234525561e+00 1.606874957485359801e+01
-8.722347315915399690e+00 -1.064882533493110905e+00 1.924370036571509246e+01
-1.386626345692425044e+00 8.063141112314984316e-01 2.176203067244939859e+01
-4.711409444583919637e+00 4.011185862996136109e+00 1.629115660130688070e+01
-4.713628741107211084e+00 2.994999899633910001e-01 1.383264058988810064e+01
-5.218509799745485012e+00 -7.933149820705355237e-01 2.174939416850163099e+01
-6.308313335368005426e-01 -3.509989094935225928e+00 2.049796020096665927e+01
-4.516059847961338747e+00 3.646310466157624219e+00 2.051193237367258604e+01
-6.387269932668627526e+00 -7.702949515068396869e-01 2.131052819152328226e+01
-4.924108982981230120e+00 4.421782430227857219e+00 1.992959767147408456e+01
-6.933826841562883203e+00 9.993011205156056009e-01 2.062538945761741616e+01
-7.148011656643133982e+00 1.047698706339625252e+00 2.055607751390505200e+01
-5.156582422342810723e+00 5.852713052593168097e-01 1.390456257133824636e+01
-3.733320741459336567e+00 3.857392105300684548e+00 2.062774911113574916e+01
-3.589189448573055774e+00 4.310316492954374468e+00 2.041103939844738591e+01
-3.627074114139713368e-01 1.825913960022498950e+00 1.954609118033939552e+01
-7.883881109690929812e+00 -1.232826973271107907e+00 1.674697242247459172e+01
-1.470608573775517902e+00 4.245109687086104699e+00 1.982267802376865262e+01
-1.369507247110989701e+00 3.976514183940659475e+00 2.015991312230319465e+01
-4.197090288883334352e+00 -1.059952183719653496e+00 1.829455099962230236e+01
-3.984641208587962780e+00 -1.075177309176027052e+00 1.831802574044903054e+01
-3.778362613550300786e+00 -6.144088080438889765e-01 1.651176146901472208e+01
-3.611161469224613452e+00 -2.174387051425149320e+00 1.958606994327173823e+01
-5.759606769412887850e+00 7.803114042943267714e-01 1.451379897032028765e+01
-5.142366266539584174e+00 -6.185295039744671541e-01 1.589830435211878523e+01
-5.634021361886709656e+00 -1.000709643965765228e+00 1.593009984273360402e+01
-5.481611935591905294e+00 -9.051724926028320573e-01 1.600868984437173737e+01
-4.129178068694887294e-02 -1.383640560824408672e+00 1.930496788099678440e+01
-3.542962643601228034e+00 3.358154198250371328e-03 1.407853647409640985e+01
-7.691083587406818189e+00 8.559062459280546431e-01 1.640128967482291955e+01
-1.203599038905372454e-01 -1.625057237802397969e+00 2.064478627977641167e+01
-2.511907350353240087e+00 -6.609349847486825080e-01 1.628314948500869264e+01
-3.921608686909708652e+00 4.980113000264481116e+00 1.991276437727805160e+01
-2.406954002763160183e+00 -7.292031087174724036e-01 1.663275498674648389e+01
-6.903186791150486279e+00 -3.679642134919513197e+00 2.112382098425827337e+01
-2.306387222195944720e+00 -3.769308761142551312e-01 1.544254037633119481e+01
-8.250378572690339141e+00 1.443670656612717762e+00 1.860184286007719123e+01
-1.959008955114481143e+00 -2.933276781664367339e-01 1.546624041754542134e+01
-6.165302953554480325e+00 -3.456975540842325945e+00 1.990965792935691780e+01
-2.688521198612875973e-01 -9.917942375283628209e-01 2.119391207586494374e+01
-6.753532730850605681e+00 -9.451160175727095769e-01 2.121963437272830078e+01
-1.993278582752693318e+00 -1.742653428791301584e+00 1.845221001946855921e+01
-2.808651675010917614e+00 -3.125183877363156615e+00 2.029305388661403953e+01
-8.304956191808861021e+00 -1.516959598341634852e+00 2.038864713144707252e+01
-4.804337808457041170e+00 -1.767079135636357101e+00 2.200969290904078690e+01
-6.287823238333454690e+00 1.549992890280314173e+00 1.536828861232533683e+01
-6.544424427124889476e+00 -1.505235042745658669e+00 1.600826077036210648e+01
-5.561791870541617833e+00 1.184511843882131377e+00 1.449629321404182036e+01
-7.120177895689701053e+00 3.130258532302508279e+00 1.696851658228887771e+01
-3.948638452709279711e+00 -2.100243768616266937e+00 1.948922684022611662e+01
-4.572930089675220522e+00 3.166128951186205631e-01 1.372839624387961521e+01
-8.912175411448697293e-02 -1.832818209257375708e+00 2.009246942334554120e+01
-1.599660178060662519e+00 3.006207958693337456e+00 1.798384345806898921e+01
-8.377226573165363899e-02 -1.629908145546636433e+00 2.026738210749135760e+01
-4.305100936692653479e-01 -6.343114685546243914e-01 2.141581053652023314e+01
-4.402380889709772482e+00 -4.207970241356894903e+00 2.103798339873744538e+01
-5.319355975465212438e+00 1.821656054265538893e+00 2.087683300767510985e+01
-4.151083663873308183e+00 4.633179790060571790e+00 1.724672215181937673e+01
-4.906704368735924859e+00 1.130650333642455180e-01 1.421817198993202425e+01
-7.934191315170521897e+00 -2.926175210514792902e+00 2.057888677962653645e+01
-1.008079009750572297e+00 -1.976138139325188003e+00 1.780028434882569144e+01
-4.354674403733818977e+00 4.231093317745054372e-01 2.164130421485570110e+01
-7.732486859786891209e-01 -1.860894650240552783e+00 1.772338286594586521e+01
-3.002610332326336451e-01 -2.416209215031473789e+00 1.857469368873495341e+01
-4.540061407690090256e+00 -2.054810441814072242e+00 2.209574955846863276e+01
-3.427078728453387679e+00 -1.013176851310124249e+00 1.804646008965537618e+01
-4.319158414704045157e+00 -1.969340468329173754e+00 2.212171203982523338e+01
-3.530843415920441597e+00 4.290386066884375182e+00 1.719751446461252442e+01
-4.569151461379947321e+00 -1.615124400802565141e+00 2.204413630603776397e+01
-2.357143095099627939e+00 2.694435057917139442e+00 1.637112608624574506e+01
-8.297965423953225894e+00 -7.203708288711654362e-01 2.042243828212304635e+01
-7.717723620325772638e-01 -2.810684237473318525e+00 1.882193612570409869e+01
-2.429743697801562963e-01 1.506531412619639861e-02 1.774891958658875524e+01
-4.347231512302784040e+00 1.509608564641920329e-02 1.427398298181103797e+01
-1.224476023779284550e-01 -2.183145330853982546e+00 2.011183444755304350e+01
-1.776281683291019986e+00 -1.159895494962570162e+00 1.726152816640536969e+01
-8.103026960468548978e+00 1.696989004616015650e+00 1.717974966191919606e+01
-5.124779807211226057e-01 1.856911604843879182e+00 1.914631178822642710e+01
-6.437348118241709827e+00 -3.300695976123292574e+00 1.970061746447785822e+01
-6.605588614695584226e+00 -3.281800593966960111e+00 1.964087281167978460e+01
-8.082518809345170752e+00 1.467207579418056573e+00 1.699327568316959258e+01
-7.819125690941925555e+00 1.172141624500538049e+00 1.665470957273197428e+01
-9.768585477973892317e-01 -3.302593834810346518e+00 1.988998778139632861e+01
-6.202689327632850080e+00 -3.250717269808720111e+00 1.972025534357820220e+01
-5.741996250123666101e+00 3.687680768642887852e+00 1.998135320316686148e+01
-8.341226817231718327e-01 -1.999502101967407519e+00 2.198018763758922489e+01
-1.700113897602471891e+00 3.101348945305904437e+00 1.792348242590141894e+01
-7.460006673957437773e-01 -2.222797153534710635e+00 2.182127610285331798e+01
-2.375334003617229683e+00 -2.612779153593642462e-02 2.190040236838141396e+01
-8.754604294228981232e+00 -1.108272290676160177e+00 1.903321165353362687e+01
-1.917388523498619213e+00 -1.013189000750968738e+00 2.215338498036899750e+01
-3.067652680349834071e+00 5.912094614735158515e+00 1.919383919227848878e+01
-2.875667733542038640e+00 5.677527508150829405e+00 1.942144064006645010e+01
-6.233779364684741253e+00 2.622123132352193409e+00 2.023483250789107757e+01
-8.642197499014592665e+00 -2.953969847437803997e-01 1.907523674308416162e+01
-1.765652717549548001e+00 3.246703559999833733e+00 2.085253975161845119e+01
-6.104205411266009129e+00 -3.357814072722840937e+00 2.153790940769145834e+01
-6.169325268554691100e+00 5.328618924455424732e+00 1.844846586555449619e+01
-5.180947358987027407e+00 -8.262408062494728256e-01 1.692442478885359236e+01
-7.201973999152584405e+00 -3.641009072136229818e+00 2.004938451851029413e+01
-3.700094239738829227e+00 5.015410746779862095e+00 1.993122852086154495e+01
-1.938813073269112675e+00 2.355099293956169237e+00 2.126571031934683020e+01
-9.326493296925435494e-01 8.417489961432406131e-01 2.158068604154220083e+01
-9.260295922473811281e-01 3.932783557314073475e-01 2.170525422218018008e+01
-4.137092217630897295e+00 5.062258261217989386e+00 1.980017963141844461e+01
-3.727778773201337881e+00 5.237330144971027224e+00 1.976378470091091799e+01
-7.303397543269888104e+00 -1.000831383243134365e+00 1.595162932163506753e+01
-3.902296560156485405e+00 5.214436352388517548e+00 1.974702028033283341e+01
-8.546642554989100082e-01 2.514005440883083420e+00 1.907207417160753238e+01
-3.954281392458972588e-01 2.004981083440636525e+00 2.033266850970119322e+01
-4.523651145346733848e+00 4.301421160661041299e+00 1.661841580984482647e+01
-3.542979462756840725e+00 4.086680296335289952e+00 1.697566630130585708e+01
-2.672508716562878472e+00 3.926133314291835763e+00 1.754262444560743717e+01
-7.889549974038442826e-02 -6.434358841286271780e-01 2.076384888487149283e+01
-1.562811546681090569e+00 1.502018352511616417e+00 1.613504637021074473e+01
-4.395670112488174464e-02 -3.995368594984771704e-01 2.064455489915903286e+01
-2.586738127488720007e+00 -1.180771980266728693e+00 2.211914982718690226e+01
-3.794822392393632615e+00 -3.923895611227957936e+00 2.063733941502454172e+01
-1.821283409373411821e+00 -3.024830799203237053e+00 2.002656433612183662e+01
-4.762429391493280484e+00 9.732572250399749159e-01 1.373248652077700882e+01
-4.881038201311240776e-01 1.259830498116575104e+00 2.101753696553751638e+01
-8.101120296176155477e+00 1.305491454923003891e+00 1.695604325876919205e+01
-2.053843907841642391e+00 1.218440045337374267e+00 1.486315579047698776e+01
-3.534645404925086609e+00 -3.453298860714182794e+00 2.033337443586063387e+01
-5.789412746633106011e+00 -3.157420669456976636e+00 1.978994120501259601e+01
-7.289856775077701911e+00 7.897298702424473404e-01 2.061540141310059226e+01
-5.191853800493867688e+00 -4.163096386790334336e+00 2.100573473774048949e+01
-4.389315529223640766e+00 -2.365255591047911388e+00 1.961913773676646855e+01
-4.779402525761184961e+00 -1.588354657135042425e+00 1.886997789766255806e+01
-2.535163014755820399e+00 3.474371309176073286e+00 2.084167517168485517e+01
-7.968525215055434430e+00 1.769929180336264452e+00 1.709899745052457831e+01
-3.169408923881920526e+00 3.197476567348233711e+00 2.094169918496954352e+01
-3.342073838985765821e+00 3.029092878810259570e+00 2.098832400478465843e+01
-2.340104724122295532e-01 -1.098479382977184393e+00 1.750212511600798848e+01
-3.737475763849842370e+00 3.023503673752447440e+00 2.094906350294080255e+01
-6.356757508264118672e-02 -1.285055299149329811e+00 1.831899572325401948e+01
-4.548176467252927679e+00 -4.069776511636752359e-01 2.183580877747914428e+01
-4.562104086745253362e+00 -1.353770250749950221e-01 2.176784622796832025e+01
-5.996423713824387214e+00 1.276800068445000713e+00 2.080945230921867761e+01
-6.100113105527231738e+00 -3.237246384399355303e+00 2.153337650417522298e+01
-4.773161885126037340e+00 -3.509069986974069355e-01 2.178058186956908315e+01
-3.972952479762712485e+00 2.816174604557735717e-01 1.350347955657746013e+01
-8.286960889706039168e+00 -3.141083380269797054e+00 1.956448206738088658e+01
-7.462056718806922895e+00 2.149309974387600519e+00 1.681969559354102728e+01
-1.792051328262412646e+00 3.173307087408795191e+00 2.089424174382752852e+01
-2.726401464041398714e+00 -1.073175425954902451e+00 1.790323897922381491e+01
-8.161722700259641528e+00 -1.671406678373563715e+00 1.725090093556400461e+01
-1.072414430992104206e+00 2.134254803038159842e+00 1.807327400042855459e+01
-7.093756000859317901e+00 1.801956633587526779e+00 2.025810653606414746e+01
-4.983479597032126840e+00 -3.386332184250229194e+00 2.188664532938148710e+01
-4.569178781741388917e+00 -3.393377605850876666e+00 2.195751965198586930e+01
-4.178793311795755194e+00 -3.433257571778629558e+00 2.199684333792825441e+01
-5.570802494447094411e+00 -4.969828553702337892e-01 1.507406131986705589e+01
-4.412627954309058076e+00 -5.798760543453267413e-01 1.644255370791295690e+01
-3.958785658286795517e+00 4.241927554603565298e+00 2.038448279351386816e+01
-8.005791304833996591e+00 -2.730469918615553659e+00 1.800139933101021228e+01
-3.736815505037076601e+00 -1.823383685727965942e+00 2.216651988819524632e+01
-4.129831477938820328e+00 4.440682107821990243e+00 2.021494869199140965e+01
-6.525099383998390401e+00 1.437594256525098979e+00 2.057667737452325696e+01
-6.401876639192846774e+00 -2.339004369058200528e+00 2.147964541457114507e+01
-5.190911606906531084e+00 -3.893135949484472835e+00 2.047003359106184917e+01
-6.610722233418244720e+00 -2.427742469726313690e+00 1.782831166448979587e+01
-6.545182729284642065e+00 -2.384940084311771180e+00 1.770071420126500072e+01
-3.563641612137067316e+00 5.938573851493785805e-01 1.314902990554865880e+01
-6.106291735920498454e+00 -2.814166779853322087e+00 1.940711527648398516e+01
-5.617145596751679903e+00 -2.928359478650425896e+00 1.968767782544388467e+01
-1.026334212480316754e+00 3.314892358961412544e+00 2.040617616264976419e+01
-5.774988783223542477e+00 -3.412480285953212178e+00 1.997312800966547286e+01
-6.148538837118001865e+00 4.557532886235133418e+00 1.714054915651044553e+01
-1.039377675284926417e+00 -1.805263860843515644e+00 2.217854595945793506e+01
-6.780820537676497395e+00 -3.821507863814800121e+00 2.039501562385523670e+01
-6.915977769613443016e+00 4.679292353290881223e+00 1.816494084756760685e+01
-1.903401270234444942e+00 3.685552536513613475e+00 2.064799029722239254e+01
-4.007930212925385760e+00 -1.400930142567474945e+00 1.877396516337751109e+01
-1.357689455666432510e+00 9.339528730734508732e-01 1.592012631287646229e+01
-8.005914949823093041e-01 -6.245372468748678907e-01 2.185321399132349285e+01
-3.818528052883052748e+00 -3.576343624094300289e+00 2.198982055738210306e+01
-8.297757528832175211e+00 -2.024952705791864371e+00 1.770151802321684897e+01
-1.356485291611937205e+00 2.804803215494360735e+00 2.093971339428414069e+01
-3.006230422898104493e+00 -2.588668392374320781e+00 2.220092063987676312e+01
-2.958152317818313559e+00 -2.182667479507121922e+00 2.220902657446843875e+01
-7.837532448182041200e+00 2.607231061034803510e+00 1.798523285657369541e+01
-6.408321902643248968e+00 4.768480117673883356e+00 1.749132633569796980e+01
-4.586901560580452397e+00 -2.357369322702345560e+00 1.958410556866383700e+01
-4.475412084757459663e-01 2.119424006272732530e+00 1.976729224525758610e+01
-7.285160574385692200e+00 -2.369006630209620656e+00 1.690426175210539839e+01
-5.193594973221149935e+00 -4.094443825657947400e+00 2.082766460233486328e+01
-3.736438321146940300e+00 3.426182548587554777e+00 2.080585695473789798e+01
-8.505023467623322730e+00 -1.310056811027190848e+00 2.000601494934924318e+01
-5.842282334479745209e+00 -2.771557293372452158e+00 2.171704651668292030e+01
-6.600017633772284675e+00 -3.915011244543955105e+00 2.059924853483133944e+01
-7.778481978402426833e+00 -1.890853339914606801e+00 1.685773605769192329e+01
-1.347859634577973642e+00 5.163348728024755863e-01 1.550705339811009509e+01
-5.208432497251129334e+00 -5.766284121125048179e-01 1.551613305774971252e+01
-7.926399264449720761e+00 9.872784298450432150e-02 2.061575283707280448e+01
-4.915450324894139023e+00 1.925820882407808021e+00 1.439544141367451147e+01
-5.138183707043095794e+00 5.511742197233603591e+00 1.902956622984297752e+01
-7.895085186172006608e+00 -2.789853556702878823e+00 1.801433093675806418e+01
-8.097350764688364677e+00 -2.813325489720440942e+00 1.827864125429146469e+01
-8.248960658318818417e+00 -2.534211802480618836e+00 2.029666717380877827e+01
-8.371606983160745585e+00 2.811249389407185495e-01 1.969367627944983212e+01
-5.974049264370101753e+00 1.830013060847218362e-02 2.125669759274208559e+01
-1.440988057686587442e+00 1.531201420786132694e-01 1.513355392129412991e+01
-8.229676022868726903e+00 -2.679410401299775035e+00 2.029440192148452837e+01
-4.976886617427597415e+00 -1.875317962910967307e+00 1.908737136700715098e+01
-5.942762314962887871e+00 2.231959231272662603e+00 2.049087942456751676e+01
-4.395034849300652802e+00 5.959568191432014217e-01 1.333873613667709890e+01
-6.532444496570918524e+00 -2.350296318345674873e+00 1.724612679251337966e+01
-4.789173345170087970e+00 1.206612857354347090e+00 1.387408583095717773e+01
-6.611022199054770176e+00 -2.380678880323038982e+00 1.711977498207144777e+01
-5.000048055464442420e+00 -2.680390458322993830e+00 1.971068981666678610e+01
-7.574625330231935294e+00 6.703919407681104836e-01 2.057882242464681610e+01
-5.943637960614687188e+00 2.066828503388117522e+00 2.054830143411828658e+01
-1.830762260431821442e+00 5.295908912651197120e-01 1.454429743352447701e+01
-6.158843177534158997e+00 2.036173708182936082e+00 2.047609471096235723e+01
-8.688843562913907803e+00 -1.587445939902828895e+00 1.851126182128585640e+01
-8.567381847848039911e+00 -1.306488892664461776e+00 1.801567949346264896e+01
-8.644427774735671477e+00 -1.323916540892780880e+00 1.823223731158697092e+01
-8.489958092231209008e+00 1.541684219154956792e-01 1.749953220196267978e+01
-3.521236966105752764e+00 4.905846066595575650e+00 1.777478139209068786e+01
-4.289848951674018807e+00 4.766619572594105847e+00 1.732922435946287720e+01
-6.387307796448466135e+00 -3.495252815348379727e-01 2.121616778182660568e+01
-6.782262258416066558e+00 -3.411934319682332184e+00 1.975651504506607381e+01
-7.146035011131677273e-01 7.691024307914345881e-02 1.667588878688208354e+01
-1.685647023640769238e+00 4.264429265541872738e+00 1.939674810633659519e+01
-6.559506314888831291e+00 -3.405097513290004319e+00 1.978707520481463433e+01
-1.412762419836830041e+00 1.080003031222835030e+00 1.595988349961759667e+01
-7.419139178092160947e+00 3.744836831314908743e+00 1.817237123518421527e+01
-5.603845426796843832e+00 -3.717146294272581475e+00 2.024139110682575904e+01
-3.646472363212216461e+00 -2.998955198124868549e+00 2.216034895082888312e+01
-8.130220574124876975e+00 9.626755502981556578e-01 1.688494468596094578e+01
-2.566344621311157148e+00 -3.190598438229301226e-01 1.510064751960393892e+01
-6.273077570599244090e+00 4.276461003744403300e+00 1.932835244836996225e+01
-2.815273544110472592e+00 -1.629401055808921694e-01 1.458312317422824123e+01
-4.076395912929617005e+00 5.859633847241181304e-01 1.316859082034807926e+01
-7.242289343915728317e+00 2.246121821155174558e+00 1.663481741309707473e+01
-6.767258276645601867e-02 -1.813499949849095128e+00 1.964708400123713261e+01
-2.351738746639031596e+00 -1.902034754902289237e-01 1.491436122837038880e+01
-8.662722255450248099e+00 -1.928675606816597998e+00 1.953473315366748153e+01
-1.889425086312889412e+00 2.724696624733127681e+00 1.715010108037702707e+01
-3.178458525551345115e+00 -1.393154228721865673e+00 2.213384951621027597e+01
-3.357588581647996673e+00 -1.665320255316657061e+00 2.216842914189255254e+01
-4.734593689280490736e+00 3.243752659323165144e+00 2.060329062014400137e+01
-3.130365292762985696e+00 -5.468046599218363557e-01 1.568365689286698483e+01
-4.442014725724860114e+00 -3.872496425499682982e+00 2.050430890280942009e+01
-1.526991004364735893e+00 5.892047244148757024e-01 2.183975100886698328e+01
-2.123888903370964698e+00 3.447208371741326882e+00 2.082112887410318791e+01
-1.386929323923394186e+00 -3.732967508478320706e+00 2.079809414226449604e+01
-3.356753718909849304e+00 2.090777102070886073e+00 1.460793126514119677e+01
-7.573744699535821745e+00 -3.629624330074555427e+00 2.006998689343346598e+01
-2.313559843024312723e+00 3.839232461299789012e+00 2.064462809754311223e+01
-3.546411183225020913e+00 3.098693005698184955e+00 1.575284973692046009e+01
-6.157091937356836908e+00 -1.167889235371085910e+00 1.575226730848991963e+01
-6.567635348269662110e+00 -1.609839804964364962e+00 2.137233242241591569e+01
-5.123832642695944628e+00 3.070013183875631047e+00 1.545124880448065596e+01
-4.452952995024692662e+00 -3.268626216653027772e+00 2.011962127802937061e+01
-5.945708922330481982e+00 6.523861573550578941e-01 2.105109280061815014e+01
-4.394316987380414652e+00 -5.138954291274526742e-01 1.607636336584542391e+01
-4.205977960987695496e+00 -4.828926080629212247e-01 1.585317720667269725e+01
-1.359774433014920181e+00 -1.845300490331422738e+00 1.772937597305007529e+01
-3.336883341513159351e+00 -9.848151280829464671e-01 1.785867809669156969e+01
-6.349861959235076014e+00 4.132888945520086565e+00 1.692985430925580914e+01
-4.380893708731222524e+00 -1.598898877597994206e+00 1.898023867329056458e+01
-7.902253832429415148e+00 1.868607303928882191e+00 1.971183962710137649e+01
-6.827752921901573124e+00 4.414431751804301030e+00 1.870679745087075219e+01
-2.940094548642233629e+00 4.164752762875393088e+00 2.052206299351854568e+01
-8.274909949778887608e+00 5.976403885257494109e-01 1.983683805009321333e+01
-3.115257625610297065e+00 4.287223003264502452e+00 2.045345320780418774e+01
-6.343772043985071107e+00 1.763380767274735250e+00 1.552934582793966456e+01
-7.883466429507059559e+00 2.454249662646186714e+00 1.753151261142016892e+01
-1.441087305807552399e-01 8.273952621261337903e-01 1.890015025464157361e+01
-8.229213328287054097e+00 1.512232054595325614e+00 1.831590743880337158e+01
-7.922863525468070378e+00 2.131628653873768986e+00 1.729934640275517665e+01
-4.649697229536166043e-01 1.143301353957094646e+00 1.842165609388602832e+01
-1.379125489608711286e+00 1.495016268482483923e+00 1.654478907727331460e+01
-4.919359955958713115e+00 3.355870156482788413e+00 2.049271369803197729e+01
-5.115915880244231495e+00 3.451597255611397408e+00 2.037134129556631734e+01
-5.169593978813461277e+00 3.266639727006921401e+00 2.043219876744415586e+01
-2.046630380084946133e+00 1.816766771310856621e+00 1.565696703073213314e+01
-8.087547173521716815e+00 1.883221383461885834e+00 1.915127078317754439e+01
-8.175196795002245054e+00 1.688706107261274125e+00 1.849789067135306198e+01
-4.384935593223831418e+00 3.029523534131700391e+00 2.079827905927896126e+01
-2.698483813845829360e+00 -1.029872488358467564e+00 1.776327989906683769e+01
-4.482408644901887396e-01 -2.046648171114010317e+00 2.140895212445056472e+01
-4.562918508249432792e-01 -2.207083107867056526e+00 2.138952487123778923e+01
-7.909056139177339517e+00 2.517719400655265893e+00 1.852788411412307568e+01
-7.113133868479087241e+00 -1.737524621618924181e+00 2.116443863203251396e+01
-1.084947788615301834e+00 2.445189939358249465e+00 2.098067317306891510e+01
-7.725675637882323699e+00 2.909890053374806218e+00 1.792103004974172364e+01
-3.396853843551858265e+00 -3.824507307974476689e+00 2.203137623291861757e+01
-7.572968387118420353e+00 3.162886121298977282e-02 2.076519169969089518e+01
-7.675601731481661361e+00 3.068500565249446144e+00 1.814489643562315990e+01
-8.062111300668281189e+00 2.077957489291947901e+00 1.875943908596317300e+01
-4.876201727992567569e+00 9.127741670122851980e-01 1.378671061636048023e+01
-7.871849749767322990e+00 2.303656452751959627e+00 1.736672078723611179e+01
-5.846943500549909523e+00 -1.846739025681888746e+00 1.846470258906614959e+01
-1.176449775660858066e+00 1.859494319594384160e-01 2.189602499696135141e+01
-1.248945333503483690e+00 5.093073682167192917e-01 2.183179999029474061e+01
-6.695592139562535294e+00 3.844424763211218288e+00 1.932812955162619062e+01
-6.520598105277118250e+00 9.561330092450753826e-01 1.532050275976306608e+01
-7.017885382141928474e-01 1.830774162774840175e+00 2.100130708335154139e+01
-4.129579526414431712e+00 5.502359639703394478e+00 1.946080569347716960e+01
-4.956752477289726455e-01 1.451677758261759266e+00 1.871002730329946928e+01
-2.259507885145428219e+00 4.726660518525543253e+00 2.006647817940170597e+01
-1.523141897898544039e+00 3.831844073159452968e+00 1.916321032624130538e+01
-5.165045995715293436e+00 -1.037790456696824570e+00 1.769298275361374806e+01
-4.982001686216555925e+00 -6.484041081489144709e-01 1.647095786575869170e+01
-8.296786354119495499e+00 6.997587746145302878e-01 1.950941843037280421e+01
-2.607477600920752536e+00 -3.218558684613197052e+00 2.036707323984543905e+01
-5.567946644371494003e+00 -7.651240601468901614e-01 2.162095445591888421e+01
-1.959609260871722825e+00 1.149828368828348601e+00 1.493561454834768654e+01
-2.480150389592804760e+00 2.769207306768949106e+00 1.628384226286218706e+01
-7.409013312274415952e+00 -3.439220785697779004e+00 1.968233031034833402e+01
-6.442649286749303705e+00 -4.002112574777738629e+00 2.082344657095511309e+01
-2.259959992803194151e+00 2.955016650786854715e+00 1.687432074149457151e+01
-6.003644513132017080e-02 -8.915570560519082699e-01 1.775573298831791647e+01
-2.744335730782982985e+00 -3.203932557915409873e+00 2.034684514049420301e+01
-4.786319338925014932e+00 -3.028449552510386500e+00 1.996033239634748213e+01
-7.736711440485499303e+00 -3.477124339399474628e+00 2.053116385985978809e+01
-6.674167456540029519e+00 2.874930279020873947e+00 1.642260626833337511e+01
-3.130357167717516376e+00 5.136556375389606188e+00 1.988435482141077415e+01
-3.135967813383063074e+00 5.043257784729544113e+00 1.995551884339476345e+01
-3.165435355283806818e+00 4.900371915049527516e+00 2.005976910081439968e+01
-1.651009571193907455e+00 1.587535114083183263e+00 1.606256897413990004e+01
-6.371031341867342768e+00 -5.336464646987039151e-01 2.126686276568457146e+01
-5.891138720205843171e+00 4.064462491831070778e+00 1.970862514910368191e+01
-6.322051111549260582e+00 3.875553777828901314e+00 1.957187547675142270e+01
-4.800021343187381717e+00 -4.297556804085671089e+00 2.141761955709025500e+01
-5.525931897807940807e+00 2.732796985302703430e+00 1.538246623500814536e+01
-3.549617257606262122e+00 4.881250205548790078e+00 2.004766954362523279e+01
-7.120992507973559427e+00 3.487801621596802626e+00 1.717606175118235967e+01
-5.545438283106098432e+00 2.023551342897689231e+00 2.072185122290073167e+01
-5.567553318220473280e+00 -7.246862217065518363e-01 1.544747292211162204e+01
-3.465597541314666241e+00 4.790723040410551192e+00 2.012108126464710978e+01
-2.166366335832892176e+00 -1.824532057494444803e+00 2.220405463416243208e+01
-6.383950847502912751e+00 -1.237512281369323452e-01 2.115674247080966097e+01
-2.116286724160400201e+00 -1.039484407544644551e+00 1.747294954891650320e+01
-5.807836841717227472e+00 2.179361439521574351e+00 1.525395076933492788e+01
-6.123227561468813640e+00 -2.973658512509542995e-02 2.122040906031919860e+01
-7.079255249520481463e+00 -2.865191547013591356e-01 1.556985884886422156e+01
-4.808236397030889009e+00 -8.429459216054625559e-01 1.749553726758738748e+01
-7.826079493230011508e+00 2.784615905333841734e+00 1.876225539325273672e+01
-4.084241491464151608e+00 6.022253039108148798e+00 1.901287387209014668e+01
-8.322646858876693310e-01 1.212599908412195227e+00 1.755913735705907186e+01
-2.913409125968664082e+00 4.870673196468557009e+00 1.837605268250397472e+01
-1.739822825564283582e+00 1.613867689261284877e+00 2.152355563978931485e+01
-5.275306452345446928e+00 1.500521204988941815e+00 1.439978307476207675e+01
-3.991871586988193776e+00 -3.810867277580475054e+00 2.196815000214967739e+01
-4.012884053619286462e+00 4.722224691793966755e+00 2.006980689445890675e+01
-6.038091656861901413e+00 -1.833155776757071642e+00 1.700635604438666348e+01
-6.113554718485035622e+00 -1.928373612386372615e+00 1.703167266183130835e+01
-8.101471605819638100e+00 -5.982995846231403680e-01 2.063180129948599273e+01
-1.710808374210384564e+00 3.261203192977961129e-01 1.466038184018555057e+01
-4.538776122195998575e+00 3.196688599065030001e+00 1.549324036996647891e+01
-7.072586160713746573e+00 -8.285820059236501112e-02 1.558776569355984520e+01
-2.961495701350598253e+00 -1.946678823058578534e+00 1.943966702730435969e+01
-7.961118184499573758e+00 9.370716063204631574e-01 1.673476148769841387e+01
-1.467347710294546914e+00 1.280120186396855875e+00 2.161030274785666450e+01
-8.155204085840185968e+00 -2.837353910667601564e+00 1.843468016591523906e+01
-5.233562427669743444e-01 -2.432119548217674954e+00 1.836580665595270290e+01
-3.402178238361221574e+00 -4.251063852021360390e+00 2.185877050804422339e+01
-3.941022232001636816e+00 1.831409728492424671e+00 1.406398423010994492e+01
2.879928363160560306e-02 -1.665119825797972686e-01 1.907916862511551415e+01
-7.530108583749686169e+00 3.091789573561729565e+00 1.914219462473743505e+01
-2.915197374345098069e+00 5.817668631661334189e+00 1.922476678055031840e+01
-8.844093009767418634e-01 2.461498092599742282e+00 1.892172638554850295e+01
-4.469378480452132152e+00 4.401462055742483059e+00 2.012038472830071356e+01
-7.159540797190198980e+00 1.658248738533565136e+00 2.030090633501993835e+01
-1.070039037358173184e+00 1.019105290869497971e+00 2.159232594830981355e+01
-4.062180368439682887e-01 -1.416898751242536614e+00 2.141515742736909544e+01
-7.746481965711787820e-01 4.940117568013038252e-01 1.689711838319017545e+01
-4.872525185254446001e-01 -1.256401030799761065e+00 2.154380219336240287e+01
-6.385916552047802952e+00 -5.030892882097312002e-01 1.504844377564450753e+01
-6.896721978302244871e+00 4.483315879466422516e+00 1.853473894815925860e+01
-2.536647840608087900e+00 3.364469412331955400e+00 2.089016474849844940e+01
-8.117950704668780659e+00 -2.203613355536013785e+00 1.752703566991100104e+01
-2.409570291427306277e+00 -9.693385577540326592e-01 2.209712563752896841e+01
-1.363882494576208249e+00 3.786055966362913416e+00 2.033494190799947177e+01
-1.489682727808348650e+00 1.330398477213754038e+00 1.607877735279446085e+01
-1.501675064188652264e+00 2.203930309759414424e-02 1.520049576461554608e+01
