-3.496738181319660299e+00 -6.989201759873866493e-01 1.435845575262578677e+01
-3.918880583784762450e+00 -6.990403060522905054e-01 1.435427304265984816e+01
-2.794040671044075719e-01 -2.972232194331685839e+00 1.612181418588034632e+01
-9.244571185692558313e-01 5.249967256654355374e-01 1.877019735809067669e+01
-7.475591038980167191e-01 -2.791680223811839889e-01 1.365806294724064429e+01
-7.785386071184834833e+00 2.793925762261842749e+00 1.630558030533578773e+01
-1.287253310722094923e+00 -2.843448888848336242e+00 1.587887775194230500e+01
-4.677062983065885859e+00 -3.477718989600707467e+00 1.951342473644293563e+01
-4.043872505338094392e+00 -3.628339556039878566e+00 1.947798294900481864e+01
-5.028998223299908865e+00 -3.377088067950816619e+00 1.956575048771269110e+01
-5.508741835923614438e+00 -3.095789935568469819e-01 1.216224265346685485e+01
-5.427154047011608640e+00 2.538247187109342606e-01 1.108754909691786139e+01
-1.084383454328120999e+00 -4.047472489117160954e+00 1.870137658988510054e+01
-2.149777189759780160e+00 -1.025084415786555736e+00 1.397851216184672296e+01
-7.080361350202280413e+00 -1.112175890159510017e+00 1.361429457596336334e+01
3.075424957735451992e-01 -1.881504453284049250e+00 1.872457517649054637e+01
-3.911451931454701381e+00 -3.619379873595149344e-01 1.299375641730040343e+01
-1.641421872369511981e+00 -1.081371750209820570e+00 1.383597878256735925e+01
-1.705276271384934539e-01 2.200834308408471607e+00 1.647221416741084710e+01
-5.092746954608169396e+00 -1.916425392476658995e+00 1.961265532987684423e+01
-6.473989725070834922e+00 -3.411730821907802635e+00 1.807882026498419492e+01
-3.911698888451592637e+00 1.482859532644025036e+00 1.243145688169617102e+01
-2.830588492833362668e+00 -2.411525801012015524e+00 1.963372502681460219e+01
-1.365136584422458332e-01 1.018837078614921454e+00 1.484965725192099484e+01
-4.082351481092382883e+00 -3.119270935448698712e+00 1.988952035022276732e+01
-3.873048046415441092e+00 -3.307513621143179705e+00 1.986383530431506017e+01
2.767045025736929453e-01 -1.473886119664993721e+00 1.855932290956023678e+01
3.652489434210529073e-02 -3.405602449347947758e+00 1.714935364701264575e+01
-8.596074808167383452e+00 -8.070062415981171799e-01 1.571327582721192329e+01
-7.883594911727367371e-01 1.790478422218544918e-01 1.364580195292131037e+01
-2.891208559511039500e+00 -2.825054412750675481e-01 1.908070227604231661e+01
-3.532862307474913699e+00 2.850395038038584516e+00 1.384017072856737229e+01
-3.685379042302785013e+00 -2.113473779787357287e+00 1.971230346078673534e+01
-6.766701155262625500e-01 -4.069564890564707937e+00 1.891422632783803692e+01
-6.306003842536812343e+00 -3.252831324621753062e+00 1.772569226899890538e+01
-5.718873063368045351e+00 -3.073257602730495308e-01 1.218834222355620511e+01
5.367954699081994852e-02 -2.630108727784058686e+00 1.913585358983085882e+01
-2.918354660459737904e+00 1.319783374080402805e+00 1.839684925373364166e+01
-1.503027101209758021e+00 -1.896931921079546113e+00 1.948732186198699878e+01
-6.713006014842860303e+00 -1.498943362793728529e+00 1.936548893693945672e+01
-2.901835821967611473e+00 -9.437167591389119536e-01 1.499746733980293811e+01
-4.737718890641978930e+00 4.800830798552421008e+00 1.619083097993621578e+01
-1.708699660118557562e+00 -9.041493707112238098e-01 1.360858664918614380e+01
-7.182644814241381681e+00 -2.909828039325429216e+00 1.749588382680353504e+01
-5.047791645811801509e+00 2.589116705780483141e+00 1.316570986386872022e+01
-7.926667776820416123e+00 1.340985595076932491e+00 1.764949467200682420e+01
-1.667030295872540258e+00 -1.523515927642163703e+00 1.457930502373555015e+01
-2.696988377515052715e+00 -5.364613973163245841e-01 1.320647754413153763e+01
-2.687532301182190553e-01 -2.863801176632627676e+00 1.939945978860475151e+01
-9.057246161676082430e-01 3.352720796616051935e+00 1.632343171904534529e+01
-4.332922523953095961e+00 3.033935910091540400e+00 1.369429900946366274e+01
-3.257544429270153863e+00 -1.705288075652698632e-01 1.242277101581738918e+01
-2.198623579143828000e-01 -2.677997680132433445e+00 1.940977197303197244e+01
-3.093032485452509750e+00 -2.694931142435481597e+00 1.972461789945398891e+01
-2.334780021865558108e+00 1.907287222165684026e+00 1.378452689083795946e+01
-1.400149537303732594e-01 1.615110872134932540e+00 1.564737262563805587e+01
-8.843713167527096353e-01 -4.073815805385666344e+00 1.892107723727156809e+01
-3.921826097421803325e+00 -3.691763271233079902e+00 1.871355857150230406e+01
-3.496579799487544271e+00 1.885665466705336968e+00 1.300295790458666545e+01
-1.475022173690228477e+00 2.088220731649455431e+00 1.459971654273683583e+01
-1.126026265622493971e+00 -2.068571986882142166e+00 1.952092082584047716e+01
-5.504903886987193573e+00 2.097211994199542406e+00 1.778077959060770752e+01
-5.130508172517820320e+00 5.559400584154734482e-01 1.122410979902917205e+01
-1.529243543815406170e+00 3.562458522228230784e+00 1.708811003352911229e+01
-1.768107182131953281e-01 -3.348055442784040991e+00 1.652258626288350030e+01
-3.740003624863277309e-01 -2.929984334000379498e+00 1.597827966328483029e+01
4.975037486729413927e-02 -3.574012166586990169e+00 1.732615233081971695e+01
-1.863488247080671734e+00 -1.929034640746305262e+00 1.946767871988885190e+01
-5.665992555113108509e-02 1.807143544095983767e+00 1.705915177082134448e+01
-5.713595741735110423e+00 4.869714084533163789e-01 1.142987171301582805e+01
-5.141267925285496254e+00 -1.719895220168480565e-01 1.177342414498932754e+01
-5.518984146177916550e+00 -3.548934893565691695e+00 1.892169860385099156e+01
-7.643243378321677994e+00 1.980513953031222796e+00 1.414460902159966338e+01
-8.353396629323349032e+00 1.372315983031414888e+00 1.522804983248305177e+01
-2.322200869398173051e+00 -3.296326261499213484e+00 1.788761699246333592e+01
-4.522940584226079253e+00 3.042886047686339968e+00 1.366735263823844804e+01
-3.501089659385682173e-01 1.090739364329939454e+00 1.816254432348853953e+01
-8.432197852857855835e+00 9.979730469247267699e-01 1.542995110185366769e+01
-4.649389734043444244e-01 2.616792890831050489e+00 1.624477806246370193e+01
-4.906529332102206098e+00 -7.409618220016609413e-01 1.358648858424161432e+01
-3.565465812688776381e+00 4.802006121344540190e+00 1.633737606016924815e+01
-2.152572195282237644e+00 2.792612864875176459e+00 1.468640642825860709e+01
-8.761118982775439434e+00 -6.303353524054099155e-02 1.700628433091901570e+01
-4.901834612743295239e+00 -3.589190490361337194e+00 1.914168359841849565e+01
-2.488986189314567721e+00 1.321437858766558504e+00 1.315906737841780938e+01
-7.146189695708544676e+00 -1.449261604193994968e+00 1.389392095744377542e+01
-8.076259000228475315e+00 2.168137555772212899e+00 1.471218792743358961e+01
-1.156115555502882586e+00 -2.897830649298163586e+00 1.587223179617816271e+01
-8.492809191034144334e+00 -2.190965534753874344e+00 1.714702667665478231e+01
3.526335516286202565e-01 -6.003039141845109561e-02 1.798297115264153234e+01
-2.276792211930466880e+00 -1.079041653980118642e+00 1.931340229313865109e+01
-2.322588140116414568e+00 -9.371483592707614552e-01 1.927594056035594861e+01
-2.498939958453983756e+00 -1.140095952315660632e+00 1.933882361839612685e+01
2.809614917517844201e-02 -2.578924236001173931e+00 1.677682755269067627e+01
-2.497306404164012950e+00 -1.328701974053473123e+00 1.938388302068791091e+01
-3.494228462265509094e+00 -5.214977021054665318e-01 1.359044870059997123e+01
-5.509044507569621274e+00 -6.936260560676001941e-01 1.297260564861823440e+01
-7.776663888414681480e+00 -5.965784136702603213e-01 1.373633420251844939e+01
-4.702066270982609986e+00 -2.494503177392437099e+00 1.739026998097642007e+01
-1.388538415737187837e+00 6.549148090232139729e-01 1.873585589958960895e+01
-6.526553697336328064e+00 -3.320067077345199902e+00 1.854712061958175440e+01
-6.849325383150662638e+00 -2.922012019665823246e+00 1.893808865993918999e+01
5.441977613062087826e-02 -2.200729586977889785e+00 1.654932612426635785e+01
-2.700621531163700517e+00 -1.473471247792982775e+00 1.943580953688478985e+01
-2.306552383866240064e+00 -1.792673433238018976e+00 1.945467662067306946e+01
-8.007007187544147087e+00 2.665710471608663035e+00 1.502381686082483014e+01
-8.341859055043043369e+00 -1.598345227205266950e+00 1.516900233235178064e+01
-8.379800388494489383e+00 -9.116594932860706546e-01 1.864750128198095780e+01
-8.065021607764910172e+00 -1.578328898107504763e+00 1.458559623623797563e+01
-1.073611101431257486e+00 -3.988017885586398137e+00 1.827974575584261885e+01
-7.956458386569780217e+00 -3.731074705099572952e-01 1.397461471766721530e+01
-4.769614582140189185e+00 -2.234366201635619720e-01 1.908500044834024578e+01
-7.040312802505989787e+00 4.018351191758918195e-01 1.268612123743222497e+01
-6.080593580028701872e+00 1.039309808754592390e-01 1.182796461718405112e+01
-7.691783614789624579e+00 -1.131115696565084594e+00 1.923172564425026820e+01
-6.311199734773469849e+00 -5.913349515345720508e-01 1.273846092058188617e+01
-7.324138449923387917e+00 3.984363203627658390e+00 1.545771290747473614e+01
3.744158193681867974e-01 3.616763580257438271e-01 1.740478326520078411e+01
-4.098539809710924686e+00 1.310125837739406718e+00 1.218761650506071703e+01
-2.498737096646322264e+00 1.994311115407736201e+00 1.811266934350299351e+01
-8.100646434839633869e+00 -1.104525709481814610e+00 1.900735579588695146e+01
-6.291026382470165323e+00 -3.368210779366790142e+00 1.891082823002644631e+01
-2.669746334529063514e+00 -4.857711401648381888e-01 1.913757153583496518e+01
-5.324461277070911436e+00 3.823260099236798215e+00 1.428886384222636252e+01
-6.268446436167550928e+00 2.551527502836303363e+00 1.349424790624410520e+01
-1.493107779923276812e+00 -3.931271686577710867e+00 1.825858697564073196e+01
-6.478986040023902326e+00 -3.390521803156893998e+00 1.795680576999563272e+01
-1.573571466610927283e+00 -2.066511492061471778e+00 1.524956207090988158e+01
-7.296781846010624850e-03 -2.253601037608268243e+00 1.630769658126880728e+01
-7.690617893079774170e+00 2.315312191711603074e+00 1.702323646065106288e+01
-6.739418554597633282e+00 -2.514049722953293209e+00 1.939321911714205982e+01
-6.094776123014868929e+00 -1.577344831875866271e+00 1.475747376250686926e+01
-7.415171419971835043e+00 5.658118221795822578e-01 1.310884696145463124e+01
-3.695724984418925274e+00 -2.306862249143295074e+00 1.974689062514206483e+01
-3.900077898435175605e+00 -1.627151550161548998e+00 1.654793533370832392e+01
-6.937638287065618359e-01 -2.289260995935379128e+00 1.949975097996622964e+01
-2.693331458001029244e+00 -1.929587562047470284e+00 1.952449336242609235e+01
-2.511643407937557804e+00 3.149675280699145485e+00 1.748834936393239303e+01
-4.237840375553532546e+00 -2.118854848455019368e+00 1.707830272133639227e+01
-2.495064300070024998e+00 -4.786009396861406473e-01 1.299055743292834819e+01
-4.393705281091535575e+00 1.608151226440500015e+00 1.232979153742696354e+01
-6.872081203034847263e+00 4.539313149295388428e+00 1.546433326387200680e+01
-2.720051854851489814e+00 3.367563967096412814e+00 1.735062411904903001e+01
-8.647655291065939664e+00 3.326868641251758962e-01 1.700155332113988749e+01
-7.474205949237884283e+00 -2.173242907831077986e+00 1.460789471308267906e+01
-7.136192569533106322e-01 2.372951075397633947e+00 1.747168171767837208e+01
-4.305678937955620178e+00 7.385349580855309348e-01 1.155469175077928412e+01
-2.182511433999446138e-01 -2.462757738554830489e+00 1.942420519310974214e+01
-7.393567486875656236e-01 2.289619488156577454e+00 1.757535927945607312e+01
-7.642497896830857673e-01 2.489170518066938342e+00 1.741626842568592082e+01
-1.198957280577221951e-01 -3.963907987819148993e+00 1.830215035325423401e+01
-9.390658544864141088e-01 1.423711700978775196e+00 1.445940570980531703e+01
-5.515226864773875803e+00 5.143423350471610256e+00 1.572915797027193463e+01
-1.499542513995184123e+00 2.504954047902944847e+00 1.779910964162770171e+01
-3.710796087950795297e+00 2.646364137110474024e-01 1.116929595774190176e+01
-5.667028256916747608e+00 -6.910911964572363786e-01 1.913854569892946955e+01
-4.545929526510889218e+00 1.508974309710118700e+00 1.825751934740087279e+01
-2.400693910303266509e-01 -3.655996331918690001e-02 1.883351967638002122e+01
-6.492947729963546522e+00 -2.347379384178967854e+00 1.952602710450195644e+01
-8.987955375459562024e-01 -3.508822557582408574e+00 1.684342576214064024e+01
-4.560961422134208298e+00 1.214049132568258971e+00 1.191519171837362734e+01
-4.360869764540732163e+00 -1.552981444485359575e+00 1.644635829254949755e+01
-2.161808272475921555e+00 1.389813147236613311e+00 1.347233150293692461e+01
-7.306253384833377496e+00 -2.686998898896183707e+00 1.657260281901104548e+01
-9.455855020385834919e-01 1.202337247685664856e+00 1.426877415871444299e+01
-6.120801436981301968e+00 -2.387595334169769323e+00 1.676995722347945161e+01
-4.132214506033866641e+00 -1.479828262406809536e+00 1.632443767791523470e+01
-4.312284387498341864e+00 -1.279414135073607017e+00 1.596907196119544636e+01
-2.113821364833043059e+00 4.352205347267391389e+00 1.668238881879150171e+01
-8.886248066400003864e+00 -1.649302721905304914e+00 1.738846029340732713e+01
-6.943366190051508013e+00 3.966572398118030751e+00 1.614080117746158294e+01
-9.022964250708562783e-01 -3.652097048632287457e+00 1.948573712717791295e+01
-1.636906330307317026e+00 1.269012191738144502e+00 1.378253153645791684e+01
-2.522891197241921901e+00 -9.038603723376927856e-01 1.418796537201536978e+01
-1.024592727176539375e+00 -2.506778787000299769e+00 1.537871660781543426e+01
-6.680102842930160989e+00 -3.275897342577518856e+00 1.831304772504903156e+01
-7.098982609950734712e-01 -2.815152377865144828e+00 1.568671356328411548e+01
3.024898635020113469e-01 -2.264363856812733555e+00 1.833705956712746854e+01
-5.558475946269644474e+00 7.139763905405629441e-01 1.849095128400471566e+01
-3.774891238228605950e+00 4.975826128784555991e+00 1.618245880796321501e+01
-1.536066515460589033e-01 -7.350549389752782936e-01 1.912500829039392869e+01
-1.889422478397327243e+00 -1.534756897715130242e+00 1.494654417988700601e+01
-6.338427455959163126e+00 4.162383930238570784e+00 1.498002298291576295e+01
-9.107558693095902935e-01 -1.297878349731597547e+00 1.942871409630519253e+01
-5.923335339130043842e+00 -3.904110100744656586e-01 1.235058315780963767e+01
-3.093371363750088143e+00 3.518094903698454790e+00 1.722880500790940772e+01
-8.074783918808352112e+00 -1.139067640976100804e-01 1.858214195261527379e+01
-3.495862349379990963e+00 -1.487702759602593350e+00 1.637332878608269482e+01
-4.100364940274603853e+00 -2.903406001677604209e+00 1.986486204492258167e+01
-3.721967586675272166e+00 -5.626829510818447400e-01 1.376656213698345965e+01
-5.469380494552482652e+00 -1.720331209381935622e+00 1.629794621112781527e+01
8.795788047704641843e-02 5.675012353835469092e-01 1.804963855855396559e+01
-8.027087808681081071e+00 2.303620054323403110e-01 1.409769353023961003e+01
-3.945674535995531862e+00 3.181194426114449136e+00 1.394706263255768874e+01
-7.429300093076623313e+00 -2.591358189913783860e+00 1.693995612450657262e+01
-2.902751968221072065e+00 -3.835650986557789466e+00 1.891123892825964958e+01
-2.837000393821064170e-01 -8.158453883267269280e-01 1.921733795069184225e+01
-8.179776447481788892e+00 1.773433953470415547e+00 1.662640743977993196e+01
1.185387048320161174e-01 -3.662676653330519283e+00 1.828566504095449119e+01
-4.710485240874757729e+00 1.736951387794479551e+00 1.237108023741407692e+01
-3.093529586132946818e+00 -2.866666453580298590e+00 1.974948701916641625e+01
-1.829210550256108014e+00 -1.815771777254139963e+00 1.535716090336684658e+01
-8.245138004179711544e+00 -1.664251935293967977e+00 1.889509086859862919e+01
-1.959032683203482117e-01 -3.287697556953272038e+00 1.641632765765077551e+01
-6.149275196681093014e+00 4.205574833559412085e+00 1.637484502245572315e+01
-6.530097339624118646e+00 -1.327014379704157809e+00 1.930357470033526113e+01
-2.664534526952407223e+00 -3.837548197420913354e+00 1.848258727917573907e+01
-5.540135343188921979e+00 4.972474037679596393e+00 1.590636316740423695e+01
-5.924154408908594682e+00 3.140079287895256144e+00 1.712173958782699401e+01
-1.748887278645711252e+00 -1.434005629492976608e+00 1.450437356599639571e+01
-8.785760072936723120e+00 -1.454711335281895224e+00 1.673576686059385565e+01
-6.657738450840184896e+00 -2.465147190731860949e+00 1.511675136159816191e+01
-1.359639347119050878e+00 2.575777437481117538e+00 1.510123447669027286e+01
-7.696573141624019065e+00 2.395193749228880176e+00 1.446939502690776891e+01
-2.121275638328542268e+00 3.971188455771776038e+00 1.696647500805630671e+01
-1.086902408976428092e+00 -2.286812489821811845e+00 1.952445264404158820e+01
-8.706198169207863824e-01 -3.950805161523704978e+00 1.806425080558765472e+01
-2.824840702237310097e+00 -3.388901363151177293e+00 1.799870574654958233e+01
-2.537004529887440185e+00 2.638512578797115316e-01 1.222121422623428799e+01
-2.028481047401120119e+00 -1.515473529899566518e+00 1.519204541844461431e+01
-5.528936669336668608e+00 4.742650790475519074e+00 1.609654977271234344e+01
-7.902165168082651903e+00 -2.246208581709753460e+00 1.635903837174998898e+01
-5.531210738495887291e+00 4.519074858694236418e+00 1.627984315382547464e+01
-3.976626533545701836e-01 -3.120412862210565130e+00 1.940597382633215062e+01
-2.107370626572218963e+00 -2.272399345506410651e+00 1.672881104141357156e+01
-5.560518188548062568e+00 -1.327931454470933748e+00 1.520196061050751979e+01
-2.109472439469990412e+00 3.689951735276603834e-02 1.893534293830438742e+01
-5.899237979675964638e+00 -3.600259168756257289e+00 1.835045705785042003e+01
-2.451239932806776434e+00 5.496149201130891004e-01 1.252790525699681723e+01
-1.271000776241386632e-01 -8.994124041063948916e-01 1.916549156287976530e+01
-2.476634849731178978e+00 -1.243404432367279489e+00 1.534888590567551603e+01
-8.381279337540352259e+00 -2.129155935977274705e+00 1.633793945855623519e+01
-6.896081002449593989e+00 6.962036727127984825e-01 1.844064465318401602e+01
-6.733674023357310467e+00 1.989770581574179964e+00 1.769887773818114596e+01
-2.477059845009581984e+00 -1.598794146785766923e+00 1.615745201978658940e+01
-5.694629912175104280e+00 -3.618632401245030827e+00 1.852927392408584950e+01
-6.090079812452638741e+00 -3.848463365992736418e-01 1.238968097827780923e+01
-7.651071659390535906e+00 -7.737931569172658008e-01 1.912066971470601828e+01
-6.117810094475271576e+00 -5.124954280557096897e-01 1.256987060442941839e+01
-1.516219614117214842e+00 2.353639726765565321e+00 1.789576288617645616e+01
-8.293515874838591984e+00 -2.586757794931737742e-01 1.843852294910679745e+01
-5.716029986496208082e+00 8.791021751760028646e-01 1.178533131940831424e+01
-1.514076502535655067e+00 2.139210635410014660e+00 1.802588154397842146e+01
-8.357938133322470264e+00 -8.228544538322427049e-02 1.823572680422111603e+01
-3.929999858618880459e+00 1.028353515795659812e+00 1.853847717414946317e+01
-2.322672559687158689e+00 -9.991307912430213989e-01 1.416424079128593405e+01
-3.731756688452112058e+00 1.671150790694179156e-01 1.121722765021505808e+01
-4.479210228640589264e+00 2.156198730266500885e-01 1.891829139669820847e+01
3.313709702529408774e-01 1.317111639599211903e-01 1.781208323682249528e+01
-6.259766477150297881e+00 -3.419668858232950637e+00 1.795943832453125566e+01
-8.044358293659351844e+00 -7.570763069642654219e-01 1.424770246117995498e+01
-2.298972853381639148e+00 -2.876915193062129728e+00 1.754363562130384935e+01
-7.707916487259677929e+00 -1.982590129643362564e+00 1.459608172635634560e+01
-4.884603296817244811e+00 1.886018383730083237e+00 1.799960634378579982e+01
-1.068970597719058002e+00 -1.202686684171924369e+00 1.414857864125215769e+01
-5.726943014171577140e+00 -5.128768674376660286e-01 1.905377915402380751e+01
-5.097020749993493638e+00 2.268870430518754144e+00 1.285122506894150263e+01
-2.874025532647114245e-01 -3.383781879988166263e+00 1.651375288542179476e+01
-5.860939439202077494e+00 -3.071871318754638036e+00 1.965868276356922451e+01
-6.081618002814970225e+00 -9.235945169099966101e-01 1.319132812005366162e+01
-4.689109254788468739e+00 -3.227314212692683260e+00 1.982263063788511914e+01
-6.463533908956789809e+00 -1.834328585073021989e+00 1.450910590938111255e+01
-8.296486064702738972e+00 1.602133711365400170e+00 1.505402201831088149e+01
-6.790521011979782529e+00 2.814583958105456141e+00 1.717337236417360202e+01
-4.914128484423466503e+00 -7.899038288415676234e-01 1.379131730349804741e+01
-5.053549619752883970e+00 -3.623463027779058709e+00 1.889636397737307050e+01
-7.545472174222000561e+00 -2.514258123924610011e+00 1.753916259411077760e+01
-1.552688129691744523e+00 -3.085500392700035288e+00 1.646640318954293036e+01
-2.255784197792956913e+00 -6.543137792333544311e-01 1.323296605837000328e+01
-5.609845813690225391e+00 4.114851548168510398e+00 1.459686382479073785e+01
-4.875072244936363930e+00 -2.490995023253022911e+00 1.975566118095662915e+01
-8.572521429601351883e+00 -1.141547393044927583e+00 1.839344780708302096e+01
-5.871417257264023526e+00 -3.249851723961433514e+00 1.948826093795513259e+01
-4.527178844330138396e+00 1.418280796285163126e+00 1.211397388623792182e+01
-1.413209974854458206e+00 3.079681549445863364e+00 1.739200662199606739e+01
1.412497473170597484e-01 -4.496678767354480022e-01 1.862735767375048113e+01
-8.132578434040272697e+00 3.465700718423222471e-01 1.823329196863164015e+01
-7.063820786525734974e+00 4.388175945141981060e+00 1.543662794897574742e+01
-6.267261480998269185e+00 -2.687730120436030656e+00 1.708399968969228411e+01
-6.270944257477550909e-02 -2.689895426830050118e-01 1.880550989317072919e+01
-6.684648082359079257e-01 -4.040090967071235717e+00 1.851372695518931977e+01
-7.653438545492469380e+00 -2.406676898024252331e+00 1.735212132003979946e+01
-7.286047009221006121e+00 -1.993761320984641872e+00 1.438398051531660826e+01
-8.608578292675607813e+00 4.922715240356781430e-01 1.626578188654153934e+01
-1.957642549733904946e+00 2.394818105687471999e+00 1.448777752098747129e+01
-1.559287318064511152e-01 -3.098533232882829114e-01 1.891102630450901501e+01
-7.767912355573081129e-02 -5.497984346925188781e-01 1.458650205628789109e+01
-4.705339248912998151e+00 -1.800359700869845536e+00 1.676363522406890638e+01
-3.684520818408394849e+00 1.721911752856896349e+00 1.819733207312134482e+01
-3.366222741931018447e+00 1.680599792793153746e-01 1.145789103508217721e+01
-5.745254948845331278e+00 -3.553094455158037346e-01 1.898125749824919950e+01
-7.869898648377757766e+00 -1.980345614424483314e+00 1.475940529584100602e+01
-5.721800514886911770e+00 -7.364856965039665582e-01 1.296659767085226633e+01
-2.521438591831075549e+00 -1.051996873796024135e+00 1.477660232277001739e+01
-2.654830028196541569e+00 -1.538713253142161674e+00 1.621536337995976140e+01
-6.072444762254670891e+00 -2.121585643559031009e+00 1.954104958645925905e+01
-8.465716075538709529e-01 9.150069714899124185e-02 1.355044629339244722e+01
-6.931387532145873109e+00 4.392485390837958192e+00 1.536680512896909079e+01
-7.648979836911718344e+00 1.119231509463813889e-02 1.320227771407872552e+01
-6.649979393331161504e+00 4.511724562717377429e-01 1.225508483199934773e+01
-8.660003435303138541e-01 5.189704093034632759e-01 1.376557503923631032e+01
-1.610515646101364773e+00 -2.122952223696765284e+00 1.538503912903138371e+01
-7.125432900984650431e+00 -7.532398980931478416e-01 1.912825329415141340e+01
-7.188119945490403229e-01 1.002110673091279047e-01 1.894215641089898838e+01
-6.136382510493064935e+00 -2.815560070041066787e+00 1.962990839951442013e+01
-1.877390701383863991e+00 -2.202963243441077967e+00 1.616090381369297546e+01
-1.866709600702953220e-01 -3.949576232697593614e+00 1.806483394280666488e+01
-6.881040611682359476e+00 -6.671652118360988926e-01 1.906565206329766227e+01
-1.713404702536510893e+00 -3.707757466861860252e+00 1.961058179479128682e+01
-6.336607942495512624e+00 1.514819365785854632e+00 1.799244127622394984e+01
-3.093725461774741614e+00 -1.661233122040492782e+00 1.656981704414891965e+01
-5.309002571617706501e+00 1.145318979263914988e-01 1.882708756156328889e+01
-3.275817894000335517e+00 -1.046411011776967825e+00 1.548613005696977751e+01
-6.006003379250056007e+00 3.480691926875225217e+00 1.420564043198024962e+01
2.101562029776317675e-01 -1.820192481300061838e+00 1.739586076824407002e+01
-6.066142103882969039e+00 -4.464726577108228400e-01 1.246103438762044391e+01
-3.113556615410553619e+00 -9.511000646330038943e-01 1.517223641676448409e+01
-8.678333722782458182e+00 -1.969044498455214953e-01 1.759642230895764214e+01
-1.108199126804133128e+00 -3.648489397123456435e+00 1.750768534375411889e+01
-6.848926981160981420e+00 1.619641473027697343e+00 1.310771269048268550e+01
-1.250202890295843083e+00 -3.665575477872461629e+00 1.770339919276840845e+01
-4.096759707265467121e+00 -1.131582778496763586e+00 1.564047577760660346e+01
-3.857071168752604251e+00 -4.054476544755786782e-01 1.315037167940463547e+01
-4.150842142756843600e+00 -7.580200418915215010e-01 1.459737425835356817e+01
-5.095606157266652225e+00 -1.239741613433860357e+00 1.557909384432478106e+01
2.313317509064116151e-01 -1.449290978473888547e+00 1.735968810544639496e+01
-5.122217717961301986e+00 -2.968525237606871592e-01 1.905551993634846042e+01
-7.871035530911475675e+00 -9.638132798596845685e-01 1.911373496309390418e+01
-5.288625826289524490e+00 -2.898156662596306887e+00 1.978100825947358743e+01
-7.104369864542171342e+00 -1.095196545312638214e+00 1.924725593912542365e+01
-2.292140112067567959e+00 -1.478015829753340560e+00 1.940077136058032892e+01
-8.075014815207552488e+00 -9.282563769516436469e-01 1.897391912923463764e+01
-4.843828490963914213e+00 3.015813986875615971e+00 1.733558355411816621e+01
-4.136397037734326432e+00 -4.226404805469826664e-01 1.316797199200219382e+01
-3.868160610243584152e+00 -5.443453798674660615e-02 1.906989129518900228e+01
-2.744068202260219635e+00 4.366073153363569936e+00 1.673927440680905221e+01
-2.542297350996579830e+00 4.146391987093250187e+00 1.688815241976952564e+01
-5.476662988669502852e+00 -1.648954730298128224e+00 1.615457706973115393e+01
1.200169560107319233e-01 -2.844959896887457429e+00 1.732098299132600516e+01
-5.554285564366185923e+00 -1.540435557759527674e+00 1.582000062483646019e+01
-6.686455042815737215e+00 -6.904282168450814883e-01 1.905912738503115378e+01
-7.145848920745778265e+00 -1.667039437313744932e+00 1.406814723696542302e+01
-1.206514544204035921e-01 -3.048965921744645424e+00 1.925011560524328047e+01
-3.125744226801718817e-02 1.694869413403077507e+00 1.617056005125508733e+01
-4.734970079031862511e+00 3.143453445583762385e+00 1.727166260340439408e+01
-5.721778925982508923e+00 2.439116185939317560e+00 1.305519617463557580e+01
-4.013153405101903992e+00 3.436023755951731928e+00 1.717975978508002299e+01
-4.501780811143364147e+00 -7.757010703016800068e-01 1.459638355215038530e+01
-8.238122279428690575e+00 1.953129911046855405e+00 1.584223565836418857e+01
-3.077489591616956677e+00 -3.617502177395917506e+00 1.815066297733831391e+01
-1.722056228366591668e+00 1.511078838436490157e+00 1.837808139738316981e+01
-8.658564721606333947e+00 3.583792227210709225e-01 1.684559691228665201e+01
-7.144545192098080477e+00 -4.868425361263815643e-01 1.902474909324866559e+01
-6.919521814030033191e+00 -7.757495252359098981e-01 1.911389404814516979e+01
3.458875441979420984e-01 3.784916720189608341e-01 1.683102945656894178e+01
-1.492907540815422651e+00 -6.851545517796802098e-01 1.923109097817101798e+01
-7.363869403359129429e+00 2.199670063425697430e-01 1.873149705597163717e+01
-1.362198511946448365e+00 3.743251714352538451e-01 1.326593164875157527e+01
-8.622650951192296631e+00 -8.382121691993191792e-01 1.581977304230789372e+01
-5.486938619335439249e+00 -1.594259895899850177e+00 1.948694907469884186e+01
-5.916909265497178438e+00 1.244242413058764596e+00 1.817604270859641247e+01
-3.985306995140435404e+00 -4.470971640439666550e-01 1.328316728998155583e+01
-1.620256339624100983e-01 -3.015486790226873826e+00 1.635310371233396864e+01
-4.933419734958648384e+00 -9.284585995635252775e-01 1.934167154252849485e+01
-3.666277204461408257e+00 -1.554583781945509391e-01 1.910568164383093404e+01
-2.992675968833098832e+00 -1.545410946761723414e+00 1.949227978119053262e+01
-5.652456534469140870e+00 -2.100293589837213482e+00 1.672530196890222953e+01
-1.144735440845615626e+00 -1.083387221749568141e+00 1.401709439774851518e+01
-5.940568976768132003e+00 -2.574028991537299582e+00 1.963853502627190295e+01
-6.110781790847974904e+00 4.351028028469030140e+00 1.627007765371509862e+01
-2.856981635691992150e+00 -2.465459552596579673e+00 1.736146708919309845e+01
-8.706156296426534880e+00 -1.302056608892752321e+00 1.813009404371094746e+01
-5.928941888210720990e+00 2.272388871129425336e+00 1.302279236224583769e+01
-4.339412937429351302e+00 4.607772825921469639e+00 1.512729324626963745e+01
-8.778882296993467449e+00 -6.480972488048628577e-01 1.760220937306818456e+01
-6.715913539537410770e+00 2.336171166719861692e+00 1.749778646986803210e+01
-6.866541567780129363e+00 8.605460826876747404e-01 1.835421624486227898e+01
-5.867497199479450032e+00 -3.431211542366163325e+00 1.910560374056803568e+01
-1.300610705794832178e+00 1.768454772642092943e+00 1.819653344649939442e+01
-3.519207995053054372e+00 -1.704506507970283247e+00 1.960953013460579086e+01
-1.686097601138934809e+00 -3.911063185180528645e+00 1.955997437983651110e+01
-2.437198609057368959e+00 -1.143414822744379444e+00 1.494059259441471710e+01
-1.123285352082512567e+00 -6.716994897189072500e-01 1.925024103948462084e+01
-2.683713229584640647e+00 -3.756154678407028324e+00 1.826727487619051971e+01
-3.661264131454988302e+00 2.327802828301434035e-01 1.892312818561292431e+01
-2.297619481910073258e+00 4.359252684246059495e+00 1.671766309123577088e+01
-4.270106973226159397e+00 -2.536736839173948654e-01 1.916570601011465413e+01
-5.507122398392571228e+00 2.679714478969851932e+00 1.322823602014342725e+01
-5.748367329040216411e+00 2.584747966467023650e-01 1.137620916206274302e+01
-1.885018392390864328e+00 -3.952706044267932484e+00 1.845716937112203482e+01
-4.708327016177805469e+00 -7.719510058515102191e-01 1.418474681146867766e+01
-4.305906697878977063e+00 -1.020603137722985609e+00 1.537819134243676444e+01
-4.922943675945016473e+00 4.833076907290630331e+00 1.527866438095392709e+01
-7.236788934075685020e+00 -2.648635707533277817e+00 1.849340010113764521e+01
-3.280409565999810262e+00 1.514522393410933754e+00 1.278698255556830787e+01
-6.506212497481441481e+00 1.107711368347562120e+00 1.819355178327509037e+01
-4.478745130655881646e+00 -3.425842156558845386e-01 1.918247086935840429e+01
-8.212592227112549992e+00 -6.316624499245078184e-01 1.464090398042763752e+01
-3.387210665172739166e+00 5.299606132841224060e+00 1.593531007300448721e+01
-7.762259316252082542e-01 2.973044713610639711e+00 1.609467048243121212e+01
-3.347556161260474727e+00 5.230949652092792945e+00 1.595072627870776927e+01
-2.200881162643267608e+00 4.372571860358626772e+00 1.596045606996688804e+01
-1.269576819147248958e+00 -2.569202661620156203e+00 1.555055081708491826e+01
-1.889454849367004030e+00 -2.883899817435925161e+00 1.729618748579376586e+01
-3.494629018233927020e+00 -3.743686588727273445e+00 1.907950359770052984e+01
-3.680732581154328997e+00 -3.709786878569858892e+00 1.927665026034610207e+01
-8.246325578574267290e-01 -1.834232488136591510e-01 1.351233435668027028e+01
-6.563466013053917081e+00 1.987654349497816053e+00 1.771412587766543112e+01
3.632792374266748947e-01 3.710785009826479408e-01 1.701193189164347785e+01
-6.504832742224857967e+00 1.308298194563291217e+00 1.809271817012123762e+01
-3.726493725397101997e+00 4.104848586880326167e+00 1.487190565175170320e+01
-8.074024646360225432e+00 1.333691016963330478e+00 1.743937515549393424e+01
-4.795838868188781134e+00 -8.888606837338375311e-01 1.464188863992988132e+01
-6.639040428609900069e+00 -1.367574692578262807e-01 1.247910323403655752e+01
-6.285987898036034416e+00 8.178201531565090221e-01 1.208194012664713313e+01
-4.723832175570636949e+00 -5.184655694127613401e-01 1.301418462345051097e+01
-1.330010140275957209e+00 2.956950662361384374e+00 1.744300149064484629e+01
-4.855803824338017494e-01 -7.765675451638728854e-02 1.897553977980996365e+01
-2.329050063137921622e+00 3.218172023075946964e+00 1.492513270562119487e+01
-3.958474181118114998e+00 -2.852992635747858552e-01 1.918801619724499830e+01
-4.667428072910718484e+00 -3.039001053607743419e+00 1.779298172834601388e+01
-3.893359759147805299e+00 2.312531606895470215e+00 1.318799667140860521e+01
-4.886242906015990428e+00 -3.308678258066364286e-01 1.911260641685247208e+01
-1.475612322704227930e+00 5.928365709558207353e-02 1.297283159529644792e+01
-1.897868020735192118e+00 -3.476494686376212506e+00 1.790434965695809666e+01
-5.132209941677648324e+00 -1.293542853091914635e+00 1.944006254522543742e+01
-4.307418785020102447e+00 3.539115139571908486e+00 1.708502585027525100e+01
-2.932385284154918281e+00 4.828720239157762606e+00 1.637007818565433581e+01
-2.919726553870658492e+00 -3.275714590930718817e+00 1.792721910312416611e+01
-8.343870572466764557e+00 -6.799750578701222459e-01 1.860526196503780483e+01
-2.106850287462716409e+00 4.402068915057782306e+00 1.605845452427382014e+01
-5.323924521300417823e+00 -2.976699137749808100e-01 1.902111523075786437e+01
-8.478069096804457416e+00 -7.054284710603677677e-01 1.840489991199154218e+01
-7.063695463252546602e+00 3.329226367436805556e-01 1.865272734678730160e+01
-5.458719874078641787e+00 1.697211634561199001e-01 1.125660764891474486e+01
-2.257663163819190189e+00 -1.672642270149653942e+00 1.943328151805058468e+01
-4.323001513746675961e+00 4.913226820659427396e+00 1.542050831122840293e+01
-7.795085492159115503e+00 3.007223098050839205e+00 1.584633708400709651e+01
-8.067796144318741369e+00 -2.247750586430692810e+00 1.717759630957497308e+01
-5.104084553214870645e+00 1.828606212217548932e-01 1.103954018156351680e+01
-5.135483902060224537e+00 1.729364040615970488e+00 1.804540543559166821e+01
-4.876940136123317338e+00 1.720244178513698208e-01 1.100776777202040790e+01
-4.921661620928846403e+00 -1.008617243559320809e+00 1.498641450537080999e+01
2.059707176674117624e-01 -1.573798869067511097e+00 1.721053336134119149e+01
-5.688968362102711396e+00 -6.581094156942925988e-01 1.282214640082757739e+01
-6.270825758489150914e+00 -1.908003836012198029e+00 1.948538994472647090e+01
2.943980399707721851e-01 -2.885012580974545549e-03 1.618959885245885033e+01
-5.087292847417482555e+00 -3.072884720035478967e+00 1.781103990848288987e+01
-5.513206726292883886e+00 -1.180403244188268586e+00 1.476684854741795050e+01
-3.039331491925742146e+00 2.454157544417721937e+00 1.376971843270169416e+01
-2.681558046004443696e+00 6.804923266848789121e-02 1.892051298058307651e+01
-4.607079094887490678e-01 -4.041860914513141445e+00 1.892931784411656793e+01
-7.808642463657960775e+00 6.151138065492069984e-01 1.833123279362173719e+01
-7.682056521157169193e+00 6.516264562436746566e-01 1.838054173760325227e+01
-7.687409590746239196e+00 8.830487618878086753e-01 1.821369099914928569e+01
-3.337492357275295252e+00 1.448144699379055877e+00 1.269178917626989289e+01
-6.096623810168325441e+00 4.752471095086847619e+00 1.537116846025629258e+01
-8.332837810933648726e+00 -1.978037914813903120e+00 1.838544900325352671e+01
-8.599255885732810967e+00 -4.358239995856733606e-01 1.800623628577160673e+01
-1.543308539775773536e+00 1.613536478478744929e+00 1.832735888207312769e+01
-2.549093594166555121e+00 2.425570686012558763e+00 1.407602949026690453e+01
-5.702700684290243238e+00 3.851618354452514964e-02 1.163481908498329886e+01
-3.294504442999484972e+00 -8.957496703799390225e-01 1.504793585709686710e+01
-7.770759449656585716e+00 -1.986711798530503392e+00 1.898399201332890129e+01
-7.424221797467293271e+00 -9.262737499794531093e-01 1.364629687806291969e+01
-1.199865145805480426e-01 9.013736315632525642e-01 1.804918043428858709e+01
-4.917494565877865931e+00 4.708599537627262244e+00 1.623828420110928050e+01
-5.140368557176277164e+00 4.574406428542664216e+00 1.630563101726641406e+01
-2.829145460840732929e-01 3.410202428250099782e-01 1.862978649407524046e+01
-6.186199679460119505e+00 4.834911910705268490e+00 1.579164471483738197e+01
-6.002602239809144535e+00 2.357183001436382153e+00 1.756251642762352816e+01
-5.901086251384397130e+00 -1.794250495864356587e+00 1.594715920424175692e+01
-3.866869579591998729e+00 2.534425538882127515e+00 1.340008117468940441e+01
-2.461880303427020911e-01 -3.711498491051466786e+00 1.727689120869522554e+01
-7.623812964548715598e+00 -2.751880810095467811e-01 1.325518762534804296e+01
-5.303972053370676676e+00 5.107105384150625760e+00 1.586008905742389885e+01
-7.511059341379068499e+00 3.240024034728423985e-02 1.298820650610218763e+01
-5.137361786134998276e+00 2.955921102792603339e+00 1.351260494222799480e+01
-7.632922267417851181e+00 -2.398379438134111474e+00 1.691350233206149056e+01
-6.499342266041835181e+00 -1.505228836769499257e+00 1.936662949765661068e+01
-2.530230048137027676e+00 4.946173266694179560e+00 1.615502236992233520e+01
-3.481643349519994324e+00 -3.738437030147627294e+00 1.891679015735527969e+01
-5.897897780129659928e+00 -1.992730642382402939e+00 1.634682034821776142e+01
-3.480005904852204512e+00 2.316787630627040073e+00 1.339207217687116724e+01
-5.520548099207738701e+00 -1.239843806153736017e+00 1.497432973474169415e+01
-2.794626856490943778e-01 -4.020013385959837038e+00 1.847920410918280965e+01
-6.053829842505240588e-01 3.094274893594505471e+00 1.658761614580033239e+01
-5.312663731445058879e+00 1.282223340710099357e+00 1.189461754368218749e+01
-6.527811604051647620e+00 -1.535573047942466962e+00 1.400501074429732995e+01
-7.991467184242035060e+00 1.805161504648428394e+00 1.442815213807840991e+01
-4.295974617709074295e+00 -9.439214347841129449e-01 1.517271443029239464e+01
-7.722694143083153051e+00 -2.334563072700350350e+00 1.674711455077762423e+01
-6.969487767786816335e+00 3.656444366744541430e+00 1.482718320566799974e+01
-7.939348238059285023e+00 8.975011593006981814e-02 1.857364282123072741e+01
-2.963663337833563727e+00 4.750497755690395785e+00 1.578846533537758745e+01
-7.624326922328733325e+00 1.162085731652489490e-01 1.308294953458661070e+01
-4.918900282956307990e+00 -3.108141389411564148e+00 1.784564188249930083e+01
-4.480507677038271019e+00 -3.570791020825495377e+00 1.823824722470265414e+01
-3.738098444280415933e+00 -1.855399735194780686e-01 1.239072316846926469e+01
-2.724654943061443291e+00 2.117767342888364102e+00 1.802877970833979759e+01
-7.905006668700421457e+00 1.036377346915306807e+00 1.794152000994838403e+01
-6.974267483024768843e+00 -3.917060337947947946e-01 1.295475391294689871e+01
-8.608745236945638979e+00 -1.897752396596156799e-01 1.584110779709073569e+01
-6.290013446444307377e+00 4.701000257758862766e+00 1.586494783747870230e+01
-3.149350379407039213e+00 5.207608381449166046e+00 1.600105018515579047e+01
-4.485847954941388771e+00 -8.706036897970232946e-01 1.495395449159337176e+01
-5.923975306759100334e+00 -3.145110941658817438e+00 1.958607915054584225e+01
3.302931646718528236e-01 -6.194588514822449987e-01 1.799925238974041264e+01
3.342454230213856015e-01 -4.350736988930456461e-01 1.760075327385888500e+01
-7.467697913639575802e+00 8.024773610331654705e-01 1.329144015976022075e+01
-6.495905289952535355e+00 -1.209815471265269338e+00 1.355877472528939620e+01
-4.927125864535046418e+00 9.204484227875093794e-01 1.158527485176301752e+01
-3.132365728187634701e+00 4.361146952143236888e+00 1.671288042716324895e+01
-5.302765531323707648e+00 -2.173614475378386146e+00 1.700461905188414136e+01
-1.521699271304574053e+00 1.753419959350772439e+00 1.825070672450260645e+01
-2.314670137203025835e+00 4.898194073105264779e-01 1.875948155604916678e+01
-1.346599476554750208e+00 3.991617702028650516e+00 1.647359378803292884e+01
-6.074030971833368042e+00 -2.924687603764682287e+00 1.747420240438718508e+01
-1.239158499525286450e+00 3.864589998767811174e+00 1.647333851097192081e+01
-8.815644366334863591e+00 -1.060020226103772778e+00 1.680726789191614046e+01
-1.083964247388476965e+00 -3.699670745768615099e+00 1.952123903702774044e+01
-4.506487603853020829e+00 2.129375562659114429e+00 1.791223142575167060e+01
-5.536151600296567388e+00 1.143799171494713773e+00 1.828187503801589742e+01
-4.274597013115818633e+00 2.306930701312377430e+00 1.783549389434497101e+01
-8.463018958153380567e+00 9.336355163437373150e-01 1.683026496920738424e+01
-5.315539465754867798e+00 1.323925800869783842e+00 1.822823888358315259e+01
-2.926493157135769962e-01 1.398374740579450659e+00 1.787478178479155844e+01
-4.709394917425979710e-02 -3.913040282666431668e+00 1.833661354647329489e+01
-5.481990315543915138e+00 1.723357509974627222e+00 1.799304608383163639e+01
-1.718726936515857506e+00 2.132221046282758881e+00 1.806061362954641680e+01
-8.246462310550693786e+00 2.567271400091675204e-01 1.815249515808012148e+01
-5.346577775513026154e+00 5.185210933266708011e+00 1.571193138784140331e+01
-1.757328658372506514e+00 -2.841183938670901465e+00 1.691725296677812906e+01
-2.902198390172112230e+00 8.550504470101394361e-02 1.892885680752593913e+01
-5.196981054383081888e-02 1.433930251120802746e+00 1.562478616609413962e+01
-3.905773451671148422e+00 -3.150278148165719383e+00 1.782244041998816186e+01
-9.071387351814117483e-01 -6.826694738985341626e-01 1.924924936000353171e+01
-7.121110706281241320e+00 -2.197494511849914289e+00 1.920141989183230891e+01
-7.274995353176947788e+00 2.276137819768062176e+00 1.738192934391164357e+01
-4.275973966599177167e+00 -2.911322281173555737e+00 1.768005743689519704e+01
-3.672932196354440570e+00 -2.898711320032179017e+00 1.766791809922074918e+01
-1.562792404644315347e+00 -1.845275727277103650e+00 1.494239582834411806e+01
-5.117758777046310215e+00 5.036488764763704218e+00 1.595447232099326129e+01
-3.687850410207506258e+00 -1.688993128653037523e+00 1.962686384176038246e+01
-5.671790113274770562e-01 1.790559227039634660e+00 1.507868809612554628e+01
-1.899682499506973432e+00 1.342678825836402412e+00 1.844846576371224955e+01
-7.340826244135110201e+00 -2.666458795442004259e+00 1.674016882157486918e+01
-2.456689654248763066e+00 3.293552882392714487e+00 1.741179181808895038e+01
-7.092590404252022473e+00 -1.577354149455207910e+00 1.398363593013119299e+01
1.840582682715151408e-01 -3.258355587620947791e+00 1.770713956254084565e+01
-5.258394074885502256e+00 -3.008186320640314548e+00 1.774729219089108767e+01
-9.475952188229358475e-02 -1.506007642824452430e+00 1.930976001605674242e+01
-6.574217505793475524e+00 4.228770038841109802e+00 1.616635496077033451e+01
-6.741936344261124425e+00 3.818452549836553356e+00 1.485499209378940577e+01
-3.917836057322866772e+00 1.937495997929266300e+00 1.807956204507806319e+01
-8.543922325354973424e+00 -1.779651238859171647e+00 1.838023558809238267e+01
-5.136536371700142212e+00 4.050475068161849102e+00 1.449455746786264854e+01
-3.101852162986288075e+00 -8.265830091137569280e-01 1.477757292744617246e+01
-2.719057201662501200e+00 2.618931728458711916e+00 1.775919288538624841e+01
-6.871093624500033137e+00 -5.189529057575079651e-01 1.900302112517401554e+01
-6.794277242223617286e+00 4.422360562227075853e+00 1.577088593673133232e+01
-8.607371248876875214e+00 5.661765731268648683e-01 1.664688325654055490e+01
-3.891196059148088082e+00 -4.630399433741684834e-01 1.335343892317257541e+01
-1.544058185273914807e+00 4.152246109153309384e+00 1.632782469268433800e+01
-3.124644664580175313e+00 -3.791893137841654493e+00 1.937698498458058793e+01
-1.552523334853961101e+00 2.990369728685237316e+00 1.529951746331225593e+01
-6.725401621551648113e+00 4.635582896544355513e+00 1.547899725770628265e+01
-1.918729243485302494e+00 2.544761757277313130e+00 1.784053330145635385e+01
-5.070267563883096074e+00 -2.148775941782730126e+00 1.966531895960941512e+01
-1.513163244927347328e+00 -1.338785835440932992e+00 1.941082610828011923e+01
-7.073690142478355369e+00 -3.275014375110697484e-01 1.894856268978450942e+01
-2.306070149093805366e+00 -1.487902806958567581e+00 1.572959015597151478e+01
-3.345128836529475347e+00 4.344280373374029836e+00 1.670163634910232275e+01
-8.091579555707463456e+00 8.216626962490107822e-01 1.423210579088949856e+01
-1.633349931982984726e-01 1.797654114828955096e+00 1.585268370155410622e+01
-3.732844452469558094e-02 -1.626783460359257361e-01 1.438153433378669632e+01
-4.820202738727322744e-01 -3.481585801194242880e+00 1.936983190338179384e+01
-6.488812918305383093e+00 -1.372833871415779061e+00 1.379126274714205636e+01
1.243153379510026080e-01 7.877041421356947293e-01 1.780580882038199064e+01
-3.557572002979188408e+00 5.311932183676528751e+00 1.588957554286967166e+01
-3.671351704343317035e+00 -1.179816908057935265e+00 1.578507662220726360e+01
3.639841555226205339e-01 1.836206762559150496e-01 1.719801584291266749e+01
-6.314680089154043330e+00 -3.465305694840643103e+00 1.812296703711069057e+01
-1.285030863653433109e+00 1.665581313312694212e+00 1.439221320728761810e+01
-1.085238219155953310e+00 -7.711891833216124592e-01 1.928559388735093449e+01
-6.412985639185811992e-01 2.838406223780723270e+00 1.692162114337259027e+01
-5.497742643598605206e+00 -2.556006111418593019e+00 1.969875028053058941e+01
-4.242242670779204916e-01 -1.031271674097625102e+00 1.451329853738981512e+01
-7.262808273379568469e+00 4.033412200672572001e-01 1.286396946721344392e+01
-3.588454902836385685e+00 2.774005110051958489e+00 1.374533630668960171e+01
-6.905241306902190956e+00 -1.568811373811517029e+00 1.394787571998951137e+01
-3.287406309250710201e+00 -3.499883786295543420e+00 1.805409460457398296e+01
-4.635417299611183317e+00 -2.894859243246479252e+00 1.768651578533705759e+01
-1.277720134142621200e+00 -1.120132183893337352e+00 1.398089814575200762e+01
-5.663221251226775443e+00 3.185810679188271433e+00 1.373123644006433608e+01
-7.911908428866958332e+00 -2.262051188307885319e+00 1.751626463642332254e+01
3.051246331638680642e-01 -2.280025895200345487e-01 1.699134265041760017e+01
-5.076230443590792341e+00 -1.685429086575987112e+00 1.652159195576292916e+01
-1.066986729824150659e+00 -3.595541548443810242e+00 1.730732820058459254e+01
-5.882798926625315339e+00 -3.499240170990788101e+00 1.811321829808651529e+01
-3.687578196833677158e+00 -3.500512936297857980e+00 1.974030905461140151e+01
-5.152280403070074399e+00 4.456008492161061874e+00 1.639312152515020671e+01
-8.663984736984545520e+00 -4.009637428131876957e-01 1.601352522191748307e+01
-2.139638131857599213e+00 9.139858356835225961e-02 1.245678495383572937e+01
-3.280855687248896313e+00 -1.617157465617186318e+00 1.654448299369605735e+01
-2.047587319212059942e+00 -3.961917482058363582e+00 1.859702752649853608e+01
-4.996146796695837722e+00 2.571716022858971940e+00 1.315360234081503421e+01
-3.125310003332904429e+00 -1.683176757741095653e+00 1.954467454717402575e+01
2.767745076585956254e-01 -1.710671414605455520e-01 1.601650234293487784e+01
-1.082260017258483753e+00 2.558841132095549753e+00 1.760535752997293457e+01
-3.104096666154587236e+00 2.815676111561051354e+00 1.404308201638640696e+01
-8.371044391481779812e+00 -4.656742049986319354e-01 1.846270803587317033e+01
3.672504575207961031e-01 5.723243532267046074e-01 1.701006534520704605e+01
-6.481355760265637755e+00 3.936101148890146728e+00 1.647221456297703668e+01
-2.701415273099121439e-01 -1.709977188148557925e+00 1.941978108792015689e+01
-1.894469701815360008e+00 -1.118856359904611297e+00 1.932907932337237611e+01
-4.920270309576657120e+00 -1.346051662784683245e+00 1.601275337566939783e+01
-4.987737806794955153e-01 -5.545183497961923003e-01 1.413226121193947904e+01
-6.081601708581811039e+00 -1.409797667683247102e+00 1.433946783216712362e+01
-6.089074671401963457e+00 -1.086542906141256593e+00 1.924151995076757515e+01
-6.742694113531923605e+00 -3.175092602201595948e+00 1.855917070981919181e+01
-7.286911204921040053e+00 -1.048967589232265851e-01 1.887815795581119005e+01
-6.320787063844050202e+00 4.384354783524354815e+00 1.515748132343700405e+01
-5.106153937340009108e+00 -3.255690401022980573e+00 1.795362309362833031e+01
-1.908070754890012211e+00 2.060424848594625935e+00 1.424072123451072969e+01
-3.785932335573418683e+00 5.300231367169290664e+00 1.582378482736977787e+01
-3.145380570045215318e-01 2.207544500450567604e+00 1.604344118556913656e+01
