-6.111652977157358890e+00 3.915361470509914898e+00 1.727105142513308067e+01
-4.084413106181296271e+00 3.047638581992369478e+00 1.371092838424890914e+01
-2.434003762433922358e+00 -1.688525822715944535e+00 1.812758633831132471e+01
-4.996274911840365984e-01 1.914090875529787183e+00 1.751942502844138971e+01
-1.927427911357844748e+00 1.017110094487039262e+00 1.306479093324212215e+01
-5.174390247384728525e+00 2.108944899884654500e+00 1.303361268292440656e+01
-6.815647023998506526e+00 2.852357722020721020e+00 1.750737750106524970e+01
-3.150624611457276902e+00 4.665110900019309170e+00 1.685056154329875255e+01
-1.859754291879788468e+00 -1.943912957845074896e+00 1.431525662784090258e+01
-6.524898629110694737e-01 -2.645226781315493270e+00 1.741074548565256208e+01
-3.019457089540722450e+00 1.511414827265747274e+00 1.821965288586570608e+01
-4.429156583888780307e-01 -2.669816644730966804e+00 1.721728942772389104e+01
-7.060518418403083807e+00 8.487931638471646334e-01 1.844579427888603362e+01
-2.864751659737135192e+00 2.904357064059791327e+00 1.811030311666849713e+01
-1.523877249450784621e+00 2.509109808668870123e+00 1.773273429778512877e+01
-2.217232780996931218e+00 -3.228538712541508371e+00 1.746068097553359166e+01
-2.262947299493254238e+00 3.830275147049740259e+00 1.647027850901775992e+01
-1.185755047041175070e+00 3.472791235251367681e+00 1.749026949450913548e+01
-1.089754490536444465e+00 3.127678243817062054e+00 1.755367135140768653e+01
-3.484675081091036741e+00 -1.017569963837464453e+00 1.618566158842663327e+01
-3.130264840858012931e+00 -1.792346224540265709e+00 1.839460368474120600e+01
-2.020215782188982345e+00 -1.922157283796246841e+00 1.794226667811813769e+01
-7.035019728500080838e+00 -1.174749305045532211e+00 1.882063665097316374e+01
-3.992620612130270974e+00 1.104579817115034057e+00 1.251324869209060608e+01
-6.266627123136334632e-01 5.090673569945911581e-01 1.474891859564287699e+01
4.268873053087618441e-02 -1.955555768303199660e+00 1.646879440533104599e+01
-3.454755755580555032e+00 3.500029567358432736e+00 1.827196257546242464e+01
-3.374699731805083758e+00 3.158725457253231395e-01 1.375786060191119020e+01
-2.163243085524335640e+00 2.360397019124771845e+00 1.454659881912866837e+01
-4.065395255009921271e+00 6.325232831945705181e-01 1.418508366104862262e+01
-5.512893104330766292e+00 4.249416087396962638e+00 1.786955201491231549e+01
-7.041517166982623976e+00 -2.355093794978416533e+00 1.798850893582753230e+01
-2.829018399091304037e+00 -2.462408594177250443e+00 1.647837257961485591e+01
-6.517212006864835594e+00 1.655729610858535317e+00 1.427826315733113205e+01
-4.925666805095088030e+00 2.687638404112162593e-01 1.563802563883341179e+01
-4.931310624741173321e+00 1.479899830425158158e-01 1.578176504255666401e+01
-6.871334904899902618e+00 3.888972100816112665e-01 1.472992127302845233e+01
-3.090085411590112852e+00 3.509411491664601979e+00 1.812778498302827046e+01
-7.429552361186492426e+00 2.020033941347131101e+00 1.645711431890569543e+01
-2.775297546721394504e+00 4.122960915148095928e+00 1.791665431974499256e+01
-1.416615398342359722e+00 -3.129935266341793643e+00 1.748930435305401687e+01
-1.943677541603706649e-01 -1.095656772520790412e+00 1.751467765446868441e+01
-7.214238103897242738e+00 -2.986262397217368525e-01 1.536163204740658017e+01
-8.693906332368016576e-01 1.541857026416180165e+00 1.767199761663491131e+01
-2.700724199045475338e+00 2.632668962512797250e+00 1.429344323731403676e+01
-6.243922870024979588e+00 8.555502964464762883e-01 1.903467197961453650e+01
-5.389544471876390297e+00 2.470408183233303578e+00 1.385544665922957819e+01
-5.893108852510986928e+00 3.863076394195902541e+00 1.787448523772872022e+01
-2.939679562108192812e+00 3.268806435785393205e+00 1.809955657739484991e+01
-2.559133426300620462e-01 1.263779481138274652e-04 1.501688945337786407e+01
-1.908580361172007800e+00 2.734107687878729820e+00 1.780904561119018581e+01
-4.711617892157017096e+00 3.084335617884636171e+00 1.411087818121136905e+01
-3.601774560400198943e+00 -1.433132169964072278e-01 1.550902860733449273e+01
-2.901245653332424013e+00 4.090894910569166321e+00 1.796335747928544890e+01
-3.683631382202288140e+00 3.897897724701131050e+00 1.827621032316672967e+01
-5.484539735476881894e+00 3.429175322212823396e+00 1.841257691656446127e+01
-6.772113673094587227e+00 2.939360864620317759e+00 1.748258798162329697e+01
-6.610809584055741261e+00 -1.793403626820762486e+00 1.905503114794688457e+01
-5.122931757479837422e+00 1.034902373939165787e-01 1.581290256642356695e+01
-1.812707161851648596e+00 -2.414190835185826334e+00 1.506841934833405361e+01
6.872788844309563050e-02 -1.374620319111356626e+00 1.562506111534059272e+01
-6.261377498778116113e+00 3.248289705038413189e+00 1.806686688764655457e+01
-3.991953939652602035e+00 4.319242842507675206e+00 1.583137795415584037e+01
-6.531132232845586749e+00 3.070721432825443742e+00 1.786895682795608309e+01
3.934449317869315177e-02 -1.806811378585500449e+00 1.622220877519413307e+01
-6.667338931246909794e+00 2.838085108168380888e+00 1.788056547346482006e+01
-1.410581374050837500e+00 -1.113605869396586456e+00 1.775337300795369799e+01
-7.254674786117672802e+00 -1.352988671800364529e+00 1.641590455524531933e+01
-7.117916821717820142e+00 -1.406856806552244876e+00 1.657985133559510160e+01
-4.515078753505763487e+00 4.001999703757823212e+00 1.834578052804560855e+01
-6.673836181461082262e+00 2.613233358296721764e+00 1.807078695371984622e+01
-5.695046459572117747e+00 3.848211507337754522e+00 1.804884811679457357e+01
-5.992265887021278381e+00 3.753605866114859246e+00 1.663734139150502500e+01
-7.396649889128187327e-01 2.718443073435504509e+00 1.748697710744104938e+01
-4.446530934479854480e+00 8.797835299367233741e-01 1.880136541026738684e+01
-7.669372695612747926e+00 1.084122891233530783e+00 1.567405422274009652e+01
-6.311901159881783130e-02 -1.270260243063614958e+00 1.517177669776652493e+01
-6.424669687422988495e+00 -2.328142379544763330e+00 1.761756514649510308e+01
-6.585151934698997067e+00 1.040964180290993024e+00 1.880631765259359867e+01
-4.588292825103934547e+00 3.323941105715799704e+00 1.440945787579864401e+01
-6.638992411551147832e+00 8.369285183291245156e-01 1.881790620161161343e+01
-2.924503467886599317e+00 -1.259498968211632430e+00 1.606433461942108920e+01
-5.412162196719313201e+00 3.173896118028456392e+00 1.498557934935824676e+01
-1.226820639139650782e+00 3.442687345047480973e-01 1.349874463270555225e+01
-6.643424078001052280e-01 4.211399189575266294e-02 1.422378531919990508e+01
-7.290896598451712673e-01 2.745271626757768590e+00 1.731878451853101808e+01
-3.252288602857745570e+00 2.877715942704623053e+00 1.403947861746773640e+01
-6.802981242368877357e-01 -1.415034605147845959e+00 1.420640503677368827e+01
-3.752776925772812966e+00 7.690275213603897653e-02 1.531993740380780622e+01
-1.567255655351993848e+00 -3.983872971561950305e-01 1.331833729824048618e+01
-1.290062171632293531e+00 -8.743513030620811977e-01 1.358807505557542328e+01
-5.617867889316243257e+00 -2.953601987070949342e+00 1.856428871150863102e+01
-2.280365943576169840e+00 4.180831705960533107e+00 1.691557510594471125e+01
-6.648511654241605839e+00 3.049745690583599789e+00 1.765417052392962205e+01
-4.737609853015869454e+00 3.824648425625516435e-01 1.546157156265691413e+01
-3.996147485639139685e+00 2.980801909052046561e+00 1.360112555971192450e+01
-4.833579465711706824e+00 1.788644196829933808e+00 1.217527026748517471e+01
-2.050285434563276610e+00 3.980770324412837180e+00 1.686820227533709726e+01
-2.287728615265629983e+00 -1.448609590215174936e-01 1.317773173702416756e+01
-4.237043772721931667e+00 -2.508308399864765281e+00 1.697707364235255767e+01
-5.012942183162002685e+00 1.137111451622676572e+00 1.340023189391987302e+01
-7.663872050188511587e+00 6.691259384146904798e-01 1.566471042266330471e+01
-8.791926088260398897e-01 -2.912836534113351750e+00 1.521523433988231488e+01
-1.539278221217384335e+00 -1.496615829969896172e+00 1.381224601907537419e+01
-7.609767195065890277e+00 1.517802134085307841e+00 1.584420435023468343e+01
-3.247962272216478041e+00 -3.044227096674304578e-01 1.836653233271091068e+01
-6.075364325522157216e+00 3.482372217183165919e+00 1.804773802253961890e+01
-4.661077471301436681e+00 -1.687254985491533521e+00 1.694854997089780113e+01
-1.532983844538475360e+00 3.533144319634357711e+00 1.763188172113142116e+01
-9.375442043458823704e-01 2.109941235870025800e+00 1.763715249479498937e+01
-3.885607722507539386e+00 3.662514126897778333e+00 1.839483030456346313e+01
-3.585227915107138230e+00 3.772884971601307758e+00 1.518899267013183874e+01
-5.395455866867148842e+00 2.552495237506732018e+00 1.399177186730659628e+01
-2.981813205138645895e-01 1.380180990872616142e+00 1.747785437286283639e+01
-3.223057908011111583e-01 1.153235973245644974e+00 1.606777575879454645e+01
-1.065318619460974503e+00 1.751170785890343584e+00 1.770002109029893234e+01
-4.206499483608647338e+00 -1.113068373509948028e+00 1.872851288638710088e+01
-8.768577212199260007e-01 1.713347064444046275e+00 1.766005606501674663e+01
-6.754112182747433746e-01 1.956849129932701992e+00 1.757869577264150251e+01
-4.453424331237783917e+00 1.816727941414523873e+00 1.195434239859931580e+01
-3.643342357884272076e+00 1.504841368205309671e+00 1.195282653998484790e+01
-7.494354792457292191e+00 1.460900422544349819e+00 1.705935312809629778e+01
-6.160118556117553545e+00 5.002061467751650614e-01 1.456825740978414530e+01
-5.652130949038275176e+00 -2.761952010857823936e+00 1.772753253164202647e+01
-3.140735060878194318e+00 -1.281810998797270895e-01 1.510112663319334558e+01
-2.905247748332533853e+00 -6.002625944835073835e-01 1.551404404939680859e+01
-5.786962905004304325e+00 -1.768190823523218658e+00 1.912205301479490061e+01
-2.549615088356719905e+00 -6.432359792342757787e-01 1.410702993338716738e+01
-6.356585861765801759e+00 -2.652308540596366893e+00 1.787137654803317588e+01
-3.295374771126425184e+00 2.464363617104510240e+00 1.830789019679325236e+01
1.504745024512152973e-01 -6.419663284769233647e-01 1.704355334681854117e+01
-4.802089926163858991e+00 8.303481674986364081e-02 1.893304918602961351e+01
-1.564217527837757915e-01 -2.475755027121665508e-01 1.503746339662954767e+01
-2.211691040173611178e+00 1.206794530278204380e+00 1.287697903834646951e+01
-7.471454390858514039e+00 1.291240577061297579e+00 1.534291598744786000e+01
-6.074663359362422632e+00 1.640078400096235622e+00 1.889563964890282222e+01
-3.034342126568297715e+00 1.587789839709663475e+00 1.238642137744916738e+01
-7.625262094381762168e+00 1.232218103043023927e+00 1.662214608289194473e+01
-6.729785193563607493e+00 1.065018314608339456e-01 1.487096406199601972e+01
-6.641055038655283127e+00 2.183501646937150653e+00 1.515873063238667129e+01
1.260693757192150599e-01 -1.434451848125684936e+00 1.620554944775836503e+01
-7.381566726617503349e+00 1.696688807579527669e+00 1.564224313047837001e+01
-5.353919076324191728e-01 -2.582692028802306528e+00 1.509896879359953203e+01
-4.806601993304978393e+00 8.256614248095782704e-01 1.444146921870260059e+01
-9.510573754259167290e-01 -2.393800295038426285e+00 1.450159870348726088e+01
-3.401149464176778547e+00 -2.710359665125201101e+00 1.835659433545216501e+01
-4.607729579625652327e+00 2.320886683428424746e+00 1.281606231999541023e+01
-2.866389593642581612e+00 -1.853874141780520013e+00 1.633018491650305037e+01
-1.383705711021838702e+00 -1.332738051972970794e+00 1.373650284764281793e+01
-1.260157670477917158e+00 -2.013910928075298035e+00 1.767280806390206038e+01
-3.056936725666028920e+00 -2.040293302559332833e+00 1.647711037599457029e+01
-5.146260371556524049e+00 1.614203063301087801e-02 1.905978302639540800e+01
-6.588745550893648328e+00 2.148326381431701293e+00 1.503310315129576935e+01
-3.692601951268612126e+00 1.719584517158030401e+00 1.848555941133363234e+01
-7.643252893637184187e+00 -8.749149026277520669e-01 1.586925070909054369e+01
-4.661363965291688061e+00 -5.034960153832829244e-01 1.633550873497239309e+01
-3.112374974338604883e+00 -1.672443017752077932e+00 1.636692015381242271e+01
-5.828076304901331106e+00 2.030364664010441356e+00 1.373665061197685588e+01
-4.959641921680785437e+00 2.673206733483298070e+00 1.366864256141594325e+01
-1.712998063736046905e+00 -2.222173956473306511e+00 1.450883678644401442e+01
-3.944852932159685466e+00 5.142789800811065959e+00 1.739471473861375728e+01
-5.047212582224738675e+00 1.871469968128257833e+00 1.894437297736803316e+01
-7.089327794715767350e-01 -2.824352509241458531e+00 1.521665311757860195e+01
-1.507786658173935646e+00 -1.473303220979871764e+00 1.777059603388170217e+01
-7.203107451430057484e-02 -2.393240925987693002e-01 1.748559715496359956e+01
-4.076866023371736869e-01 -2.711872903293425008e+00 1.560881670702237756e+01
-3.655899455460864811e-02 9.499452215997920002e-01 1.732953081176160737e+01
-1.903955500966130199e+00 1.204008636883567185e+00 1.332118709764984743e+01
-5.265655013143620833e-01 -2.780421825794777924e+00 1.541212540022299038e+01
-3.340054760501836473e+00 -2.946541353762309745e-01 1.550299726814296974e+01
-5.846922488783449445e+00 -1.558824755292469444e+00 1.711072169196046389e+01
-3.795797948445730707e+00 -8.437934164360925138e-01 1.621550375060603244e+01
-3.595044069188784164e+00 -1.002289498431398584e+00 1.622687337817873754e+01
-5.814763823697633782e+00 1.059358450181731026e+00 1.909622556570486296e+01
-2.429796127039999032e+00 -3.066694237330537476e+00 1.784137439103059108e+01
-2.527334725654630354e+00 -7.010324555154096027e-01 1.527587765414559584e+01
-3.410383413935372143e+00 -3.188318548850539891e+00 1.790843786278637850e+01
-3.251370998570047632e+00 -3.194458633298816963e+00 1.770416992589652239e+01
-3.175846165591150960e+00 1.626109519660626779e-01 1.395072695347786151e+01
-3.726263508479921160e+00 4.678104279779030428e+00 1.661728780538273753e+01
-5.826249734037984851e+00 3.377929918577190715e+00 1.580705026107284539e+01
-6.775172968405221319e+00 1.131365507832494011e+00 1.422603383700267443e+01
-6.772717111913141963e+00 -1.392729262391558365e+00 1.674622035612468807e+01
-1.667341016046326008e+00 -3.181552059825773604e+00 1.606288219707597875e+01
-7.676165597389490891e+00 -9.855698553096842174e-01 1.741505363152147368e+01
-2.912393390410354055e+00 -2.944341195942688394e+00 1.662428651970888893e+01
-5.598095418089273245e+00 4.155040020312785742e+00 1.681612095292362596e+01
-6.465802071023605269e-01 -2.882367531373632108e+00 1.538416358515689808e+01
-5.053376473096107269e+00 4.373011163365739251e-01 1.537305481424759535e+01
-3.851002874402390308e+00 -7.067176408342392691e-01 1.614833435307488685e+01
2.349270694698490924e-02 -1.541038178075824217e+00 1.564495672567363727e+01
-5.201366343742605203e+00 -7.032985340755679715e-01 1.907079903809455601e+01
-3.525750984118926290e+00 -8.822893012480551578e-01 1.611902984684956408e+01
-3.690545567028306717e+00 -9.042773994951326388e-01 1.620707262611309574e+01
-2.986646485734514744e+00 5.633565284293914344e-01 1.276121407003155639e+01
-2.414669647933723517e+00 1.092432768587448866e+00 1.801054633006519623e+01
-7.253696680948369391e+00 2.086788209546343698e+00 1.725908565809034911e+01
-7.380755936567841680e+00 1.024333120427617816e+00 1.784719004643191909e+01
-6.737159976238205061e+00 1.729208633843556164e+00 1.848197020832795090e+01
-6.836931175042225028e+00 -1.959004027802538239e+00 1.742658323512736729e+01
-3.906580679221820951e+00 -3.105218697467472810e-01 1.587362608028204392e+01
-7.644682702207932223e+00 -1.290221564520580344e+00 1.643747191089971693e+01
5.603463818123521900e-02 -1.590982330677483070e+00 1.585067973113568485e+01
-2.345619714092400887e+00 -8.547364773014117789e-01 1.389032065907021263e+01
-7.172882273324901803e+00 2.086435614480348644e+00 1.751905542520588455e+01
-5.096358071908946741e+00 2.667605193421592524e+00 1.879127948242774693e+01
-2.897937925094234757e+00 2.827996019581622278e+00 1.434581517331380951e+01
-2.421989563736705264e+00 -8.680738536102361458e-01 1.409639380810300935e+01
-2.846062562832806453e+00 -9.051383175491376498e-01 1.575196925515709268e+01
1.119821901440971601e-01 -1.661828894139251389e+00 1.664415300766811612e+01
1.148725300848632003e-01 9.575303536652934877e-01 1.702979989688737561e+01
-4.689803560816709904e+00 3.430983531378652085e+00 1.468985617658496068e+01
-5.286525684622133348e+00 2.618754301068504375e+00 1.396420812373808218e+01
-5.190315002811979106e+00 1.211334170491151774e+00 1.325137927330454346e+01
-5.565709548464250922e+00 7.218426075529670305e-01 1.445252621520905478e+01
-1.999875685844140216e-01 -2.491139755675446210e+00 1.659221745872703480e+01
-1.602274922118661626e-01 -2.145789351466643957e+00 1.565616786332699206e+01
-5.539752533234601373e+00 8.671051959594548997e-01 1.402603111071459807e+01
-5.540506764933923023e+00 8.033970903645420991e-01 1.421450469258554961e+01
-2.041392925042716300e+00 -2.499053359270295260e+00 1.788115755306186827e+01
-2.355310564922992178e+00 1.418675354271290434e+00 1.294098750389798624e+01
-5.217359451601412346e+00 -3.075169288926844491e+00 1.814087919699759510e+01
-5.986567531770389472e+00 3.903495958205699168e+00 1.769750640762082838e+01
-5.573278791910872165e+00 6.594067099472126214e-01 1.461478999699049552e+01
-4.786950703616503766e+00 1.091358195691717103e+00 1.340869522199956521e+01
-2.852456614754343089e+00 -1.493583581137771510e-01 1.407415705743263601e+01
-1.875891200111700741e+00 1.517941619647137586e+00 1.786809761478805569e+01
-5.444887330915229917e+00 2.102462520711135596e+00 1.890734429883600853e+01
-3.827080770625709949e+00 2.706858910559233777e+00 1.321641384345365822e+01
-4.907411536110982908e+00 -5.127636777448192351e-01 1.638690467279082696e+01
-7.408405036135162547e+00 -1.696137348016505619e+00 1.722422547919943980e+01
-5.580506357652164517e+00 -2.852385652969831042e+00 1.780705416097789850e+01
-6.032030691468098560e+00 3.596617213661685408e+00 1.798847118558956737e+01
-2.373579705814967244e+00 -6.311163289826948741e-01 1.366947279337063748e+01
-6.403992302689498928e+00 2.351823018716161950e+00 1.502229603070887975e+01
-5.612842882858407378e+00 1.068014691305737784e+00 1.355024207975712613e+01
-3.842317556748652940e+00 -2.313474549197764407e+00 1.679291859394917452e+01
-1.401651360776368316e+00 1.235429145579537147e-01 1.778009532488916022e+01
-3.693412999671041419e+00 -1.638919672390270144e+00 1.657432311429793259e+01
-6.446509577133591407e+00 1.051525055903948402e+00 1.889042603048329738e+01
-2.839286308730084585e+00 -1.170481696144537731e-01 1.434772755230741836e+01
-5.469769712153906838e+00 -1.919326439177621690e+00 1.723466399229691604e+01
-6.400222652817213920e+00 8.258301582875899882e-01 1.897293343467649862e+01
-1.386999006534344270e+00 3.854602497258670657e-01 1.327075631687525004e+01
-5.237718511298138147e+00 4.351451466720425820e+00 1.675500569582275290e+01
-1.342210527337802439e+00 1.924415190077919113e-01 1.324666179750122552e+01
-1.780971474622175865e+00 5.832770079475183556e-01 1.286359008446887486e+01
-2.453839930152343918e+00 -2.669061970063900890e+00 1.801027756767912535e+01
-7.129234230797013794e+00 -5.326684643667154440e-01 1.868748153045800109e+01
-6.079309110287184126e+00 -1.340640665366915396e+00 1.695733544577287688e+01
1.100478984451919162e-01 1.814783049633764966e-01 1.680196758444655813e+01
-5.504903199211375942e+00 -1.292767104950439450e+00 1.694642028506119402e+01
-2.849658163283515844e+00 -2.473537311010761464e+00 1.821658334772585164e+01
-7.191191174530398023e+00 1.052876777965834343e+00 1.819060480271525648e+01
-6.797752578769098442e+00 -5.636279273038182769e-01 1.898875436317003818e+01
-2.809905018493357165e+00 -2.704936421677824221e+00 1.814324192313592476e+01
-5.521607063626862155e-01 -1.019831478697871496e+00 1.425108665208360037e+01
-4.966208509332631138e+00 -1.164790267868429652e+00 1.897257368128463639e+01
-3.228457379837975871e+00 -3.089170680006779524e+00 1.708886183610464116e+01
-4.264368183431865411e+00 1.488013350819459735e+00 1.873265401248655593e+01
-5.214261597987612795e+00 -2.862053434713891065e+00 1.866969905166542532e+01
-5.191370690827683099e+00 -9.184769786005353431e-01 1.905666107167738232e+01
-6.355796688627168400e+00 3.280278149936054710e+00 1.790908801425719332e+01
-7.470421565371941242e+00 -9.776019342048333227e-01 1.821452307275796301e+01
-5.370607288450539585e+00 8.229784654041261138e-01 1.420441126016158506e+01
-1.097989894632934060e+00 -1.456502534362373424e+00 1.767598277890544978e+01
-6.886690870980986645e+00 -2.169717623355013059e-01 1.509482717575278343e+01
-4.669361472036046123e+00 3.248452989751410502e+00 1.863249272495615116e+01
-4.484199554871759474e+00 3.254419676702409170e+00 1.861500314010799428e+01
-6.915948658731196907e+00 2.063605278574426549e+00 1.808482425969199170e+01
-5.512556549825792018e+00 -1.580300098419604282e+00 1.709805292714339231e+01
-2.802177532082282596e+00 -2.909039356810099175e+00 1.806479573854227993e+01
-7.220311488006547762e+00 -1.977594644956369496e+00 1.838595713134137100e+01
-4.273770068873410821e+00 3.034930003797582820e+00 1.863253211197452686e+01
-3.321773023378546075e+00 4.788326171018814748e+00 1.694918174343988682e+01
-5.205422287668696191e-01 1.961276638532279293e+00 1.667699723142876422e+01
-4.475157404354829893e+00 2.828135492584696209e+00 1.871064490476763353e+01
-4.285298277322940663e+00 2.891694084639231388e+00 1.865981471542980330e+01
-5.117254753751265817e-01 -1.436356968933081291e+00 1.443094435343749637e+01
-4.586303558915913570e+00 -1.350384453529700934e+00 1.883941990832373392e+01
-3.800970363737732338e+00 2.795029169395461199e+00 1.338560147626547092e+01
-6.529600802575802554e+00 -1.060361457443609989e+00 1.639803348905130065e+01
-4.643293730970897926e+00 -1.124854536670116367e+00 1.886818037155389050e+01
-2.565481162820987038e+00 -4.027509019454772465e-01 1.472057815938412517e+01
-7.808808405099070704e+00 5.476047834015733418e-02 1.682563824145447029e+01
-3.609600999421819445e+00 -1.511077113324504229e+00 1.854865639876449990e+01
-1.538552224286655390e+00 -1.893142170953727721e+00 1.775708081446087050e+01
-1.010678780448976966e+00 -2.506744212747212153e+00 1.756236511076097173e+01
-2.810185860446427153e+00 1.157406260135649845e+00 1.238114054629862437e+01
-2.461053353204505356e+00 -3.155879293732228863e+00 1.663310483081411206e+01
-5.632293726380664722e+00 6.621766642584510087e-01 1.915167389566865097e+01
-2.068422057458060070e+00 -3.218142660228371366e+00 1.664480595135976415e+01
-2.447118638670252366e+00 -2.266201051520589704e+00 1.624298816207883078e+01
-7.053642096487731550e+00 1.218711523657771689e+00 1.474533327150728468e+01
-2.459773495074819571e-01 -2.443829053781597427e+00 1.700331130470125629e+01
-2.273778534860758871e+00 -1.433089441151475629e+00 1.569545818953000094e+01
-3.016299106200849067e+00 9.715164501111240858e-01 1.239270455034406382e+01
-3.184712185013512276e+00 1.880550501352955817e-01 1.373416318639952749e+01
-2.005421167116301362e+00 3.282455663125882328e+00 1.602686788281557995e+01
-6.399736947366393203e+00 -1.755126598978040242e+00 1.914193194263108211e+01
-5.406038149437510043e+00 -5.318631798126738364e-01 1.914219322336726492e+01
-5.264361688684903839e+00 -4.960584342666176649e-01 1.910034874674565231e+01
-1.373800341412948711e+00 2.531737257302562494e+00 1.594070364199112078e+01
-4.605598529621076409e+00 -2.908952212432588613e+00 1.855885157970502064e+01
-4.785588309606383817e+00 8.506359586970178022e-01 1.434615388962061644e+01
-2.449593070849821252e+00 -6.695304797128539542e-01 1.382975467874116760e+01
-3.012724584738963873e+00 -1.718052280203406390e+00 1.835090253542060168e+01
-2.080833344498604021e+00 3.782318888501325471e+00 1.775175168069223020e+01
-2.515470055102927205e+00 4.089864237030140792e+00 1.783872421277239084e+01
-2.370709379926892346e+00 -3.182734008707565732e+00 1.666226331571463248e+01
-4.870643690824447702e+00 1.477511050018983862e+00 1.895387518427139639e+01
-6.414317667838850490e+00 -9.888320036370518151e-01 1.640351950601147024e+01
-3.763338007321828993e+00 3.974780762183928395e+00 1.537109034686567099e+01
-2.853562019592148502e+00 -7.029253153634071882e-01 1.825150269959375038e+01
-2.328395660051703953e+00 3.945059938968416002e+00 1.655656593626227391e+01
1.027867791479376569e-01 -1.601496686102205302e+00 1.716083603047448491e+01
-3.310534700643664729e-01 -2.440166025089603341e+00 1.544512178165176408e+01
-1.677255145948982173e+00 -2.670050528283366198e+00 1.522130944242292827e+01
-2.895773661469203120e-02 9.382551045098386222e-01 1.644017020757636516e+01
-3.285558580534744699e+00 3.831459438159890762e+00 1.552794624342755014e+01
-4.483342492084136488e+00 3.881835962496424486e+00 1.839612283668510173e+01
-3.712418585273117522e+00 6.362706669374271762e-01 1.320177415860862169e+01
-5.658933624669297835e+00 2.590528405951126434e+00 1.437304058049829081e+01
-2.753238161073336965e+00 -2.305808610766600264e+00 1.641481473987673212e+01
-1.965553164608313974e+00 -2.095012315159985317e+00 1.561276941754364600e+01
-4.180447363135644245e+00 7.890557612652210340e-01 1.356488091824071063e+01
-3.419667328390379790e+00 3.091442588861776475e+00 1.421937928155902853e+01
-7.196259014338809656e+00 2.291960780931538988e+00 1.714820951675766025e+01
-1.752742711639242890e+00 9.990838268996981020e-01 1.331032681802047790e+01
-7.501853896623591034e+00 1.859958037084763482e+00 1.626653100445063416e+01
-5.243482522585713568e+00 -1.519307265604440627e+00 1.702709407092681460e+01
-4.023329249677395580e+00 -2.533079493097899704e+00 1.859021246319939280e+01
-4.068793971665440878e+00 -2.335835153312245893e+00 1.863347859620899527e+01
-3.983955711300581015e+00 -2.001240677828305614e+00 1.678634992150627170e+01
-5.754551787566593468e+00 3.931854477250770863e+00 1.662429238779424168e+01
3.078745686091099998e-02 -1.197544954338079393e+00 1.526872671293070738e+01
-3.712138911648084960e+00 2.492591735422314603e+00 1.299471562064150731e+01
-5.983509804869862947e+00 -2.920630304621086193e+00 1.814817989404888010e+01
-6.357866351273418815e+00 -2.854224227143471904e+00 1.823775290357264822e+01
-3.004426896802927072e+00 -3.137004428027896363e+00 1.708524243904632556e+01
-6.409654510694541507e+00 -2.796343991947757956e+00 1.814286782773897500e+01
-2.672875005109015767e+00 3.924899224406094511e+00 1.791507841850541638e+01
-7.587800192253092213e+00 -1.480819174094597235e-01 1.771575201962356516e+01
-4.954700892951338087e-01 -1.033456156560960348e+00 1.762428577515985495e+01
-4.098672399058174598e+00 -1.296630404129919256e+00 1.657755621183983408e+01
-7.218851075439735254e+00 1.249019514244749995e+00 1.804622777418160950e+01
-4.423050891910859761e+00 2.818327006263449341e+00 1.339255815710921382e+01
-4.648017191549918548e-01 -4.831576677449769264e-01 1.764053443429234846e+01
-1.580803606006335738e+00 -2.739100125978549460e+00 1.517721612575769541e+01
-6.435976812626423182e+00 -1.537762786713625207e+00 1.917399165969627006e+01
-9.086076788262298365e-02 -1.658902864470710448e+00 1.540163441319407411e+01
-2.843193245802259739e+00 -8.976364758144483869e-02 1.820725615797572061e+01
-6.352618070656522953e+00 -1.944300995939426624e+00 1.911055001811691767e+01
-4.155455532127849683e-02 8.116282995516663767e-01 1.626439073744564467e+01
-1.050576486964425182e+00 -6.575942864973451929e-01 1.770866227567102413e+01
-4.679567849808567992e-01 1.700206502960546762e-01 1.762889357809272894e+01
-5.693710163514887235e+00 3.264548188655263417e+00 1.842002913608504144e+01
-5.308698701979134071e+00 3.477836405594553426e+00 1.845197362138172537e+01
-6.604928447947888692e+00 1.499850286486895001e+00 1.422873641147606349e+01
-3.582603363208763714e+00 -2.526859193948569615e+00 1.846705515255218444e+01
-2.221597330950669136e+00 -2.423856008557458086e+00 1.614229298126529244e+01
-3.358223425732989043e+00 3.778586259943087278e+00 1.538634377591970548e+01
-7.575837658380502049e+00 1.093354648392348416e+00 1.546297408226954673e+01
-7.094237458893912773e+00 -1.536540955563998168e+00 1.870671849883991911e+01
-6.855624117157312014e+00 -1.192592297323992412e+00 1.632382910674093779e+01
-2.666938238906974235e+00 4.172263308604765797e+00 1.652746122914540905e+01
-3.224997389668122327e+00 -1.703308125004153961e+00 1.842794647033427680e+01
-3.784923173616069114e+00 7.022871122063900629e-01 1.311956403215329203e+01
-1.251950889381024279e+00 -2.972067854206746240e+00 1.530462727522974120e+01
-1.992668863905362908e+00 7.634723775433192028e-01 1.270185313992063669e+01
-2.080627370094146222e+00 -2.084562861868816785e+00 1.585284220710767045e+01
-3.252447966515163102e+00 -2.086341209941872776e+00 1.842187843175437223e+01
-5.171145867411553354e+00 1.725823758103964156e+00 1.246137935194313684e+01
-6.275809913454178712e+00 3.029416213379900746e+00 1.821361455431636500e+01
-5.521298158381678256e+00 3.909525525932423751e+00 1.811125288271152556e+01
-5.639939492784686870e-01 1.356505317330242821e+00 1.759662060006649398e+01
-2.158004238420629939e+00 -1.875847024752259173e+00 1.584686699688296585e+01
-3.790927886725223850e+00 -7.331321003167352579e-01 1.857779746958212996e+01
-7.020455838927112779e+00 -2.116121879690144869e+00 1.764586508078040339e+01
-4.642005566377108039e+00 1.670856605289843699e+00 1.887704952090405897e+01
-2.007497828133810280e+00 -2.426826752890979932e+00 1.592210111460539679e+01
-3.222146844121956732e+00 -2.357488673821429792e+00 1.837770432999060688e+01
-6.186345430009690283e+00 3.665981574203043714e+00 1.769419773106835692e+01
-7.527894900044052484e+00 1.300401636198795785e+00 1.544688624224494333e+01
-4.565553949667658706e+00 9.643585035650656945e-01 1.357055197463122909e+01
-2.074609034300679333e+00 1.124798737503846180e+00 1.297599156660510999e+01
-7.475329950004904411e+00 8.640926722960151629e-01 1.528969935197800112e+01
-1.612945089859368686e+00 1.935302220024300635e+00 1.475593100381134093e+01
-1.870257408366818419e+00 -2.048556511452109596e+00 1.449514656604232954e+01
-7.444080055280084984e+00 1.044551060123074304e+00 1.766449700676811574e+01
-3.493269766753716588e-01 -2.600589786705105766e+00 1.562316149453219793e+01
-2.021988415492405711e+00 -1.812265677183020784e+00 1.551486495190086856e+01
-6.643985909604213091e+00 1.780347910691714386e+00 1.462688267708642087e+01
-2.121829889934236046e+00 2.739070820601341882e+00 1.786766235748422105e+01
-1.872142862884019987e+00 -3.099843510454042939e+00 1.606476733179621874e+01
-1.854600366898722541e+00 9.203876832921669138e-01 1.786988748091584966e+01
-2.018592633590016838e+00 -1.447926823200919255e+00 1.401564043593979392e+01
-5.751280012673190001e+00 1.513863703836888508e+00 1.305044464263153969e+01
-7.540226824427013419e+00 8.506917086051192234e-01 1.745381695337504624e+01
-1.594007406628437984e+00 2.173420612212208614e+00 1.511104338835526306e+01
-7.628050878881301067e+00 8.519111642702494880e-01 1.704862499866787573e+01
-3.735893288651465749e+00 6.024622360168635504e-01 1.335300563734782031e+01
-2.722467071818644335e+00 3.394930676311769258e+00 1.535880204493147261e+01
-3.148802355237803940e+00 -1.316254943401870658e+00 1.839363293630090368e+01
-4.881747832578123614e+00 -7.376802802248201285e-01 1.653639090067638762e+01
-8.756354448305813110e-01 1.330935604538770356e+00 1.769104451087655860e+01
-2.363367287189159338e+00 -1.255540036377688740e+00 1.565705322797024479e+01
-5.280812213854897408e+00 -1.071439957176858027e+00 1.680088583320048201e+01
-6.806641423583422501e+00 -1.540431049302890543e+00 1.897994088455980943e+01
-3.172230304004679979e+00 5.048582374207552625e+00 1.774122975217150611e+01
-2.128862256798273123e+00 1.246711898945676911e+00 1.304719807361077955e+01
-2.082164182701963462e+00 1.513601233385215128e+00 1.791389689356828541e+01
-4.230426945269327277e+00 -3.107677677009990092e+00 1.772689879144608938e+01
-7.097840699224353678e+00 1.606522688157338674e+00 1.805771023110865769e+01
-1.565747229723937650e+00 1.614289460573086268e-02 1.314141891850110966e+01
-5.150363652923556579e+00 4.039910494528813345e+00 1.608678705419971067e+01
-2.739609808010669667e+00 -9.150091662651501645e-01 1.568157399581640021e+01
-7.739058534579413617e+00 -1.159874564402674224e+00 1.639683877144308610e+01
-4.257095278621674694e+00 1.272373657619515708e+00 1.872527359515929390e+01
-5.694266204859273373e+00 3.635699505133425991e+00 1.819971777431546656e+01
-1.038733129883891548e+00 2.726058110822133340e+00 1.760412026425026966e+01
-5.413559216113688066e+00 1.265326700334320709e+00 1.313541966250758719e+01
-1.251902673854549564e+00 1.110671704378320135e-01 1.775754485549725814e+01
-5.778799140402800738e+00 -2.635006916482823147e+00 1.765475268616282989e+01
-3.243954424226302091e+00 2.155701800145098712e+00 1.299597898703483878e+01
-3.759614935953289105e+00 2.739076816894527866e-01 1.494078192234483993e+01
-2.973960629132287092e+00 2.285610872676501482e-01 1.317920338826858995e+01
-1.725241065102797400e+00 1.594086251672741650e+00 1.411063957764941534e+01
-1.893642848370598930e+00 -1.409942036463170734e+00 1.389762515940056176e+01
-4.386212328223506596e-01 -6.787946018488221211e-01 1.763038102798450524e+01
-1.786040823912369513e+00 -2.123161960079782418e+00 1.445712106929978091e+01
-6.555171588717264797e+00 -5.630235035094008356e-02 1.500517412125234529e+01
-1.733245920825243758e+00 -2.418320806600423367e+00 1.486112610890176455e+01
-3.732129505270859848e+00 5.096287708125847971e+00 1.726718420123073372e+01
-5.054024972100608970e+00 3.057712645201706714e+00 1.868532853190022536e+01
-6.014147305691223799e+00 1.859535232975778607e-02 1.921803490811164039e+01
-5.246389059728551629e+00 3.093330607539101162e+00 1.864746799016418777e+01
-7.364369424614814363e+00 1.875123501653837454e+00 1.709692988391167034e+01
-5.817233053899369954e-01 -5.981885786219314216e-01 1.408182554166476308e+01
-5.424216349902238221e+00 1.655433796914654643e+00 1.900638361679894928e+01
-5.266436192899248248e+00 3.234447561680885652e+00 1.858603219632691150e+01
7.051349069317613960e-02 1.160090760819615596e+00 1.691124866525247228e+01
-6.564550329592659494e+00 9.385781482863905234e-01 1.404575482249396146e+01
-6.574610793985395496e+00 7.227370494015096236e-01 1.422939356758464413e+01
-1.132065117888468198e+00 7.663703738003444510e-01 1.409075074906531455e+01
-6.839837955315572593e+00 -1.961974043366166764e+00 1.885509957112115842e+01
-4.263614198609674055e+00 -1.242748300250895443e+00 1.661377865464267956e+01
1.540745073727749492e-01 -8.560485567356563852e-01 1.624438075921782598e+01
-3.829729003324350511e+00 -3.168014237634179331e+00 1.787956667200808170e+01
-4.216283357369745133e+00 -3.154569155956814086e+00 1.814681509513946622e+01
-3.016877568403319554e+00 -8.149807145315954848e-01 1.579397982493927088e+01
-4.440985541598251984e+00 -1.867359880841955366e+00 1.693692734416652712e+01
-4.898362881093050625e+00 2.698751970843728643e+00 1.878403438618872912e+01
-4.364103625843331891e+00 6.335288330794213163e-01 1.475077524309870824e+01
-6.242439521390860335e+00 -2.581288696592725973e+00 1.776582643026601716e+01
-4.950335532812601080e+00 3.272507730170309603e+00 1.466163008383664135e+01
-1.844819115084362027e+00 -8.888737211609976097e-01 1.789140482748505434e+01
-5.253529168046863873e+00 2.252136214995143604e+00 1.888421538212809025e+01
-4.565863054834179202e+00 7.573844596548530150e-01 1.459275050976689414e+01
-7.378229598800310818e+00 -1.227130464745156857e+00 1.610442484679639108e+01
-7.601727647085189332e+00 1.200561048032231071e+00 1.681129874421484516e+01
-6.338728922533229060e+00 3.238769850997464506e+00 1.627883700027827274e+01
-2.726135229699242934e+00 -1.889054088762072592e+00 1.627012240818663003e+01
-4.369188772772781171e+00 7.312930135832377276e-01 1.439393474004993578e+01
-6.814403797432718513e+00 2.620565158640879133e+00 1.782725704151089730e+01
-7.716154090528791087e+00 1.064758582681898602e+00 1.584023432987059010e+01
-1.762076394870210949e+00 -2.603647186170651717e-01 1.321251893177706194e+01
-4.651473202399630580e+00 2.645032862310134902e+00 1.877385176606265560e+01
-2.523497805541203842e+00 4.659320135912576433e+00 1.770633187154260213e+01
-6.848923220700796399e+00 6.064998897650771825e-01 1.453949367228175760e+01
-1.494458287674313546e+00 5.198299516123945363e-01 1.780321366754807855e+01
-5.097542640222647137e+00 -2.857795906541996889e+00 1.866107505276877987e+01
-5.387445471848240075e+00 1.329841808569979023e+00 1.300349776606016405e+01
-2.660654488935694673e+00 3.522553070950424026e+00 1.796383901990565590e+01
-4.156351882095647099e+00 -1.931541753360241920e+00 1.684268772522272428e+01
-2.643394364070739577e+00 -4.629307425938277154e-01 1.815892508589335819e+01
-1.654776758036079709e+00 -2.607514745646684506e+00 1.506148108282468456e+01
-4.468792716939706366e+00 2.471680127358152124e+00 1.876249256055027814e+01
-1.487923870327126252e+00 -2.839555788796550573e+00 1.525017601072937623e+01
-2.921402819677686225e+00 -5.194153403547091541e-03 1.356052220538107633e+01
-1.945738669400820298e+00 8.481397523309556208e-01 1.285564390008092062e+01
-5.251033805045651759e-01 2.138727336056025496e+00 1.689575085838061597e+01
-2.430941994950047036e+00 -3.226054285463908489e+00 1.730329301570673550e+01
-3.170789835240133581e+00 3.697227390039272699e+00 1.540518314809889944e+01
8.649157840023646848e-02 -1.233769342751652065e+00 1.542681101820002709e+01
-7.449205785274499725e+00 1.489918663298352097e+00 1.724405323450401539e+01
-6.385732773315585753e+00 -2.138151072968329292e+00 1.748346635440542940e+01
-2.444513433273810321e+00 -1.848792294265603875e+00 1.609200250338125926e+01
-4.700123718035496445e+00 -1.097820153949542465e+00 1.668935852134708142e+01
-4.471920981161016329e+00 -9.262033320734253117e-01 1.652426001559754098e+01
-4.262997239756288081e+00 1.099654446421930221e+00 1.273146631923830085e+01
-6.985242528537120243e+00 -1.582339604431075131e+00 1.880930392407118745e+01
-6.898781359834703863e+00 -1.146205463068972197e+00 1.620652073229322099e+01
-6.342616179548017818e+00 1.182989039055231562e+00 1.366002920494671002e+01
-6.375763280830379465e+00 9.786096587085881815e-01 1.895202142778290266e+01
9.734860881958196099e-02 1.137748400051668884e+00 1.707345644998996192e+01
-7.290361808424652423e+00 8.555003432561619769e-01 1.810264748698905635e+01
-5.001125031738201443e+00 9.326270525993970439e-01 1.400366062422272506e+01
-3.928720471036084572e+00 3.070245289217659934e+00 1.852255245682437135e+01
-4.644977381945562200e+00 -2.705087618540193528e+00 1.726577165362769506e+01
-7.327413071142705903e+00 6.408716291662586162e-01 1.811760099930878454e+01
-7.287878081245338535e+00 4.749193210150428057e-01 1.823955968169697428e+01
-4.615471893181755658e-01 -1.226561777517074070e+00 1.443095716568510056e+01
-1.863399865490874996e+00 -1.167431154959811312e+00 1.372213962603586168e+01
-7.561798090167869191e+00 -1.535257067772837658e+00 1.761144992453716895e+01
-7.509454541813739503e+00 2.393927774242431694e-01 1.786394382441405781e+01
-4.363970505525118782e+00 4.579332587720200132e-01 1.518054014735481871e+01
-3.022062776400202821e+00 -3.077902380222233614e+00 1.687662776263318420e+01
-2.465372921435326492e-01 -7.889513881919383298e-01 1.459471195130569754e+01
-1.139208232760515971e+00 2.548075449006002025e+00 1.632648254892620798e+01
-6.535551400451359294e-01 -6.615331167631870457e-01 1.766442198522027951e+01
-5.894938863837994036e-01 5.841003706552657659e-01 1.490429641626927548e+01
-7.270603609749432650e+00 -1.936756234334782611e+00 1.759286874057996641e+01
-2.461531288773074477e-01 -1.833153887710698537e+00 1.741301154835349507e+01
-1.795231165942143381e+00 1.384659647941438809e+00 1.371735616085523901e+01
-4.312341652408836268e+00 -4.969404774387137236e-01 1.620761579236687311e+01
-3.852773368568318091e+00 2.609608685497782909e-01 1.855950437856883184e+01
-2.077055617345646255e+00 1.921081943710564843e+00 1.790392943570591910e+01
-2.604024882306275046e+00 2.173640660899426535e+00 1.374605636449015833e+01
-6.136343875174091744e-01 -1.553366008626468897e+00 1.432153221306406721e+01
-5.708374883028739522e-01 -1.216507460406520025e+00 1.429027766447585890e+01
-2.437031749741061404e+00 -6.783257321221410896e-01 1.809666018033771451e+01
-6.292683304454812721e+00 -1.494953422061460646e+00 1.704752272977904681e+01
-6.401705804149948609e-01 2.588818655034249350e+00 1.729267948849864212e+01
-3.812977133339155777e+00 -2.126610401194945599e+00 1.858794673503224715e+01
-3.970760456365862723e-02 1.358216969714407529e+00 1.684237047097369810e+01
-5.410693135921163410e+00 -1.148465398907989599e+00 1.910770878679610973e+01
-3.000430980490739419e+00 4.640568527692201961e+00 1.688716112326865471e+01
-2.154879734033051886e+00 -6.316575527375619670e-01 1.350639919595481331e+01
-2.938432718571854618e+00 5.229536576560710692e+00 1.755085227406951276e+01
-5.224781810786305769e+00 1.262914116132025644e+00 1.904461755824446811e+01
-1.438584641925326313e+00 -3.215152967847525467e+00 1.739610034429982477e+01
-4.295382062047615079e+00 3.869430523069323780e+00 1.839935139244241924e+01
-3.057986675723531000e+00 2.116392046469231403e+00 1.822547944315669355e+01
-5.059757511398675689e+00 -2.761316832634225449e+00 1.750641838498660263e+01
-1.341595975391976170e+00 -2.214960380981395360e+00 1.429070318001895146e+01
-7.516465316765892801e+00 -1.578627660555263379e+00 1.783068062137714094e+01
-4.638830924294159885e+00 4.385349204656787236e+00 1.815498292631586708e+01
-3.433751126616478189e+00 2.715584079600926071e+00 1.360439694293336998e+01
-7.502528814342486640e+00 1.263719909776904071e+00 1.725740897183988665e+01
-1.045163685184368196e+00 5.350572818895202865e-01 1.773671396810969014e+01
-2.242773903762119048e+00 -1.210840953262197317e+00 1.469064910068512830e+01
-5.406481198822716827e+00 2.022774232639233283e+00 1.892950696032131219e+01
-4.742969404934903821e+00 4.888319220450354052e+00 1.727403189387563742e+01
-5.854192542050416392e+00 4.024982965284697123e+00 1.691582616190143540e+01
-4.391159851086284149e+00 -2.545357132763600649e+00 1.867180804046856224e+01
-7.666236850195631725e+00 8.274112288982563568e-01 1.690657239938339984e+01
-2.105602326909687072e+00 -1.842996635271467287e+00 1.798352515004065566e+01
-4.241714761088614338e+00 8.675691528250807361e-01 1.334164851356159431e+01
-2.705511985415410159e+00 4.324978920080918776e+00 1.785429080545176816e+01
-4.968264567632200368e+00 1.197455112052150383e+00 1.322486492684148374e+01
-6.333674414468534408e+00 -6.383251758301158318e-01 1.595877649847628987e+01
-7.665637248084536282e+00 -1.369284684835024635e+00 1.682158253785954116e+01
-3.465864317751686130e+00 2.487997251337629834e+00 1.837761690981163554e+01
-1.709609930199673222e+00 4.127319754367709592e+00 1.753237805084423684e+01
-1.963295486762810294e+00 2.753971669527896182e+00 1.535363259093415422e+01
-1.764094612668480000e+00 -3.982052173561562713e-01 1.327968290943194063e+01
-6.617986628405514438e-03 7.960638067303478227e-01 1.636597477511602960e+01
-2.100782504573872167e+00 -7.563332813693814938e-01 1.356948503372087345e+01
-3.448987228899282886e+00 5.083840084573142404e-01 1.315755176588076836e+01
-3.580207198253085199e+00 5.926395600562471833e-01 1.312393057035947663e+01
-8.387637022738417825e-01 5.654179785400320624e-01 1.770418425398083428e+01
-1.029493292562020379e+00 -1.666688436151694042e+00 1.765445092559230034e+01
-3.451341062983259267e+00 1.074890444826002156e+00 1.839013347899420125e+01
-3.939763253445312419e+00 6.072208799163582027e-01 1.398003809069869163e+01
-5.496615101052280572e+00 4.032716322449171109e+00 1.648385837386483388e+01
-1.111896359243637500e+00 -2.410707076990258546e+00 1.448274511249489649e+01
-5.635194522616611579e+00 1.076327804426999268e+00 1.910597333984938473e+01
-6.997495663545628908e+00 4.979767807680209879e-01 1.479862859980986656e+01
-4.454928651751678181e+00 -1.293668003945457112e+00 1.670689217611978705e+01
-5.781231410869203557e+00 5.965046138465353032e-01 1.463718976756188539e+01
-5.788769150991395662e+00 1.218872167701751330e+00 1.327305838808432270e+01
-6.727047451506573239e+00 7.925858265613580089e-01 1.429144089984535526e+01
-1.735676231892192556e+00 -2.025392501201787709e+00 1.428629456108314599e+01
-7.858969522066324487e+00 8.347684460914769899e-02 1.651085321642380421e+01
-4.981108992829005544e+00 8.060204027927619919e-01 1.444579242933725283e+01
-7.228607509488107929e+00 2.612774278245347595e-02 1.845275888764630423e+01
-7.189826972338961397e+00 -1.356053318115661099e+00 1.862622406122337537e+01
-2.242858314069171577e+00 6.797131103376484740e-01 1.261763213970874631e+01
-7.411739137424104840e+00 8.082816243659959321e-01 1.788695071772674083e+01
-3.057378038811877197e+00 -2.938626469131063179e-01 1.829805347289588724e+01
-3.983715382996145582e+00 3.701885585026303271e+00 1.482344454146915780e+01
-6.048333196364538367e+00 3.011189142447135314e+00 1.838795383401266292e+01
-6.951283332987957309e+00 1.911896362316781062e+00 1.813239828308174850e+01
-4.311482116957126465e+00 4.116593970017618176e+00 1.830608416820899720e+01
-4.069066976383570733e+00 4.123279113686679764e+00 1.829470097553155483e+01
-4.638030580090481081e+00 1.550214891791890537e+00 1.215669775961331567e+01
-7.711885729889079721e-01 1.367645283843528237e+00 1.547450228350211887e+01
-5.613352273344742294e+00 1.655067060153229797e+00 1.899482388630689655e+01
-4.810583537968831536e+00 1.492112710083990823e+00 1.237856556089543147e+01
-3.641034957931529537e+00 -1.727147075164770840e+00 1.855858406320029985e+01
-8.315285817580471139e-01 -9.522885394666837922e-01 1.392979687504218589e+01
-4.059394074993674550e+00 3.096837285044476307e+00 1.856364225539608270e+01
-5.784608355571506877e+00 8.563045975297142176e-01 1.401455453204448531e+01
-2.990723197639544750e+00 -2.303815476188733058e+00 1.830141582460957750e+01
-3.473806149025463696e+00 3.879651303231244075e+00 1.820924039385914739e+01
-6.434586061709318905e+00 3.252626912360250255e+00 1.782104609988825672e+01
-6.507388252456064670e+00 3.255816569152038209e+00 1.767582429041664227e+01
-5.390603281795796953e+00 -9.666339577413810558e-01 1.911460169835118705e+01
-5.212633847046554081e+00 -1.321340103075958616e+00 1.903752885498606418e+01
-3.724813986483519912e+00 -1.330555765062936491e+00 1.644984185875558325e+01
-1.933572665505020050e+00 2.410437901179028675e+00 1.491601256778503881e+01
-4.883285637617822417e+00 3.061023399840031356e+00 1.869079224808544382e+01
-3.474809036350837932e+00 4.906209802289551725e+00 1.787448334998747157e+01
-7.655383025560892563e+00 1.292913929700846509e+00 1.627335867479952469e+01
-1.746758770155117046e+00 -2.282043293672191719e+00 1.465279747610625094e+01
-7.834025985509941670e+00 -8.507576690686798893e-01 1.608232922094352091e+01
1.371099498657997184e-01 -6.421233439780690277e-01 1.601795572477553975e+01
-6.254237252235554045e+00 1.641275708324046789e+00 1.881978964375790042e+01
-7.242409528288470177e+00 -2.116380032738477190e+00 1.798529512177213974e+01
-5.063962670455062209e+00 -1.783480332392199497e+00 1.710094052384020102e+01
-2.358515690107963358e+00 4.298297326977341015e+00 1.698844765767905329e+01
-7.688089408578083095e+00 -5.423204886681299852e-01 1.581450665560757329e+01
-7.724203533027265145e+00 -3.449108036737926208e-01 1.581448753844733091e+01
-7.651515724830924015e+00 1.091689663744774830e+00 1.666436925320573437e+01
-7.380059871366330349e+00 7.667787120308213744e-01 1.797193187647626900e+01
-6.191639478738500735e+00 1.321735988583175647e+00 1.344452464053549079e+01
-4.079770921099076908e+00 3.680467361786770919e+00 1.843541144606646753e+01
-3.806422675220696217e+00 3.939127411221964525e+00 1.830555652177052650e+01
-4.609834414850848106e+00 7.008788081401738923e-01 1.886729100421894856e+01
-4.061786364314617259e+00 3.872165128782410370e+00 1.837482877324614350e+01
-6.752346277354184245e-01 2.019458456568529403e+00 1.644995744196427268e+01
-1.553712422538185978e-01 -2.380674951814136797e+00 1.618345505475131318e+01
-4.153389845672443292e-01 -4.466794937681831668e-01 1.430821776609825946e+01
-1.677531002353468192e+00 2.238974595596047390e+00 1.506894762160443690e+01
-3.052213955091144459e+00 1.442458677077851706e-02 1.456835373291269775e+01
-7.455223657112153290e-02 -2.227705772595323541e+00 1.643642461664340004e+01
-6.331708790717872404e+00 -2.767364682321633018e-01 1.542485351000298976e+01
