-2.177372100401786525e+00 -2.645969407579727761e+00 1.743240035791102116e+01
-2.222715759851429773e+00 -2.251572489779532393e+00 1.747408578238957233e+01
-2.782676694485504587e+00 2.106928854631135994e+00 1.101721947818027303e+01
-5.919734740182212462e+00 4.051401350476541374e+00 1.599017272281553659e+01
-2.020672031279451275e+00 1.786213769801374474e+00 1.733667185711135517e+01
-1.848031039683793120e+00 1.983678116955042592e+00 1.728346386767466925e+01
-6.545667313428833012e+00 1.715071946273667214e+00 1.235200598939360361e+01
-1.825838603239997360e+00 1.363025916081402000e+00 1.741370029874764214e+01
-6.408740930678959558e+00 3.534015103852623074e+00 1.604688257691164921e+01
-3.282258161856019374e+00 1.129182772615866748e+00 1.090078134091631057e+01
-7.522264004716578967e+00 -5.702790383143140573e+00 1.588570565591725625e+01
-5.897648929285846719e+00 3.208944267708519149e+00 1.422570245299512948e+01
-1.822887582504906678e+00 3.670753025917295465e-01 1.756678269865057018e+01
-1.815147227512765360e+00 -2.442055989468584265e+00 1.745430621629385826e+01
-2.008316955892175848e+00 1.053601583624768745e+00 1.747139615064652673e+01
-7.929649908657712132e+00 1.457369182023637411e+00 1.475541303208234467e+01
-2.264610269657616470e+00 1.171325177175760013e+00 1.745015019867456374e+01
-2.041031424835760610e+00 1.362845313893977561e+00 1.741750869470664753e+01
3.994112715894859722e-01 -3.703108605237689588e+00 1.432473577617293614e+01
4.542781501870321037e-01 -1.080146822511432125e+00 1.421756922827017888e+01
-2.459596265456327036e+00 4.465117840691195994e+00 1.630513766008898813e+01
-3.114411410940715053e-01 -4.844982007605693752e+00 1.415094785079784145e+01
-8.391310907392110607e+00 -1.668665108252571638e-01 1.522782474741085679e+01
-8.558157778992617537e+00 -3.371310857602899946e-01 1.469364296326320840e+01
-8.469932156512067323e+00 -3.733498873185612799e-01 1.507714949424222795e+01
-8.393119603470662327e+00 3.291884662915132709e-01 1.451857666757864251e+01
-8.219129540320059490e+00 8.132805161690219720e-01 1.495351267308010534e+01
-8.351221267690336347e+00 2.466491495004657364e-01 1.494308156525040943e+01
-8.301858706790767428e+00 6.545848346526301764e-01 1.433242849009926800e+01
-8.254438020095797413e+00 8.201206830824829819e-01 1.413013398951333244e+01
-7.471145246630399583e+00 1.251214915195018484e+00 1.292339938804367705e+01
-8.296849097391191918e+00 6.974827492168726994e-01 1.409703150233593050e+01
-8.201980924364123737e+00 9.372692866563381298e-01 1.473254130341426560e+01
-8.056674409351336053e+00 6.022909009267833902e-01 1.277948818695544020e+01
-8.269927100241165618e+00 6.446372773831714476e-01 1.471826333795392117e+01
-8.098003743028161949e+00 1.101235356256992759e+00 1.411947580434289762e+01
2.866444569289527955e-01 -1.244279990051534890e+00 1.320709324477455482e+01
-7.326789828709149077e+00 1.165935891912757594e+00 1.252683463248246909e+01
-3.169617882471707837e+00 -2.625373355325088642e+00 1.748098029366119022e+01
-7.213739219996600838e+00 1.339935659591253270e+00 1.268904891989866002e+01
-7.272478873145754363e+00 2.393060525460611210e+00 1.516800696832930129e+01
-6.563060066857120844e+00 3.288524432172409195e+00 1.552554321023635708e+01
3.946152582738916559e-01 -4.548237695327522090e+00 1.528830844908005560e+01
4.177672607599364207e-01 -3.933268391948679721e+00 1.489838856727347860e+01
4.355374755756219463e-01 -3.660409283462054741e+00 1.470708414981727685e+01
4.160422289505408822e-01 -3.754047748397111750e+00 1.470068384883806800e+01
5.240740272867746574e-01 -2.962316585612447373e+00 1.591206425608871200e+01
4.885385786393365848e-01 -3.355209584112506693e+00 1.590931611566154658e+01
4.222783928504361128e-01 -3.251617810237080075e+00 1.415155284361505750e+01
4.375316656142611560e-01 -3.285872414016464127e+00 1.436806061153376390e+01
5.732355708762695290e-01 -1.722534698099002615e+00 1.577578751127034451e+01
6.002010356143694381e-01 -9.196642888194553889e-01 1.561364671679563543e+01
6.093896870717692149e-01 -7.344960342820653354e-01 1.564890634489177046e+01
-5.647946844807758993e+00 3.031539736022970555e+00 1.364245523238763980e+01
5.467729677550503542e-01 -1.147793375552176531e+00 1.502785436333177671e+01
-1.122933040398450544e+00 1.061253264484359526e+00 1.191080362257076075e+01
4.812938635935121168e-01 -1.099383154883176061e+00 1.441215399110820528e+01
6.206650348805091699e-01 -2.569120227685376956e-01 1.517472678074581438e+01
6.125923452495463106e-01 -3.600549282359056247e-01 1.524251704286858455e+01
4.672800216239401117e-01 1.183670419722691602e-01 1.448551931905689116e+01
3.043418910154729318e-01 1.071274230349031242e+00 1.509509111010454063e+01
4.226621258727760733e-01 -6.872129558004343997e-01 1.403361958610139482e+01
-5.370227061586552164e-02 1.724966022598110493e+00 1.549658700756517504e+01
-5.800090982278641727e-01 2.563768978483725203e+00 1.582867796369508540e+01
-4.155046344909061884e-01 2.100962087372113096e+00 1.532773003081398855e+01
-5.216022540486741077e-01 2.060678844954827671e+00 1.498668046414540811e+01
-6.366893411947196491e-01 1.733701954058465722e+00 1.412689944448580803e+01
-1.348838884318896092e+00 1.418830651883129290e+00 1.196577444458061024e+01
-1.296439191195630558e+00 1.453398561245320186e+00 1.212454992873202997e+01
-6.360510190367955730e+00 2.725697976768664876e+00 1.394710450745122898e+01
-6.154691560613436252e+00 3.442729490655730196e+00 1.497254298463225552e+01
-6.087830726345805132e+00 3.607681407990548816e+00 1.521717438865501038e+01
-5.958429940133024516e+00 3.681362731533678545e+00 1.516979552953064569e+01
-6.660026371930556355e-01 2.332671244828727897e+00 1.514977971329955153e+01
-5.615344543739277938e+00 4.137340298273994854e+00 1.565383100224236301e+01
-5.847965365793857728e+00 3.786346422852517879e+00 1.522589914866595251e+01
-6.066070181684695584e+00 2.840913140131084536e+00 1.374287848607603735e+01
-5.599795000938746270e+00 2.245804469703999828e+00 1.189810048707748535e+01
4.739852131734785257e-01 -3.312087827407594887e+00 1.512267079071951770e+01
-4.603403976317226309e+00 2.153582461276953186e+00 1.094656333388838476e+01
-4.800395779645134198e+00 2.235499418925434689e+00 1.130343570159860889e+01
-5.500192869776416416e+00 3.983979539930985414e+00 1.523484932798776725e+01
-5.645123287428470249e+00 3.778646707039821973e+00 1.498801588271345508e+01
-5.324329558476453172e+00 4.052602131505700811e+00 1.519044303442222343e+01
-5.711758392496721015e+00 3.280123259781538181e+00 1.416304940756498354e+01
-2.547993100227914809e+00 2.956661909322419568e+00 1.345637858520283459e+01
-5.544880236621507308e+00 3.713370158095024909e+00 1.477618755899719361e+01
3.897448428921370667e-01 -4.098327958003488369e+00 1.468378989759278852e+01
-5.183832220878491270e+00 2.539679817004232731e+00 1.231942704129647836e+01
-4.963916093048004186e+00 2.499505623044194547e+00 1.209675071255351497e+01
-4.952565148636606907e+00 2.614693342838270151e+00 1.232153045782488476e+01
-5.841602020179186283e+00 3.978244539744097086e+00 1.561273020752262397e+01
-4.024150093158077368e+00 2.210765337245016671e+00 1.106023505738320978e+01
-6.454210027435125507e-01 1.419510946562324571e+00 1.353540134528807926e+01
-3.804743567438070073e+00 2.235445348396774445e+00 1.110027879843529774e+01
-5.157083398864802604e+00 4.114161400191970408e+00 1.515861495783934032e+01
-5.303833246061756768e+00 3.842456374288370835e+00 1.478277801938921954e+01
-3.848058299405074933e+00 2.291327319893268211e+00 1.123108377465537444e+01
-5.114720080473638575e+00 3.901101582456903305e+00 1.473203658594663779e+01
-4.709055035262522892e+00 4.436133186305244003e+00 1.558081649625331266e+01
-4.705889722795859598e+00 3.834270802561040359e+00 1.438280206832810393e+01
4.142937815063038043e-01 -1.694656596569173557e+00 1.402085656367736988e+01
-1.237389771611672629e+00 1.542562865040380427e+00 1.241883761057682989e+01
-1.806168876359615982e+00 1.604605558603201088e+00 1.138859113300654968e+01
-1.934417117554062759e+00 1.711241283465293916e+00 1.134229481213854029e+01
-1.739354470567572974e+00 1.644530935557559248e+00 1.154320691115571407e+01
-1.358258643535136700e+00 1.780149546046305931e+00 1.258656395807254569e+01
-8.310367626885755143e-01 2.890200228038399821e+00 1.582845372502584524e+01
-8.210886665726120359e-01 2.748010078151388758e+00 1.556656230628560422e+01
-1.345134597143610833e+00 3.415869844620252227e+00 1.570016965253875441e+01
-1.815110324366743466e+00 2.342021546491609651e+00 1.262160055021592342e+01
-2.188255793386979065e+00 -3.609317775898592817e+00 1.731685717247906098e+01
-6.591783724529022948e+00 2.377628875329539593e+00 1.368191144321127695e+01
-4.696129907746495746e+00 3.921295462752045768e+00 1.453802832189560235e+01
-6.351113376197554672e+00 2.641427377214394134e+00 1.377846125971061753e+01
-2.158206969075392223e+00 2.439501029552847644e+00 1.244535110009685042e+01
-2.981151681256934527e+00 2.511575632832986127e+00 1.190000431551256810e+01
-3.630071418361433544e+00 2.443758086655391182e+00 1.145355015267281118e+01
-3.974077146276570716e+00 2.737486992196096480e+00 1.209954456822247693e+01
-3.304965319331735429e+00 4.297708066047182918e+00 1.552619750629592232e+01
-2.508130445018880827e+00 2.305177544387068345e+00 1.175550454140608991e+01
-4.523400091457274286e+00 4.205609417083230106e+00 1.504176704434804890e+01
-3.969943265498188101e+00 2.908778426471468670e+00 1.246230432828408397e+01
-4.106365702316082000e+00 4.217654551765894766e+00 1.500290080596201392e+01
-8.568598349569239048e+00 -2.431806704426660914e+00 1.612928224386305942e+01
-4.600654684443114206e+00 2.121161476260763123e+00 1.084636817544661369e+01
-4.139735732779071142e+00 3.883446727238240026e+00 1.435490211151810769e+01
-3.948960973615465164e+00 4.221845046805444035e+00 1.500935078218410723e+01
-3.755223133034693905e+00 4.010255416402102924e+00 1.471499049537389681e+01
-3.540106045861740380e+00 4.063334097984797388e+00 1.493748431757838802e+01
-2.769439922254432584e+00 2.342236397778925561e+00 1.162064785505665299e+01
-3.144775291769356773e+00 2.388633370395592870e+00 1.144384817954124856e+01
-3.224679886779481919e+00 2.306451652003258523e+00 1.118592345213049555e+01
4.651819395148339975e-01 -3.739437475770467589e+00 1.571386817827004734e+01
-7.217329958821677494e+00 9.505432126231545542e-01 1.670522812557152292e+01
-6.919003377825859502e+00 8.373482103185592162e-01 1.696083395194127519e+01
-7.362795178959176567e+00 2.139430709386836771e+00 1.468588734090499059e+01
6.124638784306799533e-01 -5.108093593266938015e-01 1.540005678635952791e+01
-6.214217430942707843e-01 -7.356997722914921933e-01 1.235064595590623071e+01
-3.031241950081399406e+00 -5.876593095747175255e+00 1.678984618557363007e+01
-3.407489056209145328e+00 -4.853957248509948030e+00 1.714488061617426951e+01
-3.608265889198408960e+00 -5.191286989076103531e+00 1.706688714205756696e+01
-4.155184028510820582e+00 -3.039800866467893492e+00 1.747269636014102190e+01
-3.546108821077366802e+00 3.721725237996733049e-01 1.151699526818845243e+01
-3.558587595543328597e+00 2.651034363203483291e-01 1.162065565563079161e+01
-3.399449537627597273e+00 1.563048246041344735e-01 1.172836030678020336e+01
-1.567093006278404310e+00 3.022680681015644577e+00 1.447860392199943647e+01
-6.527458196235000898e+00 -1.229735494859013789e+00 1.223246032169399200e+01
-3.419614147951016925e+00 5.757863932209412727e-01 1.134264745662446927e+01
-3.219140289909480757e+00 6.865091025440870354e-01 1.126286489875133867e+01
-5.312408186050497916e-01 1.939773154310574066e+00 1.669491117600140484e+01
-3.260137883850572571e+00 2.635466095610235371e+00 1.715733866098170068e+01
-6.256186413312319061e+00 -4.331725927913866236e+00 1.448563995472090937e+01
-7.604664546855383733e+00 -7.015179415858728840e-01 1.236417039097824500e+01
-6.883127756399181507e+00 -1.895706305769760514e+00 1.727236619122108152e+01
-1.944539851751901471e+00 -2.850037400988487679e-01 1.203699520652940436e+01
-6.562781091301390646e+00 -8.665943741111532539e-01 1.732708823279968868e+01
-7.547247047301201661e+00 -5.251878235763238756e+00 1.476072189176564109e+01
-7.875375611883240978e+00 1.752351942675082763e-01 1.254131206006073995e+01
-3.621938961472079832e+00 2.161482664780228991e+00 1.092933705568311353e+01
-3.391921760040544687e+00 -5.733991641412045093e-02 1.193076686979050294e+01
-3.308500393270252804e+00 -3.461817571356624601e-01 1.221681038942700326e+01
-3.130344554068630547e+00 -3.267702189546178859e-01 1.219279517542324243e+01
-8.009563284358760527e+00 1.350075600923758667e+00 1.515484968356930295e+01
-3.392735299007362926e+00 -1.467515582701250931e-01 1.201993390133495154e+01
-3.541488945005768496e+00 -6.892424640760980159e-02 1.194400806375561785e+01
-3.506262117996597816e+00 -3.637442951573280348e-01 1.223722518051008024e+01
-3.735310161573785148e+00 -2.678141623811793881e-01 1.214495595936127614e+01
-4.440826566852074109e+00 1.964773804148280734e+00 1.721239802496096161e+01
-7.558801297626198235e+00 -3.618946137460747448e+00 1.359134767012047007e+01
-4.122080932396491981e+00 -7.220785415145665187e-01 1.266669999907204414e+01
-8.798977992083770516e+00 -2.486404643592423191e+00 1.469334733690601524e+01
-6.703984048790720962e-01 -3.751595805972303577e+00 1.723886079417056294e+01
1.752898224013720307e-01 1.142959456837361776e+00 1.490383179543533743e+01
-4.269670436046880901e+00 3.019745509456123855e+00 1.701081347666585941e+01
4.156858438045563098e-02 -5.617739190037946528e+00 1.501500747344272924e+01
-3.462667734134821096e+00 4.708256308113861976e+00 1.649270924916908854e+01
-6.243518401603573409e+00 1.964942301562307092e+00 1.687054684968144613e+01
-6.874929454834856069e-01 7.915680229610861929e-01 1.725030864647914086e+01
-3.215899447019038959e+00 1.786399375988519944e+00 1.038263306551201737e+01
5.361545537771851277e-01 -2.741017427372081094e+00 1.553498459323900249e+01
-4.047673594803070429e+00 3.688608539566027300e+00 1.686235840037315370e+01
-8.860536926119726431e-01 1.959800765894556429e+00 1.396922086313976052e+01
-5.213521498929226894e+00 -1.832832945150275172e+00 1.747531563961024403e+01
-4.823606820638103088e+00 -4.884023209329525272e+00 1.709494711157019964e+01
-1.148334270721014239e+00 3.372155166882313093e+00 1.604884763168062278e+01
7.118572830684122277e-02 -3.806731970344123805e+00 1.678140186456455751e+01
-3.829055987337540934e+00 -4.284235480811191543e+00 1.729585956999961383e+01
-3.424384273307632398e+00 -3.653354478817109285e+00 1.738498176455752997e+01
-7.147847005426477551e+00 -3.415662767753606222e+00 1.359025729160722307e+01
-2.894700108857429122e+00 -3.341803320947693390e+00 1.433232426176799379e+01
-3.090962822180604697e+00 3.771312915278430378e+00 1.468579469764171108e+01
-7.975074464928816331e-01 -3.213590537945395731e+00 1.732667146602395292e+01
-5.606514542401136225e+00 3.732376318445348229e+00 1.650104240054289306e+01
-5.409211456310721644e+00 3.907839741343845485e+00 1.649382282634138619e+01
-7.728152189278404194e+00 -1.370791475812148219e+00 1.691698527273788244e+01
-1.610778842152253976e+00 -5.069129044049851984e+00 1.699976471996355798e+01
-1.825612565357125128e+00 -5.078566211260820751e+00 1.700302300720998971e+01
-6.849825500490156927e+00 2.625195437210207317e+00 1.465738680982008191e+01
-2.212744570696850488e+00 1.843729418734009196e+00 1.121137805335249737e+01
-3.194091512022576573e+00 -4.675379358783569472e+00 1.717819077290244678e+01
-2.405992650152990464e+00 -4.434936621433321235e+00 1.718721134823164221e+01
-7.891335418138558211e+00 -7.945674819620923701e-01 1.667330764554239408e+01
-1.807802395119000760e+00 -4.052295593349935388e+00 1.724187224295436494e+01
-2.584328772498972526e+00 -4.229883070218532382e+00 1.723526833586748097e+01
-6.316962777181576172e-01 5.661151000299959879e-01 1.210604948804127901e+01
-7.671947739776893371e+00 1.042010667154527281e+00 1.280967310747217169e+01
-5.610662789210968171e+00 -2.708239509917718113e-01 1.743326021576179841e+01
-8.633620614525169046e+00 -1.885710112035932751e+00 1.389818919702743472e+01
-8.609295374558998404e+00 -2.290766738752618270e+00 1.385691288982599900e+01
-8.615055080593498005e+00 -2.090051242986894930e+00 1.386038143706371528e+01
-3.320168560054004292e+00 3.289901539108597284e+00 1.701477620846458194e+01
-2.698854000553330579e+00 -5.736934764656264285e+00 1.681111828998143665e+01
-1.291613109968515971e+00 2.375989639316225421e+00 1.382628762578907811e+01
-2.522990949358555390e+00 2.797991941938287486e+00 1.306548857404936115e+01
-2.815561676129844315e+00 -5.738212366721460178e+00 1.682511041022092968e+01
-2.599834506125590305e+00 -3.645576902488283366e+00 1.732262610230504407e+01
-2.197943989895309258e+00 -5.078810680897563934e+00 1.701300995799819304e+01
-2.351731991297921098e+00 -5.079736974477698119e+00 1.702392978607442586e+01
-1.992329166703708410e+00 -5.075064261498843265e+00 1.700866180251178861e+01
-7.790491641460844718e+00 1.182134831526676644e+00 1.590511345420004119e+01
-5.390760629382208791e+00 -1.203499431196180414e+00 1.746418277610114700e+01
-5.032249498218449801e+00 -8.075169730658730005e-01 1.747583456541574520e+01
4.423657683834240073e-01 -3.829118756669650292e+00 1.593814246347096031e+01
6.052793671414751220e-01 2.609946256374822693e-01 1.502334853249578828e+01
4.697947599214449266e-01 -3.757607800570457179e+00 1.586942847680055024e+01
-3.428800997994746691e+00 2.188847556616396961e+00 1.724130576932597592e+01
-7.275361473379254207e+00 -4.624115620559656747e+00 1.439442031364887953e+01
-2.625761225208813610e+00 -5.055355268826928317e+00 1.704602946107488748e+01
-6.519835952069120921e+00 3.266703340516938781e+00 1.536555231729199278e+01
-7.752100852173405832e-01 -3.477665762803082705e-01 1.214782891493331363e+01
-2.411731037868264149e+00 -3.446114160051422903e+00 1.734158412295128926e+01
-3.414237703845257155e+00 2.232957875016777116e+00 1.107183836111438069e+01
-1.996579124141848460e+00 -3.253227255883746949e+00 1.736363929637096248e+01
-5.307330566567689090e+00 3.626624977439246944e+00 1.440380576789412714e+01
-1.597061387745276839e+00 -4.611618121741202891e+00 1.712427358616887574e+01
-2.910453036194576182e+00 -2.731731148816719745e+00 1.415088528346782937e+01
-4.849059956907628699e-01 -6.595977230355749565e-01 1.238096396621990891e+01
-3.625614940707090117e+00 7.632157655940838836e-01 1.749793827319597739e+01
-3.384297859648051521e+00 7.315199701596089010e-01 1.751238678065929832e+01
-5.107080747014904887e+00 -3.595055685481815644e+00 1.736235638415200100e+01
-5.182591479489172537e-01 1.148404593789440042e+00 1.332313502873823552e+01
-8.627044290104835866e+00 -1.138567623199277623e+00 1.388557218168675433e+01
-3.992925351980973314e+00 4.521750027798542848e-01 1.143397537344055337e+01
-3.822671537084250559e+00 5.667804957796427345e-01 1.132943112014302045e+01
-3.295704826897699835e+00 4.490377565218104827e+00 1.590752364947221764e+01
-6.797046745047531147e+00 -2.104108944232595313e+00 1.728387496113590061e+01
-6.647742809319851176e+00 -1.845262812677167963e+00 1.731678891231724293e+01
-2.627918665534476617e-01 1.719062351627081986e+00 1.495130955256195193e+01
5.039903718445084557e-01 -1.323744465908404555e+00 1.464111332176936031e+01
-1.879378003181564782e+00 2.266630877331342386e+00 1.233791172052013962e+01
-4.416535392421330641e+00 -4.098433877173984108e+00 1.730890687084833246e+01
-5.759694285434257210e+00 2.523866396529963474e+00 1.273910709918013140e+01
-2.887646315818945375e+00 2.607958054830183947e+00 1.716249756007121618e+01
-2.852830665611181704e+00 2.397517622183443109e+00 1.720550693490836380e+01
-3.979347518202840384e+00 -4.190970171146445544e+00 1.731230534424170031e+01
-1.394806617795966153e+00 -3.413983308128092808e+00 1.732907691253068805e+01
-7.791814294708254707e+00 1.539458446250752344e+00 1.427393818504385337e+01
-3.178434047963940579e+00 9.131859260662451572e-01 1.108018405292244069e+01
-1.357668958197536302e+00 -3.087998362908939143e+00 1.737084283713168276e+01
-2.673160815757956055e+00 2.997828505694946966e+00 1.707261548134763274e+01
-2.653288981930494117e+00 2.506713627041646131e+00 1.718170023267551016e+01
-1.222860010849189827e+00 -2.325555008278673341e+00 1.292858155107120410e+01
-7.968122854193811833e+00 1.250818088798312799e-01 1.623653846910621468e+01
-4.551656445445020793e+00 4.693062831930525647e+00 1.619829939032809563e+01
-4.900211274148663088e-01 9.867898829832799645e-01 1.310031337407738050e+01
-8.239277723914247176e+00 8.424759495217215566e-01 1.378365650054794855e+01
-2.577835272680320422e+00 2.371446028467809164e+00 1.186214540043773269e+01
-4.015394752439812365e+00 -6.497114547638243920e+00 1.557051875771754368e+01
-5.149097809534662673e+00 -2.840828741672613678e+00 1.417664866404054891e+01
3.420313230741071076e-01 -2.718239132488362575e-01 1.365309949997710959e+01
-4.040415420874144736e+00 -2.619003548737688369e+00 1.416560426770500669e+01
-4.804426795124749461e+00 4.296388096468274576e+00 1.650314177053826370e+01
-6.510596751931491122e-01 -4.746993357389211354e+00 1.403183340837541948e+01
-2.900532021252048009e-01 -4.112200189515771598e+00 1.363668514331271808e+01
-3.100345711168063012e+00 -4.437609601407809023e+00 1.466326367913251261e+01
-3.945681397307101879e+00 -2.582696388386769848e-01 1.213941303651871095e+01
-4.185665843194592561e+00 -3.517819192728469657e-01 1.224009941901535825e+01
-4.414450592372245019e+00 1.327624475953718686e-01 1.175412066779410480e+01
-5.759150331812671553e+00 -7.166599926284517030e-02 1.174516539785507518e+01
-3.394223294894217258e+00 3.082664298841814254e+00 1.313104310195204505e+01
-4.178979291066543311e+00 1.531953620612005684e+00 1.054513908254348564e+01
-7.089671513235870748e+00 1.666359906081244402e+00 1.315179447022664050e+01
-4.272195001853438256e+00 4.121774826432917038e+00 1.668312635720997150e+01
-4.626228631111798606e+00 2.057833097538469325e+00 1.050036502012961392e+01
-8.587256415873085302e+00 -4.045834846360499171e+00 1.438629551174350496e+01
-4.671460781743903112e+00 2.002492606183582602e+00 1.717790103616521691e+01
-4.847953861838815826e+00 -4.028670742391627257e+00 1.454916434373925682e+01
-4.620192028441612919e+00 1.329291194096045903e+00 1.072586307126621818e+01
-1.664728168273108988e+00 3.528933664496313849e+00 1.680373162348083582e+01
-7.017858265969438847e+00 2.718143850626150826e+00 1.592185209834243409e+01
3.835025363187128944e-01 -3.395215256592923891e-01 1.290636157469458567e+01
-5.167555882081869001e+00 -2.643958839953395756e+00 1.744624777166274754e+01
-5.368489632165879044e+00 2.095002184485839081e+00 1.703998202561194120e+01
-6.695869364623671771e+00 -1.024817161375703334e+00 1.730268550737167033e+01
-7.046978574167566123e+00 -8.568129239368988959e-01 1.719219258673388850e+01
-6.861891509204506079e+00 -3.021213276156827110e+00 1.722495576855683908e+01
-2.604074264413844819e+00 1.898666671903979308e+00 1.081828604671046890e+01
5.328531990374616445e-01 -1.119052705688510008e+00 1.481594966083235221e+01
-2.035048354932519565e+00 1.613547772299326555e+00 1.100143301364150972e+01
5.556110587418819913e-01 -2.352831441275732960e+00 1.597853922517584380e+01
-6.423459370543486813e+00 3.538040994861730848e+00 1.581964637734731127e+01
-7.112206335302109217e-01 -8.781077559762626716e-01 1.237667037417246263e+01
-3.586247796416982769e+00 -2.702428447548542945e+00 1.417414112210857979e+01
-2.572020989097925092e+00 -2.859323210594363118e+00 1.741463137867755506e+01
-4.758924218094771064e+00 3.337042036394008537e+00 1.353600745593626442e+01
-4.673858778267808489e+00 1.575958813216226995e+00 1.726346339924224793e+01
-5.938071715715908638e+00 1.247065542856976350e+00 1.717179581823704382e+01
-5.445032002352707678e+00 1.593567499940327759e+00 1.715843519957223151e+01
-5.665720619494312160e+00 1.422985466660267928e+00 1.716906268408094149e+01
-3.016380479614189536e+00 -2.248554018483424510e+00 1.750522338053603733e+01
-4.258271526472247714e+00 2.210089212785515955e-01 1.749524367333063424e+01
-4.810230431500185588e+00 -2.495026349307686298e-01 1.746889807891798085e+01
-6.927232525190694545e+00 2.446102492233928061e+00 1.624423987542895276e+01
-6.405592639651260356e+00 3.098456633383589232e+00 1.633337278551204008e+01
-4.549637734010701706e+00 1.076276555248645073e+00 1.736104918156961219e+01
-6.765888626549561025e+00 -3.283015073531730277e+00 1.722317818327899630e+01
-4.182778723608434390e+00 -1.827250593359214026e+00 1.754927811358705725e+01
-5.329757148390303456e+00 -3.447554840656346986e+00 1.434951117340500559e+01
-6.964176730447611874e+00 -5.243314283578071944e+00 1.475893368021991137e+01
-1.772003623445966847e+00 -3.356371098328911007e+00 1.410761009212971828e+01
-7.050085148238382615e+00 -5.458487870900924577e+00 1.489287470352432763e+01
-6.258652445315673774e+00 -5.933480732890793696e+00 1.523879713464907582e+01
-2.091803659523989722e+00 2.630887315444919938e+00 1.303678791955299232e+01
-6.616193816897053992e+00 -5.823081524028786760e+00 1.515326729319642851e+01
-3.200484274209309810e+00 -4.456621669058133506e+00 1.722679881498564214e+01
-3.425225722341656898e+00 -4.273019500377502666e+00 1.728155807535699040e+01
-3.423294034538927999e+00 -5.356499312319396022e-01 1.241342539347732554e+01
-1.763594347910226179e-01 1.863968141415795587e+00 1.624339134304846510e+01
-7.022149885749097820e+00 1.596619266578962693e+00 1.289887536309153404e+01
-4.556431709148059284e+00 -3.480889253838820863e-01 1.223849917530525033e+01
-3.857292935957333135e+00 6.049906396622173332e-01 1.749912294700138915e+01
-6.615513656430287881e+00 -4.814311847556053792e+00 1.457516533415971338e+01
2.218929713776823798e-01 -4.199930494360459399e+00 1.396186138455512094e+01
-7.245252369187967778e-01 1.901477742739223098e+00 1.690049213082868818e+01
-4.038006598690827786e+00 -6.291191235079206301e+00 1.537894130389589975e+01
-3.776315172553561528e+00 4.736661080919529532e+00 1.605341125975309780e+01
-4.736634090667889652e+00 3.628463135868079892e+00 1.402459751941847088e+01
-4.372534127877162113e+00 -2.619899854096509717e+00 1.749608570637786187e+01
-4.442750281903270704e+00 -2.288416706617408813e+00 1.751186727553110956e+01
-7.176812570471621910e+00 7.198299859479828644e-01 1.683337403946726596e+01
6.043602760474862112e-01 -3.152435476502535305e-01 1.505488033809984216e+01
-1.422538691628921992e+00 -3.076285542435762688e-01 1.198962726345462926e+01
-1.200145599129766039e+00 2.104969537579256755e+00 1.710748004977920544e+01
-7.216721781235849065e+00 2.144947253266169529e+00 1.610061251359231704e+01
-8.177457165699037134e+00 -2.339415946813151181e-01 1.604049249377374053e+01
-1.467658207415870164e+00 1.135654518239327615e+00 1.143304743417087366e+01
-7.539430939836231360e+00 1.665420838968969308e+00 1.598228013536253656e+01
-7.337419455457439454e+00 2.058009435977015578e+00 1.598948219894249689e+01
-1.658527144432330847e+00 -1.159072307224059850e+00 1.256792939769812989e+01
-7.141237585437343327e+00 2.658799675196426904e+00 1.558989465716273060e+01
-4.273990521918021201e+00 1.724929432961163078e+00 1.727613277122476632e+01
-4.283729930712423695e+00 1.951800299274356165e+00 1.723044813412266052e+01
-3.301558458398324181e+00 4.152249995802695715e+00 1.524797536113787544e+01
-4.447393596288403472e+00 1.578050137793657326e+00 1.728648290569426393e+01
-1.051716397437800987e+00 5.313626723769460103e-01 1.744474231230097416e+01
-4.349545518265356847e+00 -5.015092096897451945e+00 1.709805007363794971e+01
-4.005458283372473893e+00 -6.466506370990324770e-01 1.755471051346054878e+01
-3.125544188418761582e+00 4.026685831800757676e+00 1.513060324977549698e+01
-3.804619160670830169e+00 -8.451958825744567694e-01 1.757494311975679580e+01
-3.827538763339770611e+00 -2.936765122093759617e-01 1.755801015019824263e+01
-2.043131741772177268e+00 -5.683312725933177489e+00 1.497699119126274780e+01
-7.521068256843491895e+00 2.176699474775824483e-01 1.671801238143269330e+01
-8.765355933879224182e+00 -3.584641331296795741e+00 1.550693784215953741e+01
-8.751612954939131939e+00 -3.866433458349278318e+00 1.540510253169490085e+01
-3.623273937426873204e+00 2.342578373800425773e+00 1.720226179033668501e+01
-7.413335886830755284e-01 2.776091469757049790e+00 1.583727379131426716e+01
-3.386208410156050341e+00 3.290840141353853721e+00 1.701185473884878974e+01
-7.355973496678528178e+00 1.913955600521042966e+00 1.415101966773765696e+01
-7.104679427687901949e+00 2.056144045607464665e+00 1.396803433050006049e+01
-3.827824069969580911e+00 1.606033951250294689e-01 1.754101086804062248e+01
-4.004146002080648969e+00 3.312611983161120599e-01 1.751173981530148893e+01
-4.584975846360153540e+00 -2.831383496530077704e+00 1.746710033182749555e+01
-4.599383999450843419e+00 -2.644507077740707590e+00 1.747984862085429114e+01
-3.859915106586722988e+00 1.610070647073323036e+00 1.733125483824631630e+01
-1.949672566692347841e-01 8.684094054564819309e-01 1.353421094618069276e+01
-8.253609217194750602e-01 1.112595261333340968e+00 1.259335195495706472e+01
-3.861701651366125532e+00 1.907539486091594183e+00 1.727187047850315338e+01
-3.771095655867140906e+00 2.276633426915303460e+00 1.720586197128974248e+01
-8.742990432291804836e+00 -3.467645301164362426e+00 1.561722293318284471e+01
-1.819887047372970468e+00 -8.551083207823156895e-01 1.241269013999566084e+01
-1.904408889925622184e+00 -7.612132423087765165e-01 1.237611867183348835e+01
-8.602492338356288570e+00 -4.484364091656833362e-01 1.461577986868570633e+01
-1.827475985976299011e+00 -5.412364483610421217e+00 1.480783746949091295e+01
-5.709372601639980616e+00 3.073675937730957486e+00 1.378095883602716754e+01
-7.831706517320219163e+00 -5.192403517683660263e-01 1.256821052684293250e+01
-8.009484886512304058e+00 -7.803788924536787519e-01 1.276169278111610339e+01
-8.562291889088347929e+00 -1.851797211378799046e+00 1.600448685255818049e+01
-5.578689912826609643e+00 -1.880138691068953261e+00 1.745178003075857731e+01
-5.483877510773199404e+00 -1.405779914675370001e+00 1.746043790630546511e+01
-5.554442330341144540e+00 -1.686761826228215799e+00 1.745624845627640553e+01
-7.705429234170956931e+00 -4.310581543045023944e-01 1.675148840556864371e+01
-7.545121586657549173e+00 -1.247387866009011526e-01 1.680978109700044598e+01
-3.693784151066428656e+00 3.857809994561538947e+00 1.683914044455281100e+01
-6.452949686109130667e+00 -5.510971778206727123e+00 1.669742026106592903e+01
-6.906843755347852110e+00 -2.556674042276613878e+00 1.724593973553132287e+01
-7.003208153730566821e+00 -3.053074120928249258e+00 1.719272394985264185e+01
-1.588072698453084186e+00 -5.486267580964696577e+00 1.476582223134493432e+01
1.075753338251542734e-01 5.630995535530978202e-01 1.369952673407617993e+01
-5.821916608764173162e+00 -1.009916017426844004e+00 1.743439567075525076e+01
-1.085186439082926335e-01 -4.531544127892767060e-02 1.262603813585637624e+01
-1.830881912235174935e+00 -6.070684115074929998e+00 1.653475210996161593e+01
-6.473480907050296551e+00 -1.469022660347833353e+00 1.735091342884844323e+01
-7.871918700379927358e-01 1.861735439453198859e+00 1.401534810619705240e+01
-6.392123655323885600e+00 3.295892840821143532e-01 1.157140118802818307e+01
-6.054944100290997611e+00 -6.479394803769529254e-01 1.740416182407445689e+01
-6.217453556197384046e+00 -1.282795226263508503e+00 1.738938664095112330e+01
-3.392225861897454120e+00 2.910109549948965313e+00 1.271679566990341215e+01
6.523415456315329042e-02 -5.664642227076384096e+00 1.516610918974436117e+01
-7.253466682357027073e-01 2.317531839809293448e+00 1.498312485300399999e+01
5.586802349269814894e-02 -5.640587947032668303e+00 1.510039275635455880e+01
-1.396121676887758234e-01 -5.635132371828719400e+00 1.593014923348761158e+01
-6.017724454703316184e+00 -3.681397427029603486e-01 1.189662046131566342e+01
-1.831277638389652962e+00 -2.789760264141878388e-01 1.201467968939662967e+01
-1.634816457702439774e+00 -3.052784713738025957e-01 1.199879551039474279e+01
-6.689899150459924115e+00 2.648509876956686604e+00 1.436602976246756924e+01
-5.876140892335872223e+00 -2.793179115213188179e+00 1.403474699338205056e+01
-1.567523279602712760e-01 1.021961064745409820e+00 1.660114062995192796e+01
-1.435527294156468958e-01 9.164412079236372577e-01 1.663638613512781461e+01
2.585113033937780358e-02 8.468859945838382863e-01 1.637997321094284331e+01
2.839777318773710757e-01 -2.060389526622611545e+00 1.671059243838339370e+01
2.887402592480132757e-01 -2.225542148502510198e+00 1.670097343584323824e+01
5.872749620251920266e-01 5.150941907032475786e-01 1.505674413565996161e+01
-2.424041009025782234e+00 5.223552992004241169e-01 1.147220774329192494e+01
-1.542261714560581476e+00 -6.878077471330797943e-01 1.220464545144644575e+01
-7.969196461581828927e+00 -1.446136633656509352e+00 1.674928576303607741e+01
2.404373752957150723e-01 8.029953668230991326e-01 1.604487413762061720e+01
2.873170892581525804e-01 -1.781962913305357610e+00 1.670382824105885078e+01
-8.365178408385927966e+00 -3.537974580190323959e-01 1.551887049898713400e+01
-8.563210571474634492e+00 -9.503536285934388594e-01 1.529014462304813549e+01
-8.378862848994076629e+00 -8.186385476442616937e-01 1.584286051195275746e+01
-6.850676052354344847e+00 -3.965369022725717674e+00 1.420642432374745567e+01
-3.431067518355625623e+00 9.404984225419785737e-01 1.747944845864051899e+01
-3.296572613438924826e+00 8.354199202441479066e-01 1.749999956451758720e+01
-4.381022240135693302e+00 1.070873188707560875e+00 1.091204820577670631e+01
-3.595484878812675422e+00 4.714054175417754955e+00 1.608919603253209374e+01
-9.755062843983323129e-01 2.778983482122892923e+00 1.525790622324768009e+01
-4.372184861661726707e+00 3.195496021040240553e+00 1.310265953282733875e+01
-2.594224946248326003e+00 2.930802157826613574e-01 1.164464963461976055e+01
-5.959594835299741433e+00 2.345611514256286334e+00 1.683917592851073408e+01
-4.711096239888492576e+00 1.325839457797006959e+00 1.073629327866104433e+01
-4.437064833299175781e+00 4.741268453376989989e+00 1.606307495860265533e+01
-7.006981419579305648e-02 -2.632018423131186946e+00 1.709791406034734251e+01
-5.455445508618986139e+00 -3.325096686374318544e+00 1.737907460483980060e+01
3.727658859389947343e-01 -2.721254011037653187e-01 1.381623570770778997e+01
-8.071919346827659325e+00 -4.636294744965513637e+00 1.440079556905148905e+01
-3.185312582191163866e+00 3.845374435911268041e+00 1.476205712053204877e+01
-7.504354894423563849e+00 -4.999020736797823439e+00 1.459317343842494097e+01
-8.767091354823792315e+00 -2.947924503764064230e+00 1.450757730516885147e+01
-1.100699592977519181e+00 8.507028778037242223e-01 1.167638891432951453e+01
-6.151506060982018909e+00 3.207967956410660904e+00 1.645093254452891784e+01
-5.583093030943757640e+00 -2.595359792792808484e+00 1.742238342669806883e+01
-5.550447261661709319e+00 -2.808650771067187524e+00 1.741097658030621886e+01
-6.720618107367917204e+00 1.331142660042571535e+00 1.194014044918620243e+01
-7.872060180390324291e+00 -5.063129533543585303e+00 1.613641333252706289e+01
-5.818215974370795962e+00 -4.728434590284021688e+00 1.712563463645900441e+01
1.764790218671099531e-01 1.362074989471632636e+00 1.533683682724480235e+01
-8.162040409419951459e+00 -3.373330309380855319e+00 1.346134910654110683e+01
-7.402349085627356606e-01 6.232692123828873498e-01 1.189329227713234616e+01
-1.104394193336563301e+00 1.293681396955390639e+00 1.728323697080170973e+01
-5.660700997185827532e+00 -2.451375084744790378e+00 1.742322348142499067e+01
-5.931445987096305217e+00 2.438555199280331376e+00 1.682240639101055280e+01
-5.669641827727831540e+00 1.676055566541108321e+00 1.103287738242204341e+01
-2.640997320874344911e+00 1.411992576807826083e+00 1.740134420096178758e+01
-2.845277059255212571e+00 1.733577248061315190e+00 1.733655788636915673e+01
-2.644965548007202738e+00 2.147571976025190565e+00 1.725765781398941101e+01
-2.439785930246976875e+00 1.757647126610441868e+00 1.733941888023009170e+01
-2.610596770505122510e+00 1.857979296987120721e+00 1.731609232685735122e+01
-2.241856333923181843e+00 1.985670410982801615e+00 1.729755547680437644e+01
-2.799830649231164870e+00 -1.863481153063117013e+00 1.752292925082466013e+01
-2.605864770881386239e+00 -2.014736994175314599e+00 1.750369611185715257e+01
-3.605559839734862493e+00 2.713975690688214204e+00 1.207551497527924056e+01
-2.394245753228529061e+00 -2.231925331630898235e+00 1.747622856365757116e+01
-2.607782053737955241e+00 -2.221393312938288567e+00 1.748327768928777459e+01
-1.081828577500038246e+00 1.978166056014444285e+00 1.356274389513149004e+01
-2.801968412597006797e+00 -2.260594345004314665e+00 1.749007353692002198e+01
-2.230975598548102568e+00 -1.233158011018834488e+00 1.754746393561047313e+01
-3.966768210039994358e+00 3.396315537383257421e+00 1.348969223762588854e+01
-1.999601755626291943e+00 -1.433189914519995334e+00 1.753386972968754520e+01
-2.138896515200240600e+00 4.339605712158993711e+00 1.647289721457271128e+01
-1.878965285206512847e+00 4.139551864570422346e+00 1.636691947820747828e+01
-5.308226559990300686e+00 3.042106272889170349e+00 1.682532682244745104e+01
-6.742710823949630949e+00 8.317855511715094297e-02 1.174683543549099340e+01
-1.799440688896533080e+00 1.177936844485245382e+00 1.744646368018419480e+01
-3.012607740461425099e+00 -2.862197453437647088e+00 1.744215135686604867e+01
-7.765670945205934927e+00 3.521618168478075073e-01 1.641524443230346719e+01
-4.993107926398506535e+00 4.515461253507720762e+00 1.634047714284002240e+01
-6.103950886863678704e+00 2.271639114610202625e+00 1.681763770106955036e+01
-6.367661131902512039e+00 1.890427947601876602e+00 1.685364966728941738e+01
-5.977076326095165371e+00 2.893265330259940704e+00 1.666655444080922166e+01
-1.230779289171836766e+00 -2.827149891229710832e+00 1.739803657041976237e+01
-8.351116759492203556e+00 -3.969189236533569254e+00 1.403504184422712342e+01
-3.426065046884539944e-01 -1.640902697282385470e+00 1.730122305602828447e+01
1.794570070234153825e-01 -3.724955833135752403e+00 1.361344898676888704e+01
7.942592419901717271e-02 -1.658932554446071350e+00 1.692309138730707474e+01
-1.289204620921564626e-01 -1.404246005826739863e+00 1.712416254762865719e+01
-5.275778151665899696e-02 -4.781679262167841671e+00 1.419016397346830871e+01
-1.760955241105617852e-01 -4.790212166015953343e+00 1.415074194156140663e+01
3.721796704871991324e-01 -4.724262475733897126e+00 1.506142992499418654e+01
2.536736206914275149e-01 -4.678085323232560988e+00 1.446533976223861373e+01
-3.416339696651753854e+00 2.694695928581004374e+00 1.212633935252096506e+01
-6.891759113087520205e+00 -2.225203439070025713e+00 1.726282874947226276e+01
-5.549805429600311868e+00 4.315004630526927620e+00 1.591627384094528708e+01
-1.572930562858632086e+00 3.782295623512996752e+00 1.606548157415984690e+01
-1.350805100342671317e+00 3.739512046167353443e+00 1.634764108908601088e+01
4.344629137202898894e-02 5.175362930404594497e-01 1.349367815060578835e+01
-5.452483947785603746e+00 1.887657552607408862e+00 1.105577040192026317e+01
-1.021020461736821483e+00 3.292894229242038229e+00 1.620884512683511502e+01
2.245294632537614410e-02 -4.987901280308941310e+00 1.438650191367174358e+01
-2.644630625499919674e+00 4.513571639997040030e+00 1.626645406861451448e+01
-2.161363698512876574e+00 4.322768458181785789e+00 1.637010691836507448e+01
-1.876132276573382995e+00 4.017904584511142296e+00 1.613334079448625857e+01
-8.355054196816878331e+00 -1.038609494019865354e-01 1.532237564855950041e+01
-8.417552798082411414e+00 -1.419855465558816920e-01 1.508680388203014644e+01
-8.284748970276078595e+00 2.117004864961261057e-01 1.531177851777199805e+01
-8.330060439308555331e+00 1.520145901069597238e-02 1.529287911843256609e+01
-8.332803024377049894e+00 1.971982589526280472e-01 1.510994455182304108e+01
-8.175017660369222838e+00 8.501462759307250039e-01 1.514727711002262112e+01
-8.422320443508420240e+00 1.922573574436947652e-02 1.488327220635461856e+01
-1.378397843005246592e+00 3.555088691917363430e+00 1.593185236260690374e+01
-8.392913609057853108e+00 2.155114873010735566e-01 1.477579560888809596e+01
-1.860266819972434815e+00 1.570132822932307048e+00 1.124642557788283170e+01
-8.247836450223710258e+00 8.168100117096621648e-01 1.431535868382105292e+01
-8.095635547473062132e+00 1.128964757185481949e+00 1.431294810221656633e+01
-8.186148504535310622e+00 9.574243604601546664e-01 1.414781079078797887e+01
-8.181760712323873364e+00 9.595915642062902151e-01 1.429591955852282581e+01
6.598340386782319822e-02 -1.303204491458395675e-01 1.254733512423495512e+01
3.209795407916210541e-01 -1.468184667217723893e+00 1.337087361395665397e+01
-8.018175479288080609e+00 9.693059593060813217e-01 1.330297460566353607e+01
-7.299794513693452558e+00 1.104265317256655443e+00 1.236525729958652420e+01
-7.480812878495404661e+00 1.050125276360428739e+00 1.253361916350932148e+01
-7.359774566819451636e+00 1.215195151719517197e+00 1.267362017124248297e+01
-7.150761191125777572e+00 1.306810444884327627e+00 1.252699109705439895e+01
5.788333292204856928e-01 -9.031416988431237858e-01 1.522505419175677588e+01
-7.360554589778583789e+00 2.292463822406361817e+00 1.515354073866986084e+01
-7.219217089521913877e+00 2.391079848019183718e+00 1.498796384137856563e+01
-7.314105584173033137e+00 1.485582938520757068e+00 1.315110353954818834e+01
4.529381401632225357e-01 -4.017225778386860569e+00 1.573630108437544095e+01
4.269117959225322556e-01 -4.166852289850433877e+00 1.549211645762055412e+01
-4.371617820096696860e+00 2.756791285456523521e+00 1.231729596948617456e+01
4.296267981463549601e-01 -3.612487309630393106e+00 1.448902465601958767e+01
4.425976099936658192e-01 -3.674193024178322720e+00 1.491716104267353415e+01
3.911389890996522789e-01 -3.855623299623991418e+00 1.453396561094466222e+01
4.276068606859196874e-01 -3.763910867485823264e+00 1.488972269547163307e+01
5.254543295213375265e-01 -2.974075920919854177e+00 1.571834339154136018e+01
5.007002107918498979e-01 -3.196971041446023065e+00 1.596758166243769494e+01
5.541379434937800941e-01 -2.570122459517944158e+00 1.597182120077687273e+01
5.581668639516170760e-01 -2.125971681009174219e+00 1.595710232303601828e+01
5.626105971668107220e-01 -1.949210097299480804e+00 1.592826533541472145e+01
5.758672049424160555e-01 -1.729422869379160010e+00 1.592722593220459260e+01
6.118685702889259392e-01 -9.421009784415930177e-01 1.581275611883373244e+01
-5.392606411436700053e-01 1.510136856383557546e+00 1.394133178563976116e+01
6.346618264673715704e-01 -1.173758048498645956e-01 1.524553231482340721e+01
6.248858730595869826e-01 -3.270148043083622169e-01 1.544123823633862713e+01
6.301991639633375275e-01 -2.662115720560974119e-01 1.539873402021429172e+01
4.307253603786177498e-01 2.970226393942158594e-01 1.444884397223557215e+01
4.048136182696981944e-01 9.685598162368798114e-01 1.513259749353297678e+01
4.371733168384296375e-01 8.309494432544655140e-01 1.497454385895012763e+01
3.668159352314970256e-01 5.452178898166541998e-01 1.447046124755514995e+01
2.509329504810436928e-01 1.038773015884383533e+00 1.491155407946786937e+01
-9.074495902989326845e-02 1.699779349823962837e+00 1.535082250410369653e+01
-5.380243617831061975e-01 2.578091301548563141e+00 1.599087584666498429e+01
-5.639194973597243532e-01 2.236073321016780469e+00 1.521316452054401935e+01
-5.673842870259969695e-01 1.665955164561488955e+00 1.416188224045243516e+01
-1.403919296559485108e+00 1.955923099322237624e+00 1.280498203959184877e+01
-7.409724239322206252e-01 1.908108583959551963e+00 1.420421935588554163e+01
-5.842780868378434356e-01 1.821326097487449003e+00 1.440499388454075813e+01
-1.217149935592332088e+00 1.371048792614481426e+00 1.216762257987799245e+01
-5.195259597822898812e+00 2.823125140741788996e+00 1.287754850245640625e+01
-1.119027917791461935e+00 1.576278174668783949e+00 1.274757802722710665e+01
-6.223184351560083982e+00 2.597184970223108902e+00 1.350655295440691361e+01
-6.304172016878657914e+00 2.812748093906068281e+00 1.402211516235720268e+01
-6.115095025977662857e+00 2.907991707523736924e+00 1.393546556833359773e+01
-5.804864666305475041e+00 3.941254132753602146e+00 1.547549142617593532e+01
-5.874873006906233819e-01 2.023174791034586750e+00 1.476218217517372722e+01
-6.155588645243863510e-01 2.174335023896968089e+00 1.497502691942744235e+01
-5.495504892745543657e+00 4.167848627020974916e+00 1.560397583279241474e+01
-5.886238374978145060e+00 3.632224617978899506e+00 1.497455995904181947e+01
-5.371008744633915200e+00 2.245416584924351699e+00 1.164908951044405683e+01
-5.184067089639974313e+00 2.170936397459141798e+00 1.130804981885527383e+01
-4.760838985770307730e+00 2.139171493220990428e+00 1.095133831831524418e+01
-4.807333315410033947e+00 2.177131543055100593e+00 1.110356808864782607e+01
-4.417985942744322436e+00 2.154928469558483162e+00 1.090486771947851707e+01
-5.028532527738118318e+00 2.203653168411960905e+00 1.129776657477666646e+01
-3.926436362400062663e+00 2.134347194032161887e+00 1.081160489464701868e+01
-4.170284388726864577e+00 2.132109277630932276e+00 1.078394378833129963e+01
-5.127602312993365885e+00 2.683813069599382928e+00 1.257043740425271494e+01
-4.201427380347597662e+00 2.272171625041893517e+00 1.125278195872018472e+01
-4.041070449235292905e+00 2.287001815268641547e+00 1.125125208951109101e+01
-7.553758158460183836e+00 1.719043892908106885e+00 1.413526778042583487e+01
-5.097643017230483409e+00 4.178287853999137269e+00 1.522836704317345635e+01
-4.890327499338992467e+00 4.092957371720352455e+00 1.495158135219289619e+01
-5.064111654564449339e+00 3.974556437438723666e+00 1.482239874844223948e+01
6.028386495020097158e-01 9.304677982973125205e-02 1.503455035348460456e+01
-4.889979437582038457e+00 4.348557903911492772e+00 1.546642645103690228e+01
-4.914415588340617091e+00 4.185387773044558557e+00 1.514824132668345413e+01
-4.918098383124524631e+00 3.653137811390823497e+00 1.417069489972892171e+01
-1.293925401578234435e+00 1.802796112538603834e+00 1.277139087550400376e+01
-1.501805408767368233e+00 1.858173965070853084e+00 1.241021395508180802e+01
6.225061790650801008e-01 2.815913973441133700e-01 1.511647191230256482e+01
-3.918421433457837111e+00 4.491289605857438971e+00 1.557444701610574356e+01
-9.480630391997192374e-01 3.161655659368684201e+00 1.610975841364764705e+01
-1.053635742376973328e+00 2.931509704611014566e+00 1.537639856770687175e+01
-1.377965747887890835e+00 3.364429512690883861e+00 1.552933154383909198e+01
-1.746499026407229316e+00 2.362316870334307595e+00 1.281030543302053815e+01
-1.911462765411804154e+00 2.324948604023676424e+00 1.239851490961197555e+01
-4.643692041119749092e+00 3.983838450598676584e+00 1.463702006655307031e+01
-2.149698593057197904e+00 2.576216779277586966e+00 1.283581410973893355e+01
4.694627351569591323e-01 -3.553296035715731271e+00 1.573723620219457331e+01
-3.782663398990726566e+00 2.426850499913260073e+00 1.148028263050571951e+01
-4.016358804331977339e+00 2.821210050244701950e+00 1.227159767921759226e+01
-2.530954117180240104e+00 2.265813960978058095e+00 1.163597124257324822e+01
-2.399588142925333401e+00 2.443139331315780094e+00 1.221933165341695826e+01
-3.759655482006035943e+00 2.816599252887011851e+00 1.227110944265103143e+01
-4.094946785074204065e+00 4.294956115638738581e+00 1.515500586542184180e+01
-4.362203425072079810e+00 3.755532980834174861e+00 1.415338971527488354e+01
-4.150442113921854137e+00 3.956161628906782912e+00 1.449472621152874297e+01
-3.933198005109837858e+00 4.292454226723408262e+00 1.516688443995082025e+01
-3.860884466692287464e+00 4.164083675709785659e+00 1.493320085005913000e+01
-3.677307983273010006e+00 4.232568320163765385e+00 1.517386782086435204e+01
-5.365462533979517445e+00 3.556529916013421388e+00 1.432884480534413285e+01
-3.168201368019887276e+00 2.475386414756469922e+00 1.166619779791336953e+01
-3.298411897386337444e+00 2.484073925728389032e+00 1.162587767238090919e+01
-2.748679497902480229e+00 2.264311377343755538e+00 1.143019508513846461e+01
-3.031255377156552910e+00 2.289564327184652193e+00 1.124386692707071944e+01
-2.533253230040309223e+00 4.360797436984373832e+00 1.611328783112560359e+01
-7.707146909592834660e+00 1.662979207023027373e+00 1.435941591117538962e+01
-3.710570228279351568e+00 4.437750342345414545e+00 1.555072923677374064e+01
-7.481075553938508094e+00 1.628701806309252875e+00 1.377187018281110653e+01
