-5.772151712114212074e+00 3.049464645959476083e+00 1.780123929965084528e+01
-5.526976806654057661e+00 3.600899580545961154e+00 1.775798740913420914e+01
-1.490762277768697075e+00 2.169696891193578558e+00 1.384116354765940571e+01
-7.012660147908328589e+00 1.464156451783897861e+00 1.618117033675006411e+01
-2.006219184407232348e+00 1.742775789467239544e+00 1.210490525772510040e+01
-1.065580001957971756e+00 6.224912367388616419e-01 1.220434245211301061e+01
-5.328657977122452039e+00 3.852934953285901187e+00 1.778233637818937751e+01
-1.356242005182208832e+00 3.094286611283978417e+00 1.852078112647416930e+01
-5.969261197392937923e+00 -2.256240310574818331e+00 1.465603761844892006e+01
-5.894643442356271024e+00 2.971544757030925688e+00 1.772605867395786561e+01
-3.283052674180621189e+00 1.748347738788046168e+00 1.094678147545626956e+01
-1.491149138909535266e+00 8.557282019729952616e-01 1.917425009164851701e+01
-6.946123793814683367e+00 1.250553224352418447e+00 1.673824958293437248e+01
-2.630960444893913230e+00 -1.065052745770557419e+00 1.378953070793604496e+01
-6.056568768422634363e+00 3.704514659165396129e+00 1.698608852735378605e+01
-5.326954922276028626e+00 3.027566983455319605e+00 1.813824485729157487e+01
-3.260473033985009206e+00 3.723216455423002724e+00 1.473251258364245331e+01
-4.104262034518828095e+00 -5.596535471291653741e-01 1.267507006572472505e+01
-4.335815499309192411e+00 4.205868411741476187e+00 1.811683271885066659e+01
-6.814347429851150828e+00 -2.301379737651466861e+00 1.506280577232917040e+01
-1.654132422299237293e+00 4.627970050946215608e+00 1.776824387171895836e+01
-3.130763667963700758e+00 3.489753768263151645e+00 1.861004327293944982e+01
-3.529688943927805411e+00 3.625146211565559717e+00 1.853873503317750249e+01
-6.084647758820499241e+00 3.155246637511185170e+00 1.594893945122602474e+01
-3.238524470417626366e-01 -3.634325145333316409e-01 1.335684023214910354e+01
7.939661379799454188e-01 -2.611146719267228189e+00 1.710570381534748918e+01
-2.762175185849195191e+00 4.605968574198281651e+00 1.807260588110678157e+01
-6.769770515992886928e+00 -2.450992058904744919e+00 1.513154732400798963e+01
-2.935977431953655792e+00 5.217944522000372842e+00 1.771038565516318641e+01
-1.092711335634942937e+00 4.476158216130630141e-01 1.920725847795608132e+01
-3.873456240206353485e+00 -2.212018076419148827e+00 1.910327597542782030e+01
-3.970215600260951216e+00 -2.527193369571268722e+00 1.556756768456529016e+01
-3.697967737585157622e+00 3.191951971657534859e+00 1.312975770436887757e+01
-2.977804279277183941e+00 5.130916640656494998e+00 1.755172618053465072e+01
-3.287731080167509923e+00 -3.415953100446134982e+00 1.898467962477403148e+01
-3.233490763640637589e+00 5.221804819793724128e+00 1.770677191650810300e+01
-4.448447835974762565e-01 -2.738190473915663947e+00 1.920595295797701141e+01
-1.071912445385562185e+00 8.465421821459410134e-01 1.240575995629631478e+01
-5.559853236436929969e+00 -3.151046655173906696e+00 1.578793746202816095e+01
-5.441614321014156097e+00 -1.518653802370550920e+00 1.380079327022831848e+01
-1.005276166680517225e+00 1.112789868815705407e+00 1.296437057702890172e+01
8.082697431738521399e-01 -1.531358653328367847e+00 1.801424327728086894e+01
-7.005577522443626748e+00 -5.749870802041875395e-01 1.736705082486759011e+01
-1.508821397420616606e+00 1.945070214535369879e-01 1.192348623703261978e+01
9.518081314814064164e-02 3.295335468798046841e-01 1.475926616171737749e+01
-2.110275997072124987e+00 1.096487808799709029e-01 1.183660819437064760e+01
-4.825696617185204929e+00 -2.135435979095658965e+00 1.502741158831391743e+01
-4.767684510056338532e+00 3.482618851327285547e+00 1.825992258050978734e+01
-6.682432903968518190e+00 2.457225437512796873e+00 1.687492208188047726e+01
-6.149990346995419799e+00 -3.517028614958649158e+00 1.606950838793603964e+01
-6.843307898513143250e+00 -1.681086494017906663e+00 1.466962254005728994e+01
-4.726826439358096543e+00 4.995197216486675806e+00 1.687359966643661835e+01
-4.378141086985950281e+00 3.891045041480450273e+00 1.824845980212821672e+01
-4.862186560479458963e-01 1.487753995889554148e-02 1.294171950543097438e+01
-4.683578986205015227e+00 -1.188649065976434382e+00 1.898383657472765407e+01
-7.075230203395624251e+00 2.553892239672884285e-02 1.692166229951571665e+01
-3.573549267710343091e+00 4.881968970967218269e+00 1.793492084104582318e+01
-3.383719616477184999e+00 -2.674931953239082283e+00 1.575630166737855831e+01
-5.249395533339244579e+00 -2.163357348843084171e+00 1.885412518813863159e+01
-3.428163961203876120e+00 4.981531492771138048e+00 1.787687519419785787e+01
-4.561076784370195369e+00 3.570923406578370152e+00 1.830689605864984770e+01
5.082455094829596565e-01 -7.925683694925864664e-01 1.471553196359067073e+01
-5.596274167799434096e+00 -2.350582680116885648e+00 1.483618248826181230e+01
-4.788244831313376970e+00 -1.496798112210135034e+00 1.403342884513417488e+01
-9.491363784068933551e-01 6.288178816676345262e-01 1.238594052223410102e+01
3.397498866685381147e-01 7.288779486218295300e-01 1.615377266954908464e+01
-1.512795171639016889e+00 3.756995261083284632e+00 1.681700169596707184e+01
-4.811537784552036179e+00 -1.633732631254531054e+00 1.426164805296636473e+01
-5.290079880484310770e-01 2.077824839148879388e+00 1.856627686159872326e+01
5.553882485555055037e-01 -1.523320786719323028e+00 1.868236384620914947e+01
-5.746506070838057756e-01 1.052493456853965892e+00 1.390027008380221929e+01
-5.757229473931930741e+00 3.565791616234049166e-01 1.249429355346696013e+01
-6.975290351608938622e+00 1.469449756951896724e+00 1.599730723136579513e+01
-6.043651489676114430e+00 -2.261390873735955598e-01 1.295509690616769660e+01
-6.858416007639061007e-01 -1.664511385286883971e-01 1.278529362257981461e+01
-7.092007688532439680e+00 -2.857660837776606844e+00 1.595347976680061208e+01
-1.867517870462580110e+00 -3.945306684582492895e+00 1.725334270891908517e+01
-1.908175370994650066e+00 1.457882520335653354e+00 1.182553779523152571e+01
-6.766953127357270503e+00 3.817447149804915202e-02 1.776925059023020026e+01
-3.429746017726307272e+00 -3.176582200700432956e+00 1.903185121708064287e+01
-4.089105526328775220e+00 -3.539693588789856737e-01 1.908502907043452268e+01
-6.583576623574582953e+00 -2.945674389968504947e+00 1.544063919419374287e+01
-4.285913983855333953e+00 -1.075142408074473366e+00 1.363165771900795420e+01
-3.459132309465607680e+00 -8.792885773364143009e-01 1.336771540875616182e+01
-5.609110577932510999e+00 3.694711864720599870e+00 1.764098413002535892e+01
-9.047094926261393111e-01 2.101494672191002167e+00 1.504950556372629933e+01
-1.379151674383355952e-01 -5.217747324807357756e-02 1.357779044933542423e+01
7.718423913631156097e-01 -2.906754656891744837e+00 1.824637906448247548e+01
-1.858609173088014099e+00 -1.191929267358710770e-01 1.925673626139349892e+01
-8.494372239320727713e-01 -3.470308080384462701e-01 1.282062581897353226e+01
-6.157926045917966107e+00 -3.603440146890367402e+00 1.813852378729730930e+01
-6.227158829430040399e+00 -3.511066859575298071e+00 1.818352913702238283e+01
-6.823507701861208474e+00 -2.972698227364157120e+00 1.563464504290963220e+01
-7.004328295059863763e+00 -2.931250810182133293e+00 1.586664993024876225e+01
5.832190302090700662e-03 -1.674248793658990930e+00 1.919281525071711769e+01
-6.160743050810873811e+00 3.452560885033061910e-01 1.305497817386944348e+01
-3.453729760281905481e+00 -2.344979560862296086e+00 1.917627513047946763e+01
-2.698856808623722792e+00 2.593495609672967994e+00 1.268508020855372820e+01
-4.900797136667511822e+00 3.567951722504763890e+00 1.472317309306178856e+01
-7.133088864373666738e+00 -2.712256805121453951e+00 1.588889797769327572e+01
-3.830253332683362988e+00 -1.044726763700048799e+00 1.364194895618064152e+01
-2.883063907550772687e+00 -5.287841506348454068e-01 1.284740657996844249e+01
1.595623698046532701e-01 4.918985675972666893e-01 1.859274334887963676e+01
-5.494739983074317102e+00 3.707074787429380236e-01 1.230299344094257208e+01
3.792386418960344008e-01 -7.152926209673172719e-01 1.874209984781996496e+01
-7.188521616187586005e+00 -1.908364501891508525e+00 1.553922168666755255e+01
-2.096780280621262982e+00 -1.076211150001497308e-01 1.217805701522031825e+01
-5.761605513668441425e+00 -3.280593247500692478e+00 1.586731416464269273e+01
7.833873020915449459e-01 -1.260075871372654532e+00 1.648815611572960194e+01
-2.278051543100234611e+00 -2.764582518620021800e-01 1.253621898518485267e+01
-1.867945218580157607e-01 2.692594866561556444e+00 1.780471804045586026e+01
-5.432822653908817578e+00 4.360421710048341559e+00 1.740080498353243144e+01
-5.639875284990807813e+00 -1.412291936069943521e+00 1.371379502740189338e+01
-4.483802313359478653e+00 -9.874807076586443744e-01 1.901944408174350798e+01
-1.125474649730988874e+00 1.743986843503535056e+00 1.382638782458563753e+01
-5.269078784362639212e+00 -1.060429829722307815e+00 1.327995194754997499e+01
-5.478116685837318478e+00 3.790253809863315837e+00 1.770711271048840985e+01
1.148279303377567895e-01 -1.134672257482049140e+00 1.907154052761463703e+01
-5.391814013821858431e+00 4.062120057476087176e+00 1.761850650657885353e+01
-4.576212411375502498e+00 4.036690300486433181e+00 1.502975875318779941e+01
-2.817841943799103133e-01 -4.253030584012826409e+00 1.803536484619527158e+01
-5.355045920157342820e+00 4.641956928049273401e+00 1.722905033644359918e+01
-3.491649032245867978e+00 -2.474207211962074215e-01 1.223813064116855998e+01
-5.223592131310325293e+00 2.686008568666700125e+00 1.382666848174487484e+01
-4.305677244549697136e+00 -4.191768883517926092e+00 1.815306461547080374e+01
-3.674444089290670679e+00 -1.452433237292869439e-01 1.204519453574297927e+01
-2.950703131195205220e+00 -1.023627848749141395e-01 1.206190562160464452e+01
-5.465360205698463147e+00 -3.723944569031325980e+00 1.835571152254961902e+01
-6.702565065363137009e+00 2.058407421607149068e+00 1.699538236546582937e+01
-6.742310804014671533e+00 2.255917504290448683e+00 1.680775599939958198e+01
-3.552496378345427974e+00 1.204057405322259910e+00 1.085093104551516063e+01
-5.205069526462240859e+00 -9.538549705113948951e-01 1.315430035894374328e+01
-1.075025284964753247e+00 -9.587038188347551948e-01 1.929476633528285134e+01
-7.127949392690993591e+00 1.266299852845613749e+00 1.619991087833750498e+01
-6.370050521779314856e+00 3.268468346990918594e+00 1.696573594707120947e+01
-3.386323784750310928e+00 3.362390108020369972e+00 1.863669408205494449e+01
-4.113431344715184901e-02 -1.320452224365896488e+00 1.918206864455384419e+01
-6.580555233285937611e+00 2.436866187235059211e+00 1.705851729221188151e+01
-1.351066873949147817e+00 8.568272615491057120e-01 1.198080746076551861e+01
-5.931260690104180888e+00 3.248404086828207138e+00 1.755902929859534822e+01
-9.312632757527634642e-01 1.164191215608628927e+00 1.322166688214399954e+01
-6.026449847378448688e+00 3.244669468478457830e+00 1.745323787940700555e+01
-6.200624610174699569e+00 3.220874232832083628e+00 1.723887809487699485e+01
-4.631907237645980224e+00 -1.414879150373769434e+00 1.403742033327478822e+01
-3.687186971861598384e+00 3.621680593620225874e+00 1.393180911620685691e+01
-2.695680853252850451e+00 9.955798369218532562e-01 1.916522726900196716e+01
-6.887396394209869266e-01 -3.715330180523465309e+00 1.895503689610711007e+01
7.779138521469108891e-01 -1.087488938704260999e+00 1.795448660157043008e+01
-6.148426782666287949e+00 3.037152327827826959e+00 1.740324412137817944e+01
-1.464314011660656778e+00 -2.952111906931052410e+00 1.913899709207451139e+01
-7.078826266059408123e-01 2.072455070121307141e+00 1.546659040828598108e+01
-5.816375817711187501e+00 3.284519767887663644e+00 1.765696376888556784e+01
-1.300971056870512843e+00 2.694176289330477925e+00 1.526610748633538606e+01
-1.514078366153034816e+00 2.280269738381516476e+00 1.883450553380404813e+01
-3.919324845276993319e+00 1.643115479561894965e+00 1.894124315558775606e+01
-5.953029068193308682e+00 3.458232691453110963e+00 1.742082242855001795e+01
-5.627929589940081634e+00 4.016433264578961548e+00 1.744479624121594696e+01
-4.956268701736882498e+00 4.648935009358016401e+00 1.759079753705406546e+01
-5.781961597245348194e+00 3.827381764472766790e+00 1.739620962666064230e+01
-2.984304758500407218e+00 -3.815043612005974527e+00 1.703345060549891343e+01
-1.709137336201671520e+00 -2.119508747078774125e+00 1.548083743057009798e+01
-5.447097272573230953e+00 -1.819854632885455015e+00 1.885093034112097854e+01
-5.048833720745108167e+00 4.733376821996717609e+00 1.747558701715265528e+01
-4.177583536633255434e+00 -1.790334467092558501e+00 1.469255404657315722e+01
-1.367700686905147345e+00 3.855475005658856702e+00 1.822070260871447545e+01
-2.743057777707407219e+00 8.892654915263423776e-01 1.101719156882634820e+01
-2.754204343765562779e+00 6.070767284556568555e-01 1.122689863900024676e+01
-4.426278862021745475e+00 5.095343393257026676e+00 1.760316419825323209e+01
-4.581359821868715265e+00 5.054055924823243728e+00 1.755774569516981387e+01
-7.157744842755242587e+00 -1.960676930650215866e+00 1.711925272704375800e+01
-4.619079934470187609e+00 4.878686208163026450e+00 1.765417519915162359e+01
-1.697202112085021808e+00 -2.319671280288824633e+00 1.569509138444860241e+01
-5.270251604264077905e+00 -3.634352294559181296e+00 1.849686974566807152e+01
-6.646160572941721689e+00 2.685537296616805847e+00 1.676846990042140817e+01
-4.763477983783697134e+00 4.477136588486412272e+00 1.779641184780592766e+01
-1.412063238791816944e-01 1.611009296767646148e+00 1.597188133050764236e+01
-8.378974342757496974e-01 6.325372471706590671e-01 1.254894613873697296e+01
-1.251792304333919192e+00 6.286607613359630475e-01 1.193147978552303812e+01
-9.256070084927160435e-01 7.919383831692582421e-01 1.260376285829233467e+01
-6.658323855603917707e+00 1.741950695849659780e+00 1.724301519414692763e+01
-1.923553354189221132e+00 2.456218989949078058e+00 1.884798012874828999e+01
-1.066020212103245823e+00 2.712838441370270637e+00 1.584130089711362643e+01
-4.481034327889688029e+00 -1.167938832121853121e+00 1.368740758646919176e+01
-2.720239673729397456e+00 3.908002908459619062e-01 1.141886689111567321e+01
-1.325431890112675148e+00 1.565719619308574728e+00 1.305912361133710675e+01
-3.656033058073411723e+00 -3.612196540713840109e-01 1.915702073532016669e+01
-2.915591043673140259e+00 1.785964501344625144e-01 1.163750586427930855e+01
-1.878211431657867303e+00 3.314084629294102413e+00 1.855630266687295205e+01
-6.675451679063975519e+00 -3.460411749180950736e+00 1.610794908456659869e+01
-3.163398508022685185e+00 -5.228385915673233048e-02 1.193816632728005089e+01
-2.746901608387801730e+00 3.117544847093071336e+00 1.392858998459630726e+01
-1.192884053100761177e+00 2.754468721871459636e+00 1.563281274997417114e+01
-6.661081765653723785e+00 9.090317845574975575e-01 1.457331845954148264e+01
-4.924229009872905571e+00 -3.549196478829971912e+00 1.654833819631486591e+01
-1.916735239618843956e+00 2.079595853337881661e-01 1.176680899273650027e+01
4.661724982196430167e-01 -8.229954929221643400e-01 1.511080070304223000e+01
-2.642672350462344166e+00 -2.361656571118861958e+00 1.548131908846404059e+01
-4.534790722421696785e+00 2.235817494172374076e+00 1.869189347432738657e+01
-2.020831325932110900e+00 -2.984605928096801808e+00 1.915244786687504330e+01
2.079669916287066878e-01 -1.817375627526750748e+00 1.528151797982538795e+01
-3.436913421210785025e+00 -1.467155406108015203e+00 1.423480705593605222e+01
-2.128927464006210357e+00 4.677375542826475718e-01 1.145147299310310629e+01
-3.085509101902515372e+00 1.261683135403408595e+00 1.910654404960356345e+01
-5.289646002037138750e+00 4.025055594200272147e+00 1.771847580650943854e+01
-2.556903549217218075e+00 4.465689467955574976e+00 1.813029316608650277e+01
-6.703545859547978658e+00 -7.985254019543733817e-01 1.815954033179536964e+01
-3.436176772639151222e-01 2.668763949208873942e+00 1.816296796661209356e+01
-7.241822720907047373e-01 5.932434748976526118e-01 1.277109623284054152e+01
-2.351167469458943060e+00 2.265132615115720283e-01 1.165349271587079727e+01
-4.731978008246136014e+00 -1.898035744652664114e+00 1.476155241717351174e+01
-3.474864032279551207e+00 -7.463450487942553391e-01 1.919746484681147081e+01
-1.698441698507754394e-01 1.168722690756286209e+00 1.516045660066870937e+01
-6.287348299399561746e+00 2.345349145227375143e+00 1.533337183914117929e+01
-6.280909357514752323e+00 -1.300065935770597925e+00 1.382924408417282791e+01
-6.455807990281569708e+00 2.889591316856824577e+00 1.636922580407620131e+01
-4.287689860519259710e+00 3.162852351138365492e+00 1.355578955886876003e+01
-4.632546656846835198e+00 -1.001011803082024976e+00 1.324842377622964307e+01
-5.251434132129907617e+00 -1.228754372831462049e+00 1.346066757988326401e+01
-5.762429420030215965e+00 1.588901990943590636e+00 1.330868199589131962e+01
-4.333034415792251792e+00 1.431892963254723483e+00 1.096968875683313982e+01
-4.868771802050846809e+00 -1.752129542245506322e+00 1.893743919821167765e+01
-3.128018687453877789e+00 1.607129512316901321e-01 1.164623165872310295e+01
-5.045489916169357159e+00 -8.689428057944036388e-01 1.303740429431670123e+01
-2.384506081817910905e-02 -1.618583896458735794e+00 1.491248404170276132e+01
-6.025136423986956480e+00 -1.463301729552386909e+00 1.386086548328589885e+01
-3.926508641898108776e-01 -1.817432997141125828e+00 1.491989800802842581e+01
-2.832682654150748824e+00 4.071611939225256549e+00 1.598001789969090680e+01
-6.570010669713743923e+00 -1.678974510598476133e+00 1.433173620040687979e+01
-5.617914908194110879e+00 4.266315524890385902e+00 1.724726381070009040e+01
8.427224894596602178e-02 -3.843560501724262224e+00 1.875259144118621890e+01
-5.861062373777958356e+00 -1.393176443146411536e+00 1.375324708623703174e+01
-6.002578707594819818e+00 -2.845306790394216190e+00 1.530016379639057078e+01
-5.708974052279284450e+00 -1.841025839684877763e+00 1.881084408901782723e+01
-2.420956169135341174e+00 2.485294786798151190e+00 1.284779912825650428e+01
-6.916837318611992469e-01 1.469390729251663696e+00 1.886402025828962081e+01
-6.034766598356703149e+00 -1.237479643666219875e+00 1.368003156929660236e+01
-6.543427636628365462e+00 1.854420310621957224e+00 1.739510653324212797e+01
-6.045417679292875768e+00 3.532467420788074186e+00 1.727354921150742939e+01
-6.551568825289153963e+00 6.236990566170060868e-01 1.794038536633809855e+01
-7.017279609750229241e+00 -1.916368170941932458e+00 1.509709183160374124e+01
-4.304343071104550056e+00 -1.770457429058081011e+00 1.904411354663885447e+01
8.339744440656302604e-01 -1.299743556453629267e+00 1.787759999847013859e+01
-7.076454394285101479e+00 -1.911981254477715275e+00 1.524087517020620908e+01
-2.846172554625622464e+00 1.691805423826370891e+00 1.906286857160623072e+01
-7.129692630546673016e+00 -1.892118157970848813e+00 1.537100838690865601e+01
-3.159985115733241035e+00 -2.655035982384638338e+00 1.575333068746471810e+01
-3.367433801899641921e+00 2.133669583128075808e-01 1.158318539722036888e+01
-3.520430378554584738e+00 -2.115221602711884683e-02 1.186466678726328894e+01
-4.956912275940208445e+00 -2.491598868338388950e+00 1.540153340686172356e+01
-5.541533956949052708e+00 1.072799895101438139e+00 1.860846431038297055e+01
-5.535600955904566689e+00 1.439709375452655316e+00 1.852513719227228250e+01
-3.914215656717875191e+00 1.022286611125911016e-04 1.184275628971963812e+01
-4.573757207608573516e+00 -2.523214611727963241e+00 1.558449676797040695e+01
-2.156462992175153914e+00 6.886128993771563067e-01 1.126313452074720090e+01
-6.626386026762424386e+00 1.885462307518665170e+00 1.723539173257108104e+01
-2.246382914146683341e+00 3.166895801864602955e+00 1.467874837880116701e+01
-4.792647732499180080e+00 5.080628499353826655e+00 1.740851626497367732e+01
-4.732173229851834861e+00 2.654510274927848190e+00 1.328943667560215403e+01
-8.628896154179699352e-01 3.124332800292970003e+00 1.832773764741918399e+01
-6.735032152586446053e+00 2.217733370432643181e+00 1.620742746151911717e+01
-1.534498439618377619e+00 6.368195307702930741e-01 1.161518762048388353e+01
-1.586129980531252537e+00 8.439809330275775956e-01 1.162887342631032439e+01
-1.719115810665909017e+00 4.403525352279801797e-01 1.161601459888261090e+01
-3.842402644671023104e+00 5.025061946027552295e+00 1.700229742826155643e+01
-3.724210243239129081e+00 8.718061778046509724e-01 1.111225119351303547e+01
-1.651468263311954177e+00 -2.433698364768970723e+00 1.922611507741567038e+01
-1.982571837826206496e+00 5.037247688184741667e-01 1.146050346304949485e+01
-4.720668158841027306e+00 -7.077677064189298317e-01 1.280332746528566190e+01
-3.690301690232209886e+00 -2.443593527628719342e-01 1.220282673552486585e+01
-2.720089750729585809e+00 -2.987683362705929602e-01 1.248113406970129802e+01
-6.927508970550618983e+00 -1.497056328834848404e+00 1.473558782134596612e+01
-6.421034225236486037e+00 -1.492515765392624871e+00 1.406757492924272412e+01
-1.278320417628924677e+00 -2.465647283839600690e-01 1.249180388750892234e+01
-5.113323563490978607e+00 1.014329491446897435e+00 1.172319008757121139e+01
-7.152957991162993245e+00 -2.924025629555132344e+00 1.629980740745161683e+01
-5.567936370235529786e+00 2.440241458864500057e+00 1.393986914664924370e+01
-7.183879289833988047e+00 -1.358246617247561350e+00 1.695462480428008689e+01
-4.320265181307329172e+00 3.242294378296943780e+00 1.849035472036945293e+01
-3.908590942857343986e+00 3.648143162217847735e+00 1.847343556936800013e+01
-5.742935455781454479e+00 2.602304241256854667e+00 1.450681593644931411e+01
-6.314191684908152524e+00 -3.853167620360590018e+00 1.659504089628448043e+01
-1.314973374291326658e-01 8.695109742016978727e-01 1.875736363466966594e+01
-4.639495923115435794e+00 -3.776679350266782809e+00 1.856552297467278834e+01
-6.131119567651528435e+00 6.425227105889794732e-01 1.838358232386022451e+01
-4.441647124963805204e+00 -3.400019344519654041e+00 1.652897855829210272e+01
-2.323371252546396981e+00 2.647730570700205899e+00 1.883369146840527009e+01
-3.769260658898010430e+00 3.817440049018714809e+00 1.843697497446728306e+01
-6.660100152706614374e+00 -1.709000230617170768e+00 1.444279280525805831e+01
-3.745574979074036914e+00 3.647551807891160180e+00 1.850338080417065356e+01
-3.149010524656362886e+00 3.840853501101767264e+00 1.848981991763688626e+01
-3.162568171954378116e+00 4.072850194308186289e+00 1.839571800728492690e+01
-2.986610180071046283e+00 4.206465419869806155e+00 1.832899692060840380e+01
-2.395219248484212748e+00 3.061619509082013302e+00 1.427579925239363945e+01
-3.196050395996859361e+00 4.875542340257033480e+00 1.794653707618740412e+01
-5.316830295140730911e+00 5.831742404552808789e-01 1.207792025725031237e+01
-7.086052149077653795e+00 -1.377509455584679188e+00 1.732854800184635735e+01
-3.454858388874460506e-01 2.099221056949304387e+00 1.842633656855836222e+01
-6.616261564375294668e+00 -6.208006121160485336e-01 1.825419900853878374e+01
3.281186311131079059e-02 2.122795161924396101e+00 1.739147641634339436e+01
-6.671092212343941341e+00 -5.421696676558322991e-01 1.815286353460694357e+01
-6.574818641093096439e+00 -1.536819499010196599e-01 1.818348285513445006e+01
-6.527066189819392683e-01 -1.351871531506673829e+00 1.931133174793944107e+01
-3.150981840030568026e+00 4.433267572806977697e+00 1.820994819623268057e+01
-1.167767207873080748e+00 1.517542588603390641e+00 1.330624701243653618e+01
-2.924691716179394607e+00 4.496254200614385077e+00 1.815817343318222044e+01
-6.672838794935333162e+00 -3.663139056763911494e+00 1.664942675495439772e+01
-6.827200673409615561e+00 -7.793570864638570406e-01 1.790151503059205140e+01
6.783604378463830020e-01 -1.685760346809246801e+00 1.586713448899117651e+01
2.473035011843865982e-01 -5.167964069369517244e-01 1.884208357320082428e+01
-4.511575481579727764e+00 4.105744595213236536e-01 1.168457773183428827e+01
6.212751558661220308e-01 9.614766904270372061e-02 1.787762754077597549e+01
-6.324485003636247882e+00 1.812519145144989352e+00 1.774469920746076923e+01
1.450219343684814866e-01 -2.306976192111079182e+00 1.912794850902872668e+01
-3.538533777955839454e+00 3.434145044576794259e+00 1.860013324440494387e+01
-2.749522601692183432e+00 4.097211747214368316e+00 1.836383248537934065e+01
-2.958805544144721633e+00 -2.659444992662445717e+00 1.578141703347360902e+01
-6.966256230705807795e+00 -1.547017651872480304e+00 1.773178954435591237e+01
-4.148485997765146038e+00 3.658115262412304780e+00 1.840684323891623819e+01
-4.023053088337202432e+00 3.111029054125745930e+00 1.322700064467700543e+01
-5.714161025321063292e+00 -2.582816114895325477e+00 1.873803153930096244e+01
-6.784766268473569895e+00 -3.329427094202243254e+00 1.604028383491321819e+01
-6.879180756421870768e+00 4.486685330968411822e-01 1.730659482549567230e+01
2.371242067289514033e-02 -2.021777341278491402e+00 1.531793721885781423e+01
-6.724381887916181633e+00 -3.511557067490257644e+00 1.628337206859551145e+01
-8.317305131588139666e-01 -9.318850084868978145e-01 1.357558871701343151e+01
-7.281650124529264190e+00 -2.299746728806793428e+00 1.631076891060994427e+01
-1.481960899358662598e+00 2.185027801700287764e-01 1.923872114878106032e+01
-6.102878199868207787e+00 2.041376918400640950e+00 1.790784468346240743e+01
-4.833153034663884462e+00 -2.010590898191107811e+00 1.484631441050593281e+01
-6.721976776366735962e+00 1.411336328223745884e+00 1.521640833107684898e+01
-2.623299660847082215e+00 2.689955166922839869e+00 1.304145504296538860e+01
-5.179846378568488952e-01 7.725571464646382447e-01 1.358963753790143869e+01
-8.098111929871776304e-01 -2.158369451212720502e+00 1.538981087470078535e+01
-4.889910062671636304e+00 -4.219163017039648800e+00 1.731365115168005531e+01
-4.579410182256133943e+00 -1.787195679235459966e+00 1.468666862514057669e+01
-5.757227665866143873e+00 2.238118514991906949e+00 1.407527208284026443e+01
-2.635277535571066920e+00 -1.214518115327628323e+00 1.400410253901146262e+01
5.111720945160859175e-01 -2.159535156886959850e+00 1.882826881559181231e+01
-5.367018349489155682e+00 -2.625875368012084543e+00 1.527320792105845015e+01
-6.807570060250704103e+00 -2.730095071958441810e+00 1.803228205386840699e+01
-1.033439263499075000e+00 -1.542788462355414225e+00 1.930272551784963753e+01
-1.151738074875470419e+00 -3.187634152593729731e+00 1.659274232272746019e+01
-5.190289932955979069e+00 -2.343053947708995555e+00 1.503394147834506356e+01
-1.229649732288189856e+00 -7.830340889297644491e-01 1.333430701677308861e+01
-5.633975050095345161e+00 1.532119200016150540e+00 1.299933736770933024e+01
-3.426235383408210655e+00 -1.607158982314091489e+00 1.442667039504578952e+01
-4.714852572440518585e+00 3.406730468841054016e+00 1.431195116471452877e+01
-5.008550284448414658e+00 4.072598353558119832e+00 1.787624059448609160e+01
-3.830626579546425159e+00 -1.290129523530934019e+00 1.400409704039303449e+01
-5.975926829667359108e+00 2.466847576028735833e+00 1.482074809171337648e+01
-4.774523806621255417e+00 -2.273602471707681261e+00 1.523740441880371321e+01
-4.384130240255101008e+00 -1.454277313673494554e+00 1.425705255042169028e+01
-6.065137031017158620e+00 -4.441405324783878061e-01 1.309545170227998057e+01
-4.796400798562969747e+00 -1.844550941740807470e+00 1.463409916554422807e+01
-4.358458080987203331e+00 -1.599341475575016602e+00 1.446848329379595555e+01
-3.418356415472942000e+00 1.791865178472940467e+00 1.899459878202663532e+01
-7.329251714218690594e+00 -5.105336447733912486e-01 1.593128904843801052e+01
-4.383418204445153066e+00 -1.871070847612706700e+00 1.481365012424578254e+01
-3.683771080809250975e+00 3.323996203008757977e+00 1.335449916762052425e+01
-6.583975242960326213e+00 -2.101612697078304226e+00 1.468407786247486513e+01
-1.481771298637856171e+00 -8.540890240085233787e-01 1.356260969184559428e+01
-2.056823652109688538e+00 -6.775485333401262134e-01 1.336269864622864390e+01
-2.223265428722819959e+00 -3.097123451579399389e-01 1.261367440125955142e+01
9.037015364400309281e-01 -1.292869143841421931e+00 1.727787242815877278e+01
-2.076412870662816879e+00 -4.757299255927391335e-01 1.296500217491779949e+01
-6.144071489054812929e+00 7.700207876150040320e-01 1.329007263833322128e+01
-2.053214473073456503e+00 -7.940588707244047306e-01 1.357849820653549244e+01
-1.059326733944888854e+00 -4.069828650389613500e+00 1.864579310950750823e+01
-7.303537344698233902e+00 -1.978040775054689338e+00 1.624596124838331690e+01
-4.138299443744720918e+00 -3.790030750475748444e+00 1.691854349826323300e+01
-2.171529007862448069e+00 -2.208004201544103928e+00 1.542822881716436001e+01
-3.384042340714948360e-01 2.890116059596373521e+00 1.802350910723498600e+01
-2.258004549270284045e+00 -7.356553750065056851e-01 1.342050216889256831e+01
-3.563132807460248075e-01 -2.893529004547913175e+00 1.606011827154154048e+01
2.458253656961255640e-01 1.157027905024576864e+00 1.633302618124416483e+01
-1.440892180896312658e+00 -7.383274702659977651e-01 1.331639794423737300e+01
5.838658349302970896e-01 -3.292097158842127724e-02 1.632534474382451606e+01
-7.309860643338690345e+00 -1.536923250592941770e+00 1.590938284304091610e+01
-2.159821971996085832e+00 9.072184005613742608e-01 1.111550370651691111e+01
-3.237114665565577365e+00 -1.003340264742778487e+00 1.356630731319197025e+01
-1.271098871894071891e+00 1.593149120652235684e+00 1.321874533663520879e+01
-3.638596196946880745e+00 -1.122610304096336442e+00 1.374958622955237786e+01
-2.660521867140083874e+00 3.569206414720414333e+00 1.510756430196587985e+01
-1.153544808841918956e-01 2.103672746162395413e+00 1.821284745546492445e+01
-2.923117684882061140e-01 7.503746033690992245e-01 1.415390055981485773e+01
-5.420363485455074404e+00 -2.333773576606354094e+00 1.487772515216685321e+01
-5.978907566759453118e+00 -2.624545230020542075e+00 1.506541691415214501e+01
-4.836951736775223942e+00 2.692434770565180102e+00 1.344827351467461796e+01
-4.727045720673941354e+00 -5.039360617813951615e-01 1.896672336663512226e+01
-6.207489014308227304e+00 5.217306156671210893e-01 1.319917332151173639e+01
-7.229672300601664325e+00 -2.543812870992531394e+00 1.606382662162955910e+01
-4.142772348610256117e+00 -1.131517707011049811e+00 1.379332682200615778e+01
-2.836886612826912124e+00 3.401718128310774247e+00 1.450552032911117806e+01
-6.746109576078191949e+00 -1.216345143191318368e+00 1.415426476058924266e+01
-6.981382256231984051e+00 -3.136838473437768560e+00 1.608255828701690149e+01
-4.213636270141305928e+00 -1.287464255230066357e+00 1.402424780023370943e+01
-6.418381328134521446e+00 -3.855765707416695776e+00 1.741713740286968459e+01
-2.433318977705018593e+00 -5.532341580706352513e-01 1.927895124928886617e+01
-7.282294150973691593e+00 -1.448094365275000683e+00 1.570961909194694783e+01
-3.734338668893687707e+00 4.788844424906019803e+00 1.668855882967262261e+01
-7.252536184733212821e+00 -1.703211194597257006e+00 1.570060883808628205e+01
-4.777789007110941455e+00 2.262877109719292346e+00 1.272729626540460401e+01
-4.894294035804673371e+00 2.211451840747549191e+00 1.273180544613920517e+01
-7.307813948795077508e+00 -3.404969060070305309e-01 1.613235138110669453e+01
-4.479760587405843708e+00 -4.254537687604256213e+00 1.741877931430536819e+01
-3.447380301934205971e+00 3.425185181330396400e+00 1.372332290867939264e+01
-6.638924088257563305e+00 -1.521647805040159951e-01 1.809150790329547220e+01
-1.853835511125858648e+00 -6.717834326005197587e-01 1.332785646091921450e+01
-4.937363561234424658e-01 -5.448307469095771127e-01 1.332995325763747729e+01
2.818406812846122600e-01 7.580976227363375175e-01 1.595315840957884745e+01
-1.245669986775477911e+00 -3.622443028235414197e-01 1.927248052279354340e+01
-3.038838859554124916e+00 -4.327150104266755726e+00 1.793278386252045209e+01
-6.874743557575532904e+00 -5.889053124997115640e-01 1.773171198198392062e+01
-7.342309369706403466e+00 -1.141307576295925941e+00 1.615875155670897811e+01
-1.895135230688386185e+00 -3.937973317936708240e-01 1.275691742321205879e+01
-5.886252453398923556e+00 1.750574214677045770e+00 1.375149033087105721e+01
-4.981252625668010303e+00 -2.693547287906439713e+00 1.562489002612709044e+01
-4.605097830092211630e+00 4.269157399044720691e+00 1.542190208945817886e+01
-7.179703080893797829e-01 1.842975325736730507e+00 1.874839689271406939e+01
-4.245617597377351338e+00 -1.187066736091088703e+00 1.385897919364493447e+01
-1.191955739595749630e+00 1.479081702945498122e+00 1.317953590847909595e+01
-9.374788467355475996e-01 3.897754707038340705e+00 1.790714373829924710e+01
-1.353931516986964512e-01 2.519151808848205665e+00 1.759580136179851451e+01
-6.497148637716115616e+00 -3.785273011178175717e-01 1.833299533863021225e+01
-7.058218356821462258e+00 -7.863321240158356318e-01 1.727711707949563902e+01
-2.550633289745431576e+00 5.078443173259642229e+00 1.773325100118270115e+01
-2.297452617576349443e+00 1.671047732675325914e+00 1.907223444364024800e+01
-5.051346342796109390e+00 -1.391007753822969484e+00 1.368004523536301065e+01
8.343986900682281993e-02 -1.287081845604947095e-01 1.889008137839621071e+01
-3.916792344072814736e+00 2.465035777074036982e+00 1.878895371897466759e+01
-4.975532173675400571e+00 -1.915361895331736175e+00 1.458233334660589264e+01
-2.416223653019042017e-01 -1.883396606388811345e-01 1.332352981966934635e+01
-2.104934931366208684e+00 2.442848940916034550e+00 1.887287183559336512e+01
-2.819190402955142005e+00 -3.173807751858968462e+00 1.911295784795806441e+01
-3.123160039141424704e+00 3.498520193542134393e+00 1.435929931176146823e+01
-3.769257010770309613e+00 9.980673509039897917e-01 1.104135867614930433e+01
-6.795683203051001264e+00 2.077159388916031357e+00 1.619302684583589524e+01
-6.889512630306673380e-01 -3.787368571672427575e-01 1.297712898717409757e+01
-2.680614158504243782e+00 8.210837919315455702e-01 1.918419927041996687e+01
-5.676846515863540610e+00 -3.817210834789570573e+00 1.653339979678784033e+01
-8.335336426706571045e-01 -5.232559280712303362e-01 1.301247651878307465e+01
-1.681622837391570702e+00 -3.262240587767636923e-01 1.257478682388811819e+01
-5.443424483216793064e+00 -9.991188740843117699e-01 1.885449294782181084e+01
-5.839638822907629923e+00 1.136392271086251071e+00 1.296568273911536551e+01
-3.727609336243494997e+00 4.965730562615129629e-03 1.182445571903640058e+01
-6.970787493506570343e+00 -7.336059529188260209e-01 1.752996427178171501e+01
-3.934924120598938480e+00 4.050600391916860055e+00 1.831155737296436570e+01
-1.599642634076199998e+00 1.141529991514706577e+00 1.187777446342096965e+01
-2.939405123716034574e+00 3.052041902143486585e+00 1.874495610797075074e+01
-2.437442826585583866e+00 -4.221313324989897531e+00 1.836218009871451073e+01
-4.158331992245859254e+00 3.975000887341056721e+00 1.828798358033671434e+01
-3.541855442357275674e-01 -2.096294924288245376e+00 1.524253433654783407e+01
-3.286439816726643981e-01 2.349447086147489205e-01 1.336905651652431004e+01
-2.091195612122973557e+00 -3.097764135334854507e-01 1.261536552076108819e+01
-3.363805084408648671e+00 4.436740059020109150e+00 1.820607990211253480e+01
-6.816042077630363849e+00 1.296995139316540424e+00 1.535531492761243300e+01
-5.757692948308010372e+00 3.830607054369710163e+00 1.626408945268639172e+01
-7.301991988709837678e+00 -1.330219865440554483e-01 1.600913633555006044e+01
-3.391212818384100380e+00 -1.698880599856020801e+00 1.454947754897485623e+01
-1.474847083741610776e+00 -4.244010492345379859e+00 1.822367064242599355e+01
-1.651146125945618937e-01 1.390792581298748942e+00 1.555491108473815132e+01
-1.257665836141886651e+00 -5.742856054215216277e-01 1.297038873876877574e+01
-3.002183571146587404e+00 5.233417757790280511e+00 1.760830457971519536e+01
-4.724305733666468221e+00 1.196480432743411093e+00 1.130648892664844851e+01
8.534747454944870970e-01 -4.809203991313108495e-01 1.747015919637964743e+01
-5.689000889358724056e-01 1.073336001383546623e-01 1.280865656940636654e+01
-4.950471761463339782e+00 1.228235448892814663e+00 1.153288753981983206e+01
-5.005126045914658484e+00 -2.250568129876070245e+00 1.504965615782629129e+01
-5.075321430367283781e+00 -3.762046965020640066e-01 1.252976878564832219e+01
-5.298260220095098560e+00 4.389129872804451438e-01 1.213586204859959850e+01
-5.358768609504017455e+00 3.430181642949506227e+00 1.503769783534497151e+01
-5.088211958563150006e+00 8.326306321420898771e-01 1.177704075211813262e+01
-3.274024473996680396e+00 -4.407467356516256984e-01 1.262266002608549087e+01
-4.518436314068759785e+00 1.216238825900410436e+00 1.115774974986868173e+01
-6.937064865657925239e+00 -3.385048336212642006e+00 1.688620305691857482e+01
-3.915207351186558604e+00 4.436736297103006876e+00 1.563949785159686456e+01
-4.343691478685026475e+00 1.201672214700129970e+00 1.109006007561375284e+01
-4.460249172289528552e+00 -1.574713994371154779e+00 1.901792679572911027e+01
-5.857186539629354094e+00 -3.865516863298672223e-02 1.272461894490633938e+01
-7.219523584458801047e+00 -3.533240068126266009e-01 1.652613223037303669e+01
-4.261163033060810790e+00 -3.977649102708556317e+00 1.708624060486921792e+01
-4.675570292082182888e+00 6.425346187174503232e-01 1.890564910865201398e+01
-2.335775379134673368e+00 9.029467797893447889e-01 1.107166157879745327e+01
-2.129959186407349936e+00 1.008047602268738352e+00 1.106027898177136493e+01
-1.985794487379146878e+00 -7.158238280407099863e-01 1.343915554618643426e+01
-4.076756965611819439e+00 -4.212965265596203324e+00 1.817405252830977958e+01
-7.237905303736195783e+00 -1.872553919026841207e+00 1.570697383110763212e+01
-5.633104540682242423e+00 4.286471432367857659e+00 1.680967380414470114e+01
-5.018406725344060071e+00 1.041022963914766120e+00 1.161723809912401606e+01
-2.748731133354455292e+00 1.400229248464939680e+00 1.064444759730077195e+01
-2.184539731594000944e+00 4.201772728978726335e+00 1.822825980935602530e+01
-4.747139846124373008e+00 6.389372310346228545e-01 1.165311292578663327e+01
-7.073901419898938947e+00 -5.185093765298075530e-01 1.712917497095194364e+01
-6.857473455384837990e+00 1.924586251986541541e+00 1.620033595892569167e+01
-6.951532945645364059e+00 -6.624758013569552739e-01 1.441501986587554995e+01
-5.268198729809420833e+00 -1.581082018793125155e+00 1.888454826987157276e+01
-2.620246207712600306e+00 -3.388369544635826180e+00 1.906095948619694269e+01
-6.889337350588412789e+00 -4.635848328405719476e-01 1.433936745550318648e+01
-5.648788719187229468e+00 5.949830598339413967e-01 1.235913894038260707e+01
-1.406347172265251189e+00 4.057760147348089319e+00 1.751422592203953599e+01
-5.268011199977575387e+00 -4.109292722939976272e+00 1.798158401111022187e+01
7.284043585859905079e-01 -3.506500568562000542e+00 1.802467563570591835e+01
-6.629821247963892716e+00 2.252831157057922251e+00 1.705124614259081994e+01
-5.741400757749143047e+00 5.979479368666581474e-01 1.247335985669352709e+01
-1.878221475172465960e+00 -3.505379914977498679e+00 1.901927523808898002e+01
-3.673916148064384490e+00 -2.556093658690156367e+00 1.910715127641321942e+01
-6.073721337250508334e+00 3.717713409568174088e-01 1.292701125484705926e+01
-5.830381903032461288e+00 -6.214986893876934815e-01 1.308795679033613624e+01
-5.313761026777167551e+00 -4.095350105749369973e+00 1.701077192019211282e+01
-1.042830273054307644e-01 2.358015948072649692e+00 1.740336566663086870e+01
-5.512098349066171465e+00 -4.046359397586949846e+00 1.688514641510801795e+01
-5.913395737072813851e+00 5.799708369458195234e-01 1.272255289136324308e+01
-7.119418418444846353e+00 -2.724080425943299133e+00 1.710799883347693395e+01
-6.871843735124448571e+00 -1.299243939578361484e+00 1.448562757622040209e+01
-5.441188341531855599e+00 -1.020086780513522307e+00 1.328519219616162417e+01
-1.891365804512986637e+00 -1.141466594607132290e+00 1.928142844644487752e+01
-5.648208257544597544e+00 -7.811688455757639371e-01 1.313826064986478315e+01
-6.580538567614519607e+00 2.869714286616361409e+00 1.659768758415184919e+01
-4.045906616288480251e+00 4.646934397241260228e+00 1.600981269829831888e+01
-4.719678895942929664e+00 7.590382407353678251e-03 1.205934993503699104e+01
-6.828439572734598784e+00 2.082057342827937862e+00 1.661295462827813196e+01
-7.260033870817264479e+00 -2.482202843884207866e+00 1.628372841077842992e+01
-3.246920074163214931e+00 4.255111050294321018e+00 1.598682263036573659e+01
-6.495812033927949258e+00 2.170327206192429248e+00 1.557554301129759722e+01
-5.196321824942213397e+00 -2.257225186879053602e+00 1.490935118796213033e+01
-1.019961007525443275e+00 -2.333905662390161950e+00 1.568888316531518967e+01
-5.649349944511883770e+00 -5.895337821376743781e-01 1.297525060131030727e+01
6.290933368512907631e-02 1.705171019219122286e+00 1.818814795718613908e+01
-6.162250441115669775e-01 -6.377258114698738378e-01 1.330712726387434230e+01
-6.773948029512756541e+00 5.313541851160816787e-01 1.456873199428593324e+01
-6.058366013471544242e+00 2.724196296846588261e+00 1.766175548626919323e+01
-6.573226941737732032e-01 -9.244268069053558357e-01 1.363186438802958378e+01
-6.129166698083909459e+00 3.626179478120587163e+00 1.699393768097559132e+01
-1.651034714247025859e+00 -3.896956075802539221e+00 1.884906913386996052e+01
-5.778045410617971278e+00 4.119598556990100136e+00 1.700758679322834865e+01
-6.885677432830069833e+00 -8.658569199078545164e-01 1.432802111173540993e+01
-5.795456108915761462e+00 4.079406987514770933e+00 1.684081719902690111e+01
-4.462521413708487650e+00 -3.765414296227460600e+00 1.861710822576086599e+01
-3.539560396263715436e+00 2.698877755584569993e+00 1.879823889785424029e+01
-6.002421473806535346e+00 -1.790902456989994729e+00 1.415302517517142178e+01
-5.935772728799589615e+00 3.859770248295918638e+00 1.679963734944510634e+01
-1.230591443375598004e+00 -1.141818530105959351e+00 1.400245238183019580e+01
-5.019264308424084220e+00 1.927819564904376559e+00 1.239187289336490494e+01
-4.717567901976392086e+00 4.578511220607873744e-01 1.175219372650809291e+01
-3.690101149046682405e+00 -3.171858204631591516e+00 1.631466697325868154e+01
-3.739144428645253537e+00 6.384133525479106508e-01 1.127815208942217495e+01
-4.789676038125582735e+00 5.145435684923033826e+00 1.719454443488004358e+01
-4.795099638589375601e+00 5.096662300679009938e+00 1.704514725525712038e+01
-4.627618706785120217e+00 5.170595968090245798e+00 1.717285817833172246e+01
-5.894791330500794402e+00 1.564316689103988356e+00 1.354858865128236545e+01
1.841988505070934479e-01 -1.170344402372421738e-01 1.879140649591769119e+01
-2.536681721891931751e+00 1.214198540167338525e+00 1.082761988152192600e+01
7.548416287573851413e-01 -7.080883712524873586e-01 1.654475351132642658e+01
-6.109075737290645236e+00 -3.606918515982777684e+00 1.618615838370126170e+01
-2.715676466208917894e+00 1.073593011003938447e+00 1.088897792193547431e+01
-6.938416962887814066e+00 7.573593513884779860e-02 1.478801830534917627e+01
-2.979778903982027938e+00 1.079339131364051685e+00 1.087541196365345186e+01
-3.944865361311034047e+00 -2.709277848039505443e+00 1.578732694899296973e+01
-6.695491779481889116e-01 -2.535263867604726329e+00 1.923814191127821260e+01
-1.888858383204605529e+00 -4.146893575439823287e+00 1.748694618904338682e+01
-2.126248822370496949e+00 1.251978003590379362e+00 1.103102878968814693e+01
-4.858104226038805429e+00 -8.668876519976506101e-01 1.302022037904076512e+01
-6.198347426819149852e+00 7.240764720499840434e-01 1.336790618327690794e+01
-2.219669071151248119e+00 1.223178233781861746e+00 1.092387053396780061e+01
-1.035019213377270653e+00 -7.279728858257640267e-01 1.322780427994655383e+01
-2.445644308031727387e+00 -1.280531318836529930e+00 1.416219302578866035e+01
-6.672038910858022476e+00 -8.735502975537028370e-01 1.390684351324959067e+01
-3.527079253979238160e+00 1.086883779983633502e+00 1.092718421082534164e+01
2.344286077364834409e-01 -2.258025912093983845e+00 1.565281226464342268e+01
-2.106836394670141388e+00 1.086305885368589408e+00 1.916466555832723628e+01
-6.750472195395086139e+00 -5.864038052340516671e-01 1.395343196135134889e+01
-6.416321627508540182e+00 1.665117491348127587e-01 1.826677856962161428e+01
-5.927263567945466605e+00 -4.857269334574505493e-01 1.302796013433512456e+01
-6.873924992889770991e+00 -1.171739749277428189e+00 1.789111818134892928e+01
-6.892969996432984026e+00 -6.701104485625503093e-01 1.427776638775168294e+01
-2.970666065177381743e+00 1.308572262058892210e+00 1.070472631601731806e+01
-1.856920842355476386e+00 -2.553261551816433439e+00 1.921899067282884488e+01
1.584080206924671774e-01 2.069747305524888059e+00 1.764699337323489203e+01
-4.854471747075691290e+00 -3.575951181290374592e+00 1.862561302146931297e+01
8.092132805424498976e-01 -2.867663504566145272e-01 1.765229649079039831e+01
-5.195392381000761617e+00 -3.503723831135390210e-01 1.255379287114062237e+01
-3.269955072379715943e+00 -4.292589988734423656e+00 1.812474595092484719e+01
-5.094405065644100006e+00 4.226639428818560695e+00 1.773947527639405308e+01
-3.951363691704576353e-01 -1.646564512723557527e+00 1.470874931264505392e+01
-3.670670585586923274e+00 -4.461031131317278464e-01 1.256527819749915409e+01
-5.672744347912270335e+00 -2.378199496363682108e+00 1.877238854569739601e+01
-2.964423423258957246e+00 3.093166941074989573e+00 1.356203433929864133e+01
-3.032451659705454272e+00 -3.393368805839420244e+00 1.902770965877763842e+01
-5.994326174347776259e+00 1.897115609048044771e+00 1.806846466809601992e+01
-2.251582709149474226e+00 -3.118497426558352714e+00 1.913476580646541692e+01
-1.543602293436362904e+00 3.390455136005494641e+00 1.605927075869125531e+01
-2.961957490335663579e+00 2.665155657889827889e+00 1.884835102716105126e+01
4.035733130809104896e-01 1.476211784023453877e+00 1.770668979364297968e+01
-3.697946980105511372e+00 1.019687063525432702e+00 1.905973251287731784e+01
-2.104091866408459133e+00 2.546784714318826026e+00 1.348066065524726298e+01
-2.025546006451536929e+00 -2.323057913493795201e+00 1.925464245634906746e+01
4.128540174639935278e-01 -1.021687841447924683e+00 1.878614021697323011e+01
-4.275907975963651353e+00 -3.822310922327284199e+00 1.863394207393788093e+01
-1.151321229715712935e+00 1.707773450339185928e+00 1.369645235771997704e+01
-3.074183528838124180e-01 -3.974272431085124069e+00 1.721837338902511760e+01
-7.110596445645651187e+00 -3.571443056392517024e-01 1.694910355769319921e+01
4.224237902030925085e-01 -3.661645359557625046e+00 1.707687080969515847e+01
-6.273822156443440434e+00 -1.553053588336983815e+00 1.402960243625092573e+01
6.826688075216047480e-01 -3.089685389397779147e+00 1.705655919914212859e+01
2.579091372067257026e-01 1.473439366835388231e+00 1.798983356830583347e+01
-4.198295960364725410e+00 4.249167821599161954e+00 1.505330101225830930e+01
-2.446768927775782920e+00 -2.960104392419410591e+00 1.917301649643610517e+01
-1.047926212133072355e-01 -5.225449461847008203e-01 1.375948019828920366e+01
-1.655718465690014352e+00 -2.277808897320753534e+00 1.924528368516291010e+01
-1.644404492934452122e+00 1.081350036560991157e+00 1.175424934596787807e+01
-2.284149374836013102e+00 -3.349642390422710392e+00 1.907466040271953744e+01
-2.631498552129372559e+00 -2.766513777440590349e+00 1.920415431820669738e+01
-7.036959142573216752e+00 -1.165739961152062243e+00 1.745516928397274370e+01
-5.225465151795408936e+00 -1.330289631714316467e+00 1.357558886386414088e+01
-2.659401493340005085e-01 -1.748172366539134881e+00 1.927474795078312297e+01
-6.238638892156277649e+00 2.302855152420890672e+00 1.517521777293318763e+01
-3.072657505553192947e-01 -3.651276424358020911e+00 1.684951220837390906e+01
-2.350236050787065878e+00 2.775068231689592935e+00 1.879911053556912037e+01
-8.613446082930333869e-01 3.047240108765350008e+00 1.683227679987861336e+01
-1.259993405931389532e+00 -4.067880553881165540e+00 1.864990376034230479e+01
-3.738819807548877439e+00 -3.608214905529562255e+00 1.883944522584228309e+01
-1.497570280203985860e+00 3.248634744424055310e+00 1.589082967715827976e+01
-2.925236132151668444e-01 -3.857632659689955279e+00 1.708037339005112898e+01
-3.311496231886197794e+00 -3.148543965952714352e+00 1.630168805986293279e+01
-5.168103774450421017e-01 -3.669823374573064179e+00 1.691718479775887118e+01
-1.046969229411805147e+00 3.418331528845225176e+00 1.709557774596828494e+01
-6.851814913612692237e+00 -3.456413158873977487e+00 1.646392360609352323e+01
