-5.069715435612899057e+00 3.294557983759788922e+00 1.667952429153581306e+01
-7.940954343166594320e+00 -1.928262048636656179e+00 1.251264414118882229e+01
-1.962805768672875040e+00 2.224492279412822349e+00 1.342338663745204030e+01
-1.661492887442712618e+00 2.459810570633897520e+00 1.645312331320573662e+01
-1.309760633295997234e+00 2.196644888269419393e+00 1.644870658322081880e+01
-4.646413658508699029e+00 -5.358143672818323822e+00 1.489955792674979307e+01
-7.885630931398299737e-01 -3.378739825015102838e+00 1.345499651451655154e+01
-4.704006361498201727e+00 3.502069490991163825e+00 1.671562805833099219e+01
-6.736992217323376941e+00 -2.741840147976414288e-01 1.122528713669946399e+01
-4.858940398823538231e+00 3.491513976760364013e+00 1.668321801612520972e+01
-2.808140783508739524e+00 -5.219643150049264158e+00 1.452346822904079460e+01
-2.143739975349626015e+00 -5.128331080252165997e+00 1.473393724215945610e+01
-3.478879967044991695e+00 -5.361352743342943761e+00 1.461766909981569995e+01
-7.362026038610324896e+00 1.823644845146939364e+00 1.307628415008376521e+01
3.563942300402040964e-01 -1.273133778023578522e+00 1.453800113786310533e+01
-4.250791606684111379e+00 -4.796829147907928359e+00 1.390317716737244780e+01
-4.415744066453669348e+00 -4.650482824942001159e+00 1.380089598610094015e+01
-4.926952965966533426e-01 -4.354384127093964274e+00 1.402710120003089145e+01
-3.474514846083228470e+00 -5.381824622499797428e+00 1.479147125357341963e+01
-5.251820984162099748e+00 -3.798187551225201908e+00 1.344826695639758896e+01
-3.252444431260046898e+00 -5.327213454401290349e+00 1.461149801654910618e+01
-2.097878535360009788e+00 1.927935730474609866e+00 1.140162678546938935e+01
-1.644947032334049375e+00 -4.653705806546953205e+00 1.411739159599044768e+01
-5.642217236136954028e+00 -5.358421203392516041e+00 1.420000894077017506e+01
8.895797998326449019e-02 4.275803056988313200e-01 1.359897519579254066e+01
1.520248258813849951e-01 -2.329892070861222741e+00 1.296347046044287765e+01
-5.884632902177585834e+00 -1.811845316394932848e+00 1.253402130961689664e+01
-5.585223578932708044e+00 -1.770605302662649816e+00 1.273496271627194432e+01
-1.895175414983238937e+00 -9.435106804891565391e-01 1.644558881585519572e+01
-5.354006108251613938e+00 -1.837283562553444494e+00 1.288543009413286455e+01
-2.784194837855273441e+00 2.637863541718797222e+00 1.383508205444049821e+01
-6.187182971992664093e+00 -5.040212759543048371e+00 1.373797081985632929e+01
-4.265592029306989552e+00 -4.718465994391868534e+00 1.533502366301302544e+01
-6.405093354103826186e+00 -3.355950001754514300e+00 1.283370272994624628e+01
-8.518266681510038296e-01 -4.390517975755440894e+00 1.525485720148156332e+01
-1.041277165765970736e+00 -4.386885161310892123e+00 1.524288070523226679e+01
-5.881253854924772817e-01 -4.555515195558138331e+00 1.502107163185357308e+01
3.268171314859193988e-01 -1.408990205578065869e+00 1.317013173848549457e+01
-6.139376708580186026e+00 -2.381510329535529991e+00 1.251216626175936142e+01
-1.484341282773165460e+00 1.888957215752663732e+00 1.316801228965793058e+01
-8.313900437256208420e+00 -7.504660876209386933e-01 1.440701443457729169e+01
-2.985314196638372941e+00 -2.138735448838799957e+00 1.348501656968640816e+01
-2.392217060788992100e+00 -2.098947730225483532e+00 1.353944287396718948e+01
-4.011852367765852634e+00 -2.161604179298505013e+00 1.340379530960809262e+01
-4.961865331221542164e+00 -2.006052310005597583e+00 1.311817161644355423e+01
-3.205508873190250796e+00 -2.200747392289805315e+00 1.347175886570849457e+01
-8.058900046591692679e-01 -2.816921163432936304e+00 1.316446580201780137e+01
-6.613107934077361527e+00 2.442961549640295882e+00 1.352168636593201967e+01
-4.567200366641321452e+00 -3.227191772296640782e+00 1.353260452061239505e+01
-4.087121020332648236e+00 -4.658859267196773679e+00 1.538684969360674870e+01
-3.839000505949317521e+00 -4.665465319610946793e+00 1.540933332097775832e+01
-3.246622095744227110e+00 -5.139345148689700160e+00 1.513411760060933631e+01
-8.113464766159310670e+00 2.437918657946054890e-01 1.260615580867815311e+01
-4.847650425965878362e+00 3.544960053032094383e+00 1.637494315038816239e+01
-2.234062222403889741e-01 -2.809649973814692281e+00 1.316402890889312971e+01
-6.599945152641471857e+00 -4.603008814619230726e+00 1.335266313572036978e+01
-2.622995524866423622e+00 -2.825165338445667640e+00 1.367517113216334224e+01
-7.146227229830004468e+00 2.469556150499592651e+00 1.493893296101101953e+01
-6.451216032490782126e+00 -4.725421982107019581e+00 1.344823743580584363e+01
-6.019150361342523681e+00 -5.324591170232316095e+00 1.412109185006903544e+01
-5.493711825605425148e-01 1.413555256003850458e+00 1.401137846932870445e+01
-3.099826866931144842e+00 -4.785723842120365390e+00 1.536414583097432285e+01
-3.727490661125774096e+00 2.432219967427112106e+00 1.117950291731884960e+01
-2.854437943122622556e+00 -4.667418340539929211e+00 1.541109677240048370e+01
-7.793842752668818541e+00 1.751049522677062154e+00 1.504474643236896725e+01
3.286770416619622104e-02 -2.744343435385176555e+00 1.313662375483575318e+01
3.348916907962857792e-01 -1.698950826885766929e+00 1.491683636237350896e+01
-3.239417953892106183e+00 -4.662207203219520757e+00 1.543134519429735718e+01
-1.331319900318322258e+00 -1.381835198884377114e+00 1.255997879167225761e+01
-3.439905799735670122e+00 -4.512028734772704830e+00 1.550200502836835881e+01
-4.643399748441092711e+00 -5.034685905257929583e+00 1.515359696469606376e+01
-4.820087366860336786e+00 -5.011527468488680803e+00 1.514735480250334376e+01
-6.091271326543084896e+00 -1.977559752639244994e+00 1.227782404497033752e+01
-6.345051448891458890e+00 -2.595134704000161552e+00 1.243988008226994424e+01
-6.416443092722488473e+00 -2.539988284485851899e+00 1.237001654667012929e+01
-6.011868675436199183e+00 -1.710233729195883789e+00 1.220384741049039690e+01
-7.210427649609624901e+00 -3.106055167446299947e+00 1.250532162485235688e+01
-7.810166881667121253e+00 -1.541667217166196036e+00 1.208898249040883854e+01
-5.880392161533435136e+00 -5.161700889349955190e+00 1.489349925794397933e+01
-2.672806688243881013e+00 -2.522811271321421689e+00 1.614850153972107449e+01
-8.043488080759324532e+00 -1.562447015280653329e+00 1.265553192468350829e+01
-7.717330517629867437e+00 -1.877020617580240192e+00 1.207878993842137305e+01
-5.963382152916824275e+00 -3.005781519097290744e+00 1.301299395621682464e+01
-6.732186129006438868e-01 1.723745816763998739e+00 1.585772919715331852e+01
-7.188162063887097553e+00 -3.495752678968623961e+00 1.271404960726793121e+01
-7.724875180893456594e+00 -2.092209082445946944e+00 1.216475094122763778e+01
-1.835579600116604038e+00 -1.334626296674962243e-01 1.658153750952730121e+01
-1.154657696433533332e+00 1.426791700882545921e+00 1.163850842652562534e+01
-8.026360693159741544e+00 -1.750552482362115025e+00 1.269558235045807493e+01
5.286499787006526674e-02 -1.714099728637877185e+00 1.582142674931810689e+01
-8.101342545209771373e+00 -1.735470998897761685e+00 1.292198793462229389e+01
-8.182850200714398170e+00 1.015201784759019787e+00 1.342282604097103160e+01
1.751393812299251174e-02 -3.820527754793193509e+00 1.400705167229015302e+01
-5.811466831766728625e+00 -4.338061364874422843e+00 1.533234653298420369e+01
-6.117640520297469742e+00 2.359255007476604327e+00 1.257168416032608604e+01
-2.701080441556260148e+00 -4.750744807163013839e+00 1.535358086521008403e+01
-2.669034437630501522e+00 -4.608932268432111456e+00 1.542115567822867916e+01
-7.046606184027429443e+00 -4.832883238814770444e+00 1.355369387343941412e+01
-6.950877402302789498e+00 -4.951090214793484101e+00 1.363509018585020982e+01
6.554327957699523921e-02 -3.833318627847345006e+00 1.492784835133360843e+01
-7.013498619693728564e+00 -4.141193241230555877e+00 1.305281252692874006e+01
-6.837637633008481153e+00 -1.501170861826282898e+00 1.580309581854757539e+01
-1.241009563011388650e+00 -4.553815673814780141e+00 1.497938161307052951e+01
-6.531198709869145524e+00 -5.335231879789811060e+00 1.438203480090923136e+01
-1.498192299012484074e-01 -4.327563992424847683e+00 1.454177079631579517e+01
-3.277134845630690130e+00 -1.341515372581850496e+00 1.645401477466840134e+01
1.325731825466713865e-02 -3.971387765046693552e+00 1.484750699072328217e+01
-1.567593546456103049e-02 -4.071167774484140800e+00 1.459150356118275482e+01
-2.645721399930743623e+00 -4.941663978475989261e+00 1.524658675933816454e+01
-8.011986313018343964e+00 -5.630138835427126454e-01 1.233543861258123542e+01
-6.701784029856194813e+00 -3.455564869911697201e+00 1.276259626882630727e+01
-6.727947063849238241e+00 2.179278807342682533e+00 1.291963613521127030e+01
-2.063251525801392816e+00 -4.636287718753527187e+00 1.522080843815215445e+01
-9.179710272947807503e-01 -2.370164579958410123e+00 1.293278746567037985e+01
-7.676939868374350162e+00 -2.273108638093344513e+00 1.535993709384253236e+01
-7.586488956103807801e+00 1.613955101967585293e+00 1.287498790749769029e+01
-5.754449564937384132e+00 -2.194214422579724655e+00 1.286154967153512985e+01
3.288778303852954998e-01 -1.761143276690171344e+00 1.320241869935119183e+01
-6.106593477209834475e+00 -2.798856675902862801e+00 1.280900562654329633e+01
-5.720581387058869538e+00 2.553432508951134938e+00 1.294577113308061911e+01
-1.979944606572692667e+00 -1.782280312471133499e+00 1.333186493838169895e+01
-6.461536905841239076e+00 -1.463975754198127976e+00 1.591008339042809894e+01
-3.804632743602475387e+00 3.062558215748275359e+00 1.486266283560923540e+01
-1.749566513401082712e+00 -1.969941349179023415e+00 1.332411084048595029e+01
-5.888663379507351081e+00 -2.713846836706463872e+00 1.297166926381120788e+01
-1.770366132846997509e+00 -2.204072489002304458e+00 1.344015191742796844e+01
-6.421842024111131586e+00 -3.107445458687584594e+00 1.269999936693992026e+01
-6.451164123245733961e+00 -2.885117851134654909e+00 1.255676949138141651e+01
-6.398934507674933769e+00 -3.212611694120829142e+00 1.277693432946807661e+01
-7.574644240913981363e-01 -8.034381085595322380e-01 1.223217028962677233e+01
-3.812728080575713108e+00 3.230474224106171466e+00 1.562559798397627020e+01
-4.874005603301987399e+00 -5.268076449952443063e+00 1.496992496200927292e+01
-6.290307600419611234e+00 -3.512791426505151193e+00 1.295974214317092077e+01
-7.958874234545755932e+00 1.531033747407874124e+00 1.482259811378541059e+01
-6.115793682593656300e+00 -3.347506397754348217e+00 1.301271128983419345e+01
-4.261220283251536678e+00 3.063197349969684957e+00 1.430847101093164042e+01
-6.227812447496620329e+00 -3.372416793590971018e+00 1.293805481577627603e+01
-6.330796038997221764e+00 -4.797152662340505858e-01 1.138194764927306579e+01
-6.022868971297226537e+00 -3.568624259315612335e+00 1.311210622596858855e+01
-3.026821982710511172e+00 -2.348873715718158284e-01 1.240729172882634401e+01
2.627606224338658869e-01 -3.407421472562107034e+00 1.497144005477060347e+01
-6.062249025102131483e+00 -3.821590746205218103e+00 1.315217041237539775e+01
-2.694929524242763996e-01 1.261089861798973200e+00 1.462703543160049691e+01
-2.935384274519341474e+00 1.104638418907396558e+00 1.132496736358876888e+01
-5.781297534018970730e+00 -4.138372515746288727e+00 1.333533774496280699e+01
-2.461891414818177637e+00 -2.952377372839488423e+00 1.602018728777516543e+01
-8.162339366574673960e+00 -1.752593684833418930e+00 1.312530281450649738e+01
-3.047763273994299027e+00 -5.143548785221940811e+00 1.513346253340530723e+01
5.844235736578506923e-02 -3.927082213987738157e+00 1.469163807831865398e+01
-6.519091898690587250e+00 1.719313559299600946e+00 1.090098663034864757e+01
-3.225119042118218537e+00 -4.827776877697295355e+00 1.411420254488483295e+01
-4.432583976957097605e+00 -5.045022591691555647e+00 1.516580169282880064e+01
-4.078971638854604898e+00 -5.050613882680210942e+00 1.518928387439632388e+01
-1.072084637978587551e-01 -4.228932748770446004e+00 1.439466346774668182e+01
-4.035383711546379537e+00 -5.144550560087492563e+00 1.513488469116522595e+01
-2.626336272855890108e+00 -5.113937346552316576e+00 1.512792146461728748e+01
-6.940459809695481930e+00 -2.343414778235287432e+00 1.213147914499128888e+01
-7.146932175949632260e+00 -2.208995742983920429e+00 1.202818050665099747e+01
-3.341711246120524947e+00 5.423747372294710489e-01 1.175387992202296061e+01
-5.962032228127369216e+00 -4.441387622590193374e+00 1.336756061311002242e+01
-4.793779981956472369e+00 -4.969109193481413556e+00 1.389003922765456167e+01
-4.774891528769115823e+00 -5.299873127218807101e-01 1.654871028654682874e+01
-2.200028769088620884e+00 -2.013694082530926188e+00 1.348896521781908575e+01
-3.311663544294185968e+00 -2.041145464415382804e+00 1.630722328972152724e+01
-6.635583078198281193e+00 -5.230623973862042142e+00 1.397227758841850687e+01
-5.889168215186044719e-01 -2.578765082737070724e+00 1.304284507345487754e+01
-4.758845206194335375e+00 6.959066858604967543e-02 1.168000148285921824e+01
2.990211790917522983e-01 -1.008657332878127200e+00 1.309253373725051262e+01
-5.209406832608346249e+00 3.431240656458608651e+00 1.600096539215667946e+01
3.052350877423999354e-01 -8.323255595509865268e-01 1.311436261553262739e+01
-2.274220474566872152e+00 -4.552363948813091810e+00 1.538056081038617151e+01
-1.874286898690778802e+00 -4.004816751475630987e+00 1.562562740862765054e+01
-1.578121110260520599e+00 2.186568678709700286e+00 1.461762443927853639e+01
-3.402388073780734601e+00 -2.401400881316146929e+00 1.349872793686232342e+01
-4.851505963608725658e+00 -4.525495769328399476e+00 1.533006500914981274e+01
-1.691215339936165574e+00 -4.332716517199241224e+00 1.538033631921763345e+01
-4.363781651700937125e+00 -1.014529478494289094e+00 1.276614675521994968e+01
-3.891279548629587026e-01 -4.382284249413505250e+00 1.519066757103157528e+01
-3.803432784731976213e+00 -2.805996018722373808e+00 1.354578641378606108e+01
-8.155347898198986201e+00 -4.562588654828091395e-01 1.490288025910346192e+01
-3.831938463939749795e+00 -2.351522847510752801e+00 1.346700948664098973e+01
-3.685738794103997407e+00 -2.361706675269982014e+00 1.347684774264767782e+01
-3.585343408133946141e+00 -2.497204099940531385e+00 1.351106855666644435e+01
-5.899187547093331929e-01 -2.058465060752745934e+00 1.277163143892969543e+01
-3.252312554564876557e+00 -2.336928365602896296e+00 1.623839620156598329e+01
-3.636125928215978576e+00 -3.134441428234398419e+00 1.606097027103415087e+01
-1.098464354222861150e-01 -4.058415995883467353e+00 1.514327835927156940e+01
-5.609088480429206491e+00 3.176986373917955575e+00 1.518564755118154608e+01
-1.383620766052574780e+00 -2.818769887356340043e+00 1.342633139464462033e+01
-2.629524082513245986e+00 -1.614576293660885398e+00 1.332483572587752008e+01
-4.662041125476247494e+00 -2.653308050088794889e+00 1.341684486660462738e+01
-5.780422812246302833e+00 -1.403015942545132511e+00 1.233604672018628889e+01
2.294751573468509775e-01 -1.422586163393394720e+00 1.291283559851601126e+01
1.321613205848117811e-01 -2.998000297305524864e+00 1.329645423984243280e+01
-7.467004338842603950e+00 3.149536338897683252e-01 1.569887054483533007e+01
-5.819765606786043044e+00 -5.034872388996796566e+00 1.376804424377883151e+01
-5.977893125469279312e+00 2.601990329312247496e+00 1.336573958835112563e+01
-3.211126444391739554e+00 2.817164017957758837e+00 1.420996630892877022e+01
-1.638763970572366446e+00 -3.566585120540567644e+00 1.583955669329981220e+01
-6.409600566794710907e-01 -4.166619243795338434e+00 1.551064382928843344e+01
3.479424564433026834e-01 -1.431869991068846382e+00 1.331844406850745344e+01
-7.878738357545391757e+00 7.101161887905027559e-01 1.181981410289559875e+01
-4.890992392937923761e+00 2.421158426106507999e+00 1.137814256102219446e+01
-3.178910996826151525e+00 -1.781123483140765629e+00 1.335315113844189483e+01
-3.487492417082635576e+00 -1.737487175989327337e+00 1.330754730902948069e+01
-5.637753268915884242e+00 2.093135912201825377e+00 1.654509603242391336e+01
-4.326181606726482443e+00 -2.036178153988153383e+00 1.330655715816612883e+01
-2.943002032150574543e+00 2.334720124751235470e+00 1.159791073060652877e+01
-4.364806353206874157e+00 -1.607307102914452113e+00 1.312618988946943688e+01
-4.518394927910405201e+00 -1.651289354006864940e+00 1.310974573380874375e+01
-3.479145709489834815e+00 -4.334766793290022235e+00 1.558579230004031047e+01
-2.474542509592015271e+00 -2.542533986252778710e+00 1.613001399350274312e+01
-3.068538985161805677e+00 5.514608404934728814e-02 1.669112601246719407e+01
-2.802583407486971545e+00 -1.797367771837622197e+00 1.339634712909112579e+01
-2.988801920614615248e+00 -2.782755123035200118e+00 1.360993354055352000e+01
-4.128043647691188589e-01 1.337267877109381331e+00 1.422677736401470128e+01
-2.785816435338860586e+00 -2.637230481547728989e+00 1.361958989853906843e+01
-4.392946371747542322e+00 -2.655003258185104631e+00 1.347786654049446753e+01
-6.627438367722418455e+00 2.297925740240974957e+00 1.309610492765371959e+01
-6.009798159333003653e+00 -2.785354112329192500e+00 1.290641961766433354e+01
-4.354145970417603984e+00 5.689409866586903064e-02 1.186034425351208199e+01
-5.769859047665986118e+00 -2.969304914361939218e+00 1.310694520268917529e+01
-2.792197558037995186e+00 -2.989509330101035367e+00 1.366236087681118505e+01
-8.663083278891425820e-01 -2.167700741913467954e+00 1.628027005580612041e+01
-5.577482995667613963e+00 -2.088843828947439807e-01 1.151416191509465392e+01
-5.628327380000802904e+00 -2.770786900272169007e+00 1.312113164314963853e+01
-1.141059011569298676e+00 -5.304572796573484572e-01 1.213430545156193574e+01
-3.602566486019838976e+00 -3.047812293631533276e+00 1.358042725760824254e+01
-4.711405236814334430e+00 -2.866853699810500977e+00 1.344436168424684297e+01
-3.973360710347623836e+00 -2.346313671180054516e+00 1.346066135279291842e+01
-4.048913503281817761e+00 -2.646607826643637917e+00 1.351335459214178059e+01
-4.163164417920383720e+00 -2.431286866923583201e+00 1.346859195303483858e+01
-7.872990982946487470e+00 -2.077733096573780358e+00 1.237697344257035326e+01
-6.613135578200163955e+00 -5.051363753763366660e+00 1.371061938546905878e+01
-6.431195471238913441e+00 -5.146032525488520193e+00 1.382882818981161677e+01
-7.544115378322403309e+00 -3.117667167792703697e-01 1.154057137547060563e+01
-6.975129611320780576e+00 -3.350990906595805896e+00 1.265657953347258058e+01
-7.542448390448844187e+00 -2.326544865180858679e+00 1.210705172591165990e+01
-7.665059971199899458e+00 -2.329562261365697662e+00 1.218686083811643783e+01
-2.474740126552402497e+00 -5.246466191747373164e-01 1.655007386473006648e+01
-7.341449665931395252e+00 -4.398437280946973615e+00 1.460535393537622895e+01
-6.858042897289217343e+00 -4.256575493116323550e+00 1.311523227065627850e+01
-3.948667664005706790e+00 2.755796208393543889e+00 1.282418774983453602e+01
-5.028345576309258824e-01 1.923177356854243736e-01 1.207622629720188456e+01
-6.395202145914582026e+00 -4.876708144303398385e+00 1.357414974806498265e+01
-2.437621560273163901e+00 -3.928319305415543639e+00 1.568174359846003085e+01
-1.124060566724358168e+00 -1.071962932050080752e+00 1.237711140182332770e+01
-2.028844882206092048e+00 -3.732760685575291504e+00 1.574029333636497086e+01
-5.871527872719379815e+00 2.284318735384931465e+00 1.649124613320982036e+01
-3.659409033364066310e+00 -1.332911060216730004e+00 1.648860314884174727e+01
-6.078669312430714733e+00 -5.336554496423073779e+00 1.465312947876861926e+01
-3.718751781933997691e+00 8.321655937859911978e-01 1.144846325085896410e+01
-3.035271223814617336e-02 7.421773775326261369e-01 1.362626351859249496e+01
-1.447703663921851014e+00 -3.734472429636293000e+00 1.578923348556426731e+01
-5.264786424557470923e+00 -4.488143600621382845e+00 1.530329417248039903e+01
-5.409201238766714326e+00 -4.239864958662608707e+00 1.538086885382601565e+01
-5.210543632747690168e+00 -4.065111233147534975e+00 1.546327343187790149e+01
-2.037045298744452282e+00 -3.909836804991477344e+00 1.567017152549937009e+01
-5.446388233592755590e+00 -5.074072617013398734e+00 1.503507880527534013e+01
-2.866837695087121496e+00 -4.132676124676749829e+00 1.564808318752636751e+01
-3.062882083510745090e+00 -3.797028082723242548e+00 1.580511040186372895e+01
-3.131429693663122293e+00 -4.265269853804998235e+00 1.561500087360772682e+01
-1.855723722537442555e+00 1.978326659524361486e-01 1.663253029074915190e+01
-3.212092249584730830e+00 -4.265866944733317290e+00 1.561470315923067176e+01
-3.893532037683142377e+00 -4.090271586424397476e+00 1.567010003940229979e+01
-3.637166252377986631e+00 -3.937348722620696684e+00 1.576441801672400089e+01
-4.276168474499971950e+00 -4.177722374951336803e+00 1.556149321854184109e+01
-2.485645128131443116e+00 -1.152809853195228218e+00 1.642811508283538302e+01
-7.540350022545406539e+00 -3.053645392080443610e+00 1.253485152075999309e+01
-3.783152766395153854e+00 -1.747583786547933560e+00 1.328050205839345210e+01
2.757795063617265452e-01 -3.009123398460991528e+00 1.382387921603389458e+01
-3.802039570362324206e+00 -1.578019937790295035e+00 1.321219183671389175e+01
-5.363853873926943905e+00 -1.576036725045664610e+00 1.272597419172561928e+01
-4.124782715581021275e-01 -3.931436293044466623e+00 1.563342740322303825e+01
-5.450104548554909556e+00 -3.306985449920950337e+00 1.568374262236073946e+01
3.057571108677232807e-01 -3.068084836621134404e+00 1.484072494074106174e+01
3.010020853512369587e-01 -2.896022527274696223e+00 1.504015265806734192e+01
1.502844584271270101e-01 -1.390255939664574392e+00 1.278020399732374557e+01
4.725863282839060098e-02 -1.372563543993161606e+00 1.266239689068606111e+01
-3.641494491369230424e-01 -2.439975460220596304e+00 1.297235346948583867e+01
-4.068417244181392611e-01 -2.215261013914957111e+00 1.285324354576819417e+01
-6.121591769633467628e+00 3.075905407136504399e-01 1.106650596017379229e+01
3.247852455965112295e-01 -8.220252560697051125e-01 1.336931695079621107e+01
-4.268935271582901869e+00 2.299894694155171226e-01 1.673622900930869406e+01
1.960412510351621229e-01 -6.045056082776482098e-01 1.281059712611703816e+01
-7.370002437322589195e+00 -2.224185071209336950e+00 1.201427560727508848e+01
-4.470401140142156393e+00 -1.980557627276772870e+00 1.627980728734205229e+01
-6.153383920935564078e+00 -1.521738515184899221e+00 1.194231783719491347e+01
-5.119634160282839019e+00 2.369650372689728446e+00 1.134397643495385211e+01
-8.169938402737884076e+00 -1.346641353152652876e+00 1.297667642211209937e+01
-6.385006953440379718e+00 -2.129929935783455797e+00 1.215180575783453065e+01
3.703006590759330141e-01 -2.204734915322598798e+00 1.408676472566877891e+01
-6.669096734803967585e+00 9.150464739934172087e-01 1.614514947885314911e+01
-6.537162915575573940e+00 -2.142736640418818173e+00 1.210562769323205146e+01
-3.114352610212528738e+00 -1.909963525292635911e+00 1.631671674224109125e+01
-2.947497865018486429e+00 -1.687991319284828595e+00 1.334105547870851893e+01
-7.776340553432061320e+00 -1.119856952699911368e+00 1.193534068506328794e+01
-4.170962724997804294e+00 -1.363785147951808163e+00 1.305512069440742096e+01
-2.045860791454596317e+00 2.045423282436113599e+00 1.678335757003539186e+01
-1.662824182824225172e+00 2.106224433293979903e+00 1.381408664817468690e+01
-3.991326501256940773e+00 -1.436702679257783277e+00 1.312768153006116023e+01
1.941045762627349180e-01 -3.685168744939096852e-01 1.281006539524408794e+01
-7.706804477794919173e+00 -2.479068691727420504e+00 1.230913106394539369e+01
-2.772091928049064791e+00 -1.195947530678824311e+00 1.309821211689012443e+01
-4.766664814927262128e+00 7.876006751227777603e-01 1.115831053977876763e+01
-2.169304815842372225e-01 9.927130839510800442e-01 1.344222839921791746e+01
-1.505502629405531145e+00 -2.014236687866956643e+00 1.314315306950187789e+01
-3.157870316282050283e+00 -3.016091787444008521e-02 1.224057821922981049e+01
-6.756646514363874978e+00 -2.305579988981102169e+00 1.214163573701795684e+01
-4.801784732912444120e+00 3.150525128653375084e+00 1.460224495626245300e+01
-6.536367554129532742e+00 1.893260721207031150e+00 1.150634886240262489e+01
-1.010601085668501042e+00 -1.625211278030784356e+00 1.258593369546247231e+01
-1.099099763648463401e+00 -1.535219967573134170e+00 1.256410763220951310e+01
-5.793852440009445992e+00 -4.070853634135978005e-01 1.152442718479711203e+01
-2.354974179259206490e+00 -1.063340777171378981e+00 1.297902575482282828e+01
-4.800864486767999040e+00 2.943703071725172205e+00 1.378852286489831869e+01
-4.257808037400392820e+00 -3.911757092988917606e+00 1.568524381491069875e+01
-5.990385398164274733e+00 -4.943984501075372684e+00 1.367103097199765926e+01
1.061611639432478160e-01 -6.153729256187251417e-01 1.269411372911553570e+01
-6.849844395346800674e+00 8.777029992217058041e-01 1.606356349318672017e+01
-6.066265675386397938e+00 -8.941765735093659684e-01 1.613703537993110615e+01
7.405416431406286470e-02 -1.001556973328832978e+00 1.266472088295822118e+01
-4.646448074005075313e+00 2.667482040413454492e+00 1.677183161257099897e+01
-7.929357455553277312e+00 -9.515005812283247044e-01 1.523120851625083816e+01
-1.746769734129724583e+00 5.035746282282249631e-02 1.192092240746802645e+01
8.519286885071308824e-02 -8.202688308835520692e-01 1.267722938850375414e+01
-4.438372868218356970e+00 -5.145959013540448268e+00 1.412630809278196153e+01
-6.730659693960499901e+00 -1.136693493486553130e+00 1.157539911953900003e+01
-2.052271340596562244e+00 -9.527664769140918866e-01 1.644917256644504988e+01
-2.944973894168068540e+00 -1.290229267346922448e+00 1.315093075171107984e+01
-1.431560866885661643e-01 -1.569851237383483866e+00 1.258459404847808827e+01
-8.017074654005519108e+00 1.049992714594635501e+00 1.282071913379920147e+01
-1.411127420938963262e+00 -1.365970161077902034e+00 1.261012743194242347e+01
-1.342776188566858320e+00 5.040338451877790504e-02 1.188834175461376930e+01
-1.506541446141714147e+00 -1.127266523856643499e+00 1.252891703501490639e+01
-3.932961641576675049e+00 2.492885553511291707e+00 1.138442297485166677e+01
4.227128404005386919e-02 5.593661935206645230e-01 1.274856374560965833e+01
-4.988908571930006808e+00 -1.365369066535560005e+00 1.275264249779036163e+01
-5.119618674676134518e+00 -1.203138768263855685e+00 1.257718631298602929e+01
-3.734020723847704115e-01 -1.783869216619597520e+00 1.264593180270431816e+01
-5.808054835577345365e-01 -1.579537383115505733e+00 1.255158146756233606e+01
-7.359661244569166705e+00 -1.943398445722210877e+00 1.188216507199898331e+01
-5.852121818841372836e+00 -4.901431629825008685e+00 1.508306495553592441e+01
-2.774764771766775162e+00 2.741323085954086469e+00 1.441217355677011369e+01
-6.129700158068764893e-01 -3.011071693501226054e+00 1.326965677854008163e+01
-7.610180990763589115e+00 -3.003102508621303457e+00 1.256987194658335483e+01
-6.041898043116718853e+00 -5.161111395407225189e+00 1.485503112808655857e+01
-3.386824314348493736e+00 2.897925737132923008e+00 1.444028686215483503e+01
-5.321203319829167278e+00 -1.245373967148338146e+00 1.252840219975568914e+01
-5.609258964689001203e+00 -1.299151059932535102e+00 1.241743632038088663e+01
-5.741251214376630330e+00 -1.137934585762917727e+00 1.216806844522866271e+01
-1.919452030746924276e+00 -9.783334660132400051e-01 1.275652081986174835e+01
-1.924592959005378301e+00 -7.452833886427717713e-01 1.254759421047103274e+01
-4.582089689226229723e+00 -1.384277085299753907e+00 1.294534573003774369e+01
-4.379247871345834930e+00 -1.243273058170756507e+00 1.293070682878452260e+01
-1.482619704745886668e-01 1.184139436309775029e+00 1.502353401888027662e+01
-1.451691666968333294e+00 -1.647413236256072722e+00 1.283211611047431688e+01
-2.476487994776145118e+00 5.916138613991184236e-02 1.664743661975689548e+01
-3.366824105380332721e-01 -4.042549237822337993e+00 1.550510663709581394e+01
-6.276566543959788191e+00 -9.202658426464999097e-01 1.606876808212289376e+01
-6.979640960741129163e-02 -3.709276431142791708e+00 1.536525781450450978e+01
-1.335941854244500071e-01 -3.870626087644786217e+00 1.535552503016597115e+01
-2.908995963103120808e+00 -3.538391185099804659e+00 1.587951149024105035e+01
-5.905448059152831775e+00 -7.044609938869222932e-01 1.164384966685111067e+01
-2.837004463081236771e+00 2.247906175774228910e+00 1.684476751071682799e+01
-1.450749140222779676e+00 -3.990817174246276799e+00 1.564353172862690400e+01
-1.241864561138037892e+00 -3.908319602600457188e+00 1.570925548926249604e+01
-6.555351042142668838e+00 1.805151549740286576e+00 1.123414853523106416e+01
-2.898711254714636532e-01 -3.887772197561880638e+00 1.556324677113877186e+01
-5.226149727998129713e+00 1.831325271622951778e+00 1.041596027861314155e+01
-6.829845592501636808e+00 -3.594594128043098635e+00 1.279872550375479534e+01
-6.350229892075875071e+00 -4.097711564656642658e+00 1.312897080071624600e+01
-7.741962125526359095e+00 -3.640193329351193441e+00 1.455099747740097627e+01
-6.412606994398680982e+00 -4.224132584769118459e+00 1.316579813961369183e+01
-4.039683552332077099e+00 -3.776439282383672769e+00 1.578578548082071364e+01
-6.548911938654847553e+00 1.939574763748050934e+00 1.168605275383137609e+01
-6.838020586109247567e+00 -3.481381659498137715e+00 1.274379193281954059e+01
-7.958588707239960591e+00 -3.291557556675823726e-01 1.215863421731797445e+01
-7.382153039187476118e+00 -1.672968698383794361e+00 1.177081143448558720e+01
-6.996848244798759886e+00 -2.073584433447638542e+00 1.197655812346774695e+01
-7.085445236918240575e+00 -1.792311717724325959e+00 1.182106802564587156e+01
-1.223166585791587213e+00 -1.423749420757828288e-01 1.654301072800996764e+01
-6.755217398719916666e+00 2.220219024352443338e+00 1.310735184723355928e+01
-6.385414798113999701e+00 -1.499217796802414071e+00 1.181688548118951587e+01
-5.771624693068901024e+00 2.326179622356748133e+00 1.193951241024908683e+01
2.998520615999906713e-01 -2.514122646387032756e+00 1.508136510962339116e+01
-7.883771147610768359e+00 -2.328128308332710006e+00 1.256187268692466574e+01
-4.275488224230344692e+00 1.800640208175573465e-01 1.179400785410695107e+01
-2.475708563563279174e+00 -3.529590579279540563e+00 1.582983775706433249e+01
-2.679178387373172932e+00 -3.574425585509567682e+00 1.583742971248725695e+01
-1.882279348033544242e-01 -3.550568549313748434e+00 1.566106799586304987e+01
-5.369121050606016965e+00 -9.048617366342922574e-01 1.223011390641192975e+01
-1.269178340050477694e+00 1.874962239479751602e+00 1.392365437083473267e+01
-5.626755650684629906e+00 -1.100677056290544797e+00 1.226029335801658249e+01
-1.871829292714510817e-01 -1.664158065876080173e-01 1.237238892025540338e+01
-5.607255601334288464e+00 -8.839993157888884623e-01 1.208810764889570066e+01
-2.398628846969601103e+00 -6.539446173841211296e-01 1.267521150380142103e+01
-6.554342428453144187e+00 -1.517390627617956067e+00 1.177978511854757926e+01
-2.379745767029775028e+00 -8.420838363220125578e-01 1.282220549450677538e+01
1.324055572790157065e-01 3.710295244441988993e-01 1.381264380276898862e+01
-1.964571902054777386e+00 1.828563985733396624e+00 1.122459976922029767e+01
-7.371096230392704562e+00 2.246722243824625487e+00 1.564455456382176379e+01
-5.068399203491894767e+00 -5.108934369181267421e+00 1.394078378587904155e+01
-3.001968950203707465e+00 -5.686422257335007613e-01 1.267675180367221799e+01
-6.277120918315146625e+00 3.179454850310829528e+00 1.572883220658384573e+01
-4.672743599515746915e+00 -1.512963120429168029e+00 1.635940662198348861e+01
-5.656032227825567027e+00 -4.933110899175694009e+00 1.369653783696170990e+01
-5.392510300067691276e+00 -4.915289858532794653e+00 1.373727255148112647e+01
-8.252046816112816430e+00 9.974321334709260745e-01 1.382083825908497943e+01
-3.367859414539939422e+00 2.759159914138383130e+00 1.362566082524404720e+01
2.948513268956352018e-01 -3.036770818037408670e+00 1.405004992768772354e+01
-1.647415651100943457e+00 -7.566227479061901073e-01 1.647174700495933308e+01
-4.035036021980565657e+00 7.712308822112878826e-01 1.681642942347886560e+01
-7.532837733824833570e+00 -4.780989203767406215e-01 1.563921388169488580e+01
-1.430325254042537519e+00 -4.387654486131534526e+00 1.397721924208687483e+01
-1.412401154848428320e+00 -4.050672090298055750e+00 1.386421177935754656e+01
-5.737084454409929535e+00 -4.288100661874354458e+00 1.339226900356087668e+01
-2.369789164017986227e+00 -4.761593778635739405e+00 1.416215349465952045e+01
-2.857502280244726300e+00 -4.608833289683677670e+00 1.403742064180899263e+01
-3.429089391287382327e+00 -4.393128599823544533e+00 1.384096815107224643e+01
-2.825228052092242592e+00 1.434510628496966422e+00 1.682166950914496795e+01
-7.001324253179160628e+00 -3.753124734824813125e+00 1.285287477967769831e+01
-3.196306199967314576e+00 -4.286966037982007371e+00 1.382173854076914665e+01
-3.085211818405677597e+00 -5.372659502099649487e+00 1.473697186379561685e+01
-4.635363203019967848e+00 -4.943802850536634708e+00 1.391092694654307138e+01
-4.827982646975074843e+00 -5.283012301528938970e+00 1.421471444180805577e+01
-4.823180941561792778e+00 -5.160516734424535734e+00 1.404437716589480090e+01
-4.853875408130276625e+00 -5.376491719978458761e+00 1.438724908154157589e+01
8.307057239554938022e-02 -3.800700764663479170e+00 1.424375144638828772e+01
-5.170453865571351670e+00 2.980933689409421383e+00 1.415710021768002491e+01
-1.032027894465312290e+00 -4.266525283979834882e+00 1.391141492508655375e+01
-3.224074208297877497e+00 -2.414345230002997500e+00 1.352066653518026129e+01
-3.923796290550942700e+00 -5.367517164399679963e+00 1.493208318293358872e+01
-7.698159367859008562e+00 1.135578386702531084e+00 1.551310265371841979e+01
-4.876470799741092321e+00 -4.898569775245212199e+00 1.518731885855245878e+01
-3.658036294741206618e+00 -2.212103082592873360e+00 1.628688352395555938e+01
-4.516222315858426484e+00 2.977800946659776127e+00 1.378683611927402808e+01
-1.325982142083233395e+00 -3.957739045612778561e+00 1.381865157764887897e+01
-3.561186973710461778e-02 -3.582451974462523836e+00 1.362294750884203154e+01
-2.220212552018379970e+00 -4.791617216626641529e+00 1.419079316680548430e+01
-4.624170288009060492e+00 -5.161613905264125002e+00 1.409430957740942603e+01
-3.082555692380688050e+00 2.372702543534143338e+00 1.159698654876484625e+01
-2.018278348818099310e+00 -4.787811796366240991e+00 1.419551612078188185e+01
-3.804483606858745759e+00 -3.804289758722710246e+00 1.364770146245911064e+01
-4.686664728911548394e+00 1.854769029281752246e+00 1.047531561007051693e+01
-3.798253813836011794e+00 -3.625560712326586277e+00 1.362820690920339928e+01
3.385981311122581161e-01 -1.183420372373030993e+00 1.331837277098027528e+01
-2.022551439003346552e+00 -4.414688218282659449e+00 1.398457477581094821e+01
-6.079678381665083897e+00 -5.145154395943208891e-01 1.620429091297014423e+01
-5.430978575119676854e+00 -3.440871802071428398e+00 1.332974267432605586e+01
-5.596937348994220685e+00 2.849216824720848251e+00 1.397526304793824181e+01
-2.039055604973541325e+00 -4.661506552552824978e+00 1.410802208781663580e+01
-3.110497072026506160e+00 2.264662034548992064e+00 1.100430926833217171e+01
-5.403975199286722209e+00 -4.468004367678465982e+00 1.354483345313921205e+01
-4.426645354303488489e+00 -4.023997013589427851e+00 1.363870635246196628e+01
-3.214940505764794842e+00 -2.928254053518056121e+00 1.610049322897200597e+01
-3.432524864568936351e+00 1.628101755227445047e+00 1.684959214787515691e+01
-3.399232425655801748e+00 -3.185374176544848446e+00 1.360310868316672384e+01
-3.068700933341992787e+00 -1.351918055134831764e+00 1.642973232184534993e+01
-8.328639684920102759e-01 -3.837827391818148470e+00 1.368894298967013157e+01
-7.806795719736652650e+00 1.644476491185898226e+00 1.385659006761004974e+01
-5.586289252656722049e+00 -4.436447973532921196e+00 1.348261543305372356e+01
1.181136585950666174e-01 -3.414658867033916856e+00 1.366504723066316274e+01
-2.660378001127813086e+00 -1.328280842344323531e+00 1.640174027575698545e+01
1.369604979848970672e-01 -3.213489810749897035e+00 1.345694110338083505e+01
-2.656159584245742167e+00 1.619834416486223283e+00 1.682032483620211849e+01
-5.052638733121711745e+00 -5.101593117208240713e+00 1.506948384377146510e+01
-5.020141120733193851e+00 -4.599513424262394068e+00 1.367229587137825320e+01
-8.205257514690565301e+00 -1.820972957232103617e+00 1.331348781653765201e+01
-7.449929074943908880e+00 1.248981176342695232e+00 1.150162434178426452e+01
-1.830007748859708183e+00 -4.533761599585794499e+00 1.404629665642083580e+01
-2.534831613219192814e-01 -3.989925342216360526e+00 1.383991804462556985e+01
-1.874982637861097867e+00 -1.270089119502612274e+00 1.638274693143996075e+01
-1.998527462625111273e+00 -3.046123106972619343e+00 1.377332862368974276e+01
3.670374753180267735e-01 -2.036576581447520073e+00 1.413061983551811096e+01
-3.652689225432808051e+00 -5.359412754397015810e+00 1.491966693440439684e+01
-7.664076034848853247e+00 1.930512192454408193e+00 1.507508636338882724e+01
-2.635194037267873490e+00 -5.016135919857203085e+00 1.434562494719296666e+01
3.510559842490488247e-01 -1.068142780474291342e+00 1.415787421801110213e+01
-2.067627768574304525e+00 -5.010362118020662336e+00 1.485218067246111673e+01
-1.874019777643396889e+00 -4.849522012890456146e+00 1.486306811125723470e+01
-2.794496367844302220e+00 -3.784342992808763739e+00 1.372889311344415830e+01
-8.302641093479429912e+00 -1.213289979707829147e+00 1.438645442572441624e+01
-3.224212169995907651e+00 -5.351705422616542585e+00 1.490969732457141816e+01
3.170144010072413199e-01 -6.634428804337403340e-01 1.355248621309626600e+01
-8.317591615914583514e+00 -1.372718688207310134e+00 1.421754399498328780e+01
-1.149519287081126606e-01 -4.192438802872331394e+00 1.425444568059497641e+01
-1.933889204940657525e-01 -3.766131445655510390e+00 1.368692559645732842e+01
-3.623997062013438075e+00 -4.966396080644409849e+00 1.413764863218365520e+01
-2.423685370857415755e+00 -4.232910895891820680e+00 1.387831231345884220e+01
-7.475312182362894298e+00 2.169240660329432746e+00 1.510271426908881409e+01
-2.628105159981515726e+00 -4.059831514546930364e+00 1.380316936777974490e+01
-1.767878700330747677e+00 -2.786822588152380042e+00 1.365907058006749963e+01
-1.921531126362937325e+00 -2.736649648068750551e+00 1.369035761109392979e+01
-3.851557319108952271e+00 -5.182484370136343443e+00 1.429313135662255974e+01
-5.542286236278156863e+00 -2.056267424833928992e+00 1.291516282936755999e+01
-4.012789726891465847e+00 -4.365377978482152699e+00 1.374691832253310508e+01
-4.571954762396122085e+00 -4.670830456981001966e+00 1.378082072706386896e+01
-5.356715585301251359e+00 -2.871654391597032063e+00 1.324810597054646877e+01
-2.836412711923467889e+00 2.685837882092740880e+00 1.400800104630688026e+01
-2.078418347550357925e+00 -3.688637402694409317e+00 1.385825757327758367e+01
-2.162254683165522717e+00 -3.855676378659666170e+00 1.385874564310319101e+01
-1.603987202879410656e+00 -2.997113160585662239e+00 1.364921420423999621e+01
-2.031915387579065424e+00 2.143598691575427040e+00 1.265974300452612056e+01
-5.825289703851113110e+00 -3.295600406369325164e+00 1.315347249130920204e+01
-5.806062888495299390e+00 3.096857655795565822e+00 1.500707200418062115e+01
-5.591659064565805082e+00 -3.182812949581218742e+00 1.322607992164333268e+01
-2.238373210275903524e+00 -7.544851847800081446e-01 1.649529031983876592e+01
-5.608029522283972668e+00 -3.006906210387922052e+00 1.318625934446722425e+01
-7.488907326680696919e+00 -1.524030134850996809e+00 1.561276034328587770e+01
3.119398329609190945e-01 -2.485591272483805625e+00 1.331363089517023468e+01
-4.806758150014329267e+00 -4.036062557181397281e+00 1.358920184649363705e+01
-3.787828581861638177e+00 -3.209896679805550157e+00 1.358807106116604047e+01
-3.231841536711225871e+00 -3.757746495059830494e+00 1.366804202824758363e+01
-6.294806879193461491e+00 2.525791614090918902e+00 1.340457399043606301e+01
-2.754774577714337980e+00 -3.264855547356839249e+00 1.369265034071525378e+01
-5.469949242693607161e+00 -3.494872719779142045e+00 1.562658046948767065e+01
-4.236049920008679415e+00 -4.025271447373604872e+00 1.365386730486383016e+01
-3.408487911270027482e+00 -3.808656700445034460e+00 1.366453785194763526e+01
-5.763619550361699595e+00 -3.395572755038890111e+00 1.320084110108746955e+01
-5.572238175308362962e+00 -3.397883303418473666e+00 1.327511254455822609e+01
-4.262549316890725137e+00 -3.304952343094327727e+00 1.592265897073818337e+01
-5.619672319176769903e+00 -3.587424593234378456e+00 1.329226957439146872e+01
-3.677735830195100419e+00 2.453221586369608853e-01 1.675430898736721019e+01
-4.405055638284839148e+00 -5.031764293717226444e+00 1.403104301182185054e+01
-8.066142027871173070e+00 1.053369809685201219e-01 1.239773881998688410e+01
-5.065305766972569401e+00 1.621885729192190873e+00 1.054572240444878162e+01
-5.298361636362322713e+00 1.728545321356592890e+00 1.046508929374387264e+01
-5.097983785664156997e+00 1.944834329608334134e+00 1.038566720651555642e+01
-3.725652869784132903e+00 1.989309388481490970e+00 1.061921066560655902e+01
-2.480371740763369193e+00 1.949612111406812343e+00 1.093128357820415175e+01
-7.626684450173926599e+00 1.530668579300079379e+00 1.265100788332813408e+01
-2.879635721816620197e+00 -1.805907962678738876e+00 1.631714793300118060e+01
-3.899420167971036300e+00 1.528099000485670711e+00 1.090337391380852949e+01
-3.625548693689713886e+00 1.619150526145421320e+00 1.089844024328365890e+01
1.028423943109582073e-01 -1.068742977070429312e-01 1.556767293334939239e+01
-2.420181051638170544e-02 -5.341897304642392319e-01 1.593457668782791359e+01
4.536169242619259023e-02 -7.178392627289039707e-01 1.583733483655797869e+01
-8.854716530651427497e-01 -7.398637164179732162e-01 1.647165511818637640e+01
-1.253210653650043582e+00 -1.279579028992166467e+00 1.639214697097107631e+01
-3.238458737098499629e-01 -7.153433193471131490e-01 1.630095708677179545e+01
-2.048642475661323292e+00 -3.309383296341327885e+00 1.589771195218033029e+01
-2.460613215094964890e+00 -2.096571974276789652e-01 1.660380421623018066e+01
-1.080891651512456697e-01 -1.909432508818039942e+00 1.604068793374174362e+01
-2.194542873680492168e+00 1.937474398610461446e-02 1.662522397697610188e+01
-2.490064158754859314e+00 -9.550503496804552128e-02 1.662412749908190079e+01
-2.248524823298090336e-01 -1.177943023721474525e+00 1.620302442868693049e+01
-2.198216102164306740e+00 2.164908383523119539e+00 1.223458578050607315e+01
2.518821951726213371e-01 2.912779354695567702e-01 1.477955340853998933e+01
-6.091084589808279937e+00 6.775118002029846265e-01 1.635183363955358260e+01
-6.513438020135366990e+00 6.535150733021033442e-01 1.619404782545640842e+01
-8.350347445910649924e+00 -1.947396659369499128e-01 1.393310701444389110e+01
-8.351408243252912200e+00 -4.226388393701856483e-01 1.413922354794446790e+01
3.199106207874744534e-01 -6.525854268615524090e-01 1.433941734999029194e+01
-8.357661139368829595e+00 -4.216453296972229037e-01 1.393891459931093380e+01
-8.282086421954033995e+00 -1.049295082670367307e+00 1.451895657075033341e+01
-4.437529531407053973e+00 2.877066197779261980e+00 1.680322296751430144e+01
-3.643064914369035456e+00 -5.783296391912665646e-01 1.664551571034328248e+01
-1.448121671352611273e+00 -1.750022767452425576e+00 1.630387891601991157e+01
-5.978659495510989963e+00 6.082440450965351797e-01 1.638385044117818268e+01
-1.352005758206856978e+00 1.785489419275521072e+00 1.301718011589736079e+01
-6.104284661124743216e+00 4.587504166202012734e-01 1.633483805499521679e+01
-5.832435458904555503e+00 2.765546681724259659e-01 1.639913151999140695e+01
-1.373130266888578088e-01 1.132766178467957463e+00 1.571677656122636790e+01
-7.457671044414484918e+00 -1.891318332457269324e+00 1.556729131043135794e+01
-3.851811510481495837e+00 -5.581120432787248786e-01 1.665493132161874001e+01
-8.021678603340447467e+00 6.485127052708503648e-01 1.240874778044411642e+01
-1.100905099010302202e+00 -3.221254361494978458e-01 1.651597838853348321e+01
-6.435413907036666714e-01 -5.720438588497119836e-01 1.645467785827426610e+01
-3.181961583834494789e+00 2.553033926518560648e+00 1.261402784967138047e+01
-7.400703884974725533e+00 -1.419144038295191201e+00 1.566356002517530754e+01
2.508224094941913229e-01 -6.301372577406924025e-01 1.540321490189320031e+01
-7.414135476045186302e+00 -1.072305027631743624e+00 1.568613201688790326e+01
-2.355395719427508805e-01 -3.489155002394088712e-01 1.619979940962701193e+01
-7.002648255280930378e+00 -5.023230940292514601e-01 1.590275009768030401e+01
-2.257234465637825593e+00 2.672120322223701550e+00 1.667382148964588140e+01
-2.753916939806694053e+00 2.485801143702814908e+00 1.301915474182216315e+01
-4.472813788179498928e+00 4.072848992766320286e-02 1.668742485985865898e+01
-4.046322447791420807e+00 -3.454486653096904281e-01 1.668397527780066980e+01
-4.797722657508315613e+00 -3.604109349299839060e+00 1.352858383615356530e+01
-4.262244516826196872e+00 -1.721530074168082791e-01 1.668973368215832664e+01
-5.803650121653969762e+00 1.421283873340848825e+00 1.057808578763328455e+01
-7.787445408137537051e+00 1.746977246950015328e+00 1.447482815384751831e+01
-5.912276043097283384e+00 1.400996880460773308e+00 1.058660362639464125e+01
-9.963865223744354793e-01 1.721120509018123634e+00 1.404917200466819338e+01
-7.658055890117267062e+00 -3.411233299069670544e+00 1.300897803149582188e+01
-1.882141459543475559e+00 1.716190340861030172e+00 1.117779529653036263e+01
-3.847920039861555175e+00 -9.299789831065709000e-01 1.658543332252987312e+01
-3.872584585061869866e+00 -1.079436899619095058e+00 1.655404085222625810e+01
-2.712134962877209787e+00 1.714026334207395141e+00 1.093488438010630404e+01
-4.301103621981853919e+00 1.943380492099833656e+00 1.050606479442704710e+01
-3.728282256122771976e+00 1.315365232252574401e+00 1.108830646575781742e+01
-3.208858734316448746e-01 -3.858867316311183071e-01 1.628211284029971750e+01
-7.985286994422183149e+00 -1.462069689905172609e+00 1.510697476861605537e+01
-7.259180839974244570e+00 1.359771021693974014e-01 1.127360329459778399e+01
-7.916342330425439222e+00 -1.855620707333534902e+00 1.516265115252294038e+01
-8.324905023840365459e+00 -4.446904512019226319e-01 1.436768502268433423e+01
-8.073402161529230625e+00 -1.268895797403950088e+00 1.498491184497146378e+01
-3.713607528277378833e+00 -4.900217213323857512e-01 1.255883984021039623e+01
-8.363792693870621520e+00 -8.494269231356695871e-01 1.412630840084799644e+01
-3.450964246755051867e+00 -7.316696381984656439e-01 1.660024056087419098e+01
-8.079055720438798716e+00 -1.671615198109665634e+00 1.490412300212209828e+01
-8.324460427131125329e+00 -1.245968738877647919e+00 1.426272520730756099e+01
-4.963434502850621044e+00 1.472902566723879536e+00 1.065242596569446221e+01
-4.624482655679227339e-01 -1.922978816862161544e+00 1.627998908781988519e+01
-3.164417280982200431e+00 -1.028466149353107539e+00 1.298619444490780239e+01
-8.325998758563219582e+00 -2.155279652537244184e-01 1.435140906000646766e+01
-4.338666510100653184e+00 2.085989978780513621e+00 1.046155513596013265e+01
-4.793954089628940096e+00 3.046029765646596665e+00 1.420058272522678777e+01
-4.481490809654979479e+00 1.880394578333179467e+00 1.050168185450974789e+01
-2.312624865515584993e+00 8.692167840853288752e-01 1.150008415290613328e+01
-3.477411517692557297e+00 3.376640181221014725e+00 1.665161400552239712e+01
-6.040160652286438392e+00 -2.862906904334790781e+00 1.570452783623026960e+01
-1.505514135488259519e-01 7.926498439906594085e-01 1.307671217633529892e+01
-6.664135619181112524e+00 -4.250086579893416427e+00 1.523450198072197992e+01
-7.547357351712924434e+00 -4.374317266042596408e+00 1.420441848983950450e+01
-7.561684597983483691e+00 -4.238727183812931898e+00 1.434293270021874633e+01
-7.490374163200304913e+00 -4.118009355078432243e+00 1.461711158540740030e+01
-7.337039743792897362e+00 -4.118379257700674145e+00 1.487344291046221656e+01
-7.440733974372998993e+00 -4.243002451934967389e+00 1.458814209691441732e+01
-4.325367317018455005e+00 1.313198543055329459e+00 1.093629387228956773e+01
-4.339483627882941619e+00 2.647551667502884953e+00 1.218533921173400358e+01
-6.561752445661293898e+00 -4.005987168945880583e+00 1.534833366082273898e+01
-6.316643249989543740e+00 9.173861450386114891e-01 1.078675724387107238e+01
-7.066557014121758407e+00 -4.089575965581556893e+00 1.513969183462148038e+01
