-7.608950613241808547e+00 -2.186830527018674086e+00 1.625179967796506730e+01
-4.461075319112005388e+00 4.402035565203052059e+00 1.551643827107830731e+01
-2.477843007484826110e+00 3.411607936533401775e-01 1.323864170710987054e+01
-8.111682891306717380e+00 1.150593808464914325e+00 1.471875427387056590e+01
-7.842496532109383800e+00 -2.302968648817583563e+00 1.627533456636309239e+01
-7.030878521644940982e+00 -9.197491977970690957e-01 1.489805307647895205e+01
-7.042225617076458555e+00 -1.075060524430178077e+00 1.511574878661578225e+01
-7.165958892800806446e+00 -1.132336209147354555e+00 1.505201160941536642e+01
-7.070201544708245578e+00 -8.442395908107509506e-01 1.475668694508073742e+01
-6.095509308892079758e+00 8.382918509450781874e-02 1.351777434053185800e+01
-8.966039524534226146e+00 -3.844541064072983239e-01 1.726984264637312094e+01
-6.428809150623930435e+00 -1.187777786898239207e-01 1.394718161615485030e+01
-6.268274055456295457e+00 -1.905549934565105574e-01 1.418691527875283498e+01
-6.007336909233300659e+00 1.757959793580398555e+00 1.221629206817620883e+01
-7.774371799849899567e+00 -1.988968151393132100e+00 1.586469454032341275e+01
-5.792405060718081700e+00 -1.535003609383614465e-01 1.413251989886558135e+01
-1.795032076573695790e+00 9.012967710293282586e-01 1.400362830631966204e+01
-6.040747940330576604e+00 -1.614592161846823970e-01 1.415137460693381399e+01
-3.408171389038544330e+00 1.955931287679834485e+00 1.262534302812948539e+01
-6.268361282286696756e+00 -3.634386549613722206e+00 1.769665132558708365e+01
-2.408324845233582145e+00 2.566292952813777895e+00 1.778533381557717519e+01
-7.750154764930244689e+00 -1.811373878243371482e+00 1.559701049361418512e+01
-2.982708186207108536e+00 1.159812063748973721e+00 1.217889877724612546e+01
-7.919416004198878589e+00 -2.263231548273108462e+00 1.618969712296873098e+01
-2.528928461694025742e+00 1.596463956079623880e+00 1.354102351147205496e+01
-7.981261797487354315e+00 -2.204521783555155601e+00 1.607028696974138882e+01
-3.854744561116304702e+00 -6.451976148597780014e-01 1.477214322850596773e+01
-3.417923364497670313e+00 -8.908807936141418526e-01 1.497804601177240613e+01
-3.752227064525456957e+00 -4.923183341931269275e-01 1.885976452300239714e+01
-2.753635812876847222e+00 -1.432643808145284359e+00 1.531287837930128148e+01
-2.834971758382428764e+00 -1.212508786489802093e+00 1.511477264151285738e+01
-2.560320313887995969e+00 -1.237884525152024962e+00 1.503219581605205946e+01
-1.860104452388984697e+00 -2.604981741837581577e+00 1.604219339370082054e+01
-2.276085689126466249e+00 -1.604922933879568303e+00 1.531984703248468094e+01
-2.475457372595704530e+00 -3.689132038435653627e+00 1.739756890955390389e+01
-7.831807639586227054e+00 3.045260008455134226e+00 1.665647855172304759e+01
-3.846643814603979195e+00 -1.426030752431418858e+00 1.901107546236124080e+01
-2.444137170335273890e+00 -3.752291468711302258e+00 1.766346163895678956e+01
-1.889988568001129909e+00 -3.413934468777201747e+00 1.688832199964002001e+01
-7.048327342524843608e+00 1.144510675716438053e+00 1.319150509453825748e+01
-1.847626554009317301e+00 -2.129111319147751757e+00 1.576604947969785542e+01
-6.902933533589329151e+00 -1.014339406500706753e+00 1.897832872755923006e+01
-2.084049607416010641e+00 -1.716315929537060470e+00 1.541845164455141770e+01
-2.274739866273093991e+00 -1.786686920402689172e+00 1.546264850294759441e+01
-2.903566612159883320e+00 -3.721467164900884583e+00 1.770943525788899819e+01
-1.400693505954936358e+00 -1.608123280641818420e+00 1.803950099388426764e+01
-3.314703394567822592e+00 -3.632402642163026663e+00 1.745803363703816302e+01
-3.279703511713588870e+00 -3.679262818401998203e+00 1.765321181479041712e+01
-2.285250892510480636e+00 -3.564611531091446572e+00 1.707956125599181973e+01
-6.629818130740999571e+00 1.806487883195810662e+00 1.821592352221878031e+01
-2.027345259967800573e+00 -3.487983310891267674e+00 1.697711628473321355e+01
-3.885460227690570978e+00 -3.727062884488454131e+00 1.790128797791970783e+01
-6.963840591845721129e+00 4.188384292602499670e+00 1.667495554573108762e+01
-4.286139740578432722e+00 -3.721118887687077326e+00 1.786267439842676197e+01
-3.906050067261548797e+00 -3.800502545867173509e+00 1.807090951657074385e+01
-3.830113646858722909e+00 2.214218446089049053e+00 1.821259589431917192e+01
-4.083452670917882443e+00 1.102696186260639477e+00 1.133434754620238749e+01
-2.056212688778985331e+00 -2.639567719070161633e+00 1.604850126566267932e+01
-2.646029879255612727e+00 -1.755420698327712525e+00 1.555738516990641074e+01
-7.231291825160490738e+00 -1.553739398379895276e+00 1.571205280719667741e+01
-7.448842432489833243e+00 -1.698372177536361161e+00 1.569038865400237626e+01
-7.289241171693497279e+00 3.325506144798484165e+00 1.599536344741745353e+01
-5.617484689569259615e+00 4.845371677409735511e+00 1.709883801643750445e+01
-7.071193979080327985e+00 -3.632289623346603769e+00 1.784027492280602445e+01
-6.484854464264574680e+00 -3.697247708572875879e+00 1.791122012300006361e+01
-6.948925708794630118e+00 3.993467384475940740e+00 1.632257410339443027e+01
-6.726807851531432902e+00 -8.235819494074261282e-01 1.514997343832155252e+01
-3.468077390610875277e+00 -3.587921991919416964e+00 1.729873125792968835e+01
-3.147993947547088389e+00 -1.782493024752013433e+00 1.588020439413789120e+01
-2.887756602911518922e+00 -1.779858019157524840e+00 1.571711386114054676e+01
-5.323307080324163110e+00 -7.598916646364310967e-01 1.903903975893913270e+01
-6.559236128638382013e+00 4.054377848220044100e+00 1.569080630515853869e+01
-3.188761408152109400e+00 -1.235518222043665348e+00 1.532606680803699106e+01
-7.682776075319186937e+00 -3.659476195186723402e+00 1.800807008370095019e+01
-7.424059788981003827e+00 -1.793977168617549300e-01 1.867593998211472694e+01
-2.930010300270763146e+00 -2.015354601251543087e+00 1.592222290018915487e+01
-2.688903696026591739e+00 -1.948541253312408461e+00 1.572736152786516328e+01
-6.527962293540093164e+00 3.619257843941496855e+00 1.511552753399337234e+01
-2.516226004652935000e+00 -1.947176430074710307e+00 1.564003886502486296e+01
-3.248585694907120569e+00 -1.356739815156509321e+00 1.551150500783643338e+01
-4.258966847176080428e+00 1.556611261505230215e-01 1.879945299008338111e+01
-3.487097307273447466e+00 -3.256122609352271713e+00 1.682508658325398443e+01
-2.583943711011523536e+00 -2.886961587554981890e+00 1.635861612606916538e+01
-2.046187322762627936e+00 -2.450490043735806811e+00 1.869040925530710950e+01
-2.736611238894257614e+00 -2.616801161398754072e+00 1.621349871018775701e+01
-2.620068111434024072e+00 -2.667853738684119236e+00 1.618963361116163213e+01
-5.265902344873946817e+00 -3.575495567461330459e+00 1.746504225523943887e+01
-6.409299049601298925e+00 9.568616412481893985e-01 1.218386928730009799e+01
-4.411168252492204012e+00 3.849748511739439660e+00 1.770513323428295394e+01
-8.020346108634090143e+00 -2.622949003802636625e+00 1.660979710296702194e+01
-7.185607955170789651e+00 -1.803451333157746195e+00 1.608435145129528365e+01
-8.268658049830150958e+00 -3.441170048767473677e+00 1.761801248173359369e+01
-8.078634300441805749e+00 4.269891473166534945e-01 1.821559190316491339e+01
-4.078206238437561026e+00 -3.880299229352727863e+00 1.822954617870011162e+01
-4.157028113961256821e+00 -3.918927799337784457e+00 1.830881535037573116e+01
-6.367694445764568556e+00 -3.658585861268354833e+00 1.777799069618825456e+01
-6.390709244229837438e+00 8.360734934078111191e-01 1.222956686018920891e+01
-4.280749457896601662e+00 -3.928850775124207217e+00 1.831452980542516684e+01
-8.455552983265306466e+00 1.004308724578462098e+00 1.490402998109744459e+01
-6.271284552589230010e+00 -2.613868268243887183e+00 1.911495059697580245e+01
-7.044750380408800972e+00 -3.225835818691946688e-02 1.373343343207342571e+01
-4.004000072268023125e+00 3.702462262785273683e+00 1.486532660819722196e+01
-6.641017101716546023e+00 7.840000136505204109e-02 1.354357710448248042e+01
-3.786386447620035511e+00 4.325825698752248982e+00 1.742503658472979566e+01
-3.178851663782595427e+00 2.337237846926512042e+00 1.361707685952820412e+01
-6.603084005528204514e+00 2.541587420649626949e-02 1.363196961718288946e+01
-3.507907037439887077e+00 -1.231985944339580197e+00 1.551926792622069229e+01
-5.583056925686336491e+00 3.863578627391786924e+00 1.449836926782699464e+01
-3.812029159113387689e+00 -5.691312147264844246e-01 1.458926419453808165e+01
-7.463613354209198469e+00 3.291374476255988668e+00 1.622830746151839065e+01
-5.303141386166309701e+00 -3.736787691124873412e+00 1.787435651776817735e+01
-4.210164669821714334e+00 -4.233560670327488062e-01 1.440471003751685686e+01
-3.538307903163632417e+00 1.640429318959049976e+00 1.194665745078454222e+01
-3.386165818772949532e+00 -5.984824156300714293e-01 1.447030113456140299e+01
-6.287181243647556705e+00 -3.762222749985350667e+00 1.806659577612426659e+01
-5.846070730867579890e+00 6.863167906374323390e-02 1.354247579552178138e+01
-1.768190594256667136e+00 2.633839735572084173e+00 1.722874500521426455e+01
-5.671061062464803904e+00 6.687431595252973926e-02 1.352386136384501469e+01
-4.483695071898976536e+00 -4.420033924605513698e-01 1.454499176362087809e+01
-7.262276805778344446e+00 -9.932436557717632120e-01 1.480324926853568002e+01
-6.878184832217406175e+00 3.852851981801712178e+00 1.715680887443097191e+01
-4.916904174173883924e+00 -3.509274396277060948e+00 1.725725339075835052e+01
-3.997292382280144274e+00 -5.901549129125622795e-01 1.472077421519095708e+01
-4.506058252856231405e+00 2.473246785445413209e-01 1.290587160429159752e+01
-5.459440073057393761e+00 -3.914427404240581887e-01 1.485984206127900364e+01
-5.573882451459252430e+00 -4.277733283449540180e-01 1.499870678539844704e+01
-5.641516575357600871e+00 2.825202604582589316e+00 1.801629592847216088e+01
-2.380056416282204879e+00 -3.299966766184161404e+00 1.678293230588447926e+01
-3.085154074464868224e+00 -3.450814101379717780e+00 1.699091875780820970e+01
-7.467862352559549777e+00 -3.402712128152744597e+00 1.742360417039522957e+01
-7.485078575864301698e+00 -3.535312074724510367e+00 1.767236863467189067e+01
-5.436696549346507368e+00 -3.517846408272741754e-01 1.471750169045839129e+01
-5.975282516906887942e+00 -3.754864776179423491e-01 1.485164480774179196e+01
-5.257144656444144637e+00 -3.222293335732795971e-01 1.452626348629085840e+01
-5.809162843438770985e+00 3.700667227526222902e+00 1.447749763920885613e+01
-8.608027769174244170e+00 -2.448666200495090983e+00 1.652464716581141602e+01
-8.311632682200535527e+00 -2.888511246362996499e+00 1.688512207609855409e+01
-6.839993315329871315e+00 2.742643745680726219e+00 1.461608274955604969e+01
-8.284610965963832285e+00 -3.104659771700007731e+00 1.711468957136593616e+01
-3.545971794726894277e+00 -8.072255027587365017e-01 1.491299012561741222e+01
-3.755473498087832152e+00 -1.049116125625658480e+00 1.542365421441582640e+01
-5.665867110313392629e+00 -3.648390640372705995e+00 1.767473197531609230e+01
-4.286329025698766060e+00 -4.689870457110401625e-01 1.454408962788312465e+01
-4.381849754547297415e+00 -5.658209985874969039e-01 1.480675752136152568e+01
-3.691785285364125979e+00 -7.624496374478169081e-01 1.491309900309514802e+01
-2.077352642687603446e+00 -3.294978953380677922e+00 1.675666973544305449e+01
-6.507148206216961661e+00 -3.595673158394056657e+00 1.765544063005785347e+01
-7.007046337500820066e+00 7.456189088826434830e-01 1.300202049825156791e+01
-2.893257911689223416e+00 -3.467999950491465366e+00 1.700175385421507457e+01
-7.486287500569074993e+00 -3.239878402767957688e+00 1.718629991778497157e+01
-5.002444412821260400e+00 -4.468925663536302273e-01 1.474751804156019119e+01
-5.504021643737307734e+00 -1.423258361382769399e+00 1.914414873776946280e+01
-8.332501586131197513e+00 6.641515633958168241e-01 1.785818084801165639e+01
-8.737267551597991400e+00 -2.594709641662921396e+00 1.685605938921312230e+01
-1.236845783361740558e+00 -2.018114481626295031e+00 1.752878536387050445e+01
-2.166101796086919773e+00 2.486975422258891566e+00 1.559468998834486086e+01
-8.077857859007403718e+00 -3.447166059165416740e+00 1.757118498211740842e+01
-2.288294377401245416e+00 1.066452099509462403e+00 1.326658177875548716e+01
-8.779191943853247082e+00 -2.288852945521564930e+00 1.658185839217731683e+01
-2.995022536230024901e+00 2.881221990326287230e+00 1.482119313933618088e+01
-8.923045719249977026e+00 -1.609467026303968984e-01 1.727978809392751458e+01
-8.889664535744321583e+00 4.945114215066273022e-01 1.593457107500259440e+01
-6.460628152715266914e+00 3.513246667915988830e+00 1.753077959538117625e+01
-6.915138585528509907e+00 2.020093115169946385e-02 1.872393747980380141e+01
-2.662179396090092798e+00 2.769498272559402174e+00 1.779674769759291308e+01
-6.606825532405778745e+00 3.020825954653827417e-01 1.870338287254746490e+01
-3.270795029748614358e+00 -3.502289523682621475e+00 1.875993244732305243e+01
-2.579741032976889947e+00 1.552190348183335233e+00 1.337721522443317212e+01
-8.878664526527783707e+00 4.953474990379576059e-01 1.573637317603090935e+01
-8.487660718189133036e+00 1.935345588400685823e+00 1.619874447855789157e+01
-6.679499293918322422e+00 1.632507523382925596e-02 1.876390927821034893e+01
-6.369140204418392237e+00 -1.304463054633223651e-01 1.883240885309815837e+01
-3.255719785189791882e+00 3.799535845117512078e+00 1.589460186714619994e+01
-6.494080672085280170e+00 -2.586324153693400629e-01 1.885549467793257605e+01
-8.504866343298425946e+00 -3.358602618490600933e-01 1.817856411662295812e+01
-2.339832587340044956e+00 2.704310978226250661e+00 1.557161112655651891e+01
-8.270796121729778960e+00 -6.088972171547142320e-01 1.847945830830479963e+01
-4.430863009054847979e+00 1.423055551307262023e+00 1.848846724998823277e+01
-7.892828112321524259e+00 -4.943009361985405969e-01 1.863320608761371489e+01
-3.401638137758406621e+00 9.657727345532218788e-02 1.868259710669143914e+01
-1.783508564562614307e+00 -1.328707771882152500e+00 1.843235799944201858e+01
-8.927432419809637310e+00 2.683458996535538210e-01 1.614174945874537315e+01
-7.445503183470858488e+00 1.902906786481979029e-01 1.856411628505168920e+01
-1.364745623970070598e+00 -7.804602026928106895e-01 1.782728913218838329e+01
-3.147583696770878348e+00 2.773738518570617817e+00 1.441019628243260087e+01
-1.813992186290671160e+00 -1.000220778619333117e+00 1.839588046223254025e+01
-4.678917567298970681e+00 -1.866279149578486396e-01 1.892516549004579218e+01
-7.264002944577441667e+00 5.647233028555328493e-01 1.333897213367919932e+01
-2.705944934994259921e+00 3.555214921953515628e-01 1.306687649337010271e+01
-6.734902741398330228e+00 2.267430616135547528e+00 1.389619485137765764e+01
-5.237887962493627647e+00 7.932703852013071044e-01 1.866766547495598871e+01
-4.830118089440327722e+00 2.028570027703708867e-01 1.883680791306743174e+01
-1.845315084418348350e+00 -8.155735021336125712e-01 1.838394773434470153e+01
-1.624090299205199317e+00 -8.383583726239265399e-01 1.820178395770292212e+01
-4.689327642617259428e+00 2.130288920271072861e-02 1.887721774577099154e+01
-7.264819283959329965e+00 1.775473624216732160e+00 1.419956557490993276e+01
-8.021595422932991326e+00 -1.999932236569246791e-01 1.848816143791097488e+01
-6.452435429794885380e+00 4.963708742069873892e-01 1.867172246519252354e+01
-4.426568238314592563e+00 1.801115134352032854e+00 1.839135398542266842e+01
-3.312155627208797082e+00 -1.043530625846651239e+00 1.885480180678739259e+01
-6.846788553086538442e+00 5.993959221692928274e-01 1.858100488507895420e+01
-6.678187082985843404e+00 8.085306971457768555e-01 1.854977500236918786e+01
-8.943469341537733097e-01 5.581537389990491871e-01 1.586838182184008872e+01
-1.126110083930966344e+00 2.185240277154387734e-02 1.699163532843873270e+01
-6.037332390286975325e+00 6.323508178996570805e-01 1.241915180215922021e+01
-9.390202291426923420e-01 6.371821577227709810e-01 1.652942599818845082e+01
-5.266207865850959458e+00 1.832576430752068108e-01 1.882681659655374062e+01
-1.185143402801829060e+00 8.431378559795863481e-01 1.701001934786422964e+01
-9.706965685111372810e-01 8.167964156058521441e-01 1.641379786191530599e+01
-1.025222916156480091e+00 6.491458766413189529e-01 1.579096726959722474e+01
-3.476824791846213181e+00 -4.129400857691000737e-01 1.879670300357008728e+01
-8.818917227673011894e+00 8.765201232689505684e-01 1.618628612730717009e+01
-4.665000643382254175e+00 5.560509144027264705e-01 1.873860327083087896e+01
-7.423541483095895011e+00 7.605497474983362594e-01 1.355255380681492028e+01
-4.674230444989686539e+00 1.717904660106750747e-01 1.883946134847571585e+01
-3.873897105688639098e+00 4.740334070662608035e+00 1.721162725964748574e+01
-6.012153733207311390e+00 7.651687053291227336e-01 1.862082148322761554e+01
-2.258014926372419851e+00 1.355835172034403069e-01 1.359542142108174545e+01
-2.199632634390760177e+00 3.400551688038310427e+00 1.706039714330992041e+01
-5.799125374405647015e+00 4.836750291992348849e+00 1.705387118388181733e+01
-8.090862233873798104e+00 2.349979731573502484e+00 1.617049756513451086e+01
-7.915158556026802295e+00 4.086364804120196093e-02 1.845253540989762087e+01
-8.673163500783466873e+00 3.777987597762516581e-02 1.778514452191050310e+01
-7.064261945093299744e+00 3.118434868598428444e+00 1.542297677894620733e+01
-6.636012827253594537e+00 1.069471030630962272e+00 1.847142858068843907e+01
-1.900253794151463227e+00 -1.246116931164383823e+00 1.849232573727415740e+01
-7.684779680916306255e+00 -7.906447485206959946e-01 1.877252313096699510e+01
-6.447634190178043845e+00 9.933078296027970655e-01 1.852088349994429706e+01
-3.302557353254856665e+00 -4.039430343004551949e-02 1.869547832977482216e+01
-3.233624605919973583e+00 -2.846992739742111866e-01 1.873061454360585287e+01
-6.812176035736755786e+00 3.691362707195743997e+00 1.566752832241373028e+01
-8.560780353934312359e+00 5.053794664050664798e-02 1.793145872563910359e+01
-6.906867113936334235e+00 2.595877847464125754e+00 1.455659893907510138e+01
-8.199268204421045425e+00 2.360196557994759248e-02 1.829511065055684327e+01
-2.101080579327895048e+00 1.413650011621456093e+00 1.407904128404784672e+01
-1.360646099470862014e+00 2.937912048437463230e-03 1.765270554394246716e+01
-5.436129851264295709e+00 3.915895278478141783e+00 1.447438374651354565e+01
-1.310777397869421712e+00 -2.037730819821320094e-01 1.759297621279920065e+01
-1.324953719788392048e+00 5.788622437165847900e-01 1.737979189695736437e+01
-6.013038677832315493e+00 4.484964457122289083e+00 1.568963762873552525e+01
-1.335008474444477011e+00 1.697232322831720708e-01 1.754903209433064859e+01
-7.207036874222256806e+00 3.654385734988200074e+00 1.628019226949483311e+01
-1.592162562312650964e+00 -2.620985708381805002e-01 1.806127405519529106e+01
-1.785803651693921523e+00 -3.962889988058580504e-01 1.826926898170945179e+01
-1.655030941129756794e+00 2.412921526097217217e+00 1.705394074702930851e+01
-7.552731744190676721e+00 2.142178110288993409e+00 1.772222600297515527e+01
-3.934236997314985995e+00 -2.958267634635677101e+00 1.901325602877862764e+01
-2.512738273155006752e+00 -8.389832013057938465e-01 1.866952801544809404e+01
-2.651720491130768131e+00 -6.546675950863967142e-01 1.867823039507717908e+01
-1.284697553092268407e+00 -1.795454618472207553e+00 1.775213504127860631e+01
-8.493959399829421386e+00 -1.197538021709256828e+00 1.846443306371870818e+01
-3.665897990040637655e+00 -2.007594761996515320e+00 1.901403701316282735e+01
-3.608575082303249637e+00 -1.806977139631396057e+00 1.899148961459889051e+01
-5.457666570945899132e+00 2.059698539296770381e+00 1.213414495532288839e+01
-4.432669781443591361e+00 9.807356269124565262e-01 1.860350488117276768e+01
-7.478411070133350158e+00 -7.433351373638907855e-01 1.881286396913364456e+01
-3.885974346663181311e+00 -1.816959219388754043e+00 1.905348207063963173e+01
-5.297160940034691734e+00 -1.564637697916525516e+00 1.917163164323550006e+01
-2.589339849470017274e+00 6.812587649835881720e-01 1.279200911412070951e+01
-7.707199666817720285e+00 2.714464199947394629e+00 1.726321404713856822e+01
-5.045858556093474334e+00 -1.424574575931988552e+00 1.915496262992680698e+01
-5.025951564976741892e+00 -1.216255417986907839e+00 1.912324437875651739e+01
-4.393745118305032449e+00 4.687647963767020087e+00 1.605536598436861340e+01
-4.671926113895928268e+00 -1.424486120361346364e+00 1.913954272989349192e+01
-4.107399112472087666e+00 -1.238443749799167826e+00 1.904202576687768556e+01
-3.830161618586862549e+00 1.528277751189592859e+00 1.146120428280553227e+01
-2.456003242648561180e+00 -2.037670949864856418e+00 1.878777711294779351e+01
-1.525869348003316306e+00 -2.029223334993450756e+00 1.828178293358064366e+01
-1.473530071403576835e+00 -1.597528735636513542e+00 1.816034628970680842e+01
-1.099083794211830778e+00 -2.470773757355083089e-01 1.683188253736778250e+01
-3.647571951470645502e+00 2.866129713931883760e+00 1.387556817720464863e+01
-1.540112904607150002e+00 -1.838804215236987449e+00 1.828607303583186194e+01
-5.064671122553003002e+00 -8.413201250847273105e-01 1.906313859214882456e+01
-1.337983067737580356e+00 -1.621828243466263419e+00 1.789417511417443762e+01
-1.609567094629476669e+00 -2.433746977133561362e+00 1.838446169860227286e+01
-1.161614150798535583e+00 -1.504899250865632032e+00 1.696659102312744949e+01
-1.834014496010769379e+00 -2.639850586941793864e+00 1.857452950423223825e+01
-3.012965575070103874e+00 2.047983225102684379e+00 1.811162714885918490e+01
-8.755458667600995781e+00 -1.157945672591027986e+00 1.821459929818397683e+01
-6.268575287453478140e+00 -1.033512594192959044e+00 1.903921335862186481e+01
-8.935439930220278271e+00 -5.006297087458828621e-01 1.751000562106329284e+01
-8.930771942130695251e+00 -7.867338648192758743e-01 1.770811746867852321e+01
-1.308561333494307366e+00 1.395869931646110507e+00 1.623661563264362684e+01
-4.784480176385389250e+00 -7.482951708292302495e-01 1.904217314751069523e+01
-3.800886571668204983e+00 -1.600224942836782738e+00 1.901948227088219312e+01
-8.945790046788472338e+00 -6.543831850770294167e-01 1.757956782130316498e+01
-6.494478045544525457e+00 -9.554559370391020323e-01 1.901218829122984744e+01
-8.185918608977422295e+00 -1.215490919973623019e+00 1.866747481499733397e+01
-6.482318599142702809e+00 -5.946010066491946855e-01 1.893581883594932691e+01
-6.438840084171384426e+00 -7.894984858355138524e-01 1.898134136656207005e+01
-5.486380517790147238e+00 -8.687490593131541594e-01 1.905093326780092156e+01
-2.839444126746224040e+00 1.393960161736828463e+00 1.825371123762557346e+01
-5.284976138253211886e+00 -1.024331980377460649e+00 1.908940339567590172e+01
-8.024188731683560505e+00 -1.407976857235536450e+00 1.875466927945063134e+01
-7.248583738141749500e+00 -1.007082733810949371e+00 1.892540032559663388e+01
-8.957187744535927365e+00 -1.796540651993312920e+00 1.799395241191470518e+01
-8.936136695882971992e+00 9.902621575348444227e-02 1.593981742008353564e+01
-1.150501743073910177e+00 -9.992787810026615425e-01 1.710728422861325271e+01
-4.392189600871334143e+00 4.898079588718442956e+00 1.717015236156635893e+01
-9.351174343421482238e-01 2.990470150360147739e-01 1.638535958260982994e+01
-5.793945166153843473e+00 2.902096973863135698e+00 1.346543058223849698e+01
-9.624996094860640561e-01 1.907502813869463021e-01 1.593529113488006033e+01
-1.079512544170563748e+00 -1.780899171781278878e-01 1.638147960467713915e+01
-8.963869927300006424e+00 -6.902953848229633760e-01 1.592434660842231864e+01
-1.308347717556030299e+00 -2.608395752629085962e+00 1.770987890483485216e+01
-3.830468155736751257e+00 3.845009632526196874e+00 1.529219737170922855e+01
-8.377832955218897482e+00 1.362264743184967486e+00 1.730731081413095751e+01
-4.297943591774918914e+00 -2.634177754139799710e+00 1.911622268047528905e+01
-4.078488611988822399e+00 -2.596058242143822081e+00 1.908182351524114750e+01
-8.954996138156621655e+00 -1.543266139014204841e+00 1.797831707790595601e+01
-8.818364981284190662e+00 -1.891048392290200830e+00 1.820810869531158005e+01
-5.925826036951404419e+00 5.220807698338788327e+00 1.657675320266201879e+01
-1.356599259662628842e+00 -2.427949546093507216e+00 1.794259072603781391e+01
-1.199598270940725575e+00 -1.759958068837616185e+00 1.729836440233275141e+01
-6.277877410766200761e+00 -2.161400187724714872e+00 1.913729597146255657e+01
-4.192826995213891017e+00 3.196083300705002461e+00 1.793762487016746121e+01
-1.575534343772716284e+00 -3.223201894781279275e+00 1.820374007218105561e+01
-1.549590618833014855e+00 -3.038172174732861386e+00 1.821370788785591088e+01
-3.800652848623637059e+00 2.000815579458720794e+00 1.220735288831499332e+01
-1.613144939080835449e+00 -2.841109342537230020e+00 1.834104949331207735e+01
-8.994342849557634523e+00 -3.163549358820762492e-01 1.613877573721282488e+01
-9.039953218177720018e+00 -7.250664325376798836e-01 1.691891856914980252e+01
-6.522428138416426435e+00 4.000520094520696013e+00 1.555363348668606704e+01
-9.050475193848502187e+00 -9.140749657264364281e-01 1.696072512691734602e+01
-6.008028542895385904e+00 2.913193523413808883e+00 1.365413496848839969e+01
-3.160444368819250727e+00 4.276676866517806097e+00 1.662654266166227046e+01
-9.056507096980840998e+00 -1.152500385317229314e+00 1.710773934211827907e+01
-3.027992159015914009e+00 2.394195710367925667e+00 1.801519313545063028e+01
-1.322863429268140489e+00 5.028762974515097461e-01 1.481809252537551913e+01
-8.781224543372207592e+00 -4.662817445958065687e-01 1.534304496127267470e+01
-5.506753606250686772e+00 -2.249280574213282424e+00 1.919169558839685408e+01
-5.369658673092399859e+00 -2.193300267535825299e+00 1.919996455864016127e+01
-1.383562711793551170e+00 1.628364862472179375e+00 1.641222607873203287e+01
-5.237899607761914211e+00 -2.238766624676453709e+00 1.920560036591888320e+01
-8.275866761793324144e+00 -9.636058343805222748e-01 1.856672992166986091e+01
-8.371942714479988723e+00 -7.509361788200787924e-01 1.845381795838424210e+01
-3.417503193303636611e+00 2.317844056236281869e+00 1.323478369729102866e+01
-8.424450662948116175e+00 -9.209878497166703593e-01 1.845483733405195181e+01
-1.767660341814817571e+00 -3.410450954436944571e+00 1.839540192901453963e+01
-3.071607069561036685e+00 -2.831672128826397294e+00 1.885363291540114261e+01
-5.614020685279562883e+00 2.422523212308888230e+00 1.815932465038678600e+01
-1.130128955077040143e+00 -1.001591703503784236e+00 1.696312233932477653e+01
-6.036797273455231760e+00 1.998383395367064441e+00 1.824179824029504715e+01
-1.124607098800782801e+00 -7.884927402519148476e-01 1.696706431114202474e+01
-8.490942502666014136e+00 6.088751292473117971e-01 1.447110749733196400e+01
-6.394615507609649363e+00 4.447120253363955555e+00 1.705295466680954064e+01
-6.090691913337928476e+00 -1.819271818476417835e+00 1.913887198391509514e+01
-8.762965439441829929e+00 -6.271087685020424463e-01 1.536277289929683576e+01
-7.569493150268178816e+00 2.459322827530727285e+00 1.544437643326745757e+01
-8.706960390728605503e+00 -2.879646694141735908e-01 1.511877981121030246e+01
-4.700910149886296630e+00 -1.209632072807635517e+00 1.911213630205367764e+01
-8.714360196360479094e+00 -5.541805262873582549e-01 1.523375404962727941e+01
-8.588492063471976579e+00 -4.779927598254651855e-02 1.479073367275957196e+01
-6.956250471192815255e+00 3.455285111883575677e+00 1.565088456042418841e+01
-6.823325769955500775e+00 -1.284074794662752872e+00 1.902942043260880922e+01
-6.643144406303312266e+00 -1.250914323716321608e+00 1.904664639121565273e+01
-2.899628056866725867e+00 9.493051804582413045e-01 1.227930832200991773e+01
-2.893426700936270191e+00 6.364314637634626015e-01 1.261412787369315680e+01
-2.847862498649502250e+00 7.909464910953845074e-01 1.244132561942539184e+01
-4.002818078586957817e+00 1.365511962885944897e+00 1.119327202737946436e+01
-3.485534606937015667e+00 -3.662423082119533824e+00 1.764343739964543545e+01
-8.413689042599603596e+00 -2.217765584828137904e+00 1.859254969089982268e+01
-7.744073613268812828e+00 3.184586872540535740e+00 1.676940834034760996e+01
-8.001308812246897162e+00 -2.585271825372488674e+00 1.879001607795134277e+01
-7.346690022251069152e+00 -1.805057843920963023e+00 1.900066545637833570e+01
-7.254028452894472956e+00 -1.836199953342547264e+00 1.902246862872890176e+01
-6.320479592793534884e+00 8.892140740787275455e-01 1.211530490193120357e+01
-7.494698296253836212e+00 -1.806908781112596341e+00 1.896011353987393022e+01
-3.682237975604186531e+00 -3.005251923584818297e+00 1.894952838169995601e+01
-7.670125350685163212e+00 -1.958188790725242878e+00 1.891418741220017807e+01
-6.679135810006080476e+00 -2.404712716638883752e+00 1.909526881092535433e+01
-4.950408299705596704e+00 4.934604575569312424e+00 1.605277922634691379e+01
-3.863685959353724719e+00 1.349629258757933270e+00 1.128835307513247699e+01
-6.292822311170923832e+00 3.589515876993045751e+00 1.478554409922866597e+01
-2.711241236750164596e+00 9.196712374484332653e-01 1.249919015878418094e+01
-4.452067572114183136e+00 -1.802895817325274486e+00 1.915114306486361073e+01
-1.170797098666351843e+00 -1.236045436042877865e+00 1.649581247242411308e+01
-1.131300380604093103e+00 -1.005025822583415440e+00 1.656579278231403407e+01
-1.750576989600965083e+00 2.122091578461801076e-01 1.411283066971749633e+01
-1.164993907003693652e+00 -3.854568677223792483e-01 1.720720160401143062e+01
-1.323922732774291733e+00 3.590186583334941672e-01 1.487232528479781735e+01
-2.277686735144869967e+00 -3.428494774033653769e+00 1.862793997905379229e+01
-1.154527301961888019e+00 -6.014677997437249957e-01 1.613390378346894494e+01
-2.830245484362195807e+00 3.268819633505739564e+00 1.567768557179593358e+01
-1.119178049220267201e+00 -3.396864693176139816e-01 1.616738809875617733e+01
-4.606831489570802241e+00 3.149329929317131072e+00 1.344687783867231445e+01
-2.408701743533180561e+00 6.646370855436576353e-01 1.296638249732418302e+01
-3.343359875797464298e+00 1.183558492013214725e+00 1.172229562091501265e+01
-5.498205891522198741e+00 -2.425888206512718526e+00 1.918538973527296321e+01
-5.469173548323452927e+00 -2.628101781987703056e+00 1.917192302392295034e+01
-5.848412221708111147e+00 1.176827850569427403e+00 1.850889168573576171e+01
-4.150362505096553356e+00 -3.229627444679067594e+00 1.899481061951948391e+01
-4.006607114483236032e+00 -1.832795401226086640e-01 1.884126769053404615e+01
-8.804832814395584961e+00 -2.166451119387891922e+00 1.821167523213357242e+01
-6.749332871776584142e+00 1.496110692907769213e+00 1.304427203143050917e+01
-8.582426113719650473e+00 -2.602221829876834924e+00 1.841998073972332151e+01
-9.059117380572173417e+00 -1.347789576716296622e+00 1.732422532768931234e+01
-5.100743032318008296e+00 -2.611232163925004013e+00 1.918419287213786362e+01
-4.479842354075382893e+00 -2.453599917826195131e+00 1.915489477881743596e+01
-4.668757607185583858e+00 -2.575348149439625978e+00 1.916180495428397990e+01
-8.956429833638452465e+00 -2.196758969921522642e+00 1.795938077023462398e+01
-4.875333768827828429e+00 -2.821559304652721423e+00 1.914343219934538354e+01
-4.466864258337311711e+00 3.830493322949499291e+00 1.453808574509693585e+01
-8.355292230610308124e+00 7.654594191575159190e-03 1.437630149621380582e+01
-7.062623715135657676e+00 -2.376075284375870567e+00 1.904803004007603562e+01
-3.093600112455342721e+00 -3.250365204722328372e+00 1.879497915150388110e+01
-6.098712244351944811e+00 -2.599123575136156994e+00 1.912951227914954444e+01
-1.390916091016984213e+00 -3.310895219506908571e+00 1.778765881326892639e+01
-2.344223413189614469e+00 -3.593567889293363571e+00 1.859502429623872644e+01
-2.977917777635568530e+00 -3.728055714992103198e+00 1.860296451271682372e+01
-3.681906361154309248e+00 -3.577076672704913474e+00 1.880568668920463438e+01
-1.970100862549559739e+00 -3.732645893628045108e+00 1.839491593511716871e+01
-2.738438015963989169e+00 1.970954519675017558e+00 1.374625391980620748e+01
-3.562180132306782099e+00 1.182792628343811048e+00 1.153238170308529931e+01
-7.275504797632965648e+00 1.361620784802695328e+00 1.376464467484989740e+01
-2.049915472580227771e+00 1.249666089997399643e-01 1.379268828809562564e+01
-7.076858013303620965e+00 -1.239014374453355938e+00 1.898879079515763380e+01
-3.225942087572736483e+00 4.220546175666052946e+00 1.649508263933339691e+01
-3.912061663103674203e+00 -2.466082377597834441e+00 1.905613542581794917e+01
-3.683504573171556551e+00 -2.390332848913638841e+00 1.901249619890327835e+01
-6.747378023257041058e+00 2.056387700315043254e+00 1.366941512190750529e+01
-3.497075855394253363e+00 -2.415993430329907099e+00 1.896969804185666675e+01
-8.512069477817158614e+00 1.370990273654551839e+00 1.532159392038339263e+01
-8.787664376632015717e+00 -1.590280723709189825e+00 1.824944610014215840e+01
-5.197962190608858002e+00 4.098994119207229225e+00 1.467454439244166053e+01
-8.601376905149047403e+00 -1.630562701027597150e+00 1.843871605828890381e+01
-8.972540822377482073e+00 -1.201227143708822886e+00 1.781972421275726504e+01
-8.023614322320709036e+00 -8.013244322946504461e-01 1.865933973564193593e+01
-2.277360242426350379e+00 8.800747210724035874e-01 1.302285519920897627e+01
-1.725446658210860296e+00 -2.868040295807630535e+00 1.846224157488934736e+01
-7.752098032969123587e+00 1.480714021938862590e+00 1.464606333226419110e+01
-5.656997048757063773e+00 -1.842823792101419667e+00 1.917512322815660042e+01
-7.102082250611196912e+00 -1.414011185594737929e+00 1.900864495908842144e+01
-8.078387253183361594e+00 -1.970333128859037775e+00 1.876493368320306132e+01
-1.698251423236926572e+00 6.766054523642361929e-01 1.401645831387074992e+01
-1.499874202233697273e+00 6.402703686371659098e-01 1.442799181039596590e+01
-5.455193859993680228e+00 -7.356328723068836783e-01 1.902584814701071991e+01
-3.494250172530559695e+00 -1.233131524508068066e+00 1.891395010827991996e+01
-6.637815212544750487e+00 -1.760037267566893493e-01 1.881713658838846470e+01
-5.215886789420785874e+00 1.524816003748481918e+00 1.123109989465056202e+01
-1.737779983369450054e+00 -1.847796534866688489e+00 1.847341754996683250e+01
-4.465672684765464417e+00 -1.041710182510675597e+00 1.906695191134139833e+01
-6.069005474712232839e+00 6.442016978148867867e-01 1.865288338468710805e+01
-4.071110557005341413e+00 -6.309721280755187234e-01 1.893864554375682019e+01
-4.632368753310449172e+00 3.016631130502848368e+00 1.802667199467642689e+01
-1.754095081919005095e+00 -1.527731876731642569e+00 1.844314650868361127e+01
-6.705111341510832546e+00 2.202288154393815311e+00 1.377260330410093303e+01
-4.055374995681461314e+00 4.669989815924622256e+00 1.727199367114435091e+01
-4.606074914072608273e+00 1.571508083857658944e+00 1.121056006443556896e+01
-4.090617700874335405e+00 4.502596033792073627e+00 1.737213436185867010e+01
-3.357818973262306272e+00 4.273222480078648466e+00 1.737041702805996124e+01
-2.805901773088985696e+00 3.635360045197952417e+00 1.749165033310054440e+01
-2.888788274465843298e+00 3.832574384941494827e+00 1.744214529997854868e+01
-4.185648273810892661e+00 1.961629543111634399e+00 1.181018360073552742e+01
-2.578442523189848234e+00 3.872917719588815366e+00 1.726932022855741877e+01
-2.476860200736017870e+00 3.574000548116095022e+00 1.739065163897080168e+01
-4.255917986251979812e+00 -1.577255114404378933e-01 1.374583726651849958e+01
-4.400282755274440127e+00 4.431134523603462938e+00 1.743249823408527988e+01
-5.402249993323471777e+00 3.827657488515080253e+00 1.764458959535479465e+01
-5.652984245759526516e+00 3.836027404231233451e+00 1.759721740919324162e+01
-3.445024878580865479e+00 3.213052662205817533e+00 1.782190897848769140e+01
-7.586301748683357715e+00 3.063119068215770291e+00 1.716189634255540142e+01
-1.551085405451989141e+00 1.509929121796969920e+00 1.559154861024561001e+01
-2.261079549787666121e+00 3.335610871445491288e+00 1.737512042965045111e+01
-5.786218137978177189e+00 4.236065911636653247e+00 1.512387847240185579e+01
-2.403458795015501526e+00 3.641764583654066190e+00 1.729699324999222654e+01
-7.089989231073774434e+00 3.451798774084899879e+00 1.727667102678352506e+01
-2.498221789687258720e+00 3.001722222013009311e+00 1.573715925058548493e+01
-6.414153181473012388e+00 4.065149094586914202e+00 1.547643561916498101e+01
-2.626085326306531798e+00 3.430172660147427610e+00 1.750896330574451554e+01
-6.272939523210001589e+00 1.587176861709547859e+00 1.239083385568034146e+01
-2.612827594078645177e+00 3.292655057282605657e+00 1.756010062094753721e+01
-5.213227537666768718e+00 5.595757499922072720e-01 1.238316980321479832e+01
-2.715523258951126451e+00 3.341887443949212777e+00 1.758044208383901719e+01
-3.620129247252019233e+00 4.013980691970861159e+00 1.754420712684543560e+01
-4.197751130157971744e+00 4.204242889595514399e+00 1.753456632170838247e+01
-4.644182735013035135e+00 4.007844946196887470e+00 1.764330112237163206e+01
-7.603365258226424395e+00 3.254780806543483340e+00 1.643933497939681132e+01
-6.423756941838933088e+00 3.799642899636530124e+00 1.739254106877715600e+01
-4.802686004201549785e+00 -4.080047931985987808e-01 1.457223126601781615e+01
-5.399626770504549533e+00 4.649355427724182199e+00 1.725164671709958952e+01
-2.049665973349974024e+00 2.627415459107947271e+00 1.605929864152520992e+01
-5.596981948563896303e+00 4.409454563238720759e+00 1.733228924470962795e+01
-4.816081209824572440e+00 4.902392207564097326e+00 1.718018599340910413e+01
-5.495846327824557953e+00 4.244664003353631365e+00 1.743679529317890342e+01
-5.396471522780770691e+00 4.346975771535493749e+00 1.740958327272574024e+01
-3.047984261432449937e+00 3.178197120005842979e+00 1.774702123737853299e+01
-4.064308197873418571e+00 8.820520670401734709e-01 1.170025309573502170e+01
-3.611317266703029105e+00 4.958294882548766047e+00 1.702368964799188689e+01
-5.799549745529661848e+00 4.285737522679448297e+00 1.734332396446786362e+01
-3.537736287782349720e+00 2.387129023384300552e+00 1.318863974333975619e+01
-7.266503416892144962e+00 2.911724478779069702e+00 1.750660530716547925e+01
-4.203464945196319746e+00 3.829509028523271574e+00 1.769649567607041263e+01
-4.637959947881444833e+00 3.609432060277988352e+00 1.780585612995778888e+01
-1.907844269338268450e+00 8.337916900831954248e-01 1.362661322905486827e+01
-3.631821505075287337e+00 3.389845307863409207e+00 1.779146889431732603e+01
-8.089116289831947526e+00 2.323174555002685882e+00 1.706797984819942826e+01
-2.317204791585785628e+00 2.965741320691200666e+00 1.757210576607879915e+01
-5.027635640305954112e+00 3.421922248765787433e+00 1.785422151146215697e+01
-5.231585130167291098e+00 3.658876477315138764e+00 1.773984030541646462e+01
-1.741796526627372499e+00 2.473855695984945591e+00 1.733020532294884930e+01
-5.204198406820053080e+00 1.957815614008134419e+00 1.183817926661959063e+01
-5.404552095496800490e+00 2.158458459399614338e+00 1.222987991783185180e+01
-7.953162240920528703e+00 2.447639430414898065e+00 1.716528825742098974e+01
-2.996023686449392986e+00 3.549210518238346435e+00 1.758826626405276983e+01
-3.654076921790387011e+00 3.614718506405657283e+00 1.771193345890801396e+01
-3.408946778863886973e+00 3.444087858325999285e+00 1.773367298132698977e+01
-7.563793926510441246e+00 2.760055269735774086e+00 1.736815734152440882e+01
-5.621606471091028290e+00 3.498435917039226517e+00 1.774676570038381129e+01
-6.825459780916779629e+00 3.199081416450630933e+00 1.756698633546814392e+01
-4.134839588260684096e+00 5.142109559025388243e+00 1.700997676628580990e+01
-4.608154937703718090e+00 5.180180845304912296e+00 1.701510125703339327e+01
-5.276262429811970911e+00 -1.454862788945670893e+00 1.621704599331472707e+01
-8.027178453626667931e+00 1.663819455832112437e+00 1.522350249938913436e+01
-4.590210118599874711e+00 5.430471742166377958e+00 1.687426541750684805e+01
-6.486008151830433555e+00 1.800345268840138013e+00 1.295915737253086775e+01
-4.404388467046236322e+00 5.252889266788992373e+00 1.696418839107191445e+01
-6.193628936660272366e+00 4.849724798383966196e+00 1.689393553407693105e+01
-6.333238668205001254e+00 3.868690673700325267e+00 1.515694063723515228e+01
-5.463275404217158737e+00 1.189730726792059379e+00 1.853790243714838937e+01
-6.035471013291647147e+00 4.831763308465245821e+00 1.698237648902217956e+01
-6.474167627611018716e+00 4.518777014020468386e+00 1.698104134679731914e+01
-7.265582781124757972e+00 3.875227507242174685e+00 1.667787544562467872e+01
-7.164684026199806155e+00 4.015004102786868145e+00 1.685614437695966217e+01
-7.075716626572312151e+00 4.073763803834520303e+00 1.666755590064673243e+01
-4.622424343159480031e+00 5.407557641759653144e+00 1.666454557151521954e+01
-3.996036379855262943e+00 2.760937100539225586e+00 1.326738351396684124e+01
-2.204824327891111491e+00 2.449440559038704723e+00 1.546008272281699902e+01
-5.644658630500146046e+00 5.390931650635466532e+00 1.659705460218660278e+01
-1.078587038698483047e+00 9.823275612253274947e-01 1.622490658605152447e+01
-7.331031867141823533e+00 1.054188591740833125e+00 1.356684369240097965e+01
-4.511905729703244106e+00 -3.882529595429620173e+00 1.819806073741379748e+01
-5.884030519531608050e+00 1.285020618080601196e+00 1.847372557270752225e+01
-8.363700551688394214e+00 1.046753513001695390e+00 1.486832753013766251e+01
-3.864531702925049217e+00 7.596370988474099306e-01 1.858708485003323574e+01
-1.594776315587906668e+00 -1.020514770210127153e+00 1.820941668675650504e+01
-3.627631662933233692e+00 1.401945265869515955e+00 1.838879072689784522e+01
-3.444720939020188055e+00 3.797611860306019937e-01 1.861886844444812539e+01
-5.231745836172472686e+00 9.705068659511266738e-01 1.861848089700378495e+01
-5.239577564275402111e+00 1.439685007047653231e+00 1.848487495837352412e+01
-3.838738230901344473e+00 1.580785335760907184e+00 1.837658976713057513e+01
-4.221746475437260671e+00 1.773599033329283037e+00 1.837745079430118977e+01
-2.090983402966831939e+00 9.068679132407853061e-01 1.813414463741080596e+01
-5.198132226547328649e+00 8.426871394961039652e-01 1.181417820294936405e+01
-3.447727314936513743e+00 2.165119564900629179e+00 1.816511522422821656e+01
-4.291798569077894143e+00 3.232671580365003017e+00 1.373431279581566855e+01
-3.199865446535807845e+00 1.734758990521607203e+00 1.823468008447922983e+01
-8.401182441837269366e+00 1.660232964689683399e+00 1.562037897658206020e+01
-8.567267583825927346e+00 1.433422151770342268e+00 1.543973822746294644e+01
-3.437169730117241251e+00 1.392974416155126738e+00 1.836130555644104589e+01
-5.591985707406787576e+00 5.020920814469329585e+00 1.630401799497659709e+01
-5.409430461128427403e+00 2.952103806742337078e+00 1.324147198684773485e+01
-5.840277045488112329e+00 2.611406427840402333e+00 1.806713353411472411e+01
-3.829335214006027055e+00 -1.076961560641261362e-01 1.356482644308510288e+01
-6.415074770449388453e+00 1.164413865426151551e+00 1.220826701853639662e+01
-3.609155209668734265e+00 -2.291726300543484585e-01 1.378299135566463463e+01
-5.024579583771673796e+00 -2.350333106174378739e-01 1.415731369057883882e+01
-7.369072502670808156e+00 5.012075567637189755e-01 1.343322304936960165e+01
-5.641379794588918806e+00 -2.076865476821762591e-01 1.889532790664851092e+01
-2.673807473061280859e+00 -1.225813279504884390e+00 1.875510971909654501e+01
-3.642967816988814000e+00 1.389772932931354621e-03 1.874247569768511568e+01
-6.483731449035620820e+00 -1.781590685076781089e+00 1.910862833015695372e+01
-3.380167079077074366e+00 1.390367507672053193e+00 1.181088727607099997e+01
-7.577313116907799184e+00 3.421974835142682636e+00 1.685517846920173213e+01
-8.215981343455688091e+00 9.234446191580094609e-01 1.460935765908382677e+01
-2.450016397701739734e+00 3.793145846845451086e+00 1.707523423287668152e+01
-2.282008594522024314e+00 2.822099481660517828e+00 1.585870569731617508e+01
-7.671679110792764433e+00 3.294292529380932422e+00 1.667422002445888296e+01
-7.391594407140413381e+00 3.624704330798599994e+00 1.651434713627405415e+01
-2.706083076561862644e+00 2.400866677318596043e+00 1.450629806212133843e+01
-3.829759781814677577e+00 1.770776172195958731e+00 1.181072510236229078e+01
-6.032245444738832063e+00 3.200444616612455828e+00 1.779584675930289706e+01
-6.425503818837896119e+00 3.036837706579517793e+00 1.777411602726751738e+01
-5.429423929433442986e+00 2.991525543062371728e+00 1.797762611943056754e+01
-4.702684753920252092e+00 4.583713503907039133e+00 1.556694648818317006e+01
-6.079390354541320818e+00 4.945318780201949593e+00 1.644301277210026058e+01
-5.191279647832153010e+00 5.208484776731435950e+00 1.637515269375107607e+01
-7.309555348637309713e+00 2.514831361981835212e+00 1.770300173124090293e+01
-6.784764919552827678e+00 4.391971103890046635e+00 1.672973454332090171e+01
-6.222668764004707143e+00 4.855921036584824435e+00 1.644588138237078567e+01
-8.432666213560549906e+00 1.303523832253241865e+00 1.519437213319415747e+01
-7.512573486456100902e+00 8.162557401432295467e-01 1.368034971077067041e+01
-7.005081480382117753e+00 9.258236504705474879e-01 1.298634525585815425e+01
-1.845321698633489271e+00 2.620280155443173609e+00 1.664778722373846875e+01
-7.431461584471245274e+00 1.902093365800300528e+00 1.460903124930113961e+01
-4.497700187374305436e+00 -1.897734007159387115e+00 1.639833206658695275e+01
-2.105974316399335855e+00 3.164717015732293248e+00 1.686062927591181193e+01
-6.940131944674828191e+00 2.664021436428301026e+00 1.469115825660151842e+01
-1.713039204724084996e+00 1.047964875895609049e+00 1.442189758448164127e+01
-1.946766878183868732e+00 9.507109239449142990e-01 1.372970794177013687e+01
-1.815318286908479628e+00 1.251568950674134317e+00 1.443515260732193184e+01
-1.868934951592682525e+00 1.457848863559355168e+00 1.463930114462958443e+01
-7.841707435375576019e+00 1.131356108303357200e+00 1.439291027178245486e+01
-7.870206239521700731e+00 2.714916394251900122e+00 1.622150768656476316e+01
-2.214164860191526252e+00 3.233076968468906909e+00 1.666556044105535506e+01
-7.991702210534420203e+00 1.887372846348718936e+00 1.543130003475247491e+01
-7.999652064311375099e+00 1.497638827784059545e+00 1.500058695633909878e+01
-7.202773461080839823e+00 1.329460137266786468e+00 1.361018897423362262e+01
-6.772663911754710497e+00 7.713891083608268584e-01 1.267641511917059205e+01
-6.950486708185737328e+00 1.137575667533558654e+00 1.302898641105925748e+01
-7.406375701793944444e+00 2.299383867148208083e+00 1.501239342886137962e+01
-3.462232551080605347e+00 4.608982295260005912e+00 1.672501327681691663e+01
-2.432327054120244636e+00 3.431420479432011117e+00 1.647649505656617208e+01
-2.019084197256724611e+00 2.446126714604896168e+00 1.584944535402623700e+01
-2.456862364306175106e+00 1.277136586634190607e+00 1.322377801944798392e+01
-2.461178260749820712e+00 3.202283000573215244e+00 1.608111009121697066e+01
-2.416368341161260869e+00 1.498983175164496195e+00 1.361637863003122106e+01
-2.572916273364050266e+00 3.305303954373277175e+00 1.605184273307020959e+01
-6.736651290975141038e+00 3.992814547909432132e+00 1.591731094744849173e+01
-6.717303256464389527e+00 1.222190963696312194e+00 1.273264027877043247e+01
-2.405674310448010722e+00 2.681967567555460175e+00 1.543207341779581299e+01
-2.631236686765825894e+00 1.512330825662331346e+00 1.322163590352968043e+01
-6.885779555635175520e+00 1.595226834873364474e+00 1.337227376475618001e+01
-6.670164474679353361e+00 1.393194364910318228e+00 1.281108907829963073e+01
-6.853238616948445383e+00 3.910948546539044557e+00 1.603905184151964392e+01
-7.092964052147190834e+00 2.544861239139840858e+00 1.480430656240260845e+01
-6.969636954152176322e+00 3.280179552924834763e+00 1.545678910719277610e+01
-6.823257923869545216e+00 3.842653582443613658e+00 1.588230183441530130e+01
-6.963516144659734231e+00 2.268725672543439931e+00 1.427207029177872499e+01
-6.858409824921138487e+00 3.278654165561392553e+00 1.526488692524984003e+01
-6.183878403127202716e+00 4.350160509913417961e+00 1.564170749931970050e+01
-6.178655415569258125e+00 1.747459336259272078e+00 1.244164801852113555e+01
-6.591145102597511851e+00 3.486603588133335485e+00 1.506497760211968284e+01
-4.599855410092964725e+00 2.109929361331308151e+00 1.187123006169967709e+01
-6.638714717715428648e+00 3.749084050212674768e+00 1.543964280489123553e+01
-6.612614663379364544e+00 2.538013570973458588e+00 1.402026548633430991e+01
-3.008365144252560519e+00 4.192780018781075313e+00 1.668785467713789927e+01
