4.837271613571838547e-01 1.318367747014614899e-02 1.843232355214327001e+01
-1.911786223597530476e+00 1.245850548354278775e+00 2.228648187774546230e+01
-7.690834675841651702e+00 2.554484654526421594e-01 2.065979996937846508e+01
-5.525319440879446375e+00 3.404724543866388675e-01 2.312227457112656381e+01
-5.722316025781049476e+00 3.632584404351972274e-01 2.312778353543196985e+01
-3.834903645115815607e+00 5.969526320610417436e+00 1.959121334227275568e+01
9.142431509061890171e-01 1.722111800848705077e+00 2.072833569149038269e+01
-6.680218653727136413e+00 -1.037955793980868124e-01 2.311270643076525388e+01
-3.746753391866360694e+00 6.490661100406038830e-01 2.273177624153149523e+01
8.575320704379503223e-01 2.191651902066688251e+00 2.032817442896876159e+01
-4.573718618376263478e+00 4.961126622199649172e-01 1.817985829416302224e+01
-4.607575796589655326e+00 3.089811939137183661e-01 1.878960724944742466e+01
-4.602066230267306324e+00 4.380666226820775222e-01 1.837327521308880662e+01
-6.793785828882565880e+00 1.837686512268410510e-01 1.846921737339944158e+01
-7.572464574550664906e+00 6.315852175822584957e-01 2.124858073556037752e+01
-6.413830717068426779e+00 5.786426453911375223e-02 1.833131350973197371e+01
-1.233837643393428163e+00 1.431768767207862725e-01 1.716904963925512462e+01
-1.428710236957330793e+00 2.544362786742633831e-01 1.710135332195858737e+01
-2.877091446158909882e+00 -1.491843715301744977e-01 1.942062556298223441e+01
-5.879653888626675595e+00 3.175947451848546876e+00 1.764349515585201189e+01
-7.579796207060216062e+00 1.284848115487081888e+00 2.006047879524165367e+01
-2.794663323923594067e+00 -7.788525311196359269e-02 1.929695275356662520e+01
-1.591317134291978963e+00 5.384332990189622414e+00 2.011841577442451623e+01
-3.409213219540005113e+00 -5.071938566480850286e-01 1.987728918683404444e+01
3.289682596724605168e-02 3.810483036701429072e+00 1.957315217153822928e+01
-4.150933561932994564e+00 -4.625725595792203881e-01 1.997873212063445791e+01
-7.206267428649372198e-01 2.385877666758117854e+00 1.744138536049478816e+01
-1.750970778343902134e+00 1.862425981194089974e+00 1.562750948693441799e+01
-2.322946842675157164e+00 2.668189598641423910e-01 2.266484876383274027e+01
-1.562299109368164185e+00 1.250759316447024316e-01 1.737195299809573257e+01
-1.824923282411134329e+00 -9.454234362921032364e-03 1.807685547461116116e+01
-2.377668739578185697e+00 1.097066070171182073e-02 1.887233493274293394e+01
-2.013074275192265894e+00 5.415257031822880762e+00 2.011041564578645691e+01
-2.196871735815593141e+00 -6.213827436983487829e-02 1.882500903608891818e+01
-2.044122450570331040e+00 -9.709538110695548063e-02 1.871733506174048856e+01
-3.092339791895588608e+00 -1.559727332401905198e+00 2.314578718515668854e+01
-2.097889848542701774e+00 6.772715177428401123e-02 1.837310833058461768e+01
-2.214956145663525167e+00 6.653264174043005408e-02 1.855362120688014116e+01
-4.745249853227354819e+00 -5.684127015344796474e-01 2.012472500569533551e+01
-1.810617829556057101e+00 4.076293133588467121e+00 1.781131306298801675e+01
-5.909151380756389571e+00 -7.700889892571275430e-01 1.976952871787311139e+01
-5.758979599449531861e+00 -8.699937613784488599e-01 2.016231454332138284e+01
-6.266634648439113331e-01 7.267880656615099966e-02 1.731857379843313183e+01
-5.795939488296334430e-01 2.945176567426814884e-01 1.714414766229728926e+01
-1.039696000380616603e+00 3.247416529822185760e-01 1.697829622073517797e+01
-6.247238054863974099e+00 4.157549492914873746e+00 1.869282553221796306e+01
-7.602216122193061310e+00 -1.192786373960345703e+00 2.081586500539316020e+01
-7.635182042724645513e+00 -1.060176678563895525e+00 2.100613939793784013e+01
-4.313532874333994016e+00 1.863698826066317871e-02 1.944463657083863595e+01
-1.539215786482123649e+00 4.025406070080483900e-02 2.262727191698797569e+01
-1.714549216226132211e+00 2.552937644767714342e-01 2.258076365849548850e+01
-2.087886480100801023e+00 2.870527529801880640e-02 2.270635457649285271e+01
2.466382854502411903e-01 2.539711720394050576e-01 2.241534478364411243e+01
1.836010513589439452e-01 4.174648193220138470e-01 2.238934771062633544e+01
-7.337622955839654182e+00 -1.184713600642368192e+00 2.237357079179075114e+01
-6.724377028671382206e+00 -1.023697800534876023e+00 1.962610090377294725e+01
-6.546110838580561975e+00 -1.006864095930434022e+00 1.960497225684248335e+01
-2.913575370582794477e+00 -3.970133595498898105e-01 2.294457608375305924e+01
-4.257565765089799115e+00 1.039914106942052552e+00 1.636770646396118067e+01
4.903419151457448777e-01 2.134574741842459211e+00 2.134408429995623990e+01
-2.901993764619324789e+00 -1.701686938920372594e-01 2.288459204967467642e+01
-7.537231642800941600e+00 -1.195829626381061050e+00 2.156498272970697272e+01
-7.030762156724976730e-01 2.035627177296660761e+00 1.719897942746421293e+01
-7.593187235888075648e+00 -1.156507798457770519e+00 2.059371006505574897e+01
-6.769268118574100157e+00 3.236542195590020210e+00 2.091012453588608722e+01
-4.933269871671132734e+00 -4.037459297808810854e-01 2.324034981548763668e+01
-2.107766094564975656e+00 -3.482784244835784859e-01 2.282373999077907101e+01
8.727912215061406354e-01 9.270641818518313704e-01 2.148399277623067505e+01
2.659113663980501308e-01 2.884153028475787472e+00 1.909711877078636277e+01
-1.094940671842498103e+00 1.035030601612171308e-01 2.258109897087529916e+01
-3.480845588559956738e+00 -6.246233162159343655e-01 2.304766866987227658e+01
-5.253345830551108264e+00 3.204322220192795445e+00 1.710835076564542945e+01
8.144946160529504819e-01 4.019352192749202635e-01 1.925213502234582919e+01
-3.670203592395804293e+00 -3.626980110740599672e-01 2.301158746999381677e+01
-4.091644834339657422e+00 -6.009219452370292425e-01 2.310023728582792657e+01
-7.179664537334057073e+00 -9.981464416651902871e-01 1.972467748780960406e+01
-7.420040773414751101e+00 -1.015353344598808771e+00 1.997836129363649960e+01
-3.917021078747101370e+00 -3.278612445528926722e-01 2.302611229644777424e+01
-6.053334000910185253e+00 -7.756955184068173859e-01 2.335737963024174846e+01
-6.015155763882653162e+00 -1.040510828767064133e+00 2.003589311566518560e+01
-2.514153243820484107e+00 -2.096053052434508901e-01 1.933887439796621166e+01
-5.888720632994788318e+00 -9.776889617989709125e-01 2.012223910903314206e+01
-6.532364084005754634e+00 -1.030463483721459017e+00 2.326902070930147559e+01
2.474102677423524188e-01 4.562556356895657306e-01 1.748770417363104102e+01
-3.071049055594225141e+00 -3.289203156162860520e+00 2.293321307637881645e+01
-4.481788672437129861e+00 5.020884871052428977e+00 1.845647038708318277e+01
2.794809777604785328e-01 4.253773857439847039e-01 1.760404418475483723e+01
-5.802419797781842803e+00 4.697381129914041331e+00 1.894690513624525963e+01
8.595948983380868880e-02 5.445349259419812737e-01 1.718470274122706698e+01
-2.257329413149255171e+00 1.590229790376795238e+00 1.521240083996837100e+01
5.702755495914144102e-02 6.808904806775399887e-01 1.721439537097428385e+01
-6.422282690311616804e+00 1.976335024519373817e+00 1.731146379809240798e+01
-4.354704687631345550e+00 -2.405107462481003155e-01 1.977956348453834678e+01
5.400702851816022720e-01 -5.420475551218059129e-01 1.912890982228283221e+01
-1.147811546031549002e+00 3.593140430838832611e+00 2.129626231849454499e+01
-5.184731658088862716e+00 -5.743926769735271387e-01 2.013965669674679404e+01
-6.335955719464164915e+00 -5.540461941143061120e-01 1.910901070145760983e+01
-7.649577550726172959e+00 -7.528156965665501188e-01 2.122576089977125591e+01
-7.637154421375738522e+00 -9.042838116425916395e-01 2.120962420041514562e+01
-7.661006208394283590e+00 -8.463170102017832930e-01 2.028693920764617431e+01
-2.069861745067790526e+00 3.461538822127713799e-01 1.753345958399944138e+01
-7.256313034527108741e+00 -7.737344607140678177e-01 1.952088680170887969e+01
-6.166577883815300254e+00 -5.874073925174773114e-01 1.922698611421377635e+01
-6.754235380941965516e+00 1.393874703249917468e+00 1.771141743541810243e+01
-2.570354256762277245e+00 2.424808359631254184e-01 1.854734490780895939e+01
-6.331357279035177754e+00 -7.466817366341681472e-01 1.933561734084075923e+01
-2.642875065425666303e+00 3.585108314937779372e+00 1.668304552716950795e+01
5.476933578015004134e-01 1.020562796165234598e+00 1.810077507949416642e+01
-3.194879597920691428e+00 1.176301453998449542e-01 1.910133984517442585e+01
-5.096352464216904465e+00 -1.048631024837975989e-02 2.316774764978346823e+01
-3.430735261537917413e+00 6.457308205545431168e-02 1.924875539809882596e+01
-4.531011051158273517e+00 8.513775455929967206e-01 2.280440428340577697e+01
-4.178281891381521618e+00 -1.640466746087969607e-01 1.968288050755291962e+01
-5.099362683133621843e+00 -2.167724206890793148e-01 2.322419472165998755e+01
-3.378713791864055960e+00 -1.072127818631284368e-01 1.947793591705174876e+01
-5.513195975848542929e+00 -2.715127389059445173e-01 2.328350552212061686e+01
-5.381339797031523986e+00 -2.965984699231459798e-01 2.327932813397037037e+01
9.980152792346170809e-01 7.763048983723606078e-01 1.968102528393163553e+01
-2.228119310518724028e+00 4.461466906327648196e+00 1.804980935156106270e+01
-3.057021263520922627e+00 -3.102509777443116956e+00 2.171959169681702306e+01
3.085402588407243907e-01 -2.667064792577218402e+00 2.031832990788128868e+01
-6.001482937914706994e+00 4.435669709499684643e+00 2.035106135934591620e+01
-3.337327982872106968e+00 2.687902979135828208e+00 2.181396566710806795e+01
4.931430432808764364e-02 -3.197262621777108738e+00 2.098147589592472784e+01
9.187175729301416682e-01 1.012151911436245388e+00 1.934872787506062863e+01
-7.261857318941240536e+00 2.335159636044093379e+00 2.099058541987337279e+01
3.324328134490994735e-01 -2.908247330348631809e+00 2.217470362593072153e+01
-4.033680610676664280e+00 2.598170820916074319e+00 1.529719136489930165e+01
1.681624979169346890e-01 -3.355341829184621982e+00 2.147306740590767404e+01
-7.130700056436161116e-01 1.368490504124390217e+00 2.222367534526744848e+01
2.967379958108933846e-01 -2.972500444971256428e+00 2.063015040357388230e+01
-3.200666685649773413e-01 -3.606653346297206131e+00 2.182517905307097195e+01
-5.040664940907227276e+00 5.548684927160963731e+00 1.953819116062118511e+01
-5.260163376280523551e+00 5.369604398598220030e+00 1.930764242832853839e+01
-5.489212838100939962e+00 5.195783692839455625e+00 1.930607795059929899e+01
-5.399042743135396449e+00 5.272134523387825844e+00 1.954224984926800701e+01
-3.515417528059869401e+00 4.794170871307647630e+00 1.804937053800470537e+01
-5.694678033185521571e+00 4.321600209382170377e+00 2.082266431285595942e+01
-1.552709515985560174e+00 4.218357729638634090e+00 2.095917799141642135e+01
-5.227164574348147852e+00 5.309521891554369155e+00 1.973923106948418038e+01
-5.585378657605534869e+00 5.020177716259659917e+00 1.969182248791574708e+01
1.389811150176205323e-02 -3.398495432676613692e+00 2.145448726103289161e+01
-2.021328875505755907e+00 -3.272151937019184942e+00 2.292963137669059748e+01
-6.134475248245948364e+00 1.614834891912790393e+00 2.270671308559625245e+01
-1.380673512519091650e-01 -3.405445842940892920e+00 2.137015080938536116e+01
-4.436201184708634115e-01 2.617248027214677641e+00 1.798311169080448835e+01
4.393158496265542334e-01 3.398907124241107525e+00 1.996616285303349159e+01
-5.219413561144913061e+00 4.888154683337113227e+00 2.034710144865596604e+01
-1.641004768185254870e+00 4.022214158177646048e+00 1.786525646408259504e+01
-5.182097568243385410e+00 4.660558215902141477e+00 2.069792043647218449e+01
-4.821225221960505181e+00 4.938592491726211620e+00 2.061048216614864614e+01
6.331620103909797459e-01 -2.283083384795565163e+00 2.159772762495822107e+01
-1.363446553201554501e+00 1.660052807609750936e+00 2.212558343933465821e+01
-3.187690133052095920e+00 -1.583172899160614655e+00 2.058802812887529043e+01
-4.017739053996550957e+00 5.575137792711983842e+00 2.019213919938289692e+01
-1.441365447499802999e+00 4.211332055723995715e+00 1.824052520546736744e+01
-4.208007185394727401e+00 5.639079072464181053e+00 2.009256711409131313e+01
-3.641937964041658482e+00 5.709492415326341330e+00 2.007257598660310904e+01
-3.831606342207414695e+00 5.763626792208487615e+00 2.002910593851312981e+01
-7.426988916505358418e+00 1.242671426458217709e+00 2.166106650682135282e+01
-3.424831667909329802e+00 5.658938336278883874e+00 2.009017495125688768e+01
-3.646479223435985961e+00 5.459124632146807876e+00 2.029778329740876686e+01
-3.833403576557005366e+00 5.879252134115301232e+00 1.991951253947674516e+01
-6.505951241082685854e+00 3.168271323468618395e+00 1.809020909624706164e+01
-1.107745674263874935e+00 -3.466132704940417586e+00 2.158321359167256404e+01
-1.280205626432235011e+00 -3.435286445280476553e+00 2.159105150803326367e+01
-5.147797393548019240e-01 -3.318180973723150462e+00 2.117043634817154540e+01
9.243043117548016552e-02 -2.990829312400668183e+00 2.058964465211974826e+01
-1.837814694600723664e+00 -3.541498813376676491e+00 2.199590577135753122e+01
5.554656122482399816e-01 -2.865398453074759377e+00 2.134637427666814702e+01
1.471482938616826275e-01 -2.957959436730793090e+00 2.252437770047334809e+01
-4.862672840186220924e+00 4.387936321889463365e+00 1.792499307205080683e+01
-4.709034856834277250e+00 3.875106900451813718e+00 1.725416999360437487e+01
-1.745592311216731085e+00 2.459736230047977479e+00 2.181831565855201305e+01
6.081187915544956635e-01 -2.844472727963094361e+00 2.107743414027310180e+01
-3.540847594973376644e+00 2.526538232179941001e+00 2.191997288396401800e+01
-1.889791557615440709e+00 -3.469284532141616584e+00 2.185828689991693707e+01
4.180735900550812678e-01 -2.869434051113332718e+00 2.195510127163654701e+01
-4.617960751027490041e-01 2.048410179322939229e+00 1.752422442458083296e+01
6.221578124535970256e-01 -2.693291115574437011e+00 2.115013463027424834e+01
-2.104465664697481309e+00 1.465276056462496923e+00 2.221871070123750869e+01
-2.696311062243833323e+00 -3.446376585277030724e+00 2.249716736954779250e+01
-8.597121478858424926e-01 -3.589612828491262508e+00 2.255757956115369112e+01
-2.474887930637663658e+00 -3.317382445725219231e+00 2.184051372218974407e+01
-9.104886306353420222e-01 4.727401467392324363e+00 1.930204807092311015e+01
-1.884374490808127911e+00 -3.399250447996069457e+00 2.174388302305154852e+01
-1.519950026935731058e-01 2.266086803844181929e+00 1.808573535494889128e+01
-1.041227223939837243e+00 2.076371188702480275e+00 1.677543241055395740e+01
-3.729232278049424698e-01 -2.951128247115061054e+00 2.059689961419863735e+01
-6.851391417155242580e-01 -3.647309881452256430e+00 2.215564925532785523e+01
-7.270607010358023370e-01 -3.618464655483504711e+00 2.241528126076620353e+01
-1.257070160793258395e+00 3.632567704222457561e+00 1.783441951270832604e+01
-3.313928306459322126e+00 -3.250799916523449351e+00 2.208958615089052913e+01
-4.549638444306403073e+00 -6.442687363895814867e-01 2.018015982309718837e+01
-3.651236320240107247e+00 -3.290495151086424652e+00 2.274988913834185311e+01
-3.481468044966461672e+00 -3.254221355972998886e+00 2.292214834349857355e+01
-3.907690648238367537e+00 -3.268296240001971498e+00 2.266393521359478669e+01
-5.133482342952696342e+00 2.434827571971656557e+00 2.231023198856152234e+01
-1.467859260826654966e+00 -2.595772094382552631e+00 2.060558056022491158e+01
-6.968107852671993285e+00 3.081691544040895625e+00 1.858855551884927948e+01
-1.148076651040650153e+00 -2.758638033249674937e+00 2.055012588148658281e+01
-9.050575988527791438e-01 -2.859948111904658141e+00 2.063899501895327759e+01
-1.099106352956186639e+00 -2.574799449110019900e+00 2.027751315824606237e+01
4.536101900058764347e-01 -2.299338904850815268e+00 2.237005753385221496e+01
6.595264044074617971e-01 -2.040726924831453903e+00 2.020913586515609595e+01
-4.904722928772066726e-01 -2.649855710545554910e+00 2.020387043378709890e+01
-4.674995180613629842e+00 4.816568253926226895e+00 1.829608436750416800e+01
-8.563991093670593191e-01 -2.528784593934837677e+00 2.301397998755777863e+01
-1.011727086119929453e+00 1.303100578839185397e+00 1.632978694442780565e+01
6.832913909934348329e-01 -2.270814955335399343e+00 2.116726457414025120e+01
5.493134700446271612e-01 -2.678205474752278548e+00 2.157621303736417318e+01
-7.051002728061736002e-01 -2.775336965302277470e+00 2.046485131217085396e+01
-1.500932970260730359e+00 2.261948119445746475e+00 2.190277683845534185e+01
-1.509844145943728844e+00 -2.595932405105431329e+00 2.306790331500029723e+01
-1.290700068518637167e+00 -2.539524386409721668e+00 2.304758268848101821e+01
4.183096564154434316e-01 2.216198458529214044e+00 1.876768377513675645e+01
-1.118427175539419283e+00 -2.911443051683710426e+00 2.076648979998812550e+01
-2.661323418085758785e+00 -3.287726437242718180e+00 2.186308623583446931e+01
-1.819736717657614467e+00 -3.213188368508962167e+00 2.145871229815882586e+01
-5.073140291218413367e+00 3.786080859770255547e+00 1.749041028888920479e+01
-1.299275747149864380e+00 -3.036548331995220451e+00 2.100544507752206513e+01
5.553750007436081271e-01 -2.639248375363078214e+00 2.048336211452319233e+01
2.301744354155306760e-01 -2.694216664428120023e+00 2.254925526203658492e+01
-1.851201480885225736e+00 -3.020648926579429627e+00 2.125500292401104119e+01
-1.362018693588573637e+00 -2.965117871504809877e+00 2.092396155115518397e+01
-6.376557178236609502e+00 4.453386932838421686e+00 1.903682881281012484e+01
-5.232873751713357890e+00 2.214904637447934643e+00 1.626911701017939649e+01
-4.236252566903614181e+00 5.047188240234896206e+00 2.065927256764338793e+01
-4.427983901781068710e+00 4.922471125951656923e+00 2.073840669099079648e+01
-2.507725156837606217e+00 5.293611125551344720e+00 2.024396966714094148e+01
-4.948991305096919646e+00 2.488550210798692319e+00 1.616907972235982882e+01
-5.651196323764413165e+00 1.623156661243205123e+00 1.642791891530790238e+01
-1.823411078123202023e+00 5.492656239778265892e+00 2.004538592416740883e+01
-1.400233457677247939e+00 5.401255255404935340e+00 1.968616414376905155e+01
-4.793325363023967611e+00 3.654960438809964351e+00 2.166036228754014203e+01
-3.401297354467585965e+00 5.352725301174293016e+00 2.034607737734812005e+01
-3.581792316458744185e+00 5.137917632023595083e+00 2.055079092013442832e+01
-3.837211364643048572e+00 5.253614745445112533e+00 2.049212833086741270e+01
7.084891713828460613e-01 3.643279120178974373e-01 1.890867087890197595e+01
-4.023612684873278056e+00 5.061992673894120998e+00 2.065562910432004529e+01
-6.565100440330816411e+00 4.100082120320280410e+00 1.880796473823106041e+01
-6.703383599295069217e+00 3.999349910078833670e+00 1.889700887393214046e+01
-3.010321634976382832e+00 5.744798022842086960e-01 2.265767115562882950e+01
-5.883401802379177425e+00 3.368368657046792780e+00 2.166811822770825913e+01
-6.315578503152385892e+00 4.382685845638976119e+00 1.998551468162100164e+01
-6.486940722698312456e+00 4.183097534113684013e+00 2.002256102362095547e+01
-6.487365791167979623e+00 4.330507796437362167e+00 1.949540292693849253e+01
-9.676285524015648676e-01 5.231453035761812309e+00 1.982074888845685123e+01
-9.191569971943451822e-01 5.263570115552742124e+00 1.996571604607263950e+01
-2.252229048271199296e+00 5.290828693627456225e+00 2.022557615149015575e+01
-1.597050044319925366e+00 2.505546076081262452e+00 1.630506219142869284e+01
-2.413999034864874993e+00 5.179967380176073277e+00 2.033271564800321940e+01
-4.807800516446782524e+00 4.753912716122540516e+00 2.079781057788250465e+01
5.980797112077760325e-01 -1.895832102394460206e-01 1.903459074467870593e+01
-5.459231293406611840e+00 3.197002659114394962e+00 1.730374497636031705e+01
-6.687662969857935735e+00 4.093811111888274290e+00 1.916440652151633728e+01
7.159539971343387155e-01 -4.634877825444742028e-01 1.959031471085934228e+01
-6.660217869384071676e+00 4.117433517921300634e+00 1.934722331638663562e+01
-2.448506527259325605e+00 3.561768125514639838e+00 2.131694679371826950e+01
-4.266480089244394591e+00 4.795367525477708170e+00 2.086347542178976155e+01
-1.534710855462778412e+00 5.264439993628021064e+00 2.020464516408050670e+01
-3.455530362638258524e+00 5.877764494166061837e+00 1.991179111479958763e+01
-3.039192042865686449e+00 5.875122182783726110e+00 1.984051543729141898e+01
-2.228479693619795921e+00 5.705380389467501701e+00 1.975882661594367917e+01
-4.395336076728947106e+00 5.418635603427172320e+00 2.026621745684851206e+01
-5.315775638326787345e+00 1.147993302905530699e+00 1.640120906246643173e+01
-4.419628397220705551e+00 5.313303560016254146e+00 2.037225372029232418e+01
-2.653282470532509318e+00 5.606891966134557315e+00 1.999571559314071223e+01
-6.974296463151206993e+00 3.475562939112274652e+00 1.950587499400767300e+01
-3.801098434530307824e+00 4.430135467695278884e+00 2.106532095379754210e+01
-3.979893327211875942e+00 4.314629810066613835e+00 2.116932639432279828e+01
-4.001058287855896012e+00 4.048511122186724265e+00 2.132823028491307937e+01
-3.301615812847101594e+00 2.729431438791219744e+00 1.521985725277110291e+01
-4.145369550970622541e+00 4.081456177161085108e+00 2.133806624700443066e+01
-5.447535256399287373e-01 3.676798223250523634e+00 1.873333251559226298e+01
-4.839439166035515716e-01 4.741984725086643593e+00 2.018430469066339938e+01
-4.240634665731084496e+00 4.206052024425271263e+00 2.127802991093811258e+01
-5.682263754316517534e+00 4.782995641535472409e+00 1.895443190612230566e+01
-4.388768362905961951e+00 4.070587371844722746e+00 2.137758701873907441e+01
-4.390912295600486459e+00 3.899102088203948657e+00 2.147711397557709390e+01
-9.847620536903755051e-01 4.786674345281845433e+00 2.046582945836899015e+01
-3.072058557656172528e+00 4.759020351357400536e+00 1.810098073190524204e+01
-1.024758105558511323e+00 4.676337684200567502e+00 2.056544337535818201e+01
-7.021565464382108601e+00 3.339064145199022171e+00 1.972913878373600838e+01
7.627528761152272407e-01 3.762754821409794448e-01 1.908606835594148876e+01
-1.388422678907003771e+00 1.761881162378345245e+00 1.608852597097515869e+01
-6.837144127277637651e+00 3.715285210452231812e+00 1.972444961685896558e+01
-6.842717466690093175e+00 3.462254342848828603e+00 2.036582548524448200e+01
-6.032623696930889068e+00 3.656511878461739418e+00 2.135834226716277229e+01
-5.877823380199059145e+00 3.686299873612265632e+00 2.141672873030269741e+01
-6.323465024652385580e+00 3.665154830762717530e+00 2.110969570241416804e+01
8.135274328838213442e-01 8.083050134392228969e-01 1.905704608208098350e+01
-5.426442581246924135e+00 3.928444421409513776e+00 2.140389881001941674e+01
-6.435108944920347795e+00 3.687879186302658763e+00 2.092746232364460113e+01
-3.132836884130776767e+00 6.536998005007175205e-01 2.264542973811956372e+01
-6.191999050771572755e+00 3.271900001232426636e+00 2.158375033193919634e+01
-3.894673823327672313e+00 3.917190853298648801e+00 2.137945202008222267e+01
-6.102091010332001630e+00 3.202926574371943946e+00 2.169005609347656716e+01
-5.384367003070963165e+00 3.470651818109323106e+00 2.176225470183109323e+01
-5.217620430899698292e+00 3.746135444587120666e+00 2.160323895609345257e+01
-4.799290066866827686e+00 4.111207416347671284e+00 2.136853008362988149e+01
-3.556772354730051156e+00 4.539793133660893432e+00 2.095498699913792606e+01
-1.814601742029963383e+00 4.936407638666562292e+00 2.048397672702759209e+01
1.227771323185664065e-02 2.043262843851614274e+00 1.811964114666917069e+01
-1.410607946485648467e+00 5.151302984596075163e+00 2.027914020362012693e+01
-1.231500618689596926e+00 4.908754702451272323e+00 2.043583538844499614e+01
-6.915381410589228395e+00 3.238259371177679036e+00 2.054663633385813526e+01
-6.813338258917069012e+00 3.284019288218352095e+00 2.075352974814251539e+01
-7.026058424097314514e+00 3.276369296767158268e+00 1.995427781975904580e+01
-3.219937088123383973e+00 5.450698130813567133e+00 1.887845778672775410e+01
-6.970309882363684650e+00 3.245073747192356528e+00 2.032498067949386567e+01
-1.211543071935512250e+00 4.574746530906216968e+00 2.069365414852222429e+01
-3.532287829458175654e+00 3.876694782600722089e+00 2.131340674681620939e+01
-8.035691048328510444e-01 4.485071637225837904e+00 2.063495621637477129e+01
-6.575999572877406774e-01 4.489437062625795782e+00 2.055098152996471228e+01
-4.529948925728650266e+00 3.843915285502575774e+00 2.152680462740395839e+01
-4.345485716307013746e+00 3.708343670593106545e+00 2.157670585510451033e+01
-1.247240882063544332e+00 4.335283371680148434e+00 2.086667312714559230e+01
-5.804374852648441774e+00 4.314236326872781468e+00 1.858658163238884597e+01
-6.649183500070423136e+00 3.558339162427430757e+00 1.849695097473091110e+01
-4.432745998158965861e+00 9.056867085704720655e-01 1.668947199133875259e+01
-6.384738506649553003e+00 4.185127115631635419e+00 2.027480330381994733e+01
-6.530787682163488483e+00 4.078210820897612443e+00 2.011896573543605271e+01
-6.767855726818382323e+00 3.833086148974132801e+00 1.883978737347468879e+01
-6.694412498874433126e+00 3.974752669176983222e+00 1.972439255248011492e+01
-1.147296659636594329e+00 5.029181963797726418e+00 2.032105894399224510e+01
-1.011514604984162791e+00 4.976648755447176775e+00 2.031672393568432611e+01
-4.993860662054750321e+00 4.510513329683761619e+00 2.096350527063272651e+01
-3.861703570390364160e+00 4.571952207088268771e+00 2.099095832500467296e+01
-4.973644375731989697e+00 4.311022098120466772e+00 2.116673513513987004e+01
-3.857019184018515734e+00 4.931034407395115338e+00 1.817611377446266729e+01
-4.790101303094862928e+00 4.445903219654725014e+00 2.108593964204855453e+01
-6.375078706854345967e+00 4.029430678317701187e+00 2.054725591222679171e+01
2.001899448990798192e-01 3.783620976156283344e+00 1.979950979819291135e+01
-6.488636018499708058e+00 3.849545283433538856e+00 2.061347769646715378e+01
-6.239064485373807756e+00 4.124149433926004527e+00 2.062089424744462107e+01
-1.254332691458854843e+00 1.894206272101942368e+00 1.635659788902281164e+01
-6.310279971554956902e+00 3.977238501104239266e+00 2.073406184133728303e+01
-6.146693415826085527e+00 4.035544292907611741e+00 2.086536473792986257e+01
-5.066331424025078078e+00 3.619131334152589474e+00 1.732031229530926097e+01
-5.852808576490762249e+00 4.123974670145148735e+00 2.098118804811946703e+01
-5.800753600853706615e+00 3.936919945783603048e+00 2.122480882554441095e+01
-5.579005210810276338e+00 4.092331165504345059e+00 2.117939179202460664e+01
-6.796642706587229910e+00 3.313893863340791501e+00 1.850479469452101355e+01
-4.379673418549053565e+00 4.472423714584499166e+00 2.110701946137772111e+01
5.987943755233853249e-01 3.009843974424600166e+00 1.973301109674180864e+01
-7.494084329213789530e+00 1.315580176108305022e+00 1.898890845927730808e+01
-4.671616601984890593e+00 4.343398550003756853e+00 2.119337467167635580e+01
-4.046186132528440282e+00 5.945529943730436528e+00 1.970793606694296685e+01
-4.247937295123335844e+00 5.886203885772236966e+00 1.953998742433741498e+01
-2.663465622151385492e+00 3.854249204875473289e+00 1.704363978301492111e+01
-6.522118015673152858e-01 3.052174289759224113e+00 2.151795521834079139e+01
-3.242133026362338022e+00 5.950781913953977487e+00 1.954864423624434622e+01
-1.313385963532231138e+00 2.644660461927936357e+00 1.682973143476705147e+01
-4.565249472391576191e+00 5.853985011180233400e+00 1.966220304393695884e+01
-3.593162894875622015e+00 6.059167523700795144e+00 1.970245253149776588e+01
7.535657866584735132e-01 2.770900982687620751e+00 1.979406894582647780e+01
3.072404097159484038e-01 2.621771311754260925e+00 2.122336647355264816e+01
6.238999298260810011e-01 2.553272572602126367e+00 2.074927121819100151e+01
6.846184069311849196e-01 2.772454269539801786e+00 2.021127560544932678e+01
-4.371494885070378089e+00 2.635666903537271288e+00 2.207293006406806413e+01
-1.199084092218671627e+00 2.287583560721779818e+00 2.190456970460028074e+01
-9.825321737740240202e-01 2.136146092186472778e+00 2.196310547867270557e+01
-4.319690741475781692e+00 1.644808535048459586e+00 2.248523452975491566e+01
4.063270236285992376e-01 2.126549036939925585e+00 2.145216829452207108e+01
-7.671433740984621608e+00 7.657869431397198445e-01 1.977469721783752377e+01
-5.681206999779083944e+00 1.154197225900187362e+00 1.656274335547395182e+01
-4.729903637798946292e+00 1.364511605698094598e+00 1.574349701340890206e+01
-4.885101584769076410e+00 1.409353463430276898e+00 1.579849970090548439e+01
-5.520618278138444524e+00 1.366566981002192538e+00 2.279593692759349111e+01
-6.867973111891332749e+00 1.128006499658439354e+00 2.256773383831334812e+01
-6.921054553632941975e+00 9.573573894697722242e-01 2.260307508477236738e+01
-6.925019096674249752e+00 1.219264582130473507e+00 2.245748178239982806e+01
-7.171382981574282667e+00 1.002452930478578086e+00 2.229665395338552614e+01
-7.438584444113711669e-01 1.505447587290116740e+00 2.218062271936809182e+01
-7.582123640666837971e+00 1.068885457522601001e+00 2.066787182735798112e+01
-3.672532638406743377e+00 3.458523156593104719e+00 1.626889134192027697e+01
-7.548389989975486714e+00 1.053983497935915059e+00 2.107900750194732709e+01
-7.571031360249582676e+00 8.581144407124137174e-01 2.106882633407228056e+01
-2.557680122745911167e-01 2.589896854666370540e+00 2.165644152634490283e+01
-4.495701112587767723e-01 2.635912080752529363e+00 2.169817801542089697e+01
-2.003764117507497389e+00 1.890175699255010500e+00 1.529713338045927529e+01
-5.302268304990480630e+00 1.391888426981575666e+00 2.275628945383059332e+01
-5.522424775510808459e+00 1.516105624595508239e+00 2.274456364797954322e+01
-6.078745371206608628e-01 4.059466689492423619e+00 1.898177675597007052e+01
-5.250020783449942385e+00 1.500953155586836285e+00 2.271046241086846251e+01
-4.512500088917137830e+00 1.585915816955633773e+00 2.254820355500869411e+01
3.318642930915142175e-01 3.473953802563483073e+00 2.029265882389658415e+01
-3.650673208245707180e+00 9.922976719350988795e-01 1.678250822213899696e+01
-5.635352848692670946e+00 1.320053354442473958e+00 1.628604235924850130e+01
-4.582466562304055913e+00 1.519257755335154503e+00 1.547310074589922735e+01
-4.322698487981762483e+00 1.646600230465061099e+00 1.519134330227111107e+01
-3.675670428319936622e+00 1.721582475552199121e+00 1.481388932115684653e+01
-5.980194571781213497e+00 1.300839619751189336e+00 1.652362264266013270e+01
-7.483585928585878122e+00 1.747861231234032697e+00 2.014475266022634870e+01
-7.514483738845411764e+00 9.861548035372057486e-01 2.142988548486031775e+01
-7.403257151705680883e+00 1.049364364733223365e+00 2.186070517030960403e+01
-7.612422993317872866e+00 1.087845425087657913e+00 1.964349140955973283e+01
-7.247657855759099377e+00 2.676363836654899853e+00 2.010854139823925024e+01
-4.136684704577563210e+00 1.719499017175866395e+00 1.498996922287824063e+01
-4.312417695071404822e+00 1.557365579512945741e+00 1.529139663496409085e+01
-5.024549900851120299e+00 4.491423719581373319e+00 1.815736224566247259e+01
-7.489192014921325580e+00 8.873014556850770118e-01 1.899954888782901108e+01
-5.873099085838386912e+00 2.387250705679797136e+00 1.702018686219621557e+01
-7.450922869240187651e+00 7.325825676712841572e-01 1.898278974978401479e+01
-7.630371262450374559e+00 7.302447719075049193e-01 1.947989181161984718e+01
-7.525343686720736613e+00 1.086412103083103542e+00 1.909440761625620198e+01
-5.440147723929484869e+00 1.056924627818691453e+00 1.662337132089032465e+01
-5.808502301907420673e+00 4.530861038440822774e+00 1.878789443323083574e+01
-5.231841825795177314e+00 1.095824109833396065e+00 1.644582138567960428e+01
-5.095382325934599166e+00 1.188260232373961944e+00 1.619933723650764890e+01
-4.066891616661568065e+00 1.347826002229187470e+00 1.569952155815557049e+01
-3.913632625780716801e+00 1.563471832251679849e+00 1.521339623345479097e+01
-3.350824555085103462e+00 1.852702434169550383e+00 2.220104492690372311e+01
-3.684416724458494663e+00 1.569381946803158012e+00 1.520269535455200938e+01
-7.323896207191523899e+00 5.147222271362408286e-01 1.887578986024437810e+01
-7.612113562272966760e+00 2.970646582945821734e-01 1.944320527936527654e+01
7.372137818717136581e-03 1.520092898862744679e+00 1.770631665331178439e+01
-7.666181867724672472e+00 6.528296965153420617e-01 1.966991143471821957e+01
-4.108483920596994188e-01 2.262743962250174601e+00 2.186787731448825767e+01
-3.069102951032867566e+00 4.414631440608171253e+00 1.766538241693661249e+01
-5.552868069499020676e-01 2.251171166636285914e+00 2.189964236866198988e+01
-3.315009137764556302e-01 2.072775398801772084e+00 2.193123380163193659e+01
-1.651308335685882422e+00 3.060974433309269660e+00 1.675761501687294341e+01
-3.473918705045559108e+00 1.425643855701534513e+00 1.556455392862717346e+01
-3.676228476420694502e+00 1.491055651854699793e+00 1.540044673858541202e+01
-1.830321741979897388e+00 4.774571239906463482e+00 1.866396718446016578e+01
-7.668031447994545502e+00 5.938273314889446208e-01 2.046984905239224517e+01
-7.494236870483373281e+00 8.269314991910348134e-01 2.166520146189848717e+01
-7.522764959598831069e+00 6.039235491879083595e-01 2.160334840531916356e+01
-4.228705500142412310e-01 3.448196701841152123e+00 2.117982001760414690e+01
3.220718831758874745e-01 2.319593157824073604e+00 2.141670354531293796e+01
-3.298714875543478087e+00 1.152627520649444071e+00 1.625623680799246173e+01
4.700122714978135496e-01 2.323389877823581529e+00 2.123163307893018370e+01
1.003166918232589078e+00 2.007603272114129034e+00 1.967017069196640122e+01
7.287143203513899437e-01 2.479333673008590644e+00 2.050943393125599457e+01
-3.424807411800371959e+00 5.796214670572090277e+00 1.930921136952526851e+01
-5.711642732794080857e+00 1.070687963515961183e+00 2.292342362018234425e+01
-4.102332904100194355e+00 1.208627452878814790e+00 2.259837593753507790e+01
-3.902671630282007698e+00 1.618189206820541681e+00 2.240050966288253065e+01
-5.808687758973307691e-01 1.697878623090933292e+00 1.710340224493322481e+01
-6.001242844217536287e+00 2.944578948634637428e+00 1.753468343749089442e+01
-4.933294412761354053e+00 9.846706998736318717e-01 2.283289265960309322e+01
-5.166086415108662067e+00 1.218134471269287200e+00 2.279374339275692662e+01
-4.927548781679268686e+00 1.410325028600573516e+00 2.268801876161742470e+01
-4.733780077513825901e+00 1.419823587309836821e+00 2.265095536128495368e+01
1.961025065152957325e-01 2.662800971128776339e+00 2.130257345263923341e+01
1.609743273912217221e-01 2.933841247566626453e+00 2.113774717852318830e+01
-2.670289904467618936e+00 3.264516025528565457e+00 1.622620885123383161e+01
-3.689583079802831733e+00 1.105641259219589889e+00 1.638498332959759196e+01
-1.395878152566722541e+00 2.477670945277207437e+00 2.182651003683037416e+01
-3.992128094669771698e+00 4.669296948729875218e+00 2.094067500555798844e+01
-7.329359429935893289e+00 9.827872517353812842e-01 1.873208079747934462e+01
-9.438699560249704801e-01 3.873569461134923397e+00 2.109932188081564775e+01
-3.506850651365737814e+00 2.160032498353661179e+00 1.453497636595886533e+01
-3.111815002934416707e+00 2.074562821666403156e+00 1.445463252978101920e+01
-1.815766906175481532e+00 4.537860172476468001e+00 2.075988042604600636e+01
-3.876495102487115485e+00 5.401359154574733701e+00 1.874355989431232317e+01
-3.005820773047647165e+00 2.178489448033392506e+00 1.453059470565036193e+01
-3.081578922837849177e+00 4.150674358898659655e+00 1.732244563741238963e+01
-1.955860658805533392e+00 2.634420254165947828e+00 2.174491313512572432e+01
-7.591958233845992332e-01 2.508521356318037743e+00 2.181228688314346797e+01
-1.124836954940027001e+00 2.487536416369562353e+00 2.183215048409108405e+01
-1.385917214588321178e+00 2.716033596332890543e+00 2.173582238473931838e+01
-9.528451075119134250e-01 2.674947022208889358e+00 2.175373472614002779e+01
-6.199888996445809042e+00 3.325709014248069195e+00 1.796710017612894106e+01
-5.612989904572713851e-01 2.708272616093256868e+00 2.169222712193099412e+01
4.727595822880821252e-01 2.973259670237906160e+00 2.062508601000010700e+01
-1.602260142753771266e+00 4.462930968278906896e+00 2.080147233488998992e+01
-7.617819233883190932e+00 1.091923101685651876e+00 2.006456452193485873e+01
-4.759532330687733293e+00 -3.604359181985968830e-01 1.991877648329419159e+01
-7.116556023970414202e+00 1.570833578672030217e+00 2.202962043961506922e+01
-2.132797576491281877e+00 3.229175902939859899e+00 1.647353455657051668e+01
-1.403573488843014028e+00 4.579039226862773759e+00 2.071178105874277620e+01
-4.965254415727928361e+00 1.768337371131346369e+00 2.256697688231576038e+01
-5.320742364728356932e+00 2.031802045285642233e+00 2.251510259036274775e+01
-6.984803382126525406e+00 1.645967077861565375e+00 2.213912232487873055e+01
-5.722179761427149458e+00 1.595308045558199828e+00 2.273882474015799815e+01
8.074896370391285161e-02 2.937137943697494702e+00 2.121171892998380670e+01
-3.929046016039479561e+00 1.887260954948777769e+00 2.229321387342617200e+01
-1.433878766360717094e+00 2.297701962358465355e+00 1.637450609172487148e+01
-8.275969698733428581e-01 2.490138367948980580e+00 1.738154108913085949e+01
-4.142817418240085203e+00 2.033025922647060391e+00 2.228202687962209083e+01
-7.543747523000403632e+00 1.250656298611509065e+00 2.085697206143114002e+01
-1.072463269823817900e+00 1.475842330761128807e+00 1.634745400358709233e+01
-7.522777683349081812e+00 1.459256814884554387e+00 2.069309854054897002e+01
-3.512705031196023953e+00 1.778495094682307709e+00 1.468756837834268580e+01
-2.529665361448101280e+00 2.110262833380232905e+00 1.481733498776457836e+01
-5.008638456442895404e+00 6.144122703849759226e-01 1.759464691253284130e+01
-4.635747050732934582e+00 8.523863794394707094e-01 1.683000088480247669e+01
-1.639798857545391009e+00 2.667592792719970518e+00 1.639067978507091183e+01
-4.257000821867690021e+00 8.040934426373594901e-01 1.718349752571054623e+01
-4.271011576437091506e+00 5.233190025558305258e+00 1.865192925299568927e+01
-4.041595653148256417e+00 8.972834893317152005e-01 1.693557851639259937e+01
-1.077082968676186914e+00 4.897289887868433667e+00 1.932850285781711008e+01
-2.673116166935041615e+00 3.422193327680778552e+00 1.645008993398708341e+01
-4.773749282427814933e+00 7.201395115970137262e-01 1.730752833980173833e+01
-3.945277769677384416e+00 9.625301849318617098e-01 1.673636923823715605e+01
-3.747450031701491935e-01 1.685993117260219609e+00 2.210036506882007856e+01
-3.774234139247145126e-01 1.911013131142375254e+00 2.201123043891536568e+01
-1.327438023582271143e+00 1.071726508028075564e+00 2.231975318797124075e+01
-2.336081561972068510e+00 1.262546250839619244e+00 2.231771093009067286e+01
-2.782095510425045770e+00 9.589253040197672773e-01 2.248721619884493705e+01
-3.616169344361910287e+00 4.673522606134869584e+00 2.088163325394713965e+01
9.714744978859408686e-01 1.991662221246653264e+00 1.994848254959947198e+01
9.071959500330764037e-01 2.237383519570534496e+00 1.996739012331942931e+01
-2.901809025795751840e+00 1.255442101286571299e+00 2.238964084337798610e+01
1.292414522634894036e-01 1.956638545607223278e+00 2.178869433822615420e+01
-6.187611233145703382e-01 1.803589243402286435e+00 2.207995081203710086e+01
9.500483264788155413e-01 1.917919956072172472e+00 2.016887764305011999e+01
-1.106317096029257652e+00 1.266206178324439158e+00 1.620163055918184725e+01
-1.877268025907712579e+00 1.135294526323264552e+00 1.581355523347921022e+01
-2.038563460879777800e+00 1.143172361758924671e+00 1.580027655748737558e+01
-3.027322843175780598e+00 1.150364654980728041e+00 1.614739448997402960e+01
-6.476355381887302087e+00 7.502059276165355950e-01 1.760431901751656270e+01
-3.023775639346585997e+00 9.572339598855945653e-01 1.670123009200208841e+01
1.674260273459734494e-01 3.165721506980772038e+00 1.919490486846992994e+01
8.544961798115654483e-01 1.955263709436146691e+00 2.071201852890802897e+01
-2.314289850154713779e-01 3.065440328935567393e+00 2.134296816127530505e+01
7.702392221630974811e-01 1.854024020119936278e+00 2.110428077040097961e+01
8.293128102104747601e-01 2.164317722089125429e+00 2.052746544709153298e+01
-1.747502166947614066e+00 1.448632370872166453e+00 2.220638539054192861e+01
-9.763715281854137285e-01 1.675316583305379581e+00 2.212513149519931588e+01
-3.014536261238206283e+00 4.835666530370575700e+00 1.820462902132744532e+01
-9.701235699455305062e-01 1.933327079988781172e+00 2.203632396172454477e+01
-7.792541409204346570e-01 1.886892330318355349e+00 2.205209767455417236e+01
-1.959609560569969489e+00 1.681314358352549387e+00 2.212715303397927258e+01
-4.029482067941966505e+00 1.057688521718271435e+00 1.639275876881420757e+01
-3.497974576212619091e+00 1.188378904773548905e+00 1.617543855463629754e+01
-2.487949684259101346e+00 1.537693648336181163e+00 1.521724941992532720e+01
-3.193437016410756613e+00 2.408176918894187502e+00 1.475150958462374362e+01
-2.466921448374086889e+00 1.444470857716880108e+00 1.538852448317584631e+01
-1.089311901555457984e+00 5.089557766393148164e+00 1.953693572102600129e+01
-2.962230644676237201e+00 -7.780734941253752979e-03 2.284374811087332446e+01
7.316800100811190477e-01 8.096746635013549742e-01 1.873122069451859417e+01
-2.565701695786197334e+00 1.396900521261562833e+00 1.547625690744282068e+01
6.171144180709737803e-01 2.354712000378127446e+00 2.096703716350080882e+01
-3.109299412755668346e+00 1.040889685721406721e+00 2.249834436128103832e+01
5.346002157721363446e-01 1.215002538001635379e+00 1.812477415804406533e+01
6.285044476878446362e-01 2.118026143296617203e+00 2.114999963945898642e+01
6.750367535249329753e-01 2.198402211753422986e+00 2.099150591883978123e+01
-4.211752327386520278e+00 9.307558199674147437e-01 1.670494674899645915e+01
-4.989918836358832266e+00 4.760645972765314760e+00 1.840546644177241475e+01
-5.312661499650175756e+00 9.413279939592567036e-01 1.677044436699989305e+01
-4.623359495684921328e+00 9.078537025637355429e-01 1.665071639659087666e+01
-6.074667435445244124e+00 7.192141382084380474e-01 1.699836259243376801e+01
-5.021977720172793980e+00 9.743662586621812949e-01 1.657370890732393676e+01
-4.876730304776796032e+00 9.192204644412242942e-01 1.664638016824210709e+01
-2.650883632109016119e+00 1.355930885443902278e+00 1.557108581100157707e+01
-4.236913670676754506e+00 2.609471539570036747e+00 1.550390151981924802e+01
-6.460548594659989874e+00 5.626332919397405430e-01 1.784108057590562524e+01
-7.388137078016880466e+00 6.268028430343385304e-01 2.209175416429236449e+01
-7.433652933727737278e+00 6.410805737445748331e-01 2.198784092572586601e+01
-7.466152113091043319e+00 9.646126663126475265e-03 2.205097658176232400e+01
-7.577955741935463507e+00 2.221641249273321739e-01 2.143806327282863222e+01
-7.533060995555661776e+00 3.990293385640600876e-01 2.163920505994189725e+01
-6.352256375158205515e+00 8.243055089159805338e-01 1.724329448704423484e+01
-4.704628433615877015e+00 1.012675992719951790e+00 2.278422579944605175e+01
-4.692881074549307141e-01 4.869590575426848922e+00 1.996013213499395178e+01
-4.558051348294936744e+00 1.247057826885406229e+00 2.267821652943343125e+01
-4.344006267046836456e+00 1.085463414617668709e+00 2.269072877792492804e+01
-4.523344944446522575e+00 1.005768787903865036e+00 2.275333031680878904e+01
-7.220996380722066732e+00 3.093906341333608201e-01 2.254267188445114201e+01
-5.522983716025668954e+00 5.017892859646232218e+00 1.908613777082561214e+01
-7.043356713792723767e+00 6.000021029386595206e-01 2.263374930238043348e+01
-6.445196275282896181e+00 2.650950289960725126e-01 1.814035033512390171e+01
-6.602295266275811869e+00 5.557918034402047347e-01 1.802574824421477828e+01
-2.875576334403116441e+00 9.656363948056132518e-01 1.653101340426382748e+01
-7.255290862723290601e+00 2.478936175757008531e+00 2.075650187247844869e+01
-2.369231548337328075e+00 1.163641287289912452e+00 1.581558255048125616e+01
-3.408455350545396279e+00 9.108492850684801745e-01 1.715574667589532609e+01
-3.809348785384918390e+00 7.333119439452532307e-01 1.779779601655303267e+01
-3.118602606131762656e+00 1.123225865070058838e-01 2.282598731103612621e+01
-4.990704318559972208e+00 5.093542630250487147e-01 1.794904235411054927e+01
-3.007822466809826345e+00 9.174795234322775661e-01 1.682500852842163752e+01
-4.594012498960625024e+00 5.511059371171829202e-01 1.797135119337684372e+01
-6.565347049200690677e+00 4.142637640161079271e-01 1.809854869238788311e+01
-1.040562881502934633e+00 4.788849793689207601e+00 1.924875438078476364e+01
-4.258823505783530194e+00 7.090554791413206104e-01 1.758290675625045552e+01
-4.058963474006734629e+00 7.500481735118068594e-01 1.757241681110326326e+01
-3.990076222477225265e+00 8.067440237516947388e-01 1.738581037236830085e+01
-3.810736269949870803e+00 8.374153300074674844e-01 1.738049024251573726e+01
-5.608589226998924815e+00 4.852799658311298003e+00 1.996341013277017495e+01
-7.678901167894327529e+00 3.824213190769532589e-01 1.972599753512456644e+01
-1.188648954854895079e+00 3.874643415858641582e+00 1.815992714008575959e+01
-7.312309545070615258e+00 3.904059588506798573e-01 1.890830627898515459e+01
-3.256589159228951313e+00 1.406514228033187042e+00 1.559730349345649714e+01
-2.691228407722284999e+00 5.087804165018526836e-01 2.263629969604685854e+01
-3.080392321375345688e+00 1.326438961788745097e+00 1.575906834983304705e+01
-2.904024361208981553e+00 1.403595596055803751e+00 1.552833567000573467e+01
-3.295990371517313555e+00 1.272936379218840397e+00 1.594138194450524182e+01
-3.668138609006708073e+00 1.237084251927479395e+00 1.603469537309677051e+01
-4.867662529779762437e+00 1.118919937992722824e+00 1.622368254081087358e+01
-5.530349131914128691e+00 8.919393955324563805e-01 1.689998940640215253e+01
8.936427370574827611e-01 2.220029673231984635e+00 2.007739339141828694e+01
-2.455752791878784258e+00 1.616432545397399334e+00 1.513320682879599488e+01
-2.083153307377681784e+00 4.406847194184977390e+00 1.806390235595928218e+01
-2.310766657201846375e+00 1.778281435616142936e+00 1.499218396902107386e+01
-4.951576311129990415e+00 3.061664040067201942e+00 2.199200940316110930e+01
-5.937859712353400710e+00 2.706647357815162191e+00 2.212471388170346032e+01
-6.447221407043244312e+00 2.575583377093149551e+00 1.768666864442916520e+01
-4.572599178978599355e+00 2.861281982767646781e+00 2.202007699385174178e+01
-7.063592594162445337e+00 2.643937590946395577e+00 2.108911635069737045e+01
-3.072610922870749661e+00 3.986628577593224865e+00 1.711008292808189779e+01
-6.658275350041147789e+00 2.608675591301137242e+00 2.176493720190892489e+01
-7.124699112478218410e+00 2.839339955211336974e+00 2.053662783270433678e+01
-7.140690696389844661e+00 2.649343891143636220e+00 2.086592846531383216e+01
-3.353056821084198447e+00 3.435198176666904413e+00 2.147383658421201957e+01
-3.792426872251233760e+00 3.084185412817401772e+00 2.172229968840511916e+01
-7.315319447634177408e+00 2.445492477396128184e+00 2.029107661104549365e+01
-7.231466952532594306e+00 2.675405374855873930e+00 2.030791929852350464e+01
2.903778051734781651e-02 3.978545943358291481e+00 2.027521133039583745e+01
-7.295209819337776125e+00 2.370721124860075246e+00 1.871362964347239810e+01
-7.344220050476153006e+00 2.290958029820340691e+00 1.932024637226672681e+01
-7.290519807071028424e+00 2.529439504769151359e+00 1.931094417891759818e+01
-7.328323051368066388e+00 2.332845800011496884e+00 1.910712097097684747e+01
-5.171403180692479395e+00 3.404866348700836376e+00 2.182225028706098513e+01
-4.960936206257494874e+00 3.370070422977465174e+00 2.183558663767663788e+01
-1.143684441248484340e+00 2.388864007019789071e+00 1.686124839914893769e+01
-5.151450877146036333e+00 3.116234087805064945e+00 2.198504735975292945e+01
-3.272408180681367629e+00 4.257587900685311233e+00 1.742677736564614932e+01
-7.156313713055679315e+00 2.313406223152383312e+00 1.835438634086965592e+01
-5.455020019211007209e+00 1.644512540136047418e+00 1.625343280181595773e+01
-4.561715946307296932e+00 3.461719110528356680e+00 2.173898158535508784e+01
-4.548053974472457739e+00 3.255154878927682738e+00 2.183783912086268586e+01
-5.973202896169970799e+00 2.919879818358182000e+00 2.196342201986972142e+01
2.017996412417065732e-01 2.229932019830209278e+00 1.850270772709532352e+01
-1.365535504678048850e+00 3.854844962541312814e+00 2.116730207602538272e+01
-1.177634838256845340e+00 3.763515213479008636e+00 2.120380960518803803e+01
-6.603360002653660965e-01 4.245803490664295410e+00 2.074972993194214510e+01
-1.204142136042683164e+00 2.106271505862107762e+00 1.656920787463357314e+01
