3.780818741212374490e-01 -3.456031903239868086e+00 1.644327911742452386e+01
-2.000165511646907923e+00 -2.840488186838230344e+00 1.669401200478871772e+01
-4.020468920392896273e+00 -2.439087644642747854e+00 1.583109737017801422e+01
-4.180217622373369579e+00 -1.875999466078266842e+00 1.584106058580672993e+01
-3.401356612499365273e+00 9.059209816834875584e-01 1.645439212053447164e+01
3.634283398635910767e-01 -2.862053254781113054e+00 1.624626609010562817e+01
2.871395695966938999e-01 -2.823644108413281284e+00 1.639507651979968728e+01
-3.028776990867344754e+00 -2.207200692471327663e+00 1.324355650857588529e+01
-1.239610402966658587e+00 2.239863523232843434e-01 1.230547233983992328e+01
-3.992979432200366996e-01 -8.283210829212694915e-01 1.467774005024534745e+01
-2.850202564991138665e+00 -2.046512075291979649e+00 1.331273350891773788e+01
-4.256234207035392458e+00 -1.632941202240372869e+00 1.583253694437262027e+01
-4.562181773511098659e-01 7.756604988122276501e-01 1.288095042918332922e+01
-7.867843603557403975e-01 1.209726984279269058e+00 1.318353762659138084e+01
-1.609981254013023166e+00 1.967049137118573654e+00 1.534851385289675108e+01
-4.797140888766158184e+00 -1.855637649986811244e+00 1.471173099087750558e+01
-1.600089005030576494e+00 -3.044316599000695067e+00 1.681309061283680251e+01
-1.011741980453045864e+00 -3.078359540161625940e+00 1.699329264786734939e+01
-3.257903807108903926e+00 -2.485303438182425051e+00 1.623876565999352550e+01
-4.769629108203790935e+00 3.962227780538990496e-01 1.394559742942828251e+01
-3.039509566604200241e+00 -1.803911119681118613e+00 1.310069734034527045e+01
-2.679378260054630978e+00 2.137568097684213964e+00 1.663857384664321160e+01
-2.918797895542661891e-01 2.966761776911944759e-01 1.563461952573032931e+01
-3.177662407558738966e+00 -1.783302117483418048e+00 1.300804365069962643e+01
-2.248008068330821452e+00 -4.365304085944035073e+00 1.446160931209582401e+01
-3.869383930440102759e+00 -1.250296716235076211e+00 1.616633053669485065e+01
2.158669401250584152e-01 -2.675726662216629137e+00 1.648147813944986950e+01
-3.191330592805170063e+00 -4.041465344974261242e+00 1.381831284362716872e+01
-4.214354387223107068e+00 -2.469501817845267233e+00 1.569523362690593871e+01
-3.561471967202074485e+00 2.493701416601064480e+00 1.363585126490603017e+01
-4.484709194968191426e+00 -1.823317161323560587e+00 1.329874119123875431e+01
-6.324122820335630335e-01 3.353979929052389730e-01 1.266008688418185102e+01
-2.643518351224357410e+00 -2.869835003895251369e+00 1.643537204512023209e+01
-1.409033492994791636e+00 1.750557538827300252e+00 1.638528521117954995e+01
-3.408884943703079928e-01 -2.251741438921051053e+00 1.695592574499875127e+01
-1.241707995541563303e+00 -2.670116917360433106e+00 1.440098736488231168e+01
-3.258173709627152359e+00 -4.643377806861768597e+00 1.404846976496344979e+01
-3.051263393867812646e+00 -4.819535581402269564e+00 1.427059580625430613e+01
-2.821533255800140694e+00 -4.826872884877128733e+00 1.440655377155714234e+01
-2.855431511900098585e+00 -4.594128412965248209e+00 1.431047427050831544e+01
-3.422526334111939406e+00 3.279067609946730855e+00 1.598638686375618789e+01
-3.458838502011583493e+00 -4.579180897071574385e+00 1.389256365701095319e+01
-5.514784647958599351e-01 -2.691631569099890875e+00 1.457336438928217603e+01
-2.627212421498689388e+00 -4.208565408528781582e+00 1.431732395101935396e+01
-3.711077573416909026e+00 -4.737660019769489139e+00 1.389296537399182796e+01
-2.816306823063825071e+00 -5.113988652688432168e+00 1.526687511600489700e+01
-9.628161883732501147e-01 8.147221070732545423e-01 1.636029743006726278e+01
-4.569561277091382934e+00 -4.440424825691556165e+00 1.443030484818622483e+01
-4.537608828399145366e+00 -4.562104469745149160e+00 1.425020187937440141e+01
-2.842298037718422599e+00 7.212998237269786506e-01 1.667793207937894095e+01
-3.832764579097533986e+00 -4.429548369073460279e+00 1.364432993647917414e+01
-4.573143707575564321e+00 -4.436609213958341513e+00 1.428917858676591379e+01
-3.449138215826515808e+00 2.182771011297426789e+00 1.275952036544930479e+01
-4.296776248731985604e+00 -4.872207999779769594e+00 1.488636803969517075e+01
-1.430731422367023997e+00 -4.035913456313082293e+00 1.477635372139762637e+01
-3.448015547705494566e+00 -5.010778260756055147e+00 1.523014581483156604e+01
-9.917067658882552372e-01 -2.098401523751572739e+00 1.708186855219899769e+01
-2.034435711450354400e+00 -5.125075017573932357e+00 1.501224874148650912e+01
-3.450353222577900780e+00 -5.103294034877078111e+00 1.508616151353368906e+01
-3.209846883956808394e+00 -4.984805820914595564e+00 1.428454769491698784e+01
-2.657659557984015208e+00 3.171772506803274272e+00 1.477462548043899915e+01
-3.056027785839300570e+00 -5.213444328541489092e+00 1.486101026513399859e+01
-3.011005516234995572e+00 -2.072903818825012401e+00 1.642228435674972076e+01
-3.840471320601333893e+00 -4.189412011442275485e+00 1.350973372200623146e+01
-3.012831883608267702e+00 -4.516581774698486207e+00 1.417873463205302897e+01
-3.225934336154041127e+00 -4.225839521824568124e+00 1.387698628025803771e+01
-4.116087668971434965e+00 -4.713120885485866385e-02 1.264213152137552498e+01
-2.050326666900440742e+00 -5.097853716674478619e+00 1.522122404837688237e+01
-2.434609048733650916e+00 -4.627446012223654037e+00 1.448553730831230268e+01
-1.635943798016808337e+00 2.753675308552777423e+00 1.354154064839754312e+01
-2.355704058066043771e+00 -4.040139344507520214e+00 1.435346509636345047e+01
-3.432059938505113816e+00 -4.416787806870810407e+00 1.381544869364739725e+01
-9.985214277467950872e-01 1.833396771035512796e+00 1.125707949507930294e+01
-4.407818893786966896e+00 2.148960141348120523e+00 1.456323752774169833e+01
-3.394705563365422840e+00 -4.283052181293606431e+00 1.376306595468096106e+01
-2.195267912586692294e+00 -4.730199357394686110e+00 1.456327802961683915e+01
-9.591808280754843263e-01 2.233806799360852580e+00 1.541962556438560483e+01
-4.540485951689369415e+00 -4.203088847832108677e+00 1.390255254198665114e+01
-1.788159368562791229e+00 -4.969810332839394995e+00 1.562913734174422586e+01
-4.352951137104762225e+00 2.277574464715964364e+00 1.465873579165427287e+01
-3.612366633475650790e+00 -5.088749032161994812e+00 1.423419824284653856e+01
-7.599836543272843192e-01 2.178016179100487060e-01 1.454508464934468748e+01
-3.865337452468208035e+00 -4.018297861244448654e+00 1.341826012188418815e+01
-1.405444479126235047e+00 -4.958818260638077291e+00 1.558803858903632289e+01
-3.428998798844855589e+00 -5.199474698926429106e+00 1.449000569295196073e+01
-2.635553339461736311e+00 2.748311267227748544e+00 1.654551489719099777e+01
-4.721301727181831609e+00 -3.026394470605037412e+00 1.422688805622735941e+01
-4.376692586356712766e+00 -4.425029090058026249e+00 1.503213368880404488e+01
-3.295933966404342552e+00 -3.435352485173741144e+00 1.594263896880507758e+01
-4.193202288376758347e+00 -4.594093344552277358e+00 1.517812214096466761e+01
-1.183316549599377154e+00 -3.020564348873600924e+00 1.456415005806991303e+01
1.111594318519330549e-01 -1.951753880314463618e+00 1.637468162422008078e+01
-4.686671738525602038e+00 -1.005453934119831638e+00 1.369858693047950027e+01
-4.616191873063685946e+00 -4.241797215380659125e+00 1.446909694900162435e+01
-3.621158814543631976e+00 2.523308051707913613e+00 1.377891900189945318e+01
-3.849482037430847825e+00 1.625772147482728247e+00 1.253705990990112440e+01
-1.827169945486428970e+00 -4.623133626965436171e+00 1.464638215759698880e+01
-3.073341422309972870e+00 -4.419750756659465374e+00 1.409617897413591692e+01
-1.925681119529380592e+00 3.135349379071081355e+00 1.454062177873618822e+01
-1.982725280982876315e-01 -1.163631006518074384e-01 1.337480872981231528e+01
-4.422394515451493646e+00 -4.237591494366702349e+00 1.503963805797638997e+01
-3.420700761797101030e+00 -4.828597357358342279e+00 1.539280692682583407e+01
-4.391603255821163732e-01 -1.850191833476855230e-02 1.370346657071978314e+01
-4.448296280007873804e+00 -1.297426902127780224e+00 1.573398605583327736e+01
-2.827918025673826552e+00 -4.854321417680974804e+00 1.560309038992166109e+01
-2.309363454596158327e+00 -1.625790503190177816e+00 1.676482487687363943e+01
-2.462920065648189993e+00 -5.041118153938402457e+00 1.547347336918841876e+01
-2.230075002928318284e+00 -4.990520438830934324e+00 1.467594118726117358e+01
-4.194302042435097633e+00 -3.773852101477843668e-01 1.276751450029830437e+01
-2.228644192747328834e+00 -5.097333183289860514e+00 1.525359654488200789e+01
-1.042318165485770498e+00 1.377378578727520786e+00 1.390746704468712380e+01
-4.687660630216699431e+00 1.498777337521911335e+00 1.498428599296428132e+01
-2.423151247960862342e+00 -4.245047372993199453e+00 1.438909740703928719e+01
-3.230779598453032087e+00 -4.862459755897653224e+00 1.543927569156346635e+01
-3.777660911952908318e+00 3.068317795199507980e+00 1.524004110923823418e+01
-1.983703995390571961e+00 -1.673229731677445598e+00 1.361875457836164571e+01
-1.270175841736061351e+00 -3.633457060034573916e-01 1.294056807978185475e+01
-2.614045083111315115e+00 -4.987289155052852863e+00 1.555132537165939510e+01
-2.644414823088841349e+00 -1.793490122559012967e+00 1.332243037750912862e+01
-3.472048785791754244e-01 -1.423384341440951939e+00 1.676949889422547813e+01
-1.268709475628852168e+00 -4.959002172557022803e+00 1.544884167870220892e+01
-3.240925960163071551e+00 -5.154776864730459707e+00 1.447506252598498122e+01
-1.563683348659488104e+00 -1.666208718105522291e+00 1.700022436981701190e+01
-4.189590210976932738e+00 -1.609104021299323506e+00 1.295494824589592753e+01
4.566656049127233719e-02 -2.146077795320329162e+00 1.492981634228037535e+01
-3.660354776644649366e+00 -5.170878975157020996e+00 1.483536526150521695e+01
-2.185498560707111793e+00 -2.414824830181858673e-01 1.228033459926560056e+01
-8.234597571100132907e-01 -4.427562252787108577e+00 1.527808041225841151e+01
-1.222403468158695272e+00 -4.679140391049185332e+00 1.622123337482631911e+01
-3.380000171108668461e+00 -3.591823288982066043e+00 1.340827425381272775e+01
-3.461960163818339709e+00 -3.813025690028934989e+00 1.346222706063014840e+01
-4.046855954757987206e+00 -4.067436938552493331e+00 1.543768985584237896e+01
-3.608678656676596486e+00 -2.645885423632759359e+00 1.602312020415705263e+01
-1.369982707141257583e+00 9.666135161533645492e-01 1.609069986617755177e+01
-2.376360908023495977e+00 -6.684394813873144603e-01 1.262019726591389457e+01
-4.471834209711918362e+00 -3.860122238617903268e+00 1.510493618821662665e+01
-4.286489215508725081e+00 -3.879327428124815569e+00 1.531562833526965051e+01
-1.766432809176881946e+00 -4.069438928715391590e+00 1.458065948990699212e+01
-4.312872820960931719e+00 -3.398541011004046375e+00 1.339958806455036466e+01
-2.701569133167887493e+00 -2.427685167442076075e+00 1.355689584032384687e+01
-4.746466240252383173e+00 -3.466024169079048090e+00 1.412144054565646911e+01
-2.791802537159643549e+00 -4.053270653809432744e+00 1.419141032924241586e+01
-4.547479740298943085e+00 -3.811689622217268703e+00 1.500725255871346775e+01
-3.810512734252035294e+00 -4.297128068771164600e+00 1.357137602564556289e+01
-4.764514274690373696e+00 -8.591780005115398078e-01 1.530703093724970643e+01
-3.214774571628453259e+00 -4.047360168330282448e+00 1.578083189220210159e+01
-2.269158252743105120e+00 -3.083658842037473757e+00 1.653893539628066378e+01
-1.785200502452681581e+00 2.553520741497588897e+00 1.517047501803941145e+01
-1.826274476771764244e+00 -8.416368494385371157e-01 1.302263931811618392e+01
-3.985331580974972088e+00 -3.361658326508945915e+00 1.315372355361029832e+01
-3.834709591422946318e+00 2.206263036985384396e+00 1.338638342538768455e+01
-2.392650609973437370e-01 -4.632886458986081202e+00 1.601768584943810225e+01
-4.459536549091604130e+00 -3.449852368519240375e+00 1.358414878196055042e+01
-2.016255439928121174e+00 -4.683511125899974203e+00 1.601055629298280536e+01
-4.432856838234695118e+00 1.225478542235928447e+00 1.291460660575855712e+01
-4.302996574942403729e-01 -4.637155952128534153e+00 1.564637580151205754e+01
2.997657685022228624e-01 -2.447758563907867391e+00 1.621917216123365080e+01
-1.417030817227592943e+00 -4.790734079359281417e+00 1.606559613476088089e+01
-1.630959115773489065e+00 -4.464063679276988772e+00 1.627783078321034083e+01
-3.215352850404918694e+00 -4.442950677655906233e+00 1.564858121186297524e+01
-4.884918945426836578e-01 1.555228613250113412e+00 1.510226267962655555e+01
-3.424266568449597870e+00 -3.412214069824527130e+00 1.330775258245238746e+01
-3.548036016977273999e+00 7.992373639210793579e-01 1.204190401609142214e+01
-1.196025042712481223e+00 2.162288823446398389e+00 1.574419842894891275e+01
-1.602955026709732778e+00 2.493450876868682720e+00 1.267746305454014077e+01
-1.235448568454969420e+00 -4.463599045093811668e+00 1.503404216522636716e+01
-1.067039680411892233e+00 1.532187686844170837e-01 1.590892775503557033e+01
-1.593326053918480367e+00 -4.654190552786332979e+00 1.617306231626918844e+01
-2.622535524236900173e+00 -4.621190963144742980e+00 1.583767227773707020e+01
-1.829882376826438950e+00 -1.072574010406022627e+00 1.324458335204590043e+01
-4.578342957347103948e+00 1.971999344171723845e+00 1.477861138147196840e+01
-2.425910788359146419e+00 -4.678854063843522759e+00 1.587784070163122863e+01
-2.490209179994225946e-02 6.517942118459126855e-01 1.457940933772973580e+01
-4.502213264182660879e+00 1.999309322871166472e+00 1.452767619984174274e+01
-3.320958001904728452e+00 1.828223813642642970e+00 1.192065719086392761e+01
-2.842271749670165271e+00 -4.292402089780287255e+00 1.588487550146115979e+01
-3.187818779412899595e+00 -1.700086999335359561e+00 1.640551494166034985e+01
-4.326671696133297829e+00 2.325455700122854186e+00 1.580711580473865041e+01
-2.819811979475616237e+00 -4.443049044595094088e+00 1.583431340898950879e+01
-3.012564424983279476e+00 -4.263435125201594289e+00 1.581010734496801007e+01
-2.992984004545464316e+00 -3.231211033738383698e+00 1.364275607078894836e+01
-2.394773520425837798e+00 -4.828122965545873058e+00 1.578534339596837555e+01
-1.254721898002713498e+00 -4.853143864004501040e+00 1.524314423158958220e+01
-1.835943316323342955e+00 -4.888972662911458045e+00 1.582290105118273971e+01
-2.905369222978414712e+00 1.210835581274422701e+00 1.148237937669900788e+01
-4.678908991697101172e+00 -4.028220022708141279e+00 1.446056712093805885e+01
-3.200036691536218836e+00 2.891934571040965185e+00 1.423256710947247683e+01
1.350225096935138425e-01 -2.610470587799123887e+00 1.491377216585589593e+01
-4.110907313927170681e-01 8.554875418987252234e-01 1.277827263826743831e+01
-2.011318849387171870e+00 2.130864643225666377e+00 1.113926262286378233e+01
-4.329975789244837614e-01 1.609938698189423256e+00 1.232832789719789446e+01
-1.339198782720200986e+00 2.031213696017639680e+00 1.103354342203190441e+01
-1.450244596548547760e+00 2.133861748291574933e+00 1.100297576741342453e+01
-5.642568285313227516e-01 6.505101803433460672e-01 1.319497143164119279e+01
-1.760412072817169271e+00 2.142023421629661417e+00 1.102827096903089199e+01
2.574449763545501035e-01 -2.461837641312557778e+00 1.631414679721168426e+01
-5.242988214401862468e-01 1.597927044722038392e+00 1.198360829055432220e+01
-5.903937769273484015e-01 1.624385598908022477e+00 1.187342891439449488e+01
-3.743896003397688244e+00 1.541952656223320339e+00 1.626743931173021451e+01
-3.571953899118423426e+00 1.849791758530050512e-01 1.645499965420684418e+01
-3.423315009729164249e+00 1.523086140558999713e+00 1.641322088541312496e+01
-3.260261921231883075e+00 3.285634841977163045e+00 1.554642324622928840e+01
-3.263957468397087780e+00 1.336844985740704317e+00 1.648206014333292302e+01
-4.752954184971704521e+00 1.356206183378505958e+00 1.452211660203158772e+01
-2.324013638929948999e-01 1.198511516792042819e+00 1.274881888454464018e+01
-3.849363014218436962e+00 1.166838163320531585e+00 1.622084092914127496e+01
-3.514881499596841929e-01 -5.624518856582301218e-01 1.413937661028520409e+01
-1.681676352360445881e+00 7.512268347420197889e-01 1.146414208246373079e+01
-4.205706859341832526e+00 1.748186349923989358e+00 1.336308411751297598e+01
-2.386531008660593312e+00 7.653489815266668606e-01 1.679718504689586922e+01
-5.092900981829088236e-01 8.381491550524325929e-01 1.237455523733400042e+01
-2.667259751829393899e+00 -3.195513291773005360e+00 1.389774659307747839e+01
-4.512302476242199489e+00 1.784096461421382340e+00 1.557200220142586033e+01
-1.704373656095247824e+00 8.255024876125504063e-01 1.682250693829062982e+01
-2.640427431736730668e+00 -1.608401058140284112e+00 1.323131366649399610e+01
-4.550301681267377774e+00 1.582919385406382329e+00 1.550242241465713278e+01
-7.115038233406864032e-01 1.674944807034869143e+00 1.160699912264659872e+01
-2.646740640885349993e-01 2.236388406179703470e-01 1.315477652326916314e+01
-2.484144366228320244e-01 1.384600701143308132e+00 1.449160781145559440e+01
-1.039959229403982777e+00 -3.303618882963485159e+00 1.691867812414231054e+01
-9.852556151637488213e-01 1.326497156201321470e+00 1.143917692882040882e+01
-1.392459171774427518e-01 1.287291244897421194e+00 1.279844489648701966e+01
-1.085329093192802935e-01 -3.355267510466383829e+00 1.488095641163888416e+01
-3.726667144322149738e+00 1.869751275567787197e+00 1.266167622216578081e+01
-4.659172659456377374e+00 1.382505521775807100e+00 1.517665770988310925e+01
-3.809897720474887395e-01 1.412167050364215193e+00 1.233270888847169999e+01
-2.417904041708988649e-01 7.707849722922038849e-01 1.511677202851832647e+01
-2.388639134327692481e-01 -2.012393127897051048e+00 1.452561072859316482e+01
-3.996885228420155034e-01 1.379752807269332138e+00 1.493729545487382637e+01
-2.427970260546960635e+00 1.527140828234018421e+00 1.672151875785834108e+01
-2.757032404315900020e+00 1.542677777997187860e+00 1.665031708093130902e+01
-1.817900130964509975e+00 -2.467006770346567457e+00 1.682719632527901865e+01
-5.418588041832145263e-01 -7.614458545229977338e-01 1.514792155597125145e+01
-1.598071864239804407e+00 -7.798658056472318467e-02 1.697567357805330346e+01
-1.642057505264156614e+00 1.327508963467657566e+00 1.668868231191072482e+01
-4.121529826663246965e+00 1.712160942518017759e+00 1.603907386567737348e+01
-2.119360026545233922e+00 3.110000020551249023e+00 1.554186354145615212e+01
-2.612894746132738089e+00 1.537729518754929359e+00 1.668697556319401798e+01
-4.420332944944076914e+00 1.581868584434810376e+00 1.355146630375281092e+01
-2.235010286857232131e+00 1.357042085872107062e+00 1.675712320233196806e+01
-4.349871691703217635e-01 1.562173077686346279e+00 1.477832479863018023e+01
-2.769688513543616115e-01 1.132711769855485606e-01 1.565077011469697510e+01
-6.215738509091375263e-01 1.471568843032921015e-01 1.631875507590712004e+01
-4.557652932833205384e+00 2.153655209810525495e+00 1.535361197037214254e+01
-1.619541245673450147e+00 1.301681233932220350e-01 1.694047014734194079e+01
-1.384649578335030329e+00 1.749161125706034881e+00 1.599979195154195821e+01
-1.493301462107746724e+00 2.354324628474453895e+00 1.588076298238834738e+01
-1.922856821083424872e-01 9.721586931023517009e-01 1.288516579285440855e+01
-3.699756341729800724e+00 2.465527704422558308e+00 1.373531832968937749e+01
-4.406857950265153923e-01 -1.252942358537900924e+00 1.548592838812728445e+01
-1.225589258237868712e-01 8.877498705908605237e-01 1.299970197987847342e+01
-3.138459512386705619e+00 -9.071256789350246041e-01 1.258591442197803190e+01
-4.721181711263355396e+00 1.188922945363599215e+00 1.493623779418876296e+01
-4.122274962874799442e+00 1.165765168164728749e+00 1.603777172850892896e+01
-4.045378816611382433e+00 9.571457912315374239e-01 1.610740699776263085e+01
-4.627053914618070252e+00 -2.213033816855044300e+00 1.371409749318836191e+01
-4.675568690546674233e+00 -2.608598225952377891e+00 1.406902850997426668e+01
-1.405310863241893138e+00 1.774858412439046962e+00 1.104708778591336937e+01
-4.757010912515196033e-01 -6.276819661651474869e-01 1.467969436714408005e+01
-2.317364913803377391e+00 1.825278953877116361e+00 1.105553474648949219e+01
-1.222495238154751862e-01 1.519579285398671153e-01 1.542202636292257978e+01
-2.076764129499559353e+00 -2.301991409918414888e+00 1.675249551466777831e+01
-2.157483408762466137e+00 1.560774709839650942e+00 1.104714784206692002e+01
-4.105102287759386570e+00 2.433933289803326794e+00 1.433719431485459239e+01
-6.066446638304678896e-01 -2.048482008498786477e-02 1.429702710401501520e+01
-9.167539580286326872e-01 1.585660847598215462e+00 1.141415288678339124e+01
-4.742096878215358302e+00 -2.050166654565782398e+00 1.439278155725385488e+01
-2.210178072523389492e+00 -2.048140869533591868e+00 1.673965269410014400e+01
-1.046684488665215573e+00 1.452016244380979870e+00 1.134557915377506987e+01
-2.689275398823007812e+00 1.662741373362354391e+00 1.125200272063793250e+01
-2.252719278912543199e+00 2.767080696685003893e+00 1.336396017441921202e+01
-4.938648518915630947e-02 8.530141769764455484e-01 1.439634894086950823e+01
-1.660614986144686833e+00 2.365530435060209324e+00 1.494191184001065409e+01
-2.204544492927875687e+00 6.918498373591629447e-01 1.683659439793705559e+01
-3.416094883716435771e+00 -1.503884555843686410e-01 1.217264999214653187e+01
-1.079100290911972015e+00 1.741657139454821923e+00 1.593860038311106564e+01
-2.992022565129317524e+00 -8.634112191717617790e-01 1.662960079789174017e+01
-2.224692399764887085e+00 1.643087439742436651e-01 1.689119763874588642e+01
-3.087736860234725267e+00 1.421730347316557452e+00 1.159612009650026465e+01
-3.245149423561601854e+00 2.762526954349704855e+00 1.397535614921485347e+01
-3.389331929309175040e-01 8.245611253425865206e-01 1.275847214552916142e+01
-1.233833332965255991e+00 -1.576737624771784585e+00 1.395115605082705201e+01
3.447982805236947668e-01 -3.831451932030963459e+00 1.585929698258048148e+01
-3.413831410613825224e+00 1.429042013240179543e+00 1.188632422838779235e+01
-3.219915227547796022e+00 1.225291291430152807e+00 1.172858824905061681e+01
-3.696620753783508295e+00 -2.521729279884735164e-01 1.641296425352790322e+01
-1.393340892776981699e+00 -3.805635408024155009e-02 1.694050203427443080e+01
-3.252069645361343575e+00 1.488472408311164452e-01 1.658238368198195190e+01
-6.935151486247349562e-01 1.037539825647992853e-01 1.643773452894425446e+01
-3.476623821851441698e-01 6.454547190780371979e-01 1.280657351585307424e+01
-4.007918878486188552e-01 6.103826152868369048e-01 1.292727679976254507e+01
-9.173674668774176588e-01 1.705772552516530816e+00 1.565822408644769581e+01
-9.716775282328696806e-01 1.967691831061077590e+00 1.559358261406565305e+01
2.229469521466757032e-01 -3.678165009734838620e+00 1.561563592161895997e+01
-9.629745475062359006e-01 1.022922272980534952e+00 1.414463200054286318e+01
-3.453907642515774867e+00 1.239912376169338692e+00 1.191765951882889851e+01
-2.260668488540700238e+00 1.705785270034609002e+00 1.103779750607422727e+01
-4.254042325257907819e+00 -4.071805629572389229e+00 1.529264599025743365e+01
-1.847627727062767455e+00 3.017022454986974189e+00 1.433221121153700039e+01
-4.253819501621221022e+00 -3.195363419904979185e+00 1.328895253673579191e+01
-1.870654273653615585e+00 2.108640837834706350e+00 1.153437277141043182e+01
-1.170975811024103752e+00 1.394666150372786628e+00 1.127360463230191101e+01
-4.732499682212241154e+00 1.400891742666672712e+00 1.460510431401173292e+01
-4.502440540051694029e+00 1.399816432885899076e+00 1.560556542461418417e+01
-2.880763926789045026e+00 2.013110888602151594e+00 1.153981780331731954e+01
-1.066726067815528811e-01 -1.355240659847241513e+00 1.641928892100989401e+01
-2.949987283283745487e+00 1.683327991612163288e+00 1.145630709462108143e+01
-3.675121373083382714e+00 2.586191486485836855e+00 1.623190402789981590e+01
-3.821449645632115200e+00 2.717145319169974815e+00 1.612510612432420487e+01
-4.756645759309822807e+00 1.662112750177546783e-01 1.393289625952209576e+01
-1.264660699631829921e+00 1.965210233161202247e+00 1.610299156233072182e+01
-1.300955453095231418e+00 1.758134207737639620e+00 1.626169494731463772e+01
-1.838513307121289575e+00 2.129588555090533131e+00 1.656493768628813257e+01
-1.994411876210971046e+00 2.163028444334469835e+00 1.662300066521294184e+01
-3.662017277449983066e+00 -9.465120301767286914e-01 1.257244673427138082e+01
-3.279115085025651410e+00 2.345344037357585787e+00 1.643909508456563628e+01
-7.961105894792714910e-01 2.172477841266508225e+00 1.517749152203651875e+01
-4.718813600413696463e+00 -1.216925201357478059e+00 1.412984007130886965e+01
-2.818047688811220031e+00 3.187922205541548593e+00 1.499664301975791147e+01
-3.982417099503793523e+00 2.332085075374191518e+00 1.610211927262132292e+01
-2.553675820621766901e-01 -1.607378552075268807e+00 1.526923283564404699e+01
-3.228288614282412095e+00 2.144691751802423330e+00 1.647566016149364287e+01
-4.205671552463739360e+00 2.551113714270433430e+00 1.588781147073141398e+01
-2.857457798685674177e+00 2.624658734128687776e+00 1.336350202225749939e+01
-2.810169495626807290e+00 -8.620006134395060693e-01 1.264128651641404133e+01
-1.650506856508316522e+00 2.339764190621819839e+00 1.637211968084994140e+01
-1.671692273328017286e+00 2.544838478845416141e+00 1.630160689717600775e+01
-4.116855698977685662e+00 3.006391836611527424e+00 1.575855566291562582e+01
-2.028501379683468109e+00 2.355658767360822026e+00 1.659118543626571096e+01
-4.148643265422938597e+00 -8.674727298924915786e-01 1.280811790142714557e+01
-2.237577896860365012e+00 2.156599739242722968e+00 1.667432347049518171e+01
-2.412835926888033722e+00 -3.279626494398471870e+00 1.642534421641885700e+01
-3.890487406143796179e+00 -4.024066187530833005e+00 1.552259849614224407e+01
-2.422990729182068481e+00 2.740869952514693786e+00 1.656316402615213690e+01
-3.611442474710256256e+00 3.113487107412487465e+00 1.611669590910629779e+01
-3.589204113170227473e+00 3.234081299031750678e+00 1.606390269599760501e+01
-2.446049407978559742e+00 -1.836579512666782321e+00 1.345352763681302832e+01
-3.035449611724335472e+00 3.137911199906088022e+00 1.637805155443452776e+01
-2.878554208691801897e+00 2.945682771098359964e+00 1.645887584831687178e+01
-3.008906260193358051e+00 2.743696874781106132e+00 1.647206730477598313e+01
-2.032114991991742503e+00 2.944745217084117961e+00 1.639724290591334466e+01
-2.239412382356025244e+00 3.148833033577532969e+00 1.640060667129294103e+01
-3.844436314427435164e+00 1.770739653047758377e+00 1.621630676284441819e+01
-3.801165798532312845e+00 2.133806085095257821e+00 1.622455641359010770e+01
-4.212488443831821527e+00 1.930713924458484776e+00 1.596512297151488724e+01
-3.930446635107494036e-01 1.699782614658068791e+00 1.460714968852622775e+01
-3.597830052584173988e+00 1.771918712806145990e+00 1.633765526799896861e+01
-3.223313303077413483e+00 7.505634067508913931e-01 1.653898074852262567e+01
-2.211811622144565170e+00 1.568667571777501824e+00 1.673986055864390465e+01
-7.792337269427531687e-01 1.779744809790104743e+00 1.538453239097934500e+01
-4.357436322864783662e+00 -1.247586786630789701e+00 1.582536048733937406e+01
-4.574443844035162243e+00 2.140077715676969472e+00 1.512222367281098911e+01
2.036000437295148735e-01 -3.235814167421894982e+00 1.666089130171481258e+01
-1.492967164157689375e+00 1.698735952624227608e+00 1.647709818192937803e+01
-4.550844883434173482e+00 1.289663335709359870e+00 1.316050640841318398e+01
-1.173429252832547842e+00 -1.054968091577082490e+00 1.364994758298225719e+01
-1.344885268465688455e+00 -8.865264292713720407e-01 1.339806398277349331e+01
-2.425474397931568049e+00 -2.258990022539509201e+00 1.662653461194732074e+01
-4.105333879903982464e+00 2.602535259020227976e+00 1.467710980170392787e+01
-1.724181803600289165e+00 -7.200444060122371814e-01 1.297363758772507225e+01
-1.518106997898873711e+00 -7.809441075140279853e-01 1.317611788184613175e+01
1.920395229371888168e-01 -2.054538192688542875e+00 1.606274767115569801e+01
-3.834700766384084858e-01 -1.263282791092025681e+00 1.420619508480042725e+01
-4.665778060731033960e+00 -8.373531483212940385e-01 1.550390797566232948e+01
-3.406037152920616151e+00 -2.592136351797028837e+00 1.306676708712831925e+01
-2.049264080352357631e+00 3.006371284157123291e+00 1.396919190322607562e+01
-8.400693573039182960e-01 -8.567963015281201411e-01 1.366220876691961195e+01
-1.416017233558568122e+00 3.330397863617163834e-01 1.204475975576176694e+01
-5.977521871362808659e-01 -8.715092819347937114e-01 1.382087746885918733e+01
-3.255249714091282609e+00 -4.224695016460250363e-01 1.223805393680106590e+01
-4.249168725432207694e+00 -1.052374163963103237e+00 1.595045124019031135e+01
2.963306154553027594e-01 -1.864405196695359646e+00 1.586507182169242469e+01
-1.043153429640536256e+00 -1.235945130081376409e+00 1.384932121460894194e+01
2.680223835580723413e-01 -3.846653072155905573e+00 1.573800952020109634e+01
1.891692442471801516e-01 -1.643558321820225210e+00 1.584071028162761507e+01
-1.045535969337335613e+00 -7.988395457748405093e-01 1.349760032736131166e+01
-3.711930459863912901e+00 2.645734231881029075e+00 1.414242690570961258e+01
-1.887933179106476178e+00 -3.394932743816163168e+00 1.432980940181407448e+01
-3.250410505164675445e+00 -6.249785718810483282e-01 1.235697105642966420e+01
-2.674595385828805849e+00 -4.440546512104780463e-01 1.231921580389420257e+01
-4.558101848525859978e+00 -1.230840330627438473e-01 1.301464297966172268e+01
-3.895994800081387321e+00 1.289980320184935803e-02 1.246526826608174332e+01
-3.647077382464316564e+00 2.601657318446358502e+00 1.397655633048824342e+01
-1.874295702264233032e+00 -2.641252661628866183e-01 1.242502963960924944e+01
-1.827334283960998063e+00 2.677362627258004224e+00 1.309948349352180230e+01
-3.628867295080302924e+00 -4.036719390383681549e+00 1.561981080523514720e+01
-4.797400056092547160e+00 -8.014729813246735945e-01 1.494910830450328376e+01
-4.011616208299416009e+00 -1.058893156604781671e+00 1.611794495459118792e+01
-5.828958550871407573e-02 -2.093956803497936114e+00 1.666895033864802400e+01
-2.859076809536631902e+00 -4.331467911778517643e-01 1.225950180538857381e+01
-1.087062679304616308e+00 -5.892396952630400975e-01 1.328214086653112247e+01
-1.715255325503546979e+00 -3.123023386927575862e-01 1.256129243326027733e+01
-4.790804675032386939e+00 -6.459644597735100247e-01 1.475317258085707550e+01
-4.162432217971886672e+00 2.889014647631979571e+00 1.539280163620866659e+01
-4.630847950649286560e+00 -4.551968889129793805e-01 1.555707417981157192e+01
-2.233927178566968763e+00 -2.644952805472549073e+00 1.663557894140064519e+01
-3.062002669722676540e+00 -1.134240822332944099e+00 1.277055851485065574e+01
-4.719244698133229221e+00 -4.384518913338003587e-01 1.537385109763682323e+01
-4.304351665822396811e+00 -6.241534317843485669e-01 1.597583995884242114e+01
-2.499682229496451580e-01 -3.083505027711052726e+00 1.697122180244340939e+01
-1.522007111651444644e+00 -9.178412183672698399e-01 1.330685249905968703e+01
-2.653736925047461170e+00 -1.881635104899996858e-01 1.209616855598080321e+01
-3.763713228353607221e+00 -1.401344317927898375e-01 1.239974204977588101e+01
-4.027120044126592191e+00 -3.852440187841637442e+00 1.549911439980268568e+01
-1.498737382725847667e+00 2.363402493518533820e+00 1.235586259375295981e+01
-2.260271098503491061e+00 -1.597575482383647438e-01 1.217679320689628497e+01
-2.374366613730455544e+00 -2.761932313696490171e-01 1.225341354054901899e+01
-4.707118315563523225e+00 -3.245545360199651341e+00 1.492791884339011688e+01
-1.981888838780258288e-01 -1.412775355377283049e+00 1.435190186725702688e+01
-2.785666057469009527e+00 -1.052136198641908660e+00 1.280671499720046569e+01
-1.489061454237692317e+00 1.532268891397263300e+00 1.552552041825946816e+01
-3.036420448929159743e+00 1.395735996822167202e-02 1.196759756473522174e+01
-1.319119948637512918e+00 2.479264603084224916e+00 1.590365896970719461e+01
-3.576241021828743816e-01 -6.891623102901232034e-01 1.385382339642810479e+01
-1.803149955442791219e+00 -3.642734382821784855e+00 1.444535245820770086e+01
-2.198173522707658478e-01 -1.032008559129911740e+00 1.427438380941314477e+01
-1.807167069849534846e-01 -1.241309821315754736e+00 1.594661952811090089e+01
-1.224095834356961232e+00 -1.249048330829988451e+00 1.706628871219580645e+01
-1.732713302814055556e+00 3.064411387157934819e+00 1.601968301847573173e+01
2.538758115473813692e-01 -3.182145970633914356e+00 1.564725719468827947e+01
-4.249177615565670862e+00 1.803356210406812377e-01 1.266128392779919665e+01
-3.922489336906280322e+00 1.634137412719399718e-01 1.244969266718620560e+01
-3.626647445757487098e+00 -4.975239823870719391e+00 1.410950864057132037e+01
-4.157313595712757603e+00 -5.146940592555376170e+00 1.466492669976521768e+01
-6.604872452214886891e-02 -2.245897384417222753e+00 1.547028572627579734e+01
-1.622313136982405535e+00 -5.959238623501502685e-01 1.291665899300242160e+01
-2.629367806121732265e+00 3.191368479506098144e+00 1.556422028077241038e+01
-1.236528853698167563e+00 4.184836559701577974e-01 1.208079748065710390e+01
-3.392572464884023642e+00 4.553977099916260984e-01 1.199327835212073978e+01
-3.129020134200690251e+00 -4.584487338192375638e+00 1.411184315319496818e+01
-2.420165706658978788e+00 -1.029651524496330017e-01 1.687171362092921356e+01
-1.631409696072811721e+00 2.900050651121508505e-01 1.195450080207525190e+01
-2.026533998799453506e+00 3.049817826741762161e+00 1.413119771150626747e+01
-6.424844397108238070e-01 9.411548847894118941e-01 1.568445703622310816e+01
-1.979725111952951755e+00 -3.023431822767599808e+00 1.416592755326741582e+01
-1.594116340178478364e+00 2.680098079937704547e+00 1.334156572258309836e+01
-1.028103770576081599e+00 3.908283402536053552e-01 1.227942822829713521e+01
-2.684191186781645921e+00 -1.116653517072994095e-01 1.679867564958748716e+01
-4.271803739450088955e+00 -4.862732861286422903e+00 1.399377663633295299e+01
-4.031513314979416340e-01 -1.208425644210453509e-02 1.350428682020266535e+01
-2.280179889923919401e+00 3.194329015674638672e+00 1.557063595519454680e+01
-1.087411818781511164e+00 3.355130554463402470e-01 1.570976258091111788e+01
-4.094431462248985909e+00 -1.482078458595205372e+00 1.597968079632366312e+01
-4.697419570568128200e-01 -1.618545582833532670e+00 1.431377891268575553e+01
-1.030999043413336341e-01 -2.276141535371702052e+00 1.566776120945262107e+01
-2.072343598701209544e+00 -1.142401072525666139e+00 1.317898803056892376e+01
2.607949290543189191e-02 -2.458967657909614690e+00 1.668074774292520601e+01
-2.277903691235454886e+00 -1.163720524756126640e+00 1.309361699800010825e+01
-7.331238320916174667e-01 6.392714798396447184e-01 1.616237395033416391e+01
-4.637237552096234339e+00 -5.965332382729717775e-01 1.331989772550410578e+01
-4.093452992921465139e+00 2.011307140359596346e+00 1.358422589358077914e+01
-4.043145533924553447e+00 -9.825152905284744165e-01 1.275012081613392922e+01
-3.195950885551505916e-02 -8.161264535493041317e-01 1.389714548146234563e+01
-3.163582971353062323e+00 -4.574837260337496048e+00 1.561074828047994600e+01
-1.091099271543298777e+00 7.272922431359970519e-01 1.606198981884903532e+01
-4.277593535429256022e+00 -9.903963982834407265e-01 1.292675819005607707e+01
-3.112315641902068108e+00 2.860247116271533052e+00 1.410414579773842547e+01
-4.752697003149657817e+00 6.265834309378465194e-01 1.322782872145136679e+01
-1.651610124118257472e+00 -1.206781777002960521e+00 1.348487579916366030e+01
-1.865780439597770624e+00 -1.372601918550659272e+00 1.349309405572607545e+01
-1.253556594956532599e+00 -1.804507766408682823e+00 1.404964948938107483e+01
-3.123715851283458633e+00 -1.768349423076868820e+00 1.642273335888749841e+01
-2.646502807469008900e+00 -2.218503282804772159e+00 1.654561652859398180e+01
-2.064041631027479173e+00 2.650406294035191124e+00 1.296327406709325203e+01
-2.648714953779767622e+00 -9.531468682938368797e-01 1.277426562031186563e+01
-2.456619754496593533e+00 -1.028046529595511238e+00 1.290979090243837391e+01
-4.765648632224483094e+00 -1.429045544636771803e+00 1.448372079277861246e+01
1.514492797675442287e-02 -2.612649159759011575e+00 1.597894679448278055e+01
-3.449090453326294714e+00 -9.583390099974472554e-01 1.256181524888710044e+01
-3.684653357977082155e+00 -1.074456911277898996e+00 1.263516373498210044e+01
-1.057561398337955927e+00 -7.573195850482343783e-01 1.700903367712039227e+01
-3.230001850345495917e+00 -1.810967287288923089e+00 1.636954021075511179e+01
-2.695184916500411809e+00 -7.338223804585704002e-01 1.257137348330553550e+01
-4.819791224021119924e-01 2.159118198631087004e-01 1.292166149245361595e+01
-7.841693424611352325e-01 -3.296395797056327126e+00 1.477678727475917952e+01
-4.571607282146567641e+00 -1.263055603660251824e+00 1.560963767162692761e+01
-4.790350346232497003e+00 -1.852298508565324298e+00 1.489165286235904517e+01
-3.401934819240020058e+00 -1.860322166415661727e+00 1.627946916649825226e+01
-9.375788868292239675e-01 -2.902977752590259808e+00 1.459706320037044947e+01
-4.791771448920121301e+00 -1.036015774918306764e+00 1.511800571037863961e+01
-5.571265313667445040e-01 -1.493244115729312815e+00 1.422191639328070067e+01
-1.040093253047020161e+00 -1.370660107202337663e+00 1.393461164162717836e+01
-6.158874134271794532e-01 7.997272488192878059e-01 1.316456897649403146e+01
-4.800334333835559519e+00 -1.222143131277857675e+00 1.485635377653486700e+01
-1.254645702696340070e-01 -1.173986664984537853e+00 1.634947308754363604e+01
-4.755101452678363927e+00 7.170061016243333141e-01 1.493135603544840961e+01
2.062442023047682954e-02 -2.659133841562527856e+00 1.481270625484064141e+01
-2.570300348447887906e+00 -1.491782436563255043e+00 1.320160305945613288e+01
-5.043687948322810310e-01 -4.747956430087769242e+00 1.579267581208613791e+01
-8.250374017557893236e-01 -8.652400933085429013e-01 1.693949300608863240e+01
-1.008610591287610436e+00 -6.391512839677782054e-01 1.696524672949303181e+01
-1.955265104204459981e-01 -4.382419999035823133e-01 1.574598184965151404e+01
-1.018819528265288099e+00 5.825907097178778526e-01 1.207608473748733502e+01
-4.698937720916440242e+00 -8.341188260389358344e-01 1.369569737550934718e+01
-3.567132216547356460e+00 1.047695844094531203e+00 1.202680838004098973e+01
-4.457692179472610761e+00 3.464601568720290237e-01 1.574233864298662411e+01
-2.316002855077966771e+00 1.004052643489340646e+00 1.126258249019220870e+01
-2.834955634915997003e+00 -2.698186458817852240e-01 1.674951016885219701e+01
-2.483777023241149073e-01 3.911192031211246922e-01 1.309465152811716138e+01
-2.214850360954487840e+00 1.047585088269873399e+00 1.122980728549389795e+01
-5.790979162097795174e-03 -3.345581853606971467e-02 1.528655409278046307e+01
-1.151377861175312267e+00 6.054461358619421807e-01 1.555855742990308954e+01
-2.658652595558346210e+00 2.829388368794971687e+00 1.374947734109862552e+01
-2.699657685756257752e+00 -2.439666380772431697e-01 1.679595465221241568e+01
-3.088127475691159418e+00 -3.608593610641754434e+00 1.371188387043438439e+01
-6.684944884673951204e-01 -8.512832744257980977e-01 1.605911643450986048e+01
-3.139932913703702422e+00 -6.960196628937420638e-02 1.664098401612390887e+01
-2.073904403024239951e+00 8.059846927351485002e-01 1.136338957464621302e+01
-7.482229580708585903e-01 -6.151192481013928459e-01 1.577270449556039722e+01
-4.798003741350282070e+00 7.709840435669900183e-01 1.455023066251685293e+01
-1.087367785252563390e+00 6.404946706239315057e-01 1.195107229348364797e+01
-2.786867357077280061e-01 -4.547970531266690708e-01 1.583498031827208052e+01
-1.178901632180948122e-01 -5.964042338973341018e-02 1.560176189053272822e+01
-2.851620542122823565e+00 1.018083839301482829e+00 1.147911342627920561e+01
-1.360569902137623188e+00 9.237360666468724668e-01 1.145868843766345435e+01
-1.894697374972348802e+00 -4.709583149207552388e-01 1.699359589447152530e+01
-1.978385106262669224e-01 7.972862104646606385e-01 1.495542556625361641e+01
-2.988140909544258150e+00 8.318535119644464570e-01 1.161694598854068516e+01
-1.047732424735207557e+00 5.512425272379718466e-01 1.607097051082014616e+01
-2.350725380737087589e-01 -2.631377749521553344e+00 1.463793361476279387e+01
-2.524273561991517312e+00 7.407896267758623532e-01 1.144521825057235986e+01
-1.024380244508699578e+00 7.808379955634402458e-01 1.185292970883999430e+01
-4.774957302841569273e+00 9.531180764628882640e-01 1.296017949713974815e+01
-4.666974574385928110e-01 -1.408292417949130737e-02 1.313447530924734252e+01
-2.845849447114736641e+00 -3.016812927555340806e+00 1.368933376053031026e+01
-1.682013820774308943e+00 1.091240123164890274e+00 1.122238653111030970e+01
-1.356919839690633900e+00 1.279363244009278144e+00 1.122434424542710474e+01
-1.486173966018132342e+00 1.241242683767027621e+00 1.119610368070472362e+01
-3.456137682085163476e+00 -4.665370938405568602e-01 1.650348004881080044e+01
-2.500582414610408311e+00 2.679511811926654552e+00 1.327930994211127569e+01
-3.413766414652855019e+00 -4.557369275666611763e-02 1.653521405720726989e+01
-8.784701707924380543e-02 -3.534844278186743960e-02 1.547691784204118193e+01
-7.178261191836596833e-01 2.103451971817341892e+00 1.507691818853957955e+01
-1.233077577665138591e+00 -2.723160359389443230e-01 1.695454659910400608e+01
-1.343387435136411900e+00 -3.691637541472049255e-01 1.700060251943916256e+01
-4.161556511245976253e+00 3.275166616234833628e-01 1.606389779522558570e+01
-7.722215807575762980e-01 -4.360235272355470482e-01 1.676016645364644830e+01
-4.302778174943796330e+00 1.221792226508014334e+00 1.275108309079747215e+01
-5.666112021502982543e-01 -8.408282069121337798e-01 1.674773778393679180e+01
-4.477433454316301464e+00 -2.421015032747370066e-01 1.578151687996707153e+01
-3.889376789021656400e+00 8.018549737956764956e-01 1.232148233490779177e+01
-4.392846127462521011e+00 -4.624054284537415960e+00 1.391341627430429639e+01
-3.638767817331281407e+00 -3.056919045722211070e+00 1.590756990666638160e+01
-2.037671496706059848e+00 2.135664644617913943e-01 1.187119256427460812e+01
-1.905045371327642512e+00 -4.553197053438071684e+00 1.612858955365023661e+01
-2.251573072423805666e+00 1.854421835962101195e-01 1.184864207977082629e+01
-2.027827810325272040e+00 -6.029448652582247714e-01 1.269697391231460415e+01
-1.698322887043223206e+00 -1.137500691098808359e-01 1.236415865116330082e+01
-1.633658103343245793e+00 8.637403698057422030e-02 1.218341966684494793e+01
-8.604791723327350761e-01 -3.281083721050894186e-01 1.316127333495720109e+01
-4.300473217093232492e+00 -3.688664926723574045e+00 1.535016636041504512e+01
-4.591129998296408776e-01 -8.636548339091812965e-01 1.665142023138331240e+01
-1.417751284684836133e+00 -4.661270035434447401e+00 1.620372720987148796e+01
-4.637639929703487596e+00 7.540064007217209818e-01 1.534512588921425902e+01
-2.840706264472178666e-01 -2.828418072182611875e-01 1.364873004880706020e+01
-5.296616776921032610e-01 -5.326708038650689314e-01 1.356565106573913226e+01
1.077983896679429177e-01 -2.670058350257338287e+00 1.542981516815127208e+01
-6.192371629268477173e-01 -4.592410875909244128e-01 1.344036913758645824e+01
4.882853341162047833e-01 -3.807202132761122293e+00 1.611813697743570373e+01
-1.017088825030258992e+00 9.517445123524647110e-01 1.595696202363048144e+01
1.804477546615071981e-01 -8.410543956966886059e-01 1.551797792850970836e+01
-3.617810090633958309e-01 -2.476149976319509172e+00 1.456691552815967583e+01
-4.099812506307317861e+00 8.165866107140712371e-01 1.248606586068191149e+01
-9.974229543678502230e-01 -4.701623878965591530e+00 1.533392689882357018e+01
-3.583169690816412789e+00 -2.646843739142613838e+00 1.299285972151538715e+01
-2.457850944266745774e+00 3.889478995613991907e-01 1.165994749807278197e+01
-3.981018004850837677e+00 -4.542101472035952048e-01 1.623807934314366008e+01
-1.031553026275102924e+00 -3.663108945795611859e+00 1.680519242442574779e+01
-1.564396725429075818e-01 -1.021835890935160140e+00 1.631930942216689573e+01
-6.451468292589316311e-01 -3.764318575573576409e-01 1.334220797535508041e+01
-4.225203687815405118e+00 2.515428448052797084e+00 1.479712356133887141e+01
-3.709979292449630539e-01 -1.844568293467899744e-01 1.353420684802352270e+01
-6.238794136163169357e-01 1.433142721323905633e-01 1.284414895950080648e+01
-4.160852812905362796e+00 -4.974713181633058312e+00 1.500009608955886620e+01
-3.974167050140707147e+00 2.884603269860483987e+00 1.501398172780768192e+01
-6.833479270185285337e-01 -6.256867381667252648e-02 1.300790873477716048e+01
-8.690123569180331353e-01 8.883315106974676301e-02 1.272588118282070724e+01
-2.935409164976156227e+00 8.631051045292895685e-01 1.663320882030495795e+01
-6.567823710007453242e-01 -1.882372660617523952e-01 1.315340881941049389e+01
-2.070295937319425850e+00 -1.997797054128829242e+00 1.373385246852890162e+01
-1.046993318606991741e+00 -9.218165752832325754e-01 1.703284316073951032e+01
-3.927927853913143252e+00 -1.245092546238519837e-01 1.627889784987458910e+01
-3.219575772183439266e+00 2.316831599706129285e+00 1.282389607294644662e+01
-4.166063248778460348e+00 1.118483025052507962e-01 1.608098049128967233e+01
-1.212817866226380881e+00 1.782410522576275635e+00 1.396766745855820346e+01
-4.294886649838590031e+00 -4.887549812623570578e-02 1.596933899337934548e+01
-3.149935418009192301e+00 -3.178843352692730662e-01 1.663454498281483751e+01
-2.375712338041159888e-01 -1.658587765298312533e+00 1.603919399311202909e+01
-3.300826373561060123e+00 -2.043679171848648002e-01 1.657912205631689062e+01
-1.641130991608369172e+00 -2.675339813073846607e+00 1.420935872963113411e+01
-6.333866295908026078e-01 -2.258901533582633459e-01 1.470569443537647203e+01
-1.146845814165476041e+00 1.144254431034974928e+00 1.639836831978099241e+01
-1.211748542816389662e+00 -4.806119810259820824e+00 1.601215827272152836e+01
-3.044229268205847827e+00 -9.464443461468429186e-01 1.659854092906052614e+01
7.931332521177365813e-02 -2.118888410368138242e+00 1.482443985682350274e+01
-1.017108299866066989e+00 -4.790911127034751971e+00 1.603597242470834061e+01
-2.417592934598583820e+00 3.407879672307787988e+00 1.617398985656580379e+01
-1.921360671367210227e+00 3.287846717519169459e+00 1.610037667176388965e+01
-3.262354986948414748e+00 3.351450942815457079e+00 1.615845355816490070e+01
-1.781722050127354517e-01 -2.079477913871947248e+00 1.456685659442568692e+01
-1.237777021559616664e+00 2.025018468295469276e+00 1.193743536311485087e+01
-2.786684720522195402e+00 3.486138634447735196e+00 1.628867089384019096e+01
-4.024744446167010992e+00 3.105060389089343786e+00 1.559558337742578260e+01
-3.894402019289258998e+00 3.226210772069578958e+00 1.571428087667058549e+01
-3.813751107763013959e+00 3.290181702544269005e+00 1.580175819502123602e+01
-4.734236167627825509e+00 -3.817529062123752315e+00 1.415291670741171970e+01
-1.104628653494518886e+00 2.144321846584889890e+00 1.255231241512762352e+01
-4.594755981224059482e+00 -3.811054343494512775e+00 1.386524070816857090e+01
-6.080205385703617571e-01 -2.048918044171216035e+00 1.440685635473326442e+01
-4.720716312003723658e+00 -3.604058402726065591e+00 1.402602135135547456e+01
-4.382898444323497955e+00 -4.227172596323907072e+00 1.370594293737754299e+01
-3.835823920626909800e+00 -3.660081387359496397e+00 1.562988983604213900e+01
-1.417922688860911995e+00 2.118336140594158756e+00 1.590698740389834143e+01
-4.616256736227695612e+00 7.925385317236691707e-01 1.282537171597933678e+01
-1.229799888129611718e+00 -1.072385621604627914e+00 1.706171696299278295e+01
-4.629534055237437329e+00 1.132703121188949780e+00 1.302443411025663522e+01
-4.716865273790221025e+00 -6.610022202815407644e-01 1.539711485203564933e+01
-4.241146417293848003e+00 1.006240759560345754e+00 1.261756717708656339e+01
-4.550161935929624590e+00 1.490677752305334947e-01 1.302432497938875855e+01
-2.809039560051151074e+00 -4.409137484358383041e+00 1.428337321531678583e+01
2.394876672015850416e-01 -4.053094856679801516e+00 1.648478553505993460e+01
-1.354386614514132781e+00 1.396412307300409772e+00 1.517828073757081597e+01
-9.580256537417866092e-01 -3.322299107770832372e+00 1.476112180448226496e+01
-6.002100361260016559e-01 -3.475542251371306790e+00 1.692480821551171033e+01
-1.538877929315840554e+00 1.851893801129485873e+00 1.523521865676521259e+01
-3.096135592483334475e-02 -3.634948651661436880e+00 1.679028589856704201e+01
-3.563167250241488393e+00 -4.833677112229118222e+00 1.534336397579188116e+01
