-4.773822086515009389e+00 -8.637076543987185495e-01 1.771041328106733914e+01
-1.360828696564894358e+00 1.119050411121693234e+00 1.798454399044210561e+01
-6.492562539275462008e+00 -1.673823124892181768e+00 1.321000340731828260e+01
-1.955157359454014809e+00 3.044728972642964049e+00 1.580245481699962795e+01
-6.758126018817377512e-01 -3.381423047254527581e-01 1.433188934396489600e+01
-6.024268249526344654e+00 4.263367164508637508e+00 1.578587168344800773e+01
-5.683854891107245955e+00 -1.290062126571351442e+00 1.337994978153295733e+01
-7.631069785056152632e+00 -6.828665872629313682e-01 1.331289241736597262e+01
-5.959675371935944987e+00 4.352733796756537821e+00 1.559359665601828482e+01
-3.147093141509452519e+00 2.094651644392747425e+00 1.799331735507293217e+01
-6.923865044628711551e+00 2.943897510316863197e+00 1.508440294657051339e+01
-1.437317294100917353e+00 2.768453735126833237e+00 1.620719562909661704e+01
-5.638527075344166306e+00 -3.894797077539482899e+00 1.651682064945282491e+01
-2.555881096463916258e+00 1.294860301236966382e+00 1.305493806085841157e+01
-5.624442352202686735e+00 -3.908032097787345727e+00 1.672707881712103983e+01
-7.653755491238265485e-01 -4.458718469443858079e-01 1.793729890538931926e+01
-3.237501887276473145e+00 -1.722768033235656082e+00 1.539919268354031345e+01
-2.491065248356036488e+00 -1.282024376047212755e-01 1.374437784775806648e+01
-6.677286256483103699e+00 1.159347805022617584e+00 1.344148849229400611e+01
-1.824461126812361167e+00 2.505460541951886277e+00 1.756556556041893202e+01
-1.148360443366933215e+00 1.127011771486702063e+00 1.777380696732183907e+01
-6.845665206589186091e+00 3.054089456609193842e+00 1.599131981876369224e+01
-4.235907439653409767e+00 4.247886854932158229e+00 1.512341703397126480e+01
-1.522536131776547119e+00 1.724241794144356632e+00 1.783213719650640172e+01
-2.507525721785883288e+00 3.529211945652135918e-02 1.351591386651826099e+01
-4.561960974889482934e+00 -3.833125632815020722e+00 1.759830407156167809e+01
-1.946471475446549082e+00 7.060435595051781643e-01 1.839252442489416950e+01
-6.415636742043088425e+00 3.846957077484773446e+00 1.580932577391919835e+01
-5.927557126099712193e+00 3.485474798373710548e-01 1.241352076416645644e+01
-6.243570954486444613e+00 3.804983860601532264e+00 1.601879316360290773e+01
-2.587259276053718082e+00 8.991471675491242710e-01 1.835150617280062590e+01
-2.973059535235917927e+00 1.109885119232078665e+00 1.823725373065376232e+01
-6.623824683346499320e+00 1.628264111954734528e+00 1.690389728640182909e+01
-9.735266915224847217e-01 -2.854598024792056044e-01 1.810888711961447228e+01
-6.344771691069394315e+00 3.996656147355620803e+00 1.565181421906484616e+01
-7.904598288194587319e+00 -1.343098358544983828e+00 1.654830932321122106e+01
-3.955098978820854150e+00 3.335251632775450004e-01 1.788012604557478369e+01
-6.117682859127895334e+00 -1.672338491564583363e+00 1.750422999578723449e+01
-6.252973023075306003e+00 4.043791147744260073e+00 1.560026910009931100e+01
-7.852901472971621999e+00 -2.996941164840675409e+00 1.655212988613022418e+01
-7.748460920331321056e+00 -2.942602816817314615e+00 1.671955469997104160e+01
-6.378097692718899481e+00 2.782576709064279452e+00 1.657221375852487455e+01
-3.200317503549090059e+00 -4.234062815670007751e+00 1.745265416860663521e+01
-7.407320584473170655e+00 -3.387346220165264210e+00 1.692326308909772337e+01
-1.789230746305348951e+00 1.056433564983900730e-01 1.846857034567057099e+01
-7.471642501980385376e+00 -2.428949971905880467e+00 1.707701843424364796e+01
-7.314779149283584525e-01 9.534539995537116841e-01 1.737043101949387136e+01
-2.429706250726355599e+00 -2.832511447696652418e+00 1.621868275149581251e+01
-3.380586730868640366e+00 3.925013750428296144e-01 1.244938712392461611e+01
-2.777289798988967995e+00 1.311354019703353524e+00 1.826335923070465128e+01
-5.282055028063043167e+00 -3.712775450841746760e+00 1.595141567141217109e+01
-2.173916728183038494e+00 3.757854032526917187e+00 1.706381603573488093e+01
-7.769221401700984408e+00 -2.413464799376415115e+00 1.679040615126804425e+01
-6.860491615696051149e+00 -3.656084663893179432e+00 1.589918641787051712e+01
-5.354799639321818461e+00 -2.043545000732042816e+00 1.762531232939193870e+01
-8.052742220251680294e+00 -5.117231102285442201e-01 1.490614479975309337e+01
-2.832949183483757682e+00 -3.840309748312187743e+00 1.663998637823022619e+01
-4.833595018899067952e+00 4.242204896111557488e+00 1.518642420176247043e+01
-5.415227882083647692e+00 -3.041862612764102636e+00 1.756071923014103220e+01
-1.840322515501484180e+00 -2.002130203168603462e+00 1.586154112569532515e+01
-3.486342008581759799e+00 3.858024986827947700e+00 1.722224994723295310e+01
-6.408146179152353739e+00 2.638127068867353042e+00 1.662152389664823460e+01
5.411336582612458201e-02 5.917554075609525732e-01 1.610107655423735906e+01
-4.989169847719611139e-01 -2.013216562438284174e-01 1.756329094364520671e+01
-3.638481122786765276e+00 -6.984807192512230145e-01 1.804472241733171956e+01
-2.366926243176592948e+00 3.979519178928299983e+00 1.645016061269162577e+01
-5.036247457331038291e+00 -9.686580930736556905e-01 1.382168576449623032e+01
-3.558339612588259371e+00 -1.252770459510121004e+00 1.810116192574957239e+01
-3.716714476170640769e+00 -1.489665495338124979e+00 1.805946261762063187e+01
-1.446705532671886729e+00 -3.585445576277225488e+00 1.687340017741426124e+01
-3.676644841963252031e+00 -5.663308589188804643e-01 1.419275906558183209e+01
-6.231261694758337022e+00 3.607124881726860632e+00 1.617087432762921395e+01
-4.177569506184639181e+00 1.744486862184001286e+00 1.766652651850463940e+01
-5.231034009389381900e+00 -3.120305958571016003e+00 1.560305704186242792e+01
-6.769361549905492659e+00 3.238672346717787587e+00 1.596306489296351572e+01
-7.213590219441639917e+00 2.062599568247817761e+00 1.457985029341375594e+01
-6.898057690951072018e+00 2.904141096532670829e+00 1.602874977350449370e+01
-7.087914150179805084e+00 1.466979196705940680e+00 1.661006585410944325e+01
-2.897675245297373081e+00 -2.566152691935924768e+00 1.594764058018039776e+01
-2.401407987683314538e+00 3.406553757487903233e+00 1.564391577007564393e+01
-3.757681071783397719e+00 2.545369747177713027e+00 1.764566758773423771e+01
-3.256770179978766944e+00 -2.616112654152934702e+00 1.585111431167260321e+01
-5.513206025092260099e+00 -2.379287692001868848e+00 1.501416494288138637e+01
-3.266628727544913069e+00 -2.983325615411001941e+00 1.601074609380216884e+01
-3.444539329320208676e+00 -2.810414848012651401e+00 1.587719912119644050e+01
-4.731688582164746748e+00 -5.595513454287683874e-01 1.319094859312017576e+01
-2.660980325279759029e+00 -3.018742498338187641e+00 1.622137420005662278e+01
-8.049400990857641602e+00 4.865900356699982554e-01 1.512876612863179560e+01
-5.805716106901180673e+00 1.796899257309031883e+00 1.710923643075120992e+01
-7.743754842558785434e+00 8.035890126954938761e-01 1.602248276158144336e+01
-2.796640753716616246e+00 3.709201063317344005e+00 1.735409988226522415e+01
-2.655400412975040592e+00 -3.209970527570683796e+00 1.629119270400479991e+01
-3.220140201618112208e+00 -3.463255530768846846e+00 1.617644959307042996e+01
-7.623829335468614410e+00 -1.999343866324447161e+00 1.697859767698792410e+01
-4.442905639666672180e+00 -3.577657982774197443e+00 1.593605562737538150e+01
-4.011954308306277639e+00 -3.630366699895038352e+00 1.606469375397357169e+01
-3.603392803387464483e+00 -2.656857396537021021e+00 1.802300885702603495e+01
-6.046203758774888470e+00 4.042375856451665861e+00 1.541399910110056481e+01
-8.697123052226565232e-01 7.454812199516455684e-02 1.388404963876303100e+01
-4.771812621445949532e+00 4.383599896130595752e+00 1.636718952144806849e+01
-6.668263771978488741e+00 2.084487949067245882e+00 1.415616297283637692e+01
-3.290041438742319357e-02 1.120429155222653961e+00 1.694791521525103661e+01
-2.217731803536199031e+00 -3.803403281318820994e+00 1.679353015112430825e+01
-6.591703055009449308e+00 9.561557855084881208e-01 1.712700596957404287e+01
-7.289227198493798632e+00 -3.187856048990503677e+00 1.705826889057235718e+01
-4.138223074489361331e+00 1.492125142920185388e-01 1.240161265700310622e+01
-5.659388888638434700e+00 -3.769438117804286392e+00 1.607472417132635201e+01
-3.109427583508117543e-01 2.445303206404492169e-02 1.452442314124497358e+01
-5.448419071564964966e+00 -3.833520779773085252e+00 1.625666997732182750e+01
-8.213846757254916753e+00 -2.174933010993326032e+00 1.520806720378418220e+01
-6.769683564429591627e+00 3.422332473130352604e+00 1.559466874094245270e+01
-1.167139435451979068e+00 -2.150304763644727668e+00 1.854351496432130375e+01
-4.980782844411198340e+00 4.352732807811078963e+00 1.629486140112761206e+01
-6.346307741460387675e+00 3.618277448441826194e-01 1.262629454535718310e+01
-7.002834244083533832e+00 7.889662123251182102e-01 1.696077421547570196e+01
-5.404859891421412321e+00 2.792156644873167171e+00 1.689850437249448589e+01
-2.468455116192193266e+00 -1.367972670782894307e+00 1.530355900899439803e+01
-1.845514375886624592e+00 3.161541213565541408e+00 1.608121364218870752e+01
-2.270550611074795277e+00 -1.156137998469106920e+00 1.515845801158696560e+01
-2.465761095941183534e+00 -1.171681095034071252e+00 1.514326309460490450e+01
-2.494721386970195631e+00 -1.068301934614533932e+00 1.505507311946798410e+01
-5.357809216973692834e+00 7.201025953490949316e-01 1.737366123628006420e+01
-7.276522343203550847e+00 2.279426632120544305e+00 1.494405156693508729e+01
-5.797434247665425922e+00 -2.546451289334486501e-01 1.741714402386258342e+01
-4.230878674248089055e+00 -3.450670631395802435e+00 1.776501538454272833e+01
-6.204420052052719292e+00 -1.590614697283588619e+00 1.748631995161087360e+01
-6.593750744788239970e+00 -8.150186809108486141e-01 1.734021561539331202e+01
-7.286338245589254470e+00 -2.610156356551874279e-01 1.273478873929221322e+01
-7.636928652893587355e+00 -4.422991843686960300e-01 1.307263160934561341e+01
-6.993928454813473472e+00 1.631023297836549091e-01 1.711038952012366821e+01
-4.893055764514175010e+00 -2.585298911151131307e+00 1.537775194600637718e+01
-1.276824449437814035e+00 -1.398347121309035934e+00 1.513069473566384460e+01
-6.085616754254082217e+00 1.889843355942152581e+00 1.368997892774159908e+01
-2.422127817702964148e+00 -2.326385579689592475e+00 1.834632366591542052e+01
-1.476697963973081063e+00 -1.228181383561986806e+00 1.505811511035836503e+01
-4.725343294941095174e+00 6.124467000131630923e-02 1.217841617487133021e+01
-4.556149029119696436e+00 2.068980033568232346e-01 1.203176789980447126e+01
-4.936312349838078983e-01 1.858455405877990296e+00 1.661947430729615860e+01
-6.816275444485374813e+00 5.973403214746051404e-01 1.710823982547328370e+01
-5.709830493191708101e+00 -8.843169258027514523e-01 1.280265054761586896e+01
-4.537434086270440980e-01 -2.062644778571303128e+00 1.553509267627566715e+01
-2.034470682121165552e+00 3.192452262465473645e+00 1.587144884967605662e+01
-4.839817301715931386e+00 -2.686877141984034711e+00 1.770266831177108457e+01
-2.884266205989379550e+00 -1.006022705784549665e+00 1.492897554292369477e+01
-5.786096845224340868e+00 2.976389460917252094e+00 1.671644470813814820e+01
-4.145787199954039437e+00 2.583836146018775537e+00 1.745369916347719652e+01
-7.190555183476826429e+00 2.434735330310347390e+00 1.496950878419765019e+01
-7.881511548539051226e+00 2.731938597699380966e-01 1.409289878611474478e+01
-2.330017578264853562e-01 -2.151990038062796984e+00 1.569133505983807453e+01
-1.838061815269286026e+00 -9.329674768712410415e-01 1.489242056826787319e+01
-7.994399961291275503e+00 -2.768574827412377815e+00 1.636935395421554773e+01
-3.566882493980638724e-01 -1.633593033495901903e+00 1.789414047214506809e+01
-5.022779017463639306e+00 1.352321487304455339e+00 1.739030184622267683e+01
-2.903448382332996403e+00 1.516050885702333317e-01 1.828877253632579425e+01
-4.209100473865799996e-01 1.733963594247212026e+00 1.655820558559288713e+01
-6.642847963332875416e+00 -2.435710076023154702e+00 1.742841969486257625e+01
1.263809630215046997e-01 -1.606577254966797375e+00 1.627057072419864880e+01
-2.682249606845692469e+00 -5.994723466983657989e-01 1.454640456907330304e+01
-7.074049312661032651e+00 5.407041516635597844e-01 1.698287089648243864e+01
-7.165295852846171876e+00 5.784781790456015038e-01 1.690645145543557248e+01
-4.651451684900569816e+00 -3.417320523294805401e+00 1.583736770101372571e+01
-7.208130003724644297e-01 7.768219141902552582e-01 1.743231934054343668e+01
-3.870711382752340946e-01 3.157147392525909146e-01 1.733723566213038936e+01
-7.359484948402557070e-01 5.216687849155543510e-01 1.755169716645379907e+01
-7.546688049012220123e-01 9.070505377647422596e-02 1.396409965314854418e+01
-1.495243174052347968e+00 2.925082345844151721e+00 1.632632320573770102e+01
-1.489460721444958002e+00 -1.275110012296085116e-01 1.373004481453411074e+01
-1.257861202293176328e+00 -1.696658268369491407e-01 1.384167237157132035e+01
-2.440051439643737829e+00 -1.582854863324476780e+00 1.548057788184824091e+01
-6.020739739902589704e+00 -1.249393476808227099e+00 1.748680476297705866e+01
-1.824829554845647461e+00 -4.079934627570377947e-01 1.408854315307867466e+01
-2.743434370750855500e+00 8.739759517773912911e-01 1.242455182973458960e+01
-1.724165422192926789e+00 -6.560566224188517648e-01 1.445997445227619238e+01
-1.101347432137023352e+00 5.270837278840216911e-01 1.796975563716642910e+01
-1.858912686126635405e+00 -6.807591242003099286e-01 1.454709094946360892e+01
-5.219927544457585888e+00 -3.259126887555259700e+00 1.756656096133838929e+01
-2.114080219024894625e+00 -4.989111313578034612e-01 1.431471371601280396e+01
-3.517855555366313780e+00 4.305904284873737220e-01 1.227876057910788887e+01
-4.662005155313186044e+00 -9.852795288071807267e-01 1.418817706618279573e+01
-5.892220055781820509e-01 -2.687616313966256776e+00 1.823246759223768265e+01
-7.762768823881382119e+00 -8.727660661015337329e-01 1.363128764099540291e+01
-7.879464313695933697e+00 -1.577258514544004564e+00 1.663757027491475071e+01
-2.290850645672306118e+00 1.260793982151535708e-01 1.339336283579195452e+01
-7.669983608746369086e+00 -1.199968531882876333e+00 1.685213440462339918e+01
-4.097258422810659440e+00 -3.883807115806992449e+00 1.644047208201607901e+01
4.656602065773918220e-02 -1.247196855722874975e+00 1.646025129402135434e+01
-7.661181620164179584e+00 -5.054437894193177794e-01 1.326590323000924343e+01
-8.304019922475336379e-02 1.268166411718200770e+00 1.655109529209627084e+01
-5.132858813705251322e+00 -1.229290434665007314e+00 1.764654317822619589e+01
-4.988640362129824979e+00 -1.469296466542130419e+00 1.769788703920804096e+01
-6.126346537728302621e+00 -1.272226287427035585e+00 1.300247909735494289e+01
-8.078743652880486792e+00 -1.389363383986698341e+00 1.626828223325603062e+01
-5.400453059273924161e+00 -1.061079803140924538e+00 1.757842893712803800e+01
-5.612675908121176782e+00 -2.777994968723215941e+00 1.527274070908769232e+01
-3.189303304206022371e+00 -1.271468221236161877e+00 1.820914765084913967e+01
-4.965275998232041132e+00 3.594638887270084737e+00 1.672474129471685700e+01
-5.005112646169177282e+00 -1.627483330656571692e+00 1.769755666619401069e+01
-2.421192979872798468e+00 -3.024050171323357517e-01 1.842888960340722093e+01
-7.359199593680703977e+00 2.398972518943215615e+00 1.546180562327906927e+01
-3.146519272005112722e+00 3.375373718876196971e+00 1.753809202786976584e+01
-4.896288883830487215e+00 -1.317322211164924095e-01 1.235905889702532079e+01
-4.488986910941532571e-01 -1.060597695469986057e+00 1.781708825528338735e+01
-5.038083378530965994e+00 -1.944241171746194263e+00 1.489047344207417467e+01
-4.846499615305720710e+00 -3.301492818857636902e+00 1.576626272977367194e+01
-8.001952245176166656e+00 -1.894248988645580001e+00 1.449206953434147493e+01
-3.183850464297851346e+00 1.529421023602299590e+00 1.811432839192893596e+01
-8.116117045665399488e+00 -1.938049613769156077e+00 1.483969256182620455e+01
-6.201305662338524094e+00 -1.407848407259324031e+00 1.308351601826832677e+01
-9.251372511639065488e-01 9.667189315178128517e-01 1.758964069907531069e+01
-4.240501137828907474e+00 1.303929071724244659e+00 1.770343373936227493e+01
-5.881868355607688059e+00 -2.062008837542300466e+00 1.442229038687204223e+01
-4.131032703557219188e-01 5.207670994138963172e-01 1.728301297624495447e+01
-5.567687757828188033e+00 -5.949326960589544910e-01 1.749601576243442480e+01
-2.735778211521285863e-01 4.186496445375281761e-01 1.491238544983102088e+01
-3.001474916321269504e+00 2.549573663595273487e+00 1.400867318560070629e+01
-6.137533117648581893e+00 -7.180031355012808092e-01 1.257904568856091743e+01
-3.046843571544047613e+00 -3.174651892983939128e+00 1.614871809278377413e+01
-7.676569679547918135e+00 -3.647773097843956425e+00 1.615467410445143770e+01
-2.871439018480354211e+00 -1.430604479700149367e+00 1.527657434193450570e+01
-2.228587680127007253e+00 -5.892405484519716019e-01 1.448999375378915033e+01
-4.887829838810650251e+00 -1.725519960267356323e+00 1.478640947355950175e+01
-2.900172831654000305e+00 2.022468485859528986e+00 1.348858695614267589e+01
-6.779333743485010721e+00 7.890958127566098934e-01 1.709158996113392703e+01
-4.810426203866708939e+00 -6.620589672115126945e-01 1.767969727482439879e+01
-6.399330833887355574e+00 1.175672387531220275e+00 1.714097033354855881e+01
-7.493885046064290734e+00 8.815700722041808213e-01 1.639356935198466658e+01
-1.154458606105002172e+00 -1.278687587562488348e+00 1.848780059204120363e+01
-1.368628741598110876e+00 -1.311768575809737269e+00 1.856301536515123729e+01
-4.475990108933515010e+00 -5.827981684341250190e-01 1.355524846113272019e+01
-7.306406628542394532e-02 -1.069999018201649221e+00 1.708405480893527084e+01
-1.008602162142671510e+00 -1.478576164024717920e+00 1.843399640637780834e+01
-5.563038338243880609e+00 4.567718848321722369e+00 1.549274699097411201e+01
-2.472137658331574173e+00 -8.260733646239162287e-01 1.484788530015253372e+01
-7.240956788845696046e+00 1.215528420090409956e+00 1.656226584678417879e+01
-5.786760760836019202e+00 -1.786823364801585212e+00 1.755598049899583657e+01
-7.517364350345359547e+00 -2.924145956025646864e+00 1.455524942370571040e+01
-7.565688943661408317e+00 1.401389648747283889e+00 1.589850612144915942e+01
-3.860153259388605207e+00 -9.601680543055206574e-01 1.459349191562613157e+01
-5.809477578663973851e+00 -3.212565495364561485e+00 1.748146180584133447e+01
-1.155826866265502018e+00 1.938846083798909437e+00 1.735467133878790946e+01
-4.023449464672465226e+00 -2.847057646474239867e+00 1.790360204932454025e+01
-7.009102195467203700e+00 3.056673190513611083e+00 1.555988748428404733e+01
-5.503111042134396058e+00 7.444796899977723648e-01 1.248702926211354480e+01
-1.360241456205458110e+00 2.591354010690522625e+00 1.717495777287971492e+01
-4.551733477525292670e+00 -1.869699808326261037e+00 1.502906329475690939e+01
-5.565752368638421821e+00 4.753715614492516117e+00 1.564434801165218403e+01
-1.107693218081768904e+00 -9.803025887715305364e-02 1.817994718279116029e+01
-1.183911866581892403e+00 2.331689972333834682e+00 1.716973941112009072e+01
-6.584612184084525310e+00 3.646660545010445453e+00 1.557372151782281122e+01
-4.311059002969352960e+00 1.780894174591101664e-01 1.221760190793492029e+01
-4.941749594689422764e+00 3.430264730307710508e-01 1.198587186737270116e+01
-1.208023125467855952e+00 -1.528228827716324068e+00 1.854505129648691764e+01
-6.220554786988328644e+00 3.204595853698222641e+00 1.643731802096264971e+01
1.016395198955137857e-01 -4.071912362018072495e-01 1.567104703351865425e+01
-3.415227373460545834e+00 3.809940604475340553e+00 1.509138533714330777e+01
5.358675765697529236e-02 -8.049495356392410983e-01 1.563931039834658776e+01
-4.212359777502530100e+00 -1.873000821651198633e+00 1.791249504308383678e+01
-2.012697763420656649e+00 -3.938429284858196766e+00 1.786934738125584232e+01
-5.349703385574492209e+00 -2.355812270055597790e-01 1.225155514938722945e+01
-7.421215459231596867e+00 1.197347207268434577e+00 1.631067529229678570e+01
-2.704890195577590584e-01 -9.293663161830574282e-01 1.757909475324762383e+01
-6.336287115410025095e+00 5.801960570354749436e-01 1.723369282420783577e+01
-5.389788877360068398e+00 -2.631880218881935463e+00 1.759801153861719314e+01
-2.508972830865641157e-01 -1.306726921420483745e+00 1.764733185310118557e+01
-7.003683788328894266e+00 -6.271995687957232501e-01 1.721699008740063164e+01
-4.615805748863353486e+00 -1.989651210511585999e+00 1.508783998129791826e+01
-6.375466833845796266e+00 -7.001178322054364411e-01 1.256847485735411141e+01
-5.976147548716589597e+00 -3.494601048827132850e+00 1.559081484500126891e+01
-6.214167498094239406e+00 -3.883949522333226767e+00 1.718234172047105801e+01
-1.019198260582972582e+00 -1.338465793246676583e+00 1.841505144461805799e+01
-1.316731676923511785e+00 3.294626430008729678e-01 1.821379868551123593e+01
-6.079756731496527067e+00 -3.313824480119094140e+00 1.742181199942154990e+01
-2.950401096988904737e+00 2.401586970068834148e+00 1.794950703502318134e+01
-5.723181644969334236e+00 -4.709467681829759278e-01 1.239191426904570648e+01
-5.534731287020931312e+00 2.562667021938645817e+00 1.403479284638406455e+01
-6.856775546126871568e+00 -2.702682310918116948e-01 1.253702121859540597e+01
-2.189324988247873804e-01 -1.929610495458129238e+00 1.775984402757397618e+01
-5.048135502052799595e+00 -3.769417604458915605e+00 1.607153201718464430e+01
-2.663171224013053395e-01 -1.688144289185118607e+00 1.777983295068843006e+01
-5.203837160063261358e+00 9.631833799547517838e-01 1.738184409297426924e+01
-1.242099105119293556e+00 8.279909846115021677e-02 1.823071249518854131e+01
-5.630213260477569648e+00 -1.839572890280634310e+00 1.758054147794023692e+01
-5.545312645636514048e+00 -1.278246417404581337e+00 1.361523076248752062e+01
-5.800416902891906146e-01 -2.284203327482985380e+00 1.821548867486136203e+01
-5.767597662758325860e-01 -3.011640117789459725e-01 1.767911503739175316e+01
-3.638241648703019138e+00 -2.315954360753248675e+00 1.558669639685135877e+01
8.351428040919595119e-03 9.452246401896382544e-01 1.706673915127651497e+01
-2.006154559715644936e+00 1.330816660282198249e+00 1.373055993869844826e+01
-4.151312139768608134e-01 1.127228279333949423e+00 1.707118734815571059e+01
-5.410202920416674388e+00 -2.251318387174447544e+00 1.761143194750246010e+01
-7.419795029295861433e-02 -4.602165579690588593e-01 1.704922231243999420e+01
-5.167680740428972186e+00 2.379045294614094974e+00 1.709609347453747574e+01
-3.988064401921683544e+00 4.613522358694246428e+00 1.655631202976132954e+01
-1.493712872482156895e-01 -8.841913617276460080e-01 1.729777453988230462e+01
-6.484131204504543611e+00 -2.245638189122809880e+00 1.747047211649744014e+01
-5.138527012732481580e+00 -9.490256063629620709e-02 1.217745469560663452e+01
-8.205549014000568242e-02 -8.557553354840565785e-01 1.711205473359374452e+01
-3.069401583680361201e-01 6.077447829228945775e-01 1.721896114004631073e+01
-8.081178726451900829e+00 -9.808679271901308283e-01 1.614126331088753119e+01
1.068233401780775971e-01 -1.387004609341919714e+00 1.610317569227353829e+01
-1.256220395664420231e-01 -1.818711708504655578e+00 1.750366180141848105e+01
-4.821398605818223437e+00 4.416741938359435515e+00 1.531210180967720191e+01
-1.285041668181200469e-01 -1.500256140430563656e+00 1.745734125070593024e+01
-8.102675159924714876e+00 -2.606539155924529894e+00 1.544668229751661670e+01
-7.269607472583745622e-01 -1.120377234008304246e+00 1.495260822057122141e+01
-8.088759468902855687e+00 -2.731411730588630959e+00 1.561143950471016240e+01
-7.879963602097245889e+00 -1.507631035774400496e+00 1.405751221081187197e+01
-8.129798396624547507e+00 -3.470729719868195784e-01 1.548870977606582500e+01
-1.007177035450510516e+00 -9.142948005944473433e-02 1.808364676934650106e+01
-1.230436952996567301e+00 5.118402421831118598e-01 1.809588575431292412e+01
-2.986578045157017414e+00 3.982855328832868747e+00 1.719178328717345039e+01
-6.782539102388722263e+00 3.401720797639093963e+00 1.578438025799276545e+01
-6.972746032059612631e+00 3.042057863797153150e+00 1.579650225333781322e+01
-7.296353192821778855e+00 2.470231132045051847e+00 1.556804205392876383e+01
-6.080457788117018758e+00 2.816893145617852312e+00 1.440766142064901345e+01
-6.200037352485229469e+00 -3.451260715548813973e+00 1.737546554184196879e+01
-9.898269423507181086e-01 3.031763212488903791e-01 1.792386793690749869e+01
-5.065814094800691336e+00 1.059267864022609640e+00 1.252894073248727835e+01
-8.250349109850784179e-01 -1.202179955291557967e-01 1.789173225650893784e+01
-1.521894771155468895e+00 2.530492202242265343e+00 1.729626783945806068e+01
-6.317704162017501623e+00 -1.766195844579219854e+00 1.333927970026696386e+01
-6.348844998387553673e+00 3.450110014766069599e-01 1.725584778920033813e+01
-9.682679881172181480e-01 -1.919149261435416642e+00 1.847738146370180345e+01
-3.945069313312574710e+00 -6.656620045556045362e-01 1.420672578763909399e+01
1.184434011668609177e-01 -1.667390119120794045e+00 1.642589620487466107e+01
-2.998096666446253167e+00 -4.042334692149762709e+00 1.778987974243779036e+01
-2.192134071705274856e+00 -3.329309072147847104e+00 1.819624475671987085e+01
9.126028234419369944e-02 -1.262390158749061575e+00 1.602848877645632086e+01
-2.187350666224582962e+00 -3.662785975283890938e+00 1.808495033937239782e+01
-5.049875514054048331e+00 -1.536227501931705541e+00 1.455931785992035543e+01
-2.572415935253645092e+00 3.515143719024791391e+00 1.741064768264302387e+01
-1.745205743545672483e+00 3.207435317360358695e-01 1.842788163592911843e+01
-5.237547406337360378e+00 3.793159108196049623e+00 1.494724573910065146e+01
-4.437731189363489648e+00 -1.366741674410655749e+00 1.469731183199072433e+01
-1.288764880346053854e+00 1.263268284983756651e+00 1.786114108690904345e+01
-1.632224463117582403e+00 2.925259222908866086e+00 1.716214770354355323e+01
-1.333052450447814952e+00 -2.806843011672806587e-01 1.838140289636985614e+01
-2.289697970619326561e+00 4.018785923745389788e+00 1.692445278804252951e+01
-6.100982657336087911e+00 -2.531853890608523283e+00 1.472760712003117334e+01
-5.431422467623810313e+00 -3.005095112481869890e+00 1.549411235906026718e+01
-4.466975189735457263e+00 -2.173786793827500841e+00 1.525202344527093601e+01
-5.492370253257032431e+00 -1.514601247184780952e+00 1.419714516691669814e+01
-5.547313130106090284e+00 -1.462244660526666795e+00 1.400627535902116705e+01
-5.159413893520815364e+00 -1.442583031447692621e+00 1.441974834504129177e+01
8.303507735518511623e-02 5.314961317459546697e-01 1.693648760094083627e+01
-4.873189117065173548e+00 -1.396207882865719396e+00 1.452055426168962526e+01
-4.191513933215287757e+00 1.503539705082624356e-01 1.779517469978623012e+01
-5.599066913216701025e+00 -2.430325368054030211e+00 1.757786678767805455e+01
-2.462995355515912532e+00 -7.359078203172959576e-01 1.474343202221859883e+01
-7.047163216532315033e+00 -3.643834933146468114e+00 1.588481318269792553e+01
-2.085909538367801019e+00 -4.122157929708482604e-01 1.414856632719097007e+01
-6.009819451825936021e+00 3.414830380676808552e+00 1.642162136429475794e+01
-4.384382447376135694e+00 -1.034203483230033971e+00 1.783848189178736021e+01
-7.707337515518427828e+00 9.120219575784351829e-01 1.601252447743027574e+01
-6.485787207684210465e+00 3.248907648760126055e+00 1.493466431008442186e+01
-3.733748589304878074e+00 7.055091807781561641e-01 1.796632696436252985e+01
-8.031228708458238330e+00 1.053200904648084579e+00 1.510927678192510371e+01
-1.332136440297789104e+00 2.793210043500155670e+00 1.644314802680578680e+01
-3.315434845585671031e+00 8.777002308672530173e-01 1.813928851313913526e+01
-6.184217291552876361e+00 5.630812688389287279e-01 1.726128107196270633e+01
-4.267103736500549971e+00 8.968043785542318957e-01 1.772278890950053665e+01
-3.564724647079251962e+00 3.450553064716838092e-01 1.804460076389405998e+01
-3.956805860011846754e+00 -9.189885321678764596e-02 1.789773990160331607e+01
-2.751726985397676017e+00 -6.843048968515603736e-01 1.833206027104281333e+01
-3.452044858583412701e+00 3.764853987492289833e-01 1.808912267568551613e+01
-4.359663749091870599e+00 -6.903363245450183650e-02 1.774820647206899338e+01
-5.662139688225275691e+00 -1.357038119076703797e+00 1.354211530526553986e+01
-4.199191711507613611e+00 -4.347463781764612789e-01 1.783849025798884469e+01
-5.164595142140840700e+00 -1.078961684448803693e-02 1.750473736519781909e+01
-2.046488422819753961e+00 -1.807136257226436671e+00 1.570923038087391888e+01
-8.044091579517999691e+00 -5.652153268293578225e-01 1.609653594235066976e+01
-4.268839895162955145e+00 -1.346238022217654207e+00 1.475303511605991247e+01
-4.630038137853516922e+00 -3.816968680136151981e+00 1.626608852046632592e+01
-4.424758876741419655e+00 -3.679473061924988020e+00 1.600244349367209651e+01
-3.349908052403445691e+00 7.422460673718999091e-01 1.812684678981457154e+01
-4.199444306778362446e+00 -2.605739899780847302e-01 1.782219759731019337e+01
-4.821512578267149962e+00 2.720676935520669470e+00 1.711233987199323536e+01
-4.829337237932493032e+00 -3.563564217298253123e+00 1.586505011890972128e+01
-5.065822188935328541e+00 -1.307623648929649107e+00 1.432578892065172482e+01
-2.973032003232780163e+00 1.345784346490118466e+00 1.820925589890061502e+01
-1.087896382472727241e+00 -2.758687112520518681e-01 1.821203087956399713e+01
-4.205177996480546909e+00 1.144888475439285180e+00 1.773385370084547219e+01
-6.064877647891516510e+00 6.840041871695471398e-01 1.273854634690349030e+01
-7.933245843181081725e+00 -1.630057406504113349e+00 1.655345944634397881e+01
-2.789188137480230978e+00 3.632950507566560017e+00 1.544967798775793000e+01
-6.334398931984629222e+00 2.997465094358774618e+00 1.649428144124497919e+01
-2.739617348554422627e+00 7.157664063533368815e-01 1.832807896248094437e+01
-6.231104909894401800e+00 2.989573264515378970e+00 1.654309840501524320e+01
-4.828384083493375556e+00 -3.431288803607275728e+00 1.581250458191153285e+01
-7.953438814335742180e+00 1.394236259372306774e+00 1.518448432198034936e+01
-5.115387294893938730e+00 -2.907245517486934716e+00 1.762277081590246297e+01
-3.749658190776853139e+00 -3.409671917131851693e+00 1.600474778310274360e+01
-8.055544053722099918e+00 -9.584064677172471347e-02 1.505794905226355951e+01
-3.345878290764199736e+00 1.915936031833785913e+00 1.797937991769304489e+01
-6.610546637388126534e+00 3.196204309512954644e+00 1.615674846430682976e+01
-3.171361394755851659e+00 1.903964146937687119e+00 1.803752396032469818e+01
-4.463987287139060456e+00 -2.932423107805772311e+00 1.567977647478176095e+01
-4.148348139607954677e-01 -3.183555835351834951e+00 1.700754883970279252e+01
-6.381751886778102012e-01 -3.168667234057231497e+00 1.684157794434322142e+01
-2.169692623387161401e+00 2.508120812541517530e+00 1.778550718052387225e+01
-4.848212483380232030e+00 -2.913763611150348432e+00 1.559995746954413676e+01
-4.673329526469959916e+00 -2.792160544134332234e+00 1.556292030418284611e+01
-6.445583219207759562e+00 3.014805540733226152e+00 1.641613252204550832e+01
-1.007484093903523448e+00 1.257446749754865589e+00 1.494707644323338513e+01
-7.038045989666580127e+00 -3.826633756066663672e+00 1.634483499320957378e+01
-5.402737467001470506e+00 4.676137358228865892e+00 1.586025813264596707e+01
-2.426609761789772612e+00 -4.095361411678753782e+00 1.719472376792625568e+01
-6.377968509717636403e-01 1.913754984831604222e+00 1.694187246304557704e+01
-5.583698974021642947e+00 4.618896614677796109e+00 1.579073524128541095e+01
-7.185850871019252573e+00 -3.244492100201199047e+00 1.710181757411395864e+01
-6.396657793534292757e+00 3.200268938513614714e+00 1.633279010497657424e+01
-7.439387707690832130e+00 -1.014801389326550396e+00 1.706142235363302007e+01
-4.453128268318213401e+00 -2.617390311529457669e+00 1.551074398018604228e+01
-7.411390967745801639e+00 -7.955469995750550360e-01 1.704497043430818337e+01
-3.390459926449253647e+00 -8.978944248322417998e-01 1.813417393010016099e+01
-6.932106327470528129e+00 -1.794629988250885377e+00 1.328552011943487798e+01
-1.787439060335784813e+00 -3.607292266474527498e+00 1.812007186283302929e+01
-2.018243251601397503e+00 -4.029423872821880970e+00 1.722061152102529746e+01
4.544641493443091207e-02 1.980142264263883012e-01 1.547471621450483070e+01
-7.314552164220698316e+00 -3.085440120129849806e+00 1.706686551977167454e+01
-5.834156667717233624e+00 2.863504685239651959e+00 1.436589410082390827e+01
-2.774781326400895587e+00 1.900937374349131570e+00 1.812787793769613387e+01
-4.862393832328567811e+00 2.655422129787862406e+00 1.392168420855447408e+01
-6.125001607433398831e+00 -1.703349551361170722e+00 1.340378719479397063e+01
-2.605091556730378954e+00 3.818380732303686464e+00 1.588427929494941537e+01
-5.431493860508813221e+00 4.690481741675839977e+00 1.553929716975448372e+01
-5.219444002132557436e+00 4.854581089449224507e+00 1.582520383928476093e+01
-6.804045281968942760e+00 -6.423801656505636615e-01 1.726904902193030011e+01
-2.775349711905632955e+00 3.281838350006155425e-01 1.832697827011697456e+01
-1.201996640465495814e+00 -2.526279395573718833e+00 1.849951681342803056e+01
-2.764435821518623992e+00 1.150096833727608958e+00 1.828912905577296755e+01
-6.844875806752164671e+00 -3.025938093815468299e+00 1.487821947147255486e+01
-3.195162323597460219e+00 1.127498368517036331e+00 1.816379872634000492e+01
-7.870569634629313249e+00 -1.976173778830555117e+00 1.668154752726390910e+01
-7.687011368561610603e+00 -3.788879705805407450e-01 1.663458807067453904e+01
-3.015294680370947056e+00 1.781292187811895467e+00 1.811416108468835517e+01
-5.276385125048139280e+00 -3.834364650055039014e+00 1.626997708005995946e+01
-4.557458379921248692e+00 -2.051899542546559374e+00 1.780876355679668421e+01
-7.765959194547823685e+00 -1.798971827051836447e+00 1.682205333727628016e+01
-4.256237735847722803e+00 1.319078376097812422e+00 1.249055561806632397e+01
-4.410314662264883445e+00 -2.064132907692688423e+00 1.785002409492704345e+01
-3.335683662035092922e+00 1.423128943339245334e+00 1.250095554728927283e+01
-4.373493118021569259e+00 -1.853384291603635825e+00 1.786560956075152262e+01
-7.451005063821320107e+00 4.515800089594819711e-01 1.337827922304087735e+01
-4.198574599684945952e+00 -1.670685735004683092e+00 1.791859155956071703e+01
-4.976959364241373862e+00 -2.407956563846867848e+00 1.768710591490064843e+01
-4.359803882746214221e+00 7.315622911235605819e-02 1.240469628956662973e+01
-4.463938403358199025e+00 -2.687265280890914987e+00 1.779976414294920062e+01
-3.089635042405307175e+00 1.566733808168149444e+00 1.813696685263737152e+01
-2.595773502499076457e+00 3.380622665859823517e+00 1.749402453722345996e+01
-6.163367493497756477e+00 9.505221429167687308e-01 1.722160001801984208e+01
-2.658279209483497940e+00 2.828083226626857183e+00 1.467341899598413590e+01
-3.455001180910646230e+00 -2.387012301241336232e+00 1.567989193182102525e+01
-7.229528565725961364e+00 9.584939166611012862e-01 1.669967813213513352e+01
-5.019709465842758789e+00 -2.774665743551873121e+00 1.547132167874490705e+01
-3.561287630008497462e+00 7.233817318266572149e-01 1.804121261762583117e+01
-7.972606916697599466e+00 1.481653213491174459e-01 1.459660018118257341e+01
-8.079642951983952770e+00 2.138846162099302117e-01 1.551235837006337448e+01
-5.014898828641831230e+00 -3.466905088361892151e+00 1.757290388981915186e+01
-4.954724863540807434e+00 -3.292606038822693648e+00 1.761676763336684104e+01
-4.082072279220380295e+00 -4.981308564935729710e-01 1.377176437398185982e+01
-3.864512909044226507e+00 -2.027614152647127188e+00 1.801040070598516252e+01
-7.397387813927309708e-01 5.573486777681194715e-01 1.439850536056235342e+01
-3.527817461166440793e+00 1.481447854150532040e+00 1.799945856891770291e+01
-2.278432848084806395e+00 -7.232212545687777272e-02 1.846084912757850560e+01
-5.311673838703177886e+00 -1.934348932252847542e+00 1.475981388899241864e+01
-3.435619015154128153e+00 1.763162852089922739e+00 1.798516468798957391e+01
-2.174577161513751022e+00 3.658177975898566192e+00 1.624855757627454977e+01
-6.751200260043162871e+00 1.571611522331538779e+00 1.684755425981772703e+01
-3.131208154045494574e+00 1.335236850003553188e+00 1.816097089669246145e+01
-3.066266434399233631e+00 -2.287422994804956478e+00 1.818377861509494409e+01
-4.824514482015286987e+00 -3.834956610965063462e+00 1.632737273806593947e+01
-5.431982558559504959e-01 9.595544846402743744e-01 1.719326145594695987e+01
-4.028349613813698937e+00 -6.252910570471637008e-01 1.409832655235700827e+01
-3.990734710556528952e+00 -1.712945785755799255e+00 1.797964302932776093e+01
-2.981015434762871452e-01 1.488627977617278164e+00 1.636823579804514139e+01
-8.106463670787100284e+00 -1.922999000306589990e+00 1.628830242824308527e+01
-5.193794727808734635e+00 -2.015025672595958994e+00 1.487574800340844661e+01
-1.768400350239763164e+00 1.301979997272059819e+00 1.816878725455202925e+01
-4.701007818914912928e-01 -8.875708831712931790e-01 1.778349822947537007e+01
-2.275799397882968478e+00 -5.253199437367814806e-01 1.438459089035752925e+01
-7.094483706694256764e-01 -6.523459931600670281e-01 1.794485341157108849e+01
-2.164744081196674941e+00 1.412303364693894059e+00 1.364846008769763586e+01
-5.723331231496038285e+00 -1.722092952059955939e+00 1.416430423659915760e+01
-5.869611263434596715e+00 2.292069343861880881e+00 1.392104621677058418e+01
-5.712420029892925299e+00 -1.887202430684601806e+00 1.441485438079404702e+01
-1.764461106360972753e+00 -3.957787667581824209e+00 1.759273855639587936e+01
-2.477599079671145788e+00 -5.004398031751269293e-01 1.436382385068005618e+01
-2.963795247276345357e+00 -1.102315983059182658e+00 1.827280898929576836e+01
-7.406829830980534268e+00 -3.190770870773890211e-02 1.686361719491928568e+01
-4.572086605845221641e+00 2.816600946982649845e+00 1.718857363724177389e+01
-2.661115564795346167e+00 -2.470487125904617276e+00 1.599039856828170514e+01
-4.847846165874774904e+00 1.222973223387792574e+00 1.259052016071239422e+01
-5.919323302323436842e+00 -1.913957241438363654e+00 1.415154845615332135e+01
-3.621273511912976861e+00 -2.420330960260400399e+00 1.564339702795187748e+01
-1.767918250839763950e+00 -2.750859759977084984e+00 1.841720687391992328e+01
-2.761982889412256892e+00 2.540688951852143163e+00 1.791926092861643127e+01
-1.068630018793864656e+00 2.478001918210087862e+00 1.643598611138281740e+01
-4.127712903943631773e+00 5.384335850526733580e-01 1.185455006127880040e+01
-2.638872440263792640e+00 -2.628089312014717294e+00 1.606032440458051980e+01
-7.516132886641655020e+00 5.303676468323192950e-01 1.350552271662665049e+01
-3.195785654584426094e+00 -3.334929353408587982e+00 1.614126237198210134e+01
-3.467391004529142062e+00 -3.202871619151925309e+00 1.601321242050057236e+01
-5.880102672631424277e+00 -6.881188012207373195e-01 1.256981884825157891e+01
-3.752019955548360652e+00 1.911807495101277121e+00 1.781980792641110867e+01
-4.095815466320980036e+00 2.728096915302224978e+00 1.743450249478475200e+01
-4.225433036832930256e+00 3.378710385434293251e+00 1.715724892309884808e+01
-3.598042054238784093e+00 2.541811517956964916e+00 1.771515014363397711e+01
-4.186809035148730374e+00 3.783496684869586790e+00 1.698240363687509813e+01
-5.732336393231053151e+00 -3.916076811223380361e+00 1.679767032649721870e+01
-4.772761133528378608e+00 1.382177991994811173e+00 1.747191989333023798e+01
-1.736072329031000949e-01 -2.495264608438377163e+00 1.782682091557728654e+01
-2.975613366114953973e+00 2.121196039525771848e+00 1.803023143335345679e+01
-5.585460496376552619e+00 2.978970211386648970e+00 1.677901620931842075e+01
-5.604677010347972832e+00 2.158091735549397150e+00 1.704866901081401664e+01
-5.408534251942247906e+00 2.183191385207722490e+00 1.708676645081703782e+01
-2.772093627698382523e+00 2.871500532943549455e+00 1.778383065516604233e+01
-2.833890707397345388e+00 1.709824098938774073e+00 1.319362723828255213e+01
-2.559196079166688342e+00 2.714648592273261052e+00 1.782336558936307114e+01
-5.604903594439231362e+00 2.390459127224263458e+00 1.697880930034442315e+01
-2.823299012711205869e+00 -1.884738050453207192e+00 1.561704021330221082e+01
-4.821954792611832019e+00 -2.420745488775134735e+00 1.772285665951772415e+01
-3.321693984962321711e+00 1.816111206579882120e+00 1.290207448771524668e+01
-2.277410398135099712e+00 -1.014759427919291968e+00 1.503586617045387186e+01
-6.011392882064624743e+00 -2.439452900294333038e+00 1.471439281669200483e+01
-6.825416304075811347e+00 2.259334786226569136e+00 1.439213418720143522e+01
-3.257477707635096476e+00 -3.636737832356467859e+00 1.626629497520764289e+01
-4.430335967693868504e+00 4.213232159489841422e+00 1.662935270013581857e+01
-1.682504882917167599e+00 1.604709226547643142e-01 1.844183933129598785e+01
-3.608285838869989881e+00 -3.146070692477756392e+00 1.595201312443516173e+01
-2.662713448845509756e+00 3.017313458608649857e+00 1.488406637409924116e+01
-2.910079301936581153e+00 2.411014276125931222e+00 1.393719509397599410e+01
-4.936696481510847612e+00 2.788274128672233676e+00 1.704754435763599218e+01
-4.591735043369086888e+00 4.211710723152859437e+00 1.655557212368901787e+01
-3.120430922005186680e+00 2.304174786995792701e+00 1.793955645317448244e+01
-3.685904385782269976e+00 4.964163230827126072e-02 1.295614817591641810e+01
5.791188516776757389e-02 2.468748716187873782e-01 1.562862935332006487e+01
-4.590383275005868846e+00 -6.858563665464056935e-02 1.767350885331889287e+01
-6.215940302259563843e+00 1.580560040217248829e+00 1.708849220640307465e+01
-5.976646287909445299e+00 1.795819662560965480e+00 1.708080714600358618e+01
-2.649654312577622850e+00 2.864462721101573628e+00 1.776948570171982311e+01
-9.984273985339642277e-02 -9.154333679848827288e-01 1.720585754649157195e+01
-2.357501008252751884e+00 3.195519518872969922e+00 1.750138515581308951e+01
-5.813810079739408110e+00 -1.630199869008779334e+00 1.754453356417394616e+01
-3.372250099224017639e+00 2.144545254701527348e+00 1.790787622882550778e+01
-3.775598782094534034e+00 -1.847732945786816350e+00 1.804171021915946227e+01
-5.175416494182470295e+00 2.794944576213995280e+00 1.696345667968294180e+01
-6.118896721716136966e+00 5.361006191686519262e-01 1.265044349612317376e+01
-1.973499950292660898e+00 2.692190935550943243e-01 1.846649963273438999e+01
-5.053400277568660393e+00 4.653340609829504260e+00 1.544530222934237429e+01
-5.780200442266299810e+00 1.968608129647972493e+00 1.706565376726700123e+01
-5.441210872084864647e+00 7.653418708980553875e-01 1.735056552489183446e+01
-4.636479276404376293e+00 -5.950454326611811506e-01 1.339174653628901979e+01
-7.538763619466359422e+00 -3.349827252114503939e-01 1.680711209033501774e+01
-8.023150943968051507e+00 -1.533666450525321689e+00 1.464455781773575893e+01
-4.693501055519493370e-01 -5.157229883599967479e-01 1.764609485974083469e+01
-1.553779983252154606e+00 4.191576189314845102e-01 1.318557738846114091e+01
-1.713748566694590636e+00 1.978375215444816426e+00 1.486236979872424513e+01
-7.597267259553704299e+00 1.590381550770452401e+00 1.569890369088127358e+01
-1.872748920844331533e-01 -2.989307759278546084e-01 1.728938773823220743e+01
-6.330722885927562160e+00 -4.721361447328503158e-01 1.735468996869964542e+01
-5.021309237447552754e+00 -3.912979476943422519e+00 1.659940054163411816e+01
-5.872698806261969828e+00 -3.864422310562426688e+00 1.633739125781392687e+01
-5.887099492425056368e+00 -3.910811793558592875e+00 1.657553757316848220e+01
-4.388504223318465236e+00 -8.086701885010081359e-01 1.413501674269787145e+01
-1.684960737455444946e+00 2.285567695144083422e-01 1.332702522946189561e+01
-1.356302047987003379e+00 3.528639107379707429e-01 1.337329635942604256e+01
-2.764185749503866418e+00 -2.313316354521246065e+00 1.825902703097915492e+01
-2.155331664880702380e+00 1.044153789440502633e+00 1.322876381430257453e+01
-4.111039498785688195e+00 -3.516720827108915870e+00 1.778353292474511704e+01
-2.396968030712092634e+00 3.234254131128964094e+00 1.545081785606030422e+01
-6.118925016982881715e+00 -3.073298842569573530e+00 1.521732331563919161e+01
-1.774116852760845298e+00 8.266674258669470809e-01 1.342406419640149551e+01
-6.246154934674883030e+00 -3.038984826971423470e+00 1.511332107534276759e+01
-8.125868402650086253e+00 -1.732844775160653716e+00 1.506579240111918949e+01
-5.155603748336196723e+00 -6.204713180664767069e-01 1.283916358201177843e+01
-7.445055828892278349e+00 1.836823748002111012e+00 1.474030177288165078e+01
-6.225488208839266235e+00 -3.427856750012993725e+00 1.548196986435357303e+01
-8.014884448372747272e+00 -3.222911409723719367e-01 1.469311654123555400e+01
-6.013399994151592765e+00 1.818000949447065862e-01 1.733178630093144079e+01
-6.189415433653033816e-01 -8.572424253969983532e-01 1.481012111676303533e+01
-7.696501413407642822e+00 1.677288719029957687e+00 1.511689116475999128e+01
-6.608520078035599710e+00 -3.015312916458559922e+00 1.736637215765707509e+01
-3.757995253685828985e+00 4.870157027164755625e+00 1.613572439291833405e+01
-6.014991681784137789e+00 -2.258113849734593170e+00 1.753293888856595828e+01
-6.186284349988144804e+00 -2.054046926266308137e+00 1.751289115864531709e+01
-4.839562105282865900e+00 -3.992056716431766183e+00 1.691173693014726354e+01
-6.241985121916035162e+00 -3.674389448614892917e+00 1.731013359629520210e+01
-4.419188592522699466e+00 -4.004691112801442188e+00 1.686187077125725153e+01
-1.395503282432332348e+00 2.145851837053874278e-01 1.346314647263454134e+01
-4.623341805121134129e+00 -3.997955199515078384e+00 1.687805938609051992e+01
-5.849784063264243272e+00 2.491565416516198006e+00 1.407528460309156770e+01
-6.260503277890429707e+00 2.439458319678752929e+00 1.418592259723814664e+01
-7.384047178287923785e+00 -2.024939889121094794e+00 1.716072265962081644e+01
-5.638476959370507302e+00 -3.749571471770341557e-01 1.231777517495434893e+01
-7.356910790373643039e+00 -2.627343782029530228e+00 1.712973138633721248e+01
-7.550911686825751978e+00 1.920977997701201201e-01 1.663318652325434499e+01
-7.334527251614396448e+00 -2.767180094132940749e+00 1.712307954832112245e+01
-1.619019146779475449e+00 -3.456490432184512240e+00 1.673670674712573714e+01
-7.235653199123306401e+00 -2.638179511494236795e+00 1.719807893634524731e+01
-7.587457177143330789e+00 1.244063306239910904e+00 1.435054520312812087e+01
-7.597624913704224880e+00 -2.189979286668580993e+00 1.698367203253146585e+01
-3.446767043476997028e+00 4.453621199732731739e+00 1.683217195395835120e+01
-3.574027548449985048e+00 3.995292442285824475e+00 1.710893410581667951e+01
-3.639243420974282994e+00 3.847665344440094337e+00 1.718108368304434208e+01
-3.769676796790775608e+00 3.784114840244650502e+00 1.716236737097067078e+01
-7.315889128837593347e+00 -1.114491888268420272e+00 1.715569758658566712e+01
-3.226306133305254509e+00 4.259164019677424307e+00 1.700283010091805380e+01
-6.432447216332253248e-01 -2.889767852067201215e+00 1.655810703305888154e+01
-3.154966752028133925e+00 4.485922713929589634e+00 1.684464416535971054e+01
-1.925145921346164357e+00 -1.127111607154205997e+00 1.854124668727891390e+01
-1.063035608363648521e+00 -2.271433899743705354e+00 1.577548369381058535e+01
-6.422758986945675375e+00 1.261513279307363788e+00 1.337906575475454218e+01
-3.484543588182464902e+00 3.472325153133288378e+00 1.742613707859626970e+01
-3.470932271191541574e+00 -1.881397927895518185e+00 1.542487537691692978e+01
-5.820806735227953332e+00 -3.068566727924037174e+00 1.750199971454912173e+01
-5.418315591348521920e+00 -6.926418354910082176e-01 1.753657707416422795e+01
-5.584195429600267602e+00 3.718250301059523033e-01 1.737395862956078219e+01
-3.070675739610720711e+00 3.396913597300979415e+00 1.492752275285108254e+01
-1.155637616049042249e+00 1.469498053519726621e-01 1.362374683272774689e+01
-1.784501523512518784e+00 -3.295088129804941257e+00 1.826945653525533686e+01
-1.975650508597703636e+00 -3.324896270960501887e+00 1.823973089086621968e+01
-4.652912407986224963e+00 1.167012659054173396e+00 1.754182329001361751e+01
-8.112024225789257414e+00 -5.683716619865020192e-01 1.588112486296044779e+01
-1.673244239092457342e+00 -4.914139274402860580e-01 1.417442690501732017e+01
-5.751217548097173449e+00 -3.500895521273041933e+00 1.561248395301789316e+01
-1.890839281458795984e+00 -4.781730103894793471e-02 1.359670023049969956e+01
