-2.285440306580628800e+00 -6.076894639466836612e-01 1.443729911498051521e+01
-2.111316137715435026e+00 -2.793241980302681782e+00 1.620767614856226047e+01
-2.197452060511659866e+00 3.656812660239777024e+00 1.724855489309266332e+01
-1.996305409991631974e+00 -1.417183704376135056e+00 1.479242570929165979e+01
-1.840160389904822891e+00 -3.112194257466098790e+00 1.623480298160835744e+01
-1.862233110136868985e+00 -1.838814927707274949e+00 1.495132086698927409e+01
-1.780852014895329072e+00 -8.843373625874462185e-01 1.412137195524806899e+01
-2.629603410451232026e+00 -3.237542114151466421e+00 1.661427124071011363e+01
-1.989800745959425798e+00 1.664736881339223595e+00 1.396656952325922063e+01
-2.187729168375651234e+00 -3.015130961111129437e+00 1.635748520146647067e+01
-1.871749206693925860e+00 -1.615332664517026506e+00 1.477430441355833679e+01
-4.856280505575615081e+00 1.057858620908921132e+00 1.296029117661081287e+01
-5.775266273649590332e+00 -2.905544357878568462e+00 1.701947135641512787e+01
-4.371966669643818193e+00 -3.287347326540596804e+00 1.698044032471804954e+01
-5.745861062923404816e+00 -6.749267947498782672e-01 1.561274068936266346e+01
-5.432660716756899433e+00 -5.239726930525816506e-01 1.555537171981948674e+01
-5.585808020077957181e+00 -2.477104813008342843e-01 1.525708992623735227e+01
-3.795638237746583155e+00 -3.331589814513394643e+00 1.687559572503004901e+01
-2.252455398297337652e+00 -3.506085324122240721e+00 1.667486725911029666e+01
-2.478451943024940540e+00 3.099459179138241538e+00 1.586941173655112536e+01
-5.379564652508982192e+00 -3.264335824798690666e+00 1.719645459416979705e+01
-5.111904677360243454e+00 -3.395631716683759294e+00 1.724590669102455465e+01
-4.611766013210486292e+00 3.297366010215562193e-01 1.410361080614987728e+01
-3.630869772935676032e+00 -1.662374292892976557e+00 1.611949705274721723e+01
-3.620664005481319947e+00 -1.579641048535301850e+00 1.607405634217586154e+01
-4.414225719499874856e+00 -5.859628538182692914e-01 1.552540882103359010e+01
-6.540546717650713049e+00 2.158783004948050088e+00 1.450343427881553637e+01
-4.223232038417816803e+00 -7.054245940811687543e-01 1.556430953362209024e+01
-2.849965649692946190e+00 -1.664661000331791874e+00 1.593756690660243081e+01
-2.829051791730436083e+00 -1.429489792792351333e+00 1.577610305736363827e+01
-3.421666941368458392e+00 -2.241743695961520011e+00 1.634344825004459167e+01
-2.947509904299033590e+00 -1.849135470856206220e+00 1.607283503188832796e+01
-2.801722609189902791e+00 -2.273551133270778735e+00 1.623267789182536447e+01
-1.059684399766712692e+00 1.924422063468817834e+00 1.614757159456621949e+01
-2.978395708140097131e+00 -2.026018461225338463e+00 1.616643930936223583e+01
-2.999014136218541182e+00 -2.297645550986723961e+00 1.629050573994154050e+01
-6.450278567523398010e+00 3.432010877357515533e+00 1.603678096911292172e+01
-3.125265810275785316e+00 -1.805031408489023326e+00 1.609762305806876626e+01
-2.218056596019447380e+00 -2.130135529723593990e+00 1.588661952486370055e+01
-6.233622408213411958e+00 4.107875618733645706e-01 1.410421912308913406e+01
-4.411942509441960425e+00 -1.115351728023148414e+00 1.595288872657583212e+01
-2.683339850096716273e+00 -1.488281412707041840e+00 1.574377491795413775e+01
-6.586302402691879720e+00 9.724222744299018117e-01 1.362613298222145275e+01
-5.629448723846540048e+00 9.240243546921720341e-01 1.342252634431586600e+01
-5.844211130713192759e+00 1.060008685095721104e+00 1.332589227565201995e+01
-5.002933279666596178e+00 3.926137027085450093e-01 1.411550281682368180e+01
-2.553114464327568722e+00 3.223537577231081919e+00 1.600182610922551518e+01
-4.849713953734296368e+00 4.435464387555338450e-01 1.394533836727819320e+01
-5.730072245211520254e+00 -2.998073466795821318e+00 1.707083461210487840e+01
-3.162250321304997946e+00 -9.237982541375924228e-01 1.552412430810949573e+01
-2.986355424137842718e+00 -9.154704172207799306e-01 1.545459056338129855e+01
-3.986504816972037624e+00 -5.571565852775743899e-01 1.531692188763945595e+01
-3.010181901739848342e+00 -3.738732796491664345e+00 1.810839773113164242e+01
-3.956695010000041535e+00 -3.637843027021744113e+00 1.840922550803248114e+01
-3.383107705450191016e+00 -3.761937308169133409e+00 1.789475840144163854e+01
-4.572305183871824497e+00 4.412444549451101317e+00 1.668273373252147351e+01
-6.419548558478069822e+00 7.272274550660126069e-01 1.380045305167854863e+01
-6.098615191512633871e+00 6.174955593077755545e-01 1.386291996722103548e+01
-5.433505413412451190e+00 3.232364622768230666e-01 1.433510604827340629e+01
-5.385648608789155745e+00 -3.144615666212684069e+00 1.863846047976836573e+01
-5.151653072403258093e+00 -1.951518222252323520e+00 1.871210002541262085e+01
-5.130827171138962584e+00 3.338714508479766252e+00 1.472078652637237539e+01
-5.178620805405836691e+00 -2.969757905432168776e+00 1.866249496534031138e+01
-5.819677229845423128e+00 -3.028090587790735810e+00 1.866515969023913968e+01
-6.852699472664653513e+00 -2.439918947370157687e-01 1.464794823629077669e+01
-5.426838746799862889e+00 -3.362799914814624813e-01 1.538414692569241637e+01
-4.561671070264130989e+00 -2.034662707767555645e+00 1.646752236645908951e+01
-4.426947154194229128e+00 -1.452598650195926711e+00 1.615710069305941587e+01
-5.027878638846891235e+00 -2.490074825218077770e+00 1.672806813264147152e+01
-5.207532450150655023e+00 3.404213833027339930e+00 1.488958327657403302e+01
-4.815925783455252684e+00 -2.434711425547847696e+00 1.667722245493579791e+01
-4.416242488961507284e+00 -2.844324071799473330e+00 1.676441689265009316e+01
-5.182891160819853127e+00 -9.652390768768168705e-01 1.593573984341472638e+01
-4.172643657840285236e+00 -3.086940922466760107e+00 1.681700255626141072e+01
-4.022296086811989468e+00 -3.187338596433703763e+00 1.683520459196637731e+01
-3.768843368898057378e+00 -3.074010094889366940e+00 1.673226702286345713e+01
-2.996561299082928453e+00 -3.412165745026434216e+00 1.678601846123651242e+01
-6.001056554675843202e+00 2.015136927439781012e+00 1.366087024239721970e+01
-3.414630006722562339e+00 -3.273238043275201292e+00 1.676777261970959287e+01
-1.298632400642229179e+00 9.653669068674498588e-01 1.417673169220072182e+01
-1.606758604158007309e+00 -3.106513114407998266e+00 1.603158160516723640e+01
-3.395103801205201499e+00 -3.630235936338996439e+00 1.714997275934763721e+01
-5.238214313158392699e+00 8.774080691986988478e-01 1.335838983288052262e+01
-1.225928040267906916e+00 -3.198272643019647532e+00 1.593998161163805705e+01
-2.484419459496000293e+00 -3.357427475552941409e+00 1.664166287015236989e+01
-3.934443008906356454e+00 3.638603301975042448e-01 1.370900287502064074e+01
-2.931828627516126939e+00 3.268325113786801239e+00 1.556361954046668572e+01
-1.965982310213542972e+00 -3.241160964065490369e+00 1.639108297219389598e+01
-2.197212437345240410e+00 -3.141282835769379389e+00 1.643518290623154243e+01
-5.866195291700240233e+00 1.135908052153842274e-01 1.461474733301224305e+01
-7.562213516155014137e-01 -1.146489607540980504e+00 1.450353832731779491e+01
-1.263610438463358632e+00 1.019683431998874790e+00 1.431950467912531977e+01
-6.134930951953105893e-01 -1.153256049310688480e+00 1.463059804048403478e+01
-1.191995550874753285e+00 -2.855898815435788052e+00 1.548224019513277128e+01
-2.528426522713842495e-01 -2.646682127809695473e+00 1.670219758345869465e+01
-1.215045973158070947e+00 -2.688614830058013716e+00 1.529562093716940652e+01
-1.462743475540167370e+00 -3.173734428080072334e+00 1.599260667276400127e+01
-3.444770433752553096e-01 -2.471336923510460082e+00 1.530226105040376794e+01
-3.109740817275903346e-01 -2.343117363975778744e+00 1.534397304861740352e+01
-8.881654129067892978e-01 -2.704942600102444139e+00 1.523675930559850755e+01
-5.773015338194946722e+00 3.867288416039686538e+00 1.782328668464823451e+01
-2.835245565061889295e+00 8.296918468863923035e-02 1.387649723461251128e+01
-4.552451484074022670e-01 -1.339923832132544623e+00 1.484392757372757288e+01
-5.363575100388043637e+00 1.827967612321611091e+00 1.267761280863834727e+01
-4.245305228934157515e-01 -1.967775242019545123e+00 1.501705291287358435e+01
-5.121649419857737806e-01 1.536508235102982400e+00 1.739611807034120616e+01
-2.715747859538861775e-01 -2.180977395338233649e+00 1.536707710808125782e+01
-1.049692200603297598e+00 -1.888858794096483384e+00 1.461192202080605185e+01
-2.891319917502238379e+00 3.853787898847567561e+00 1.675096634900131320e+01
-2.327642986482122645e+00 -4.571334102227648799e-01 1.426874236496313486e+01
-4.835424792646941583e+00 7.596234269282968743e-01 1.338543358298462849e+01
-4.042982564170747750e+00 3.412348837671674850e-02 1.447883555501044484e+01
-1.268905762056685260e+00 -3.110361050472662647e+00 1.582817986702812263e+01
-1.232735454423139032e+00 -2.947544979558229805e+00 1.560680201999556616e+01
-4.430261652688027851e+00 3.104819092446556184e+00 1.402382193454638681e+01
-2.094694503949426689e+00 -1.022686414198462179e+00 1.457808994698292437e+01
-5.590981585165222256e+00 2.225504851986704224e+00 1.344199443245916470e+01
-5.000629518925327588e+00 -1.686544005092718512e+00 1.636747602921856881e+01
-7.895012125581553519e+00 4.543543043352693545e-03 1.547704179325650031e+01
-5.392103811835603722e+00 -1.941658174340397336e+00 1.651992554777045896e+01
-1.039274935947100076e+00 2.505262119777438734e+00 1.718029652185338918e+01
-1.956353466251164575e+00 -7.070986173792057627e-01 1.406197005583773674e+01
-2.168091722096288532e+00 -5.315241988424994624e-01 1.409388686552693670e+01
-6.688220156744412392e+00 3.415913232086336571e+00 1.745930667112323320e+01
-5.010036370175832587e+00 2.862944501406071929e+00 1.384141068839181443e+01
-4.469327727018137075e+00 7.007886983042329598e-01 1.334062771810191705e+01
-5.779502127519567267e+00 -2.584041375757294645e+00 1.873707353767271755e+01
-4.734741533661040336e+00 4.288415992553662015e+00 1.637008236785491633e+01
-4.267636800887821380e+00 6.618675766437323027e-01 1.332546277347161734e+01
-4.278476908932653089e+00 4.478809747300173116e-01 1.369564597264151118e+01
-1.974600350017319816e-01 -1.917795451209263424e+00 1.695848181947435407e+01
-4.444956634686191954e+00 5.374931489226557613e-01 1.359863416551788262e+01
-7.750743990877998257e+00 -3.846864365429574217e-01 1.534075793871633309e+01
-2.379453118890585195e+00 2.121495461072557376e+00 1.414153026561450943e+01
-3.253209152949278593e+00 5.740987945325481956e-02 1.410027190485915227e+01
-6.180093947510654218e+00 4.002725262462877076e+00 1.666599267924010164e+01
-3.995327728104583365e+00 3.673181400452176781e+00 1.807105707210119405e+01
-1.226420958638160474e+00 -1.534140377898802976e+00 1.443164124450308705e+01
-3.208307615913885691e+00 1.719733411144717117e-01 1.383311857784471144e+01
-3.620597851466512029e+00 3.708157264025240263e-01 1.358598854016025470e+01
-4.392012938920990983e+00 6.488166508131458787e-01 1.854140072372921466e+01
-3.805466580479281991e+00 3.788949958916428828e-01 1.362803934950823859e+01
-4.092373091086938253e+00 3.955926238483451485e-01 1.371349034947481371e+01
-1.966057626005974113e+00 -1.132609771260806752e+00 1.447657546060971967e+01
-3.777846345245855719e+00 -2.758277561363242647e+00 1.857876593919312214e+01
-2.225861255834144181e+00 2.775002905760357130e+00 1.561688096052019503e+01
-2.023851761104197067e+00 -9.586834429063857410e-01 1.439032811301735038e+01
-2.134822586601507588e+00 -7.311623588718998423e-01 1.430073143630601962e+01
-5.448223004144594483e+00 1.133225002461809572e-01 1.476577064203737777e+01
-5.523444778238154385e+00 2.195792771753728445e+00 1.332623470105741958e+01
-3.422612086074938720e+00 2.881170411929897313e+00 1.420543329275558975e+01
-4.154511541360578875e+00 -1.425977661513200045e+00 1.608600699298920844e+01
-2.724927804240445894e+00 3.991382654245297701e+00 1.722516187986435554e+01
-4.194609292159622527e+00 -1.521630571822954581e+00 1.614821753857895104e+01
-1.515767341112407962e+00 3.174773808340264125e+00 1.756786558291315359e+01
-4.029129452708883008e+00 -1.269219634186757428e+00 1.596243119222301132e+01
-5.220088492238117439e+00 -3.163386427874832485e-01 1.539094647045412145e+01
-7.354784338961859902e+00 -3.947086401734463124e-01 1.500213688834756098e+01
-5.358805671100305146e-01 -1.976683365241574064e+00 1.489395276211316954e+01
-6.200038018502342041e+00 1.429555372094761800e-01 1.441202389072378409e+01
-7.216582028238430979e+00 -2.165692637392647057e+00 1.628021551164340153e+01
-7.285783122583106675e+00 -3.000546223453861572e+00 1.754497788674473568e+01
-6.832145287171504933e+00 -3.167139451693559593e+00 1.752480808487036157e+01
-5.572989171359324700e+00 -3.614749373726753312e+00 1.838805895871287888e+01
-7.061970521544198576e+00 -3.175937928183143022e+00 1.780419109759352025e+01
-6.527277365251537233e+00 -3.455441095452909117e+00 1.815305471448288799e+01
-1.998087836723249522e+00 -3.836653085308708633e+00 1.781562534309283663e+01
-7.591682865393597268e+00 1.824529281110977896e+00 1.541539172003215086e+01
-2.571153693933991846e+00 -3.815479882021357128e+00 1.772152138365130369e+01
-7.390547404570586565e+00 -2.829591877265009714e+00 1.724523998581702600e+01
-6.881923546212158627e-01 1.681487873674557765e+00 1.643170082996747894e+01
-7.207656814796322919e+00 -2.747989809914078485e+00 1.701028178810861746e+01
-7.615118097851611978e+00 -2.543426800750060224e+00 1.692210333867145167e+01
-6.661413433900245096e+00 -1.785298194042749698e+00 1.587713303494982497e+01
-6.801541263742350907e+00 -2.076764110842606037e+00 1.616214704199393637e+01
-2.372298092572909578e+00 -5.089069353659347872e-02 1.837451799038680988e+01
-4.842187539236814331e+00 3.492050637039080030e+00 1.480955243691144219e+01
-1.739182535437539423e+00 2.274048562896342496e+00 1.549745965809564652e+01
-6.810178633538857440e+00 -1.736806072187457639e+00 1.570289869751772116e+01
-3.596741117889093786e+00 2.749568517254558309e+00 1.376212852018550237e+01
-6.649007615300758900e+00 -1.524018440825205323e+00 1.554691923507577300e+01
-1.801256206793047099e+00 4.777697827479684412e-01 1.321991180303255575e+01
-5.200603972443687439e+00 -3.569198980551050226e+00 1.848407972556063683e+01
-7.313861118256532734e-01 -3.565158626992960933e+00 1.751979858977075466e+01
-7.779363917536159079e+00 -2.179173541472499309e+00 1.646899569885510672e+01
-7.017009138432234394e+00 -1.626097522575790100e+00 1.544178789069822599e+01
-2.261766733356036951e+00 2.723996760658447869e+00 1.546774237013086051e+01
-1.813907300959131552e+00 -3.839313022266416908e+00 1.780141033402042083e+01
-3.796115050191116502e+00 -3.752144971722183087e+00 1.808923670982772691e+01
-7.880918179602595108e-01 1.193944044276643801e+00 1.550044633839096875e+01
-3.161938985557193771e+00 -2.838291202709778638e+00 1.844550294726584738e+01
-1.214036331246590050e+00 -2.732418293964666844e+00 1.813246249464812010e+01
-9.334924021128225835e-01 -2.512351320002901289e+00 1.811290528207188899e+01
-6.809842168947643160e+00 3.571833820720838659e+00 1.688497924256752825e+01
-4.987031398853966735e+00 -1.989904642752049257e+00 1.870853886666916921e+01
-4.568473875400371753e+00 -2.453249772757862601e+00 1.868758283324926239e+01
-7.382753147981025776e+00 -2.374408617827544532e+00 1.843900110147236049e+01
-7.500663902502017422e+00 -2.290843742828154284e+00 1.836307460448831463e+01
-6.380683940949706923e+00 -2.367456032985833403e+00 1.877457937342456873e+01
-5.146645932037280602e+00 -2.132333302065690717e+00 1.870886832256595156e+01
-2.137287088574963523e+00 -2.374225873499423933e+00 1.825485639773540569e+01
-2.013697739759466199e+00 -2.543914637611795371e+00 1.821918252061059817e+01
-1.292369296910127030e+00 3.439085292854368037e-01 1.355945772426963103e+01
-6.946249305242028882e+00 -3.088294426393834335e+00 1.834302235561480288e+01
-5.541095696671918702e+00 -3.139495904511162117e+00 1.863962587400330406e+01
-5.182902707691422250e+00 -3.377084914050533904e+00 1.856853421991538866e+01
-7.277208780332783178e+00 3.028953555161424838e+00 1.671089437615612283e+01
-6.764615612130184807e-01 -3.284732450850208707e+00 1.763226729498186174e+01
-2.933215717488167229e+00 1.633275200028039942e+00 1.244694226131889891e+01
-6.224146669529053710e+00 -3.394865162486842891e+00 1.842619292051627511e+01
-7.667101763284099647e+00 -2.765510415983327697e+00 1.759746718413878952e+01
-7.330525738815966363e+00 -3.029682388958097938e+00 1.794248795331031587e+01
-8.079112143767757104e+00 -1.858843114568368593e+00 1.643327423012186372e+01
-2.959539203796822115e-01 -6.165209691857582719e-01 1.503031802217359925e+01
-6.909301952177839823e+00 -1.930605180385570163e+00 1.591160585073566480e+01
-7.016139983208644182e+00 -1.799359481169174435e+00 1.567816404109239770e+01
-7.262842665337741366e+00 -1.974583558177159803e+00 1.588949847050211517e+01
-5.621526191098844549e+00 3.949708376970532342e+00 1.609551619174090220e+01
-8.003769604925567549e+00 -2.289285603499528143e+00 1.703116196423683348e+01
-7.490839128228855559e-01 -3.167699892687184438e+00 1.778165201284844343e+01
-1.784948160474581602e+00 -3.136707554774105233e+00 1.810414589009553410e+01
-1.402241706952716438e+00 -3.329894125556061013e+00 1.803146611322233994e+01
-6.751226363559029719e-01 -2.867409710488225016e+00 1.785658760839635661e+01
-9.243618337783952033e-01 -3.423621107774161842e+00 1.779924384931850412e+01
-7.093034989292388293e-01 1.925727482554203673e-01 1.415105428744421445e+01
-6.673093096755660980e+00 -2.150688657639594048e+00 1.629795006233976196e+01
-6.772071432659037882e+00 -3.037741813062202034e+00 1.725152530878153456e+01
-6.451961592445099924e+00 -1.584379522619301150e+00 1.585336181653171295e+01
-5.415962273571919283e+00 3.032046903684066486e+00 1.445023192214103247e+01
-2.268904780232158469e+00 1.097027706443791217e+00 1.274659736710362878e+01
-9.789755208581827350e-01 -1.769654943646576939e-01 1.399612704625525694e+01
-1.619276918012989563e+00 2.188593466545096788e+00 1.556467817315169455e+01
-9.128182340726636035e-01 -2.671049066474228129e-01 1.409161357815055382e+01
-3.824203367457823077e+00 1.469802677973694571e+00 1.207061298143564088e+01
-6.970640076800462381e+00 2.552853491408906272e+00 1.549828754558594923e+01
-3.662637151374654731e+00 1.272387170389715383e+00 1.229629858354457284e+01
-7.517440677257061665e+00 -2.699048141174988480e+00 1.813931794416723520e+01
-4.631631893827574231e+00 1.764142594427616340e+00 1.202395564718743159e+01
-4.259146095952747402e+00 1.763470558043070513e+00 1.189765978820469527e+01
-6.416498580678943853e+00 3.943187378806579879e+00 1.690858978762787146e+01
-2.055353029462412273e+00 6.639928964575824155e-01 1.302860864880500813e+01
-2.355403718829162107e-01 -2.444388491267615926e+00 1.672359475843693488e+01
-6.654613886049187244e+00 -1.315223021221700650e+00 1.532300480437426771e+01
-6.349134669122051378e+00 2.171173053264336961e+00 1.428442713991183766e+01
-6.501135336971920253e+00 -1.164850587439826946e+00 1.532009220767611524e+01
-6.518695638495762168e+00 -1.249866905892789815e+00 1.537603081421040585e+01
-7.098300016983735361e+00 -1.281036349246353456e+00 1.517064969428779975e+01
-2.976189328299794656e+00 -4.015318690387137401e-02 1.422380794232301682e+01
-3.203323484512931030e-01 -2.765690105117103670e+00 1.719066302006702429e+01
-5.363088083422642427e-01 -2.573139850233149950e+00 1.780838727141190603e+01
-6.375849841940974816e-01 -2.699942659668184142e+00 1.788240656709088583e+01
-4.847697153386929525e-01 7.683883790011946102e-01 1.566954483929575659e+01
-2.381450977275016534e+00 -2.758117947061853314e+00 1.823670871113447944e+01
-1.936585714667091063e+00 1.020858339751453681e+00 1.312479545397815528e+01
-7.219622243476894852e+00 -1.756260048789254791e+00 1.550777508837589025e+01
-7.337212263238045429e-01 -2.564930121290708520e+00 1.801926922388922847e+01
-5.818047008510513152e+00 2.632542520307266987e+00 1.424807536715459477e+01
-3.518023119863785464e+00 -3.368095286134017208e+00 1.841770161304003395e+01
-2.957495020506442085e+00 -3.584324694161042046e+00 1.819953872474514966e+01
-3.333287045095612910e+00 -3.165809591554849867e+00 1.842256224490335015e+01
-1.572151414554550986e+00 -3.137774316143591591e+00 1.809661360083066839e+01
-5.047527364911442049e+00 2.702562236519606920e+00 1.361335671290720128e+01
-1.181653256648231398e+00 -3.119982427371190248e+00 1.805119608999851621e+01
-4.396970242887558555e+00 -3.188336588817201722e+00 1.858264690632574556e+01
-3.791679764847107670e+00 -3.598216700023140646e+00 1.840970096479412987e+01
-9.992031529417082503e-01 -3.311096189700834636e+00 1.790800172819438885e+01
-5.997395493815979250e+00 -2.525722895906522325e+00 1.875478187153904841e+01
-7.327159891387140078e+00 -2.711949797924713579e+00 1.834611684505373219e+01
-3.584403455262065386e+00 3.821331698129208476e+00 1.606751566914747897e+01
-7.735494456548289932e+00 -2.632212136445865269e+00 1.780588044297848072e+01
-4.555180123521994418e+00 -2.553753681946506759e+00 1.867936629969100082e+01
-4.732771637119796537e+00 -2.514085448588959437e+00 1.868860701252303258e+01
-5.021411941994925243e+00 -2.531914395960562558e+00 1.869255991932940830e+01
-4.976874080764604358e+00 -2.789022178910331107e+00 1.867399032023358885e+01
-8.100822454117304616e+00 -2.039316497584009902e+00 1.694366271864018714e+01
-8.087802643784218759e+00 -1.938134609494668092e+00 1.659202741473194109e+01
-5.798739548847771985e+00 -2.171883238487716028e+00 1.875941772636490512e+01
-7.431053550659392215e+00 2.017253946293817712e-03 1.495743081132289731e+01
-5.172713020925401750e+00 -2.351567759902556176e+00 1.870467292835335016e+01
-8.162353131556438157e+00 -1.697765821478033343e+00 1.667853358828324062e+01
-5.541142881027806055e+00 4.105599059421306762e+00 1.630551667987716158e+01
-1.795909049834279347e+00 -2.765982673310887208e+00 1.817115154786060671e+01
-4.595082463143679519e+00 -2.932398203868884501e+00 1.863860361695293122e+01
-5.767924609986017970e+00 4.479372215381115296e+00 1.715153822087483704e+01
-5.553264675893842650e+00 4.567654682380813291e+00 1.726754197905249200e+01
-7.590269937515680354e+00 6.319533139049734460e-01 1.501710074722648969e+01
-5.560573167189323485e+00 4.608380326404426519e+00 1.743062742171449386e+01
-1.353311731472723656e+00 -3.366557750857521292e+00 1.619895500319053738e+01
-5.281986927716035396e+00 2.137125548133785635e+00 1.299878354424501836e+01
-6.025383852243521687e+00 4.359628064514432744e+00 1.731772110428455491e+01
-3.597817671777666426e+00 4.563409525621504592e+00 1.768304435526762930e+01
-1.635269992827239061e-01 -1.027028636785973559e+00 1.600378827159967798e+01
-1.157984900428574271e+00 2.518435433073807683e+00 1.697099374913489456e+01
-6.269120835493994903e+00 4.178413453616719231e+00 1.727868401735475246e+01
-4.419085691101188651e+00 4.659505705438867551e+00 1.732583781806353684e+01
-5.133248873724115313e+00 4.073964375066360333e+00 1.791360162303100267e+01
-4.380712265628309510e+00 3.877726975832395340e+00 1.802515791122600675e+01
-6.827810579416006220e+00 2.998227194466469570e+00 1.754071105229447269e+01
-6.180233746711591536e+00 3.103959648346847899e+00 1.795123461852655922e+01
-5.750519190648505585e+00 3.531449396500260463e+00 1.795876285850590293e+01
-1.360488777070306243e+00 1.648806307040389330e+00 1.513667315030181371e+01
-4.307726695919519955e+00 3.993386268082990576e+00 1.798948669947122525e+01
-2.745845086822678915e+00 2.637183657019095406e+00 1.823058013567897362e+01
-3.162627769015822654e+00 3.079158003044952352e+00 1.817601888015283507e+01
-6.036237633779254708e+00 3.284796533942155428e+00 1.795270194570213462e+01
-1.970174441573232293e+00 3.510895037449345502e+00 1.785917104449406523e+01
-3.288112640862550062e+00 2.763607542310083431e+00 1.409002449000031376e+01
-2.226851459343288653e+00 3.837153545163692669e+00 1.764172096635980935e+01
-1.817086017714214519e+00 3.483910347823368170e+00 1.760713768409875613e+01
-3.073114633631546244e+00 3.311154348522161506e+00 1.550483882004497715e+01
-3.992708894138453424e+00 4.295600642060745322e+00 1.789157152168157339e+01
-3.934454786652233249e+00 4.553422140428536657e+00 1.780171747650063097e+01
-6.700547226050341365e+00 3.145902492732050248e+00 1.759201302223472752e+01
-3.558710171657443411e+00 3.477966492518508090e+00 1.810404665361108911e+01
-3.546101271704115376e+00 3.678304613051476935e+00 1.805430461128173292e+01
-3.212473427198781373e+00 3.248979346311545058e+00 1.522706952124302759e+01
-3.162768735155274680e+00 3.665136701632425442e+00 1.803648175450257085e+01
-2.984815021424124026e+00 4.075275915649596570e+00 1.790256363687290886e+01
-2.679946604733969839e-01 -2.881672744446246881e+00 1.655445792448155728e+01
-3.193336800416704868e+00 3.870976826381202329e+00 1.798140578559028668e+01
-6.024854258295006204e+00 4.125141689708590853e+00 1.760824048366002259e+01
-5.364259016455594775e+00 4.192800098314868329e+00 1.781908611785280172e+01
-2.681992959941684074e+00 1.876786461984353505e+00 1.319425588221043810e+01
-2.379448701312906422e+00 3.680104518395136637e+00 1.792418396245315293e+01
-2.130671370921465080e+00 3.520423537168730910e+00 1.791377763803353318e+01
-4.409419774358965149e+00 4.524594606436660449e+00 1.780763660550590188e+01
-6.561581116355768017e+00 3.319711044603493200e+00 1.762584235379075537e+01
-6.552937220964167864e+00 3.007049866852995024e+00 1.777739469165316066e+01
-6.605306909386101211e+00 3.779048259409380606e+00 1.713317869271760330e+01
-2.098949578433323415e-01 -4.443486280159114621e-01 1.582137543605830032e+01
-7.692036424643550419e+00 5.822751619160666525e-01 1.514281065206822419e+01
-5.185640496701944713e+00 4.633920961129438965e+00 1.765673512161647452e+01
-1.646902708292792950e+00 1.618835764306662206e+00 1.454214013812861239e+01
-3.129935180240324133e+00 -2.655139972426054484e+00 1.645916492546004051e+01
-4.547957942614399229e+00 4.552388216663728393e+00 1.779204789322794866e+01
-5.449127677493514454e+00 4.579005171292903853e+00 1.748658363901597923e+01
-2.571896034727708003e+00 3.261262828169150474e+00 1.808964100789181018e+01
-4.620114488174839606e-01 3.751598563545541776e-01 1.529048210330092061e+01
-7.239075028042826432e+00 2.984156777719523035e+00 1.644379796594543919e+01
-3.794771457806887849e+00 4.535597124517498635e+00 1.780233105217942224e+01
-7.098562691384547207e+00 2.629744890456684470e+00 1.575880610374185054e+01
-6.464012240586880509e+00 3.572256834805028980e+00 1.757739469781065011e+01
-6.533409557842542625e+00 3.655638710190686425e+00 1.747072839542566314e+01
-4.594884094049410450e+00 4.670354073317234622e+00 1.733320375411990355e+01
-4.796577094139687247e+00 4.700186384768877623e+00 1.749379528817685170e+01
-2.646368081713132092e+00 4.209590535074850592e+00 1.770637360021545348e+01
-2.665814754779680662e+00 4.188587486239954139e+00 1.781498156207156214e+01
-5.546023182114224070e+00 3.905131496235357602e+00 1.597330228172991085e+01
-5.547965870681759171e+00 4.441661616413459690e+00 1.765185125084385831e+01
-7.784336603581296643e+00 -5.124579569447742511e-01 1.537209727785569058e+01
-2.150620073911817087e+00 -1.307373628975819768e-01 1.835829021704877206e+01
-4.596137631223895958e+00 4.716234312188700706e-01 1.856799543828469368e+01
-1.693884874987574785e+00 2.326891604337034014e+00 1.567111216015198849e+01
-7.408427272568813393e+00 -1.193178415759522881e+00 1.527138410168415206e+01
-3.984126461088513871e+00 1.854099829642301689e+00 1.835418841488386121e+01
-4.187871318296040535e+00 2.426214047546210395e+00 1.828820706615177372e+01
-4.404854849182912702e+00 2.660066599023860334e+00 1.826398092071035606e+01
-7.793335063021279652e+00 -4.417605791802947657e-03 1.532661388674901204e+01
-2.094089212450239157e-01 -1.025826266261784969e+00 1.539106151307627002e+01
-3.439372806909310576e+00 -2.854698759438147881e+00 1.658602496621358924e+01
-2.967250013033185141e+00 -3.604311097195623148e+00 1.697730638462584452e+01
-5.412836903226191154e+00 -3.366895434034059775e+00 1.729433215455103934e+01
-1.634060849939756865e+00 -1.366274762019272559e+00 1.441068820157945751e+01
-2.807020452733453464e+00 3.213010684956231877e+00 1.561459633471705999e+01
-4.646536636393767239e+00 1.936045147748473472e+00 1.218340857329809879e+01
-1.090732157011750525e+00 4.535016631810195875e-01 1.387279580226875098e+01
-5.440596108149280852e+00 1.681172674628534036e+00 1.262213659259697707e+01
-6.184938154310803071e+00 8.218362276999078286e-01 1.846956758300680335e+01
-4.582069558469867410e+00 3.842101076375619151e+00 1.548120440418076882e+01
-7.150374890194527211e+00 1.443168849428742906e+00 1.444907009463991088e+01
-6.032523293480391402e+00 4.203463848278525816e+00 1.686088187298541285e+01
-1.529926700451785582e+00 2.786449360077885906e+00 1.675610155480826435e+01
-6.344492148651411867e+00 4.076355961771962022e+00 1.713194590084143343e+01
-4.342203727050055750e-01 7.661716670461745649e-01 1.585190853043770787e+01
-5.197652357770770948e+00 4.608513461086936047e+00 1.712012060995092710e+01
-7.169210485459617033e+00 8.467787311340352341e-01 1.439376098776475388e+01
-7.358431396681170966e+00 2.148074142116470853e+00 1.546537921433310103e+01
-6.247198683015584564e+00 1.681476362044390438e+00 1.358704783979405661e+01
-2.268908157341931742e-01 -2.457257996501740926e+00 1.652787788654510237e+01
-1.531007833973782595e-01 -1.085753835819844859e+00 1.698939261697613645e+01
-1.494660129870044041e-01 -7.133317982118922984e-01 1.640776017647440099e+01
-2.363349680564176269e-01 -4.337809939916525970e-01 1.562508743409005874e+01
-1.644207748199143504e-01 -6.620106697446193067e-01 1.603410423911791227e+01
-9.229898115796479896e-01 9.139351918318932011e-01 1.481101059648398532e+01
-1.844161374064854364e-01 -3.717207814087841733e-02 1.644266348550058510e+01
-4.071176303164327215e-01 2.125968545199605764e-01 1.529702429502643568e+01
-5.053416071999068393e+00 9.517547484730799479e-01 1.318879344633136341e+01
-4.808155100334686738e-01 5.822310789393695396e-01 1.547028341064199353e+01
-8.099064999830086764e-01 4.550833898805618505e-01 1.448196086349706135e+01
-6.048202851880420949e-01 1.504666375179367854e+00 1.634533411981491113e+01
-7.058182627535511955e-01 1.120687864078829143e+00 1.555243076575867534e+01
-5.853338292374630214e+00 2.879502587027935157e+00 1.463470606372203875e+01
-6.680974054863783040e-01 1.484990745776868515e+00 1.616088557341030096e+01
-8.721215200502928644e-01 1.328034932514103428e+00 1.553761773725760165e+01
-1.070144587485745369e+00 1.176251009770779454e+00 1.491966108727837437e+01
-3.665235297665016656e+00 2.523020590195061530e+00 1.321995159657277341e+01
-6.044401352724866783e+00 1.907151210235795036e+00 1.359253277688175743e+01
-6.403836127967464265e+00 2.235356305865876081e+00 1.443037288359031933e+01
-1.214660661815855303e+00 2.695334415958319241e+00 1.719366848350123789e+01
-2.889678935281207117e+00 2.582463298319195744e+00 1.424053891145131345e+01
-1.137335103620048304e+00 2.373111064708080420e+00 1.674911745783376560e+01
-1.943000118894715467e+00 1.139072341387564746e+00 1.325834389582154316e+01
-1.562551668877932398e+00 1.114136122602444878e+00 1.390317440681724648e+01
-1.932245876621743630e+00 1.220415867758602779e+00 1.339551594636369813e+01
-1.156064748211963922e+00 2.153613277439949680e+00 1.634944788622390988e+01
-1.387110347733234494e+00 1.804485059381779166e+00 1.534389820090259704e+01
-3.764812897680701820e+00 3.618185262060515939e+00 1.546939055691828102e+01
-7.870532256314035635e+00 1.198711127297289014e+00 1.619665436906673150e+01
-2.038500416438346008e+00 1.455323610752342844e+00 1.354056889303175737e+01
-1.640333267580802223e+00 2.568008903331692849e+00 1.618151394326030257e+01
-1.769753618577537102e+00 2.589198638612450587e+00 1.599353743116509108e+01
-2.027733254616702396e+00 1.822044416237934339e+00 1.417305931078089642e+01
-6.403567139385952345e+00 2.605733397619244940e+00 1.488535393303210341e+01
-6.618430729413194769e+00 3.332795652635367034e+00 1.610553562482512646e+01
-5.853758334067110880e+00 2.115081490242046058e+00 1.360125362492093259e+01
-6.026728106150827102e+00 2.286817928639083952e+00 1.402888959486550746e+01
-1.997750806338176810e+00 2.226287046233513145e+00 1.496157034937624175e+01
-1.915369361856396058e+00 -5.558207715746965594e-01 1.834493522718804925e+01
-2.142236168027379151e+00 3.366766990862054776e+00 1.680556685265914396e+01
-2.059007546330203553e+00 2.883446490145188612e+00 1.606623302555905397e+01
-2.004739149706471046e+00 2.581325108923525846e+00 1.560033272175399688e+01
-2.195041961408899844e+00 3.304175665441500875e+00 1.662606587731488261e+01
-2.599239909658083825e+00 1.739134266885510538e+00 1.307442747254667736e+01
-2.961081120572238490e+00 1.806782126067931538e+00 1.266724939044650355e+01
-2.632629431446045221e+00 1.924893327928303588e+00 1.336093791735206437e+01
-2.418014237735067073e+00 3.155832596721732664e+00 1.605579903062940517e+01
-4.369297642188667008e-01 1.457141746189598130e+00 1.729265977735692772e+01
-2.351302101594970217e+00 2.847672520721912903e+00 1.556892050704005825e+01
-2.386032441685440375e+00 3.205332412340831105e+00 1.619041783330446904e+01
-3.000412499540177080e+00 3.964686618395036888e+00 1.686632550676852915e+01
-2.432897870881945757e+00 2.401095300180228875e+00 1.459353372967690277e+01
-2.618700996493312338e+00 2.117386194759447005e+00 1.375324002622972230e+01
-2.848034077814995957e+00 1.901836563550852510e+00 1.298732049728365112e+01
-2.756852061383429753e+00 3.592231326135727265e+00 1.642686705700634420e+01
-2.559622929275220393e+00 3.028936175729966429e+00 1.561911442917421411e+01
-5.211962579267668261e+00 1.913121183021309735e+00 1.262163489404082739e+01
-6.188625410795342674e+00 3.374495798742259467e+00 1.567773926033122578e+01
-6.041898296090566944e+00 3.744508836886502934e+00 1.609115988740419212e+01
-5.997593895750670256e+00 3.374140439124532875e+00 1.549101426921427205e+01
-5.455816128481753680e+00 2.723935452713565297e+00 1.401301798867087101e+01
-1.086616438079432090e+00 1.698299887914108242e+00 1.572798916699340666e+01
-5.613111443740697482e+00 2.652030271800666306e+00 1.406408209695044675e+01
-1.054449080519206383e+00 2.448914237636147906e+00 1.703648588405654252e+01
-6.017221639674790623e+00 3.616316009686958211e+00 1.586871934434617870e+01
-5.805945423137465866e+00 3.985914205906013308e+00 1.629327561744005592e+01
-2.980964804583909888e+00 2.711614945813010102e+00 1.437103787659882315e+01
-3.170109797230363569e+00 3.949564345535480747e+00 1.666345735946724815e+01
-4.689660513962325084e+00 2.336864145276885907e+00 1.278258448677071257e+01
-3.387807966858793041e+00 3.919800114747013176e+00 1.643132901635528142e+01
-3.029919999768772687e+00 2.662796954763805068e+00 1.420342422757152079e+01
-3.596129091198720928e+00 4.199724337539493035e+00 1.682345860302459428e+01
-3.467681418467377874e+00 3.897565638685416722e+00 1.633026633079800760e+01
-3.200691245365147708e+00 3.429103254024902903e+00 1.561503541376499626e+01
-3.168726752068820929e+00 2.727362263798374542e+00 1.415696527164707064e+01
-3.769080228120594178e+00 4.197510797318594555e+00 1.669333338514234910e+01
-4.138816178835085680e+00 8.077210188174356320e-01 1.306107591556201086e+01
-3.385558073948848890e+00 3.447779524983872967e+00 1.546886443094701136e+01
-5.435033120336798973e+00 2.886871101727999545e+00 1.423976889714051097e+01
-3.394659439076967544e+00 2.747206855574852113e+00 1.394150367059164708e+01
-5.422277552795135236e+00 3.654093657085985214e+00 1.546698027219601457e+01
-3.614585308585741785e+00 2.875459067896160015e+00 1.401753774902636351e+01
-3.983353273248406268e+00 4.354885412287941904e+00 1.687126386212408491e+01
-3.857851250588022918e+00 2.287595902997822339e+00 1.265132975517965619e+01
-3.819658534019533924e+00 3.737504445995698532e+00 1.567884024022785994e+01
-4.003446465499012952e+00 3.984881167733937524e+00 1.606824691913606884e+01
-3.970748762108215146e+00 3.675378179367727149e+00 1.544100501866698139e+01
-1.445521907286205221e-01 -1.248184037363600174e+00 1.638839919663513811e+01
-3.819876122450690747e+00 2.563429600757825888e+00 1.318002153070687044e+01
-3.837298424312939105e+00 2.865105622155645904e+00 1.381270468379890914e+01
-5.004718129344915667e+00 2.631076365451877841e+00 1.346264708164438062e+01
-5.401608789392673415e+00 3.792594809171538017e+00 1.568078266052383540e+01
-5.370574319290964738e+00 3.354293821962239797e+00 1.493450526169696602e+01
-4.817983109129215791e+00 3.198154549752485032e+00 1.426512686470699620e+01
-4.828281625268967758e+00 2.549944883059017009e+00 1.319320823984607571e+01
-4.588102054034315813e+00 2.445232407323044477e+00 1.285229799088150671e+01
-4.445300037245376590e-01 1.312192126778735091e+00 1.649455852944361212e+01
-4.217011011382322039e+00 4.096085795064267288e+00 1.616733328352306032e+01
-5.236979100136165854e+00 3.843034111563595090e+00 1.564949751043388559e+01
-4.036969103002380876e+00 2.450870238299815540e+00 1.284141374071168329e+01
-4.817159297248199579e+00 3.083335213317787371e+00 1.406267070794141105e+01
-4.381784848486637962e+00 4.101669878644750078e+00 1.608511308587678812e+01
-4.213277647462511766e+00 3.754850126782075748e+00 1.545003049102393433e+01
-4.387621062336792832e+00 4.010221754932676852e+00 1.588899078363129647e+01
-4.402291884322275806e+00 2.484929254336317506e+00 1.284646533593091178e+01
-5.181054761146722143e+00 4.325925531017794867e+00 1.652041037058678441e+01
-5.000640478067762018e+00 3.930691894810601994e+00 1.568869534827709700e+01
-4.645515235658541187e+00 3.110621598912840291e+00 1.403995633525153508e+01
-4.985940912822783844e+00 4.531673645088014624e+00 1.689839866127248413e+01
-4.465546012011472499e+00 2.821454220649511235e+00 1.346163884461280347e+01
-7.992737941599305174e+00 1.931438510078817838e-01 1.575365069900938053e+01
-1.370608375020981207e+00 -2.538033457914669277e+00 1.817713294035468508e+01
-7.509582161511557663e-01 4.704841145712815864e-01 1.464384361348265529e+01
-7.615116648854629133e+00 -1.409893289958817020e+00 1.548134543808394525e+01
-1.777438481528101910e+00 -2.143313165108157392e+00 1.825736691106620313e+01
-4.423802473852033401e+00 -2.273012284452795129e+00 1.869692384818478459e+01
-1.980509950829804966e+00 -9.309439131882650820e-01 1.835023862297270725e+01
-2.224004251104370056e+00 -2.065342045720549580e-01 1.836811831798041439e+01
-4.358033592637287068e-01 4.123546912583038737e-01 1.543157101060443281e+01
-2.582853414015968241e+00 -5.539211078535628552e-01 1.841932784863476869e+01
-8.132322415668493676e+00 -2.826847597046318050e-01 1.691222681772013559e+01
-1.697804980368996519e-01 -1.111745011222738722e+00 1.719764008438872693e+01
-6.153779984597081310e+00 3.542853108102499426e+00 1.589504880299251610e+01
-3.391020440957540849e+00 -7.459727713267461091e-01 1.860156146698193780e+01
-6.325924189536122899e-01 -3.280415289365652409e-01 1.798088386344501188e+01
-5.334684821035388103e-01 -3.142428895973052860e-01 1.787688428346564606e+01
-4.357501964046466725e+00 -3.606166722424455351e-01 1.866249525747602078e+01
-1.976170655392369913e+00 -1.495291626993606737e-01 1.834413211580082148e+01
-3.579528900078341014e+00 -7.675219875987022711e-01 1.863903419938121786e+01
-4.759685535858135808e+00 8.413714817530052459e-01 1.851151683201957709e+01
-4.566610530630754283e+00 5.614385449301595443e-03 1.862226616412288038e+01
-4.359940609974407799e+00 3.397859532773717106e-02 1.862016934182754468e+01
-7.938747892829026043e+00 5.874970900308403854e-01 1.577243815431063112e+01
-6.996015419052325157e+00 -3.225299688712519597e-01 1.859833336759493605e+01
-4.189516389730581380e+00 2.250744096463287214e+00 1.249310739067123777e+01
-4.584097524642296584e+00 -5.424909292460549093e-01 1.867434858091931105e+01
-2.771587917454578776e+00 -1.760588793510290406e+00 1.845390124551957101e+01
-3.019628887754085333e+00 -2.143468944981975710e+00 1.849837155548568646e+01
-1.000323094313492867e+00 -1.525224308426446518e+00 1.819762361449631172e+01
-7.425264809475649486e+00 2.204785669489680799e+00 1.562613269878351119e+01
-1.187713946334010728e+00 -1.556858248465018635e+00 1.823108230853079803e+01
-5.190828723903441855e+00 -1.564374489906089183e+00 1.871811802508574019e+01
-2.914749691366191442e+00 -1.548348227034261226e+00 1.849746167574230427e+01
-2.012891177245571317e+00 -1.568919731276392282e+00 1.832828160894932878e+01
-1.417073801205378736e+00 3.062213670498979745e+00 1.760171743773065955e+01
-5.499600221303678538e+00 2.370726872328069224e+00 1.354419451102135596e+01
-3.759006759018026056e+00 -1.759155085474695790e+00 1.867187286096150345e+01
-1.698280711940090670e+00 1.204346362592631392e+00 1.379478646840997769e+01
-6.822078346459036879e+00 1.644592178291051976e+00 1.421298697006607981e+01
-1.965676064459873418e+00 -1.326854323317259388e+00 1.833814641437812654e+01
-3.215750846022715215e-01 -9.127223666028190241e-01 1.766053444958971497e+01
-2.026454746803345586e-01 -1.883677387364558919e+00 1.717613358708533511e+01
-5.629313422900969144e+00 2.149075121906288466e+00 1.829873065324386872e+01
-2.173308500311780023e+00 1.649859394386802069e+00 1.828243759218576159e+01
-7.341094556781165181e+00 1.661704723026351083e+00 1.757146899142760432e+01
-6.774675746008576027e+00 2.560889684999721805e+00 1.527908984393818415e+01
-7.109002916928195859e+00 1.875011278230857004e+00 1.775442301721183114e+01
-6.215854490243643005e-01 1.908238871728400676e+00 1.696305847587681015e+01
-4.361498451633742945e+00 2.834385907660950110e+00 1.824391245517263727e+01
-2.794102853392342656e+00 -3.793086638120328757e+00 1.789200704977440992e+01
-3.765320046464253334e+00 1.867485859097560263e+00 1.834672685508060752e+01
-3.370420094374732667e+00 1.872787213431888143e+00 1.832649542115730767e+01
-2.061056259936545842e+00 1.626369661535354227e+00 1.377310518807263762e+01
-3.865845837067204416e-01 1.516837858285097873e+00 1.712437877551944965e+01
-3.972888037302384490e+00 2.457430944066787859e+00 1.828291126688342061e+01
-3.932126889239419665e+00 2.339953854297245339e+00 1.829659520998265876e+01
-4.169455726817393959e+00 1.887052896286260939e+00 1.835111064344250664e+01
-4.582165573338061293e+00 2.659488903095702739e+00 1.826827740933025623e+01
-4.609042980928552247e+00 3.161775528996310314e+00 1.413505098589322628e+01
-6.547381719932486632e+00 3.296176552929416026e+00 1.595243957825084280e+01
-1.507850376821988192e+00 1.466646956445928351e+00 1.822451889471187414e+01
-2.559761034834522775e+00 1.244656783639156439e+00 1.830855325418348301e+01
-5.379545506758846685e+00 2.078893241583862128e+00 1.833661374851812198e+01
-7.268553643675916831e+00 2.469114615463202433e+00 1.576025616225604509e+01
-6.000211337781262699e+00 1.644673659132037891e+00 1.832486502483867596e+01
-7.822095232328718950e+00 1.343266619053177235e+00 1.659299970961719239e+01
-9.426207854993136070e-01 2.495363557973528046e+00 1.739670856723794046e+01
-8.281700658078299249e-01 2.284244926308272028e+00 1.718131338556939980e+01
-6.842162757135126228e+00 3.220075927456227838e+00 1.625208171532116452e+01
-3.980520519064477014e+00 3.471293419788733736e+00 1.812068758226371656e+01
-3.821123509799821960e+00 3.253751023599783743e+00 1.465622080792898529e+01
-7.876172636490418100e+00 1.167025634379736054e+00 1.639533281303633672e+01
-7.869094079937053010e+00 1.139223204278163371e+00 1.658301971543825815e+01
-6.360998958002888060e+00 4.673363710587313813e-01 1.852787851949528530e+01
-5.966578729782618495e+00 8.429329239356432302e-01 1.848648703181546082e+01
-6.392404200840513084e+00 6.466335285327085014e-01 1.848306008251854493e+01
-6.364451773668449164e+00 8.707692370001576254e-01 1.843500046909824519e+01
-2.962378054760796076e+00 4.510968646108704516e-01 1.843122879859126684e+01
-2.381310796766172633e+00 2.579480739790379618e-01 1.836078720754222715e+01
-3.182246475620889470e+00 -9.877146280431281511e-01 1.856191089487648682e+01
-7.883991347816607487e+00 9.789580120299556931e-01 1.678689946781374331e+01
-7.913420851505266640e+00 8.725655941153405148e-01 1.675823256234295044e+01
-7.419623915792765700e+00 2.902471150306322190e-01 1.818314248125807708e+01
-3.633965291542350151e+00 2.797940789639812742e+00 1.383446925298008878e+01
-7.817030460943424686e+00 1.896524683847194970e-01 1.534532436954993884e+01
-4.183821851550671767e+00 8.431160263282253542e-01 1.851032551653245761e+01
-3.836184605055851904e+00 4.617311281423551073e+00 1.758821236841271585e+01
-1.759062190837205275e+00 1.057290285301110577e+00 1.828311828424277863e+01
-2.173467611530092825e+00 1.089443308978808922e+00 1.829869908485761343e+01
-1.778058704338378426e+00 8.568374452556573040e-01 1.828731918939508105e+01
-2.162505921054945102e+00 8.764606421926117719e-01 1.830898217276191886e+01
-1.980230485735880785e+00 6.313173679954617867e-01 1.830969113551607208e+01
-1.982756139464374678e+00 5.862651045007760686e-02 1.833741540308472295e+01
-1.982643558516811844e+00 4.333166020517300043e-01 1.831992234243086770e+01
-4.975165419222447483e+00 1.670903208917555061e+00 1.838836287046351359e+01
-4.761425121284716511e+00 1.251818435312589184e+00 1.844333317518682591e+01
-4.165517425039373833e+00 1.641736402766074132e+00 1.838514146103432623e+01
-4.383441844694262457e+00 1.654614867725638261e+00 1.838533376716572221e+01
-4.950702325259269898e+00 1.045383473502548677e+00 1.847674989518083422e+01
-6.146695613319488771e+00 9.238666367734400531e-01 1.845057326599149761e+01
-4.565388347346564402e+00 1.273690962263243964e+00 1.844049866650090408e+01
-1.408091490051189609e+00 2.897555686195368629e+00 1.720379987751784867e+01
-4.366508513776290457e+00 1.268231649690177321e+00 1.844210295733725857e+01
-4.183241698078932203e+00 1.054412489320593505e+00 1.847505821332324061e+01
-3.252924379555188761e-01 6.911946221660256739e-01 1.734924871309801730e+01
-2.611561702613551805e-01 4.881408554520003107e-01 1.724902288651644611e+01
-4.530943584780269262e-01 1.083077805660143778e+00 1.744948302995172540e+01
-9.665842742321044678e-01 8.489280642041595604e-01 1.805714006602550725e+01
-1.198321526927554004e+00 8.599609331084412389e-01 1.817276264042378031e+01
-5.416402244299494129e+00 -2.753991516644063609e+00 1.689105945791319030e+01
-7.733201607438731529e+00 6.160801905787510746e-01 1.520129922326024641e+01
-7.713084261275680475e+00 1.481480906064516434e+00 1.696793052551288028e+01
-2.766036582737067206e+00 1.051781866513175956e+00 1.834094530990515537e+01
-2.401930813516708341e+00 1.061654095623512539e+00 1.831242358848575336e+01
-2.580320638827898971e+00 8.546196489153812248e-01 1.833888722158843976e+01
-2.384479448327850193e+00 8.438663533912851289e-01 1.832429860221884255e+01
-2.789352489124534706e+00 6.674545398138965746e-01 1.838027031818249313e+01
-2.587786662780472646e+00 6.571255149619316116e-01 1.835599354030336272e+01
-2.948533237389131756e+00 6.786622746820409890e-01 1.840231009373845339e+01
-3.998391608279219245e+00 1.166870784732358057e+00 1.845528013221204944e+01
-3.960660178521767882e+00 1.638045705591578471e+00 1.838308701877373252e+01
-4.773305230160929113e+00 2.051509592548111716e+00 1.834708482143989627e+01
-1.053974431391663691e+00 -5.421554744674332849e-01 1.408385123538624484e+01
-5.039933762001846063e+00 3.088915028753180358e+00 1.423622391224737882e+01
-1.918070235038741855e-01 2.749747489814536316e-01 1.666273495671941518e+01
-6.412661620683598684e+00 -3.389755059401847070e+00 1.770221245781563724e+01
-6.177120284971744368e+00 -3.492428211574972075e+00 1.776748061688713776e+01
-6.166460602494792553e+00 -3.429324585057528907e+00 1.763099127596182925e+01
-6.407043628498179544e+00 -3.226801209501409140e+00 1.740095440463020182e+01
-3.043730117810272251e+00 6.379560744209978873e-01 1.306860826280835042e+01
-5.364489625362073966e+00 3.730463811739382685e+00 1.555022129603140613e+01
-2.432263833780217710e-01 -1.240190349099833167e+00 1.518574598862846514e+01
-2.043927510197326991e-01 -1.211654831496302043e+00 1.540155370426347403e+01
-1.322088557339563764e+00 2.421061522922458131e+00 1.649951239285811866e+01
-3.000303089048992788e+00 -3.678918012417378591e+00 1.711774158831694947e+01
-3.589244087746049416e+00 -3.561936665020811965e+00 1.708184665210063358e+01
-3.612317036005931126e+00 -8.134740017937613921e-02 1.454090770349623440e+01
-3.245446751508585859e+00 -2.882320360108721502e+00 1.656692488824435472e+01
-5.602261396843311037e-01 -5.814755280895997913e-01 1.455291795424838242e+01
