-1.249652178893687626e+00 -6.423313946373103711e-01 1.946274640704882231e+01
-6.988815781779611491e+00 -1.601818060694260026e-01 1.898815295738966924e+01
-6.603349399809874676e+00 -1.673009148821323677e+00 1.922941714132050706e+01
-4.812832618964435483e+00 3.507120510415506764e+00 1.834347320164269135e+01
-5.323663837899948348e+00 -9.344280273928085023e-02 1.391697923711724982e+01
-3.517440121687178234e+00 -6.377919535312432942e-01 1.510251499777604423e+01
-5.191858077048601139e+00 1.936960855119140845e-02 1.381608926013494809e+01
-4.365003423927812598e+00 1.938124545549489985e+00 1.885238371905989041e+01
-7.015469753033436895e+00 -2.340456279658242877e-01 1.899740608340397685e+01
-3.591829152574073980e+00 -1.824697798521446757e+00 1.955123583548791899e+01
-4.501250640078686693e+00 -1.888791492320980758e+00 1.737912633766024229e+01
-7.437474365981990410e+00 -1.500187856187043423e+00 1.904057415716902923e+01
-8.057697516022681583e+00 -6.639506060699971179e-01 1.845304643319405713e+01
-7.233387875115231402e+00 -1.522668525880477297e-01 1.568611990978272885e+01
-6.404034971128331755e+00 -2.478308081127886808e+00 1.917070378025716693e+01
-8.160478234070414061e+00 -4.494393211184868342e-01 1.809619139706159174e+01
-2.171893032489755626e+00 2.059968433142227440e+00 1.833676920895929285e+01
-7.458185375123320249e+00 -1.426804029224220116e-01 1.879457837458084057e+01
-8.165848284322784423e+00 -4.300067549047774662e-01 1.796099598491655414e+01
-8.240723209889335266e+00 -3.608604863235500559e-01 1.765384007760161822e+01
-8.046621048025841105e+00 -5.310340704880145424e-02 1.586636587772552431e+01
-3.141603168410917135e+00 -1.603231996477580523e+00 1.705676962208481839e+01
-5.128603035031899182e+00 -1.481686883850139580e+00 1.619405355295641513e+01
-1.520503063031121371e+00 -2.091382558265423519e+00 1.866383660085849172e+01
-8.244432599903142034e+00 -3.640797055398268256e-01 1.744306728249899763e+01
-8.293533385235523525e+00 -3.315693038575711071e-01 1.724455769397542682e+01
-2.164702630784444803e+00 -2.162755889511521978e+00 1.905213409327394558e+01
-8.630344057868462038e-01 3.898896776783224993e-01 1.917694474469736932e+01
-1.778399020659637841e-01 -1.820171318343091649e+00 1.811336712557163153e+01
-7.632404930899949314e+00 -3.480102403003684230e-01 1.682057676582098438e+01
-8.356241555908990648e+00 -2.842778924143214425e-01 1.716132732392782501e+01
-5.718478578414378788e+00 -1.082927915732311952e+00 1.543513878252931093e+01
-6.103503061961107257e+00 -2.677794533215407391e+00 1.851958521965563520e+01
-5.899199834523917829e+00 -2.694950618106402018e+00 1.852912900226944615e+01
-5.357880731193304769e+00 -8.345728692256351167e-01 1.508506575063777078e+01
-4.286658797432739476e+00 2.042898003661559603e+00 1.882962147597538305e+01
-1.706877431542248136e+00 -2.092071326163075895e+00 1.862941774947684692e+01
-8.300075052349356497e+00 -1.634964930520204085e-01 1.664195548968247707e+01
-8.255174627103318841e+00 -1.267387091627099061e-01 1.647785925478667579e+01
-7.858940135731326215e+00 -5.533562158000573383e-01 1.748249991874667231e+01
-6.543893436374344397e+00 -6.483698694044801591e-01 1.464706764864238053e+01
-3.183770457009785559e+00 2.265152974008438402e+00 1.717278751307047813e+01
-8.031982962728612563e+00 -6.100169346529815684e-01 1.784158642795934568e+01
-3.104457444378917685e+00 2.037770747961964446e-03 1.391392278256629211e+01
-6.758049253602092854e+00 5.203768865981621694e-01 1.482105881202886266e+01
-3.954220744403951215e+00 -1.141779842254717181e+00 1.606955502371166844e+01
-3.886897496503960880e+00 2.945017778251156848e+00 1.778248599935674079e+01
-7.941408330210346200e+00 1.064147216001961826e+00 1.759440476119015884e+01
-3.536222201769280815e+00 -9.685551934997898016e-01 1.571054342141387750e+01
-6.866578177926927928e+00 -1.891387953606286310e+00 1.773128893999131250e+01
-2.956746352256154786e+00 -1.405487151999969875e+00 1.667511134920950511e+01
-1.208290097940436070e+00 -1.435852950627015012e+00 1.950290312038870510e+01
-4.611077569240813467e+00 9.920532217019033538e-01 1.329046799022338021e+01
-5.955440136160485842e+00 -1.642309822328797964e-01 1.394138211178158926e+01
-3.123151682522512296e+00 -9.744085478663810918e-01 1.555020918325632451e+01
-6.643909454970692074e+00 1.857571196151974524e+00 1.844194158998416455e+01
-6.788296094891946630e+00 -2.275046247272969779e+00 1.850220148068759940e+01
-3.137293586082513741e+00 -1.017866205326400930e+00 1.568426197428516744e+01
-9.703987428643556790e-01 -1.014417161828053082e+00 1.615752670387676559e+01
-6.938527023230965263e+00 -2.692391009612702391e-01 1.530597718101070726e+01
-3.307454244042975944e+00 1.775694957018709275e+00 1.590027583848270254e+01
-7.525598547959066131e+00 -8.774176873569086155e-01 1.742331036653000709e+01
-4.133011796717092068e+00 3.236304689928701794e+00 1.829643942760884912e+01
-4.406428082439362903e+00 -1.658280947996849441e+00 1.951918511549851232e+01
-3.465158617518890871e+00 2.191135926173760851e+00 1.663323510340044820e+01
-7.451757815364925541e+00 -1.265872573576060311e+00 1.900551675351101366e+01
-2.948679707484672008e+00 -1.038606688794081911e+00 1.571970531875371435e+01
-3.756778234795659088e+00 -1.470509647782486162e+00 1.662043294357219381e+01
-7.257412007825592148e+00 -9.688578970665266965e-01 1.678478583069980701e+01
-5.533801346230179163e+00 5.057326215800110880e-01 1.342497065562076486e+01
-7.264064726185416099e+00 -3.692684761884437172e-01 1.622613932913830226e+01
-2.741595077409268555e+00 -1.109062653787293407e+00 1.588373001896205849e+01
-5.876806960336828922e+00 1.414415175483781484e+00 1.485332381752916930e+01
-3.278564153643655388e+00 1.213965737465114714e+00 1.467967084331255379e+01
-3.478210897413316349e-01 6.124034786382459572e-02 1.881951135543706144e+01
-3.546751358204100590e+00 1.667557029450791317e+00 1.536744911972106209e+01
-1.555169561159281955e+00 -5.425338793374221424e-01 1.516519561259893933e+01
-3.649718064908251236e+00 -2.402421509020307155e-01 1.949563774318721343e+01
-7.339882747368952742e+00 5.140504092031954464e-01 1.546652873903255099e+01
-6.095087480419067560e+00 2.709565352464722743e+00 1.832704309004339294e+01
-1.706026995442342820e+00 -6.341038441685338256e-01 1.521540712773338200e+01
-5.551318172617023095e+00 -1.445981158269677991e-01 1.390512715734635307e+01
-2.644674415526993450e+00 1.053824314730408496e+00 1.507312854329248708e+01
-6.354580210834443577e+00 -7.047239031291030464e-01 1.523385750110785253e+01
-5.496532199093837612e-01 3.666305463509189622e-02 1.903323782552336141e+01
-4.745924068893756953e+00 -5.023598929027546234e-01 1.472842883826195148e+01
-6.582277862990365769e+00 -5.176752793006156317e-01 1.522368296690744316e+01
-4.080303072691000565e-01 -9.303686685066399065e-01 1.900266477990650671e+01
-4.114941384518517431e+00 -4.725845516383420097e-01 1.947760231970019973e+01
-2.882953144428326286e-01 -5.748262380237934011e-02 1.807210634745306876e+01
-8.237820346701791863e+00 4.593846130285319518e-01 1.636508945894594191e+01
-7.871782893476116705e+00 -1.177341196113061983e-01 1.587322461864343737e+01
-4.516738043931716184e+00 3.142955021599225685e+00 1.778648796638407603e+01
-3.511363877652723176e+00 -2.289407222880878834e+00 1.947541871928414636e+01
-3.142369178064958746e+00 -1.364409005662323260e+00 1.649161235273127701e+01
-7.983789320271989176e+00 -8.917396428407586839e-01 1.860459000365038307e+01
-6.275901790532872226e+00 -2.483537773058453801e+00 1.811807216612661264e+01
-6.499339835683957567e+00 -5.779731741647617937e-01 1.501329512396157995e+01
-2.763669452509716074e+00 2.445613012215749116e+00 1.842504685856286883e+01
-4.290058810530700484e+00 -2.542487442186113000e+00 1.853797155602939384e+01
-7.221868520798239821e+00 1.940769446273413967e+00 1.704764687183417848e+01
-8.091495776291342423e+00 -6.717764883413943622e-01 1.824362625887741629e+01
-6.534760578569919431e+00 -6.200775352331318047e-01 1.484507748364033475e+01
-8.061229679756497291e+00 -6.520753426702041722e-01 1.801727085056360878e+01
-8.089917738536307468e+00 -4.659105409494452843e-01 1.763169358739871839e+01
-5.356480000113802653e+00 2.000382540780573315e+00 1.510503311729763354e+01
-7.437218395542180893e+00 1.915488810252224949e+00 1.746200278698445274e+01
-5.741031731304348185e+00 -2.534054775602307963e+00 1.928293927715737155e+01
-7.185777608346964662e+00 6.073000098993124318e-01 1.540929912842767280e+01
-7.660469484853972055e+00 2.408448236116060848e-01 1.548219133351494392e+01
-7.771200869028866087e+00 -9.931074799545092091e-01 1.786179718086580337e+01
-2.922087343156654526e+00 2.586117221675574562e-01 1.326861713361927642e+01
-8.232556329490982705e+00 -3.194421961626034978e-01 1.703365504277197218e+01
-6.694758493466452798e+00 -2.391739088909634603e+00 1.870407223211186576e+01
-9.139889603234854221e-01 1.892318877617622519e-01 1.669061552375887558e+01
-7.499898239690971913e+00 -4.730550067400920433e-01 1.678537581323874761e+01
-8.261584925066980389e+00 -2.676663133137848760e-01 1.688505209413881758e+01
-6.614614984459728397e+00 1.684153469609354081e+00 1.853310616563939206e+01
-2.130675314861603109e+00 -1.925952176102850188e+00 1.786450700667948510e+01
-7.196752782342621835e+00 -1.666295676121671399e+00 1.912766697454211950e+01
-6.518817839019056315e+00 -9.422948707782206057e-01 1.586371141691600783e+01
-5.185597134517944795e+00 2.392708491601834186e+00 1.597148018271456138e+01
-7.963056202963756824e+00 -4.743949255002370968e-01 1.853820449380819824e+01
-5.924034423131217864e+00 -1.586044023111035095e+00 1.612990857952286561e+01
-7.948682467070811164e+00 9.236784517692346874e-01 1.675992413558467931e+01
-3.126176587631568360e+00 -1.132177307774830943e+00 1.608537053424436536e+01
-5.760516460934241856e+00 8.631774392791951023e-01 1.901279986491870844e+01
-3.305853534764580104e+00 1.160948719380988425e+00 1.452815786087071714e+01
-9.320652509166360566e-01 -1.715679947558832019e+00 1.771860667329300654e+01
-7.166697347651429517e+00 -4.598922840844896776e-01 1.896386691834753790e+01
-8.131416732608968800e+00 -2.099594344142365898e-01 1.661157763888350658e+01
-2.988123424622212809e+00 5.182624427066184758e-01 1.340333707345893899e+01
-7.983531833982103088e+00 -8.008650139518627142e-01 1.801807959864902742e+01
-3.805887542488829212e+00 2.438470532462316154e+00 1.678653302482292631e+01
-5.862126666598092228e+00 -6.406980721596573503e-01 1.921142464594451482e+01
-5.180694502396416823e-01 -1.492790281107710726e+00 1.726435008401428561e+01
-7.490495777387839560e+00 -2.349252021110896926e-01 1.495302003666461488e+01
-5.331041427069696859e+00 -2.390581919618863793e-01 1.410290113100863252e+01
-3.559713628574312949e+00 -2.424348757454917624e+00 1.933176916697202685e+01
-7.425444333209305192e+00 8.488197011814424542e-01 1.842614221358870097e+01
-1.488255839646495549e+00 3.641711367774518315e-01 1.940759901694981338e+01
-6.742551278262321368e+00 -4.909965270506955193e-01 1.446287578887096359e+01
-7.488571857918619123e+00 -2.602552838833993576e-01 1.643611516386657811e+01
-2.510686380183388522e+00 6.491286447463733289e-01 1.428312676194088127e+01
-6.151597935497151504e+00 -7.500971881745490677e-01 1.466902021283558000e+01
-3.773020114579879625e+00 3.184892041262728402e+00 1.860647449122758346e+01
-2.353198793514382547e+00 -1.627931242033406889e+00 1.728450630951753553e+01
-1.753005595353980262e+00 3.521323930916420153e-01 1.482093568313292664e+01
-6.147035506505797997e+00 -2.385967031679494532e+00 1.929158780344138435e+01
-5.956736956374209413e+00 -8.210977720739416341e-01 1.486211876762879669e+01
-1.276141176900757124e+00 1.131158272947276444e+00 1.790367316133664488e+01
-1.985474139172977992e+00 -1.927163054472258885e+00 1.947107447987293583e+01
-4.532441359113445145e+00 1.980017656515840274e+00 1.534241768235915160e+01
-5.915635480125801315e+00 -8.831869291870555472e-01 1.501415913569858773e+01
-4.568649022333803877e+00 -4.604848632732410074e-01 1.470097931001857816e+01
-9.394095713519114987e-01 -1.507550849905527457e+00 1.726365567424788239e+01
-3.514927106548493718e+00 2.855496778012842185e+00 1.808543727630351938e+01
-3.694077660921012196e+00 3.083674730276839249e+00 1.862396056025001556e+01
-3.361848654478209575e+00 -1.980694537551777046e-01 1.434710123029644890e+01
-5.775617070349350790e+00 1.104180290223976346e+00 1.896283926904240147e+01
-5.115071976134160536e+00 -7.744519287849387368e-01 1.508389673345880411e+01
-5.995370649383617412e+00 1.695888088206134015e+00 1.870793664731730743e+01
-2.129509050559311056e+00 -1.991714547280363234e+00 1.803960427638671504e+01
-4.135299709157059134e+00 -1.175064259619199802e+00 1.609296076636893602e+01
-7.615292626344740690e-01 -2.131560772110219659e+00 1.900820251372500636e+01
-6.662645472125050539e+00 -2.263606989599506569e+00 1.814187984723323765e+01
-5.373066485237956158e+00 6.881697075781492146e-01 1.346375800694934455e+01
-1.355570440521030484e+00 -2.058392873941962797e+00 1.926330131681514146e+01
-4.029603909116924676e+00 1.040341353161973181e+00 1.349136148667522761e+01
-6.146294007344442534e+00 -2.093597027885092388e+00 1.729845534033552568e+01
-6.638083994957269418e+00 -5.430627834536854159e-01 1.488797165440920267e+01
-4.804632441751133243e+00 3.673773990492548158e-01 1.339195394031237285e+01
-6.936220635328202100e+00 -5.552202569214168548e-01 1.586849147144130612e+01
-5.984543714232668954e+00 -1.640131823338801809e+00 1.930383481291228875e+01
-2.058342882495879600e+00 -1.871762953785483852e+00 1.777602317740576510e+01
-3.961251208055851514e+00 -1.237121757696562518e+00 1.623742436872945305e+01
-3.349663323884106703e+00 -1.041711444404755937e+00 1.587176844757889072e+01
-3.116953681665163067e+00 -1.064084308679975166e+00 1.585549380005943831e+01
-3.524312814054293419e+00 2.518304388350210310e+00 1.729683699174956857e+01
-3.842444299680325415e-01 2.138546243634160682e-01 1.865970246098785523e+01
-4.144931741063023978e+00 3.350458901827226832e-01 1.334952060253032258e+01
-3.967990655959138024e+00 2.980844454083970696e-01 1.337331339103313255e+01
-3.349789552914163693e+00 5.897738938588750202e-01 1.320291677132270891e+01
-7.021088782128740213e+00 1.415380206094960513e-01 1.471559487135310818e+01
-4.528395036034810417e+00 -3.890298180427853580e-01 1.459940447752290638e+01
-5.869578899058645050e-01 4.273116470971363157e-01 1.833953532624989791e+01
-2.996257882935499772e+00 -1.094923343772842728e+00 1.593352513893837497e+01
-7.978304837607466560e+00 -1.576067116922974520e-02 1.835137106385849037e+01
-4.524415052093043066e+00 -1.793697786410257677e+00 1.721073465193871144e+01
-5.126339144747158905e+00 3.106927179349612267e-01 1.921755561181582905e+01
-6.444836888777547124e+00 1.400808672767786645e+00 1.871454834364714870e+01
-6.522016614881913199e+00 -1.920306647348225759e+00 1.733256648721733839e+01
-7.323152662350786990e-01 -1.635583156378642933e+00 1.750722920587369558e+01
-3.389250364084062106e+00 1.842338923785517224e+00 1.900273321617131117e+01
-5.104372312697581293e+00 -2.688514790398034648e+00 1.890395751216961528e+01
-4.088950633102998999e+00 1.595487739300077035e+00 1.469932452987955784e+01
-1.892927351215719867e+00 -2.800971126796660826e-01 1.953475305757875091e+01
-4.582292912525551820e+00 4.508930001817739175e-01 1.319513477110787747e+01
-5.255553311954968443e+00 3.280445310888790544e+00 1.834407856885846755e+01
-1.182997788914469162e+00 -6.121293746687088699e-01 1.542091413856067916e+01
-1.111559676638891769e+00 -5.340108974148622956e-01 1.535972811511152614e+01
-4.134634219726116555e-01 -3.544527113580957511e-01 1.684677904486646938e+01
-1.371157869679457519e+00 1.001508019514398828e+00 1.920246953958551117e+01
-1.515838977847471902e+00 -2.149372210851603349e+00 1.900393058405959223e+01
-2.233473483951600169e-01 -1.869804028808959906e+00 1.865169707117746256e+01
-9.365316191073866925e-01 -4.899824675482915559e-01 1.541485461107315658e+01
-8.141267162535033464e+00 5.762891463506325529e-01 1.775467796007981391e+01
-2.048130737626228992e+00 1.547719095284095792e+00 1.913732346449224409e+01
-2.173188445596172524e-01 -8.167779051100332310e-02 1.849174949471042240e+01
-5.114946283881373290e+00 3.207750916167211308e+00 1.839462735308470442e+01
-4.066469493715674233e+00 -6.362270098160749399e-01 1.949714848716269344e+01
-4.162936703528980154e+00 -5.388917774487387291e-01 1.491747288215729483e+01
-6.526217181558112479e+00 -3.842822137430133012e-01 1.909328766099657670e+01
-2.531414704630268186e+00 -2.540652063393151749e-01 1.437831006567619241e+01
-7.607911927747514902e+00 -1.451857413000542607e+00 1.894231956287396557e+01
-7.376668587093067053e+00 -1.131847368342789650e+00 1.741591047196112996e+01
-7.749710315887756273e+00 -3.465791470185619616e-02 1.856281233938944197e+01
-3.319821759226996960e+00 -9.179601206260690205e-01 1.550469204368578957e+01
-5.095050712488619737e+00 -2.643605170442801189e+00 1.913425004665409901e+01
-4.665299221924532169e+00 1.975904318037112306e+00 1.879784310999706420e+01
-7.624479739939522993e+00 -1.244510012650485997e+00 1.893195872303950367e+01
-7.617434829438333388e+00 1.198629619882050079e+00 1.803185202707873103e+01
-1.744698793088923505e+00 -2.050602946757783762e+00 1.925958935358120172e+01
-4.616799829880360306e+00 2.358433311108812713e+00 1.617630491611783938e+01
-5.740813124412508017e+00 -1.653765388520959334e+00 1.619691558129362008e+01
-7.820379064733310237e+00 -1.248647696679318742e+00 1.877254778288734727e+01
-6.512189524740682245e+00 -2.239054924544241487e+00 1.924655397619411801e+01
-1.757350032098117687e+00 1.803187383847888903e+00 1.863048789343283218e+01
-3.819891922046830146e+00 1.606385470341019417e+00 1.906048412861106200e+01
-7.841359469701340679e+00 -1.100152198379166002e+00 1.875018882790860530e+01
-6.266710062142919035e+00 -8.408494275473410440e-01 1.917652327685077651e+01
-1.304771900895664860e-01 -1.710852535121151874e+00 1.854218141894024185e+01
-1.028990735587451688e+00 8.111327775301138132e-01 1.782167762977775638e+01
-7.740345814175392469e+00 1.435772854708804669e+00 1.723859672682482724e+01
-7.978520076582634069e+00 -1.056394639370294541e+00 1.859716505137923193e+01
-5.513295367179336104e+00 -2.228169342941973774e+00 1.755524620059662411e+01
-8.014197102977274056e+00 -5.769053769499743467e-01 1.773711738382315062e+01
-1.879093029824938199e+00 1.794964468463699392e+00 1.820872547730202129e+01
-8.069969287400827085e+00 -8.289521751483750478e-01 1.838318972224366021e+01
-2.758018306506775374e+00 2.424546102673419412e-01 1.327533781307884553e+01
2.049563233953888286e-02 -1.429195086717319541e+00 1.770501826542856705e+01
-6.280441094743626884e+00 2.330318566356512910e-01 1.406117859350765187e+01
-8.100873640644287832e+00 -4.294030973787874572e-01 1.743589909118387382e+01
-9.729635155639466682e-01 8.372651673454933885e-01 1.907518488106005705e+01
-2.967010002040269434e+00 9.336007355467264013e-01 1.440995685148770278e+01
-8.042638474652694214e+00 -4.114878344131351895e-01 1.724680311217684547e+01
-1.371155863741798875e+00 7.701129122338064015e-01 1.929095540644931006e+01
-6.745238270879743148e+00 2.252574672371171705e+00 1.821476204037046287e+01
-7.182088173927403396e+00 -2.021417002505553562e+00 1.891701723963259596e+01
-7.206692896542729265e+00 -8.625071014876901643e-01 1.661517411013268841e+01
-9.541190123625189479e-01 1.177624748217231954e-01 1.641565228527842280e+01
-6.882931689565203293e+00 -1.700726118913697960e-02 1.898030612587331589e+01
-8.081637033795825431e+00 -3.604110016799912941e-01 1.707057083355955385e+01
-3.357320428237160925e+00 -1.276758622357240469e+00 1.635023306895351070e+01
-8.064356698080345609e+00 -3.043758816142294599e-01 1.687826831574128406e+01
-8.043318922010385563e+00 -1.470746402153912946e-01 1.625323946803920805e+01
-6.319209091380699306e+00 -2.036341372029173868e+00 1.733232709729604792e+01
-7.129559709640966858e-01 -2.651624017407581135e-01 1.619209768500496338e+01
-2.122355545020378820e+00 1.109759156838892036e+00 1.595247367397997706e+01
-7.914327336166370408e+00 -4.321046041402198945e-01 1.724911088609199439e+01
-7.211232293836297380e+00 -2.833981238946883252e-01 1.465858774056900060e+01
-4.702821078135396071e+00 1.697752544416658571e+00 1.455703818477100597e+01
-2.974825239197558702e+00 -1.171389632402393133e+00 1.613240505980158801e+01
-7.370001810288294486e+00 -2.699551548410599189e-01 1.484737863413908698e+01
-5.910353209939636976e+00 3.296154045671283228e+00 1.786757677558773239e+01
-2.732604153189068796e+00 -1.024499333314953908e+00 1.568990760766685710e+01
-3.419577778667756363e+00 7.211878683274859370e-01 1.343843707908767371e+01
-5.737864057234474124e-01 -1.523110052107508494e+00 1.731180235082911523e+01
-7.115837162618560363e+00 -2.577260457652981174e-01 1.452498663351460451e+01
-6.145597014612344644e+00 -2.391321469168828706e+00 1.789199939098117298e+01
-7.628462905631256952e+00 -2.099765499537973312e-01 1.647518562450993684e+01
-4.975588644848122577e+00 -6.797260776616731448e-01 1.493992153617719865e+01
-5.005714371037448984e+00 6.589928301073486594e-01 1.319310124566516507e+01
-6.938163676951792702e+00 -4.735249895830637712e-01 1.464909940267414967e+01
-6.712869253150555160e+00 -5.786994292665617046e-01 1.464563326369189511e+01
-5.323142065121739819e-01 -2.081375593158290016e+00 1.888514052524864795e+01
-6.936053396918198111e+00 5.754539550378527935e-01 1.509110565883300481e+01
-6.293900499545083349e+00 -7.399177032657471287e-01 1.469909325841941339e+01
-6.154130440911128375e+00 -7.926990468660957134e-01 1.485441814569788122e+01
-6.122955155624929979e+00 -8.459128429548457007e-01 1.504784439995959744e+01
-1.328020712726693642e+00 -4.892611576541767704e-01 1.519037312733934542e+01
-2.744123492412617438e+00 -1.192979446053947790e+00 1.611760668917819217e+01
-4.863703073427241286e+00 2.682274764952222057e+00 1.678613256356943495e+01
-5.536618156415682890e+00 2.808931350486743028e-01 1.914484014868126494e+01
-1.180927537251250659e+00 -1.028679905427376973e+00 1.614994927117287560e+01
-1.148947366940301418e+00 -7.113008673286729255e-01 1.557225978745998773e+01
-3.919968405108581244e+00 -2.562118128042056853e+00 1.910652027686381516e+01
-1.704122807495970449e+00 -9.025090362258074705e-01 1.574217383506016787e+01
-2.761574943409215166e+00 -4.361355332290925979e-01 1.474043143898375163e+01
-3.593272455873258053e+00 7.771101498027981336e-01 1.933815952327722343e+01
-1.341314942345622097e+00 -7.552659020731251616e-01 1.555166824330482811e+01
-4.506031136784829805e+00 -2.629817655498216666e+00 1.874328912879056119e+01
-4.918546162017126022e+00 -1.669022669093739530e+00 1.659326239522600233e+01
-5.525396830443081164e-01 -1.941391920105744795e+00 1.909208978973611082e+01
-9.511113113570228705e-01 -6.235180007845326777e-01 1.555030250855329044e+01
-7.069007312161095236e+00 1.530276462796543724e+00 1.630456485673620293e+01
-8.742213191649383930e-01 -2.049593871061121675e-01 1.925415753572579902e+01
-4.293300239974946031e+00 -1.432219016887362528e+00 1.646235574448451544e+01
-2.982159647947803194e+00 -1.599303487155231629e+00 1.952408587813993890e+01
-8.401610099701098733e+00 3.344445421387831630e-02 1.665044117058512185e+01
-6.484935805456008673e+00 -2.527362365224620433e+00 1.848675840446048468e+01
-2.244313212877444563e+00 -1.154533213273993830e+00 1.955817497073050859e+01
-3.356846561159800402e+00 -1.203237990104978117e+00 1.623115162107282217e+01
-9.218517122625216054e-01 -1.627961080577552622e+00 1.749419701148197603e+01
-6.468889752051559583e+00 8.875809033739314735e-01 1.888397631274353117e+01
-5.297150557364733725e-01 -1.621379374847345289e+00 1.749758948862580255e+01
-2.536772580641418529e+00 2.286948212475580444e+00 1.830512014507334229e+01
-5.735794189919424468e+00 -2.019353139328187829e+00 1.698217457661707996e+01
-5.424488126584089187e+00 -1.385288105039343520e+00 1.938059107362205324e+01
-3.568848465022957939e+00 -2.087664909600461804e-01 1.436191494307590588e+01
-4.710229998648644667e+00 2.498356648689060933e+00 1.644688454537088873e+01
-5.606685697880624986e+00 -1.379222117717254115e+00 1.934498156317149054e+01
-4.353358533292564836e+00 -1.187256916727525535e+00 1.606996484241456002e+01
-1.950099241738937117e+00 -8.475365177727391952e-01 1.551737019767169201e+01
-3.140283678275300971e+00 2.689492628506035210e+00 1.823981707774973771e+01
-4.768403170660237222e+00 -2.488871025926367331e+00 1.938244188837010640e+01
-7.571839046215314006e-01 -1.201238218899605137e-01 1.640045087727588324e+01
-7.021488273357280541e+00 -1.642541677098041220e+00 1.916869993989126542e+01
-6.507228386144177534e+00 -2.552016199587561651e+00 1.889131435795460234e+01
-2.583919127972142959e+00 7.108330328800178677e-01 1.936552842950193210e+01
-6.191533852972304075e+00 -1.808287856541617167e-01 1.402543282438754702e+01
-7.760232963979590615e+00 -1.449870124953743122e+00 1.876047310290286774e+01
-6.866112826825234272e+00 -3.548172406617569052e-01 1.508890494061997245e+01
-3.314826950155708829e+00 1.983603227773969024e-01 1.943549323694058373e+01
-7.951839660911260488e+00 -1.186710822752522709e+00 1.856631965290515396e+01
-3.852089398434088707e-02 -1.615921260574370244e+00 1.827429304829428602e+01
-3.119660998860374512e+00 -4.574810004392766416e-01 1.477230176901987235e+01
-1.412533767220348402e+00 1.429818541243188745e+00 1.837733202772734487e+01
-7.999269467846153780e+00 -1.060388690582844795e+00 1.840036988383704752e+01
-2.977833206989299875e-02 -9.922223939129182213e-01 1.701700858553229878e+01
-6.452292838846933165e+00 2.787371121850727107e+00 1.715457329311396606e+01
-7.817584955514337075e+00 -7.306127358659404436e-01 1.765357877125377328e+01
-4.284399170478998542e+00 1.019276099327182994e+00 1.333708530817563442e+01
-2.542444219808874806e+00 -1.864941196389740874e+00 1.765828444110818296e+01
-2.314338880321932024e+00 1.379906784764304950e+00 1.631675673084044220e+01
-7.866717922997838564e+00 -3.709384499114261047e-01 1.705629210562902287e+01
-2.135820348038698580e+00 8.402299755765696432e-02 1.948469922322169978e+01
-3.176334607856976966e+00 1.122735716747003121e+00 1.459508882026360155e+01
-7.021237262331191609e+00 1.009980497951089351e+00 1.862410995352530918e+01
-1.009096178018624723e+00 -1.016008481302298705e+00 1.942000721797588980e+01
-8.011103731549461315e+00 -2.404940028040720712e-01 1.667041295946181734e+01
-7.052453355493876863e+00 1.152357602666587155e-02 1.462121896182146585e+01
-2.775845968687081111e+00 4.309541270453607353e-01 1.341641978250403966e+01
-4.883640241548582672e+00 3.108470713244929851e+00 1.760878848991024270e+01
-5.745992391294792334e+00 -2.397128003636574078e+00 1.934988509034147697e+01
-6.432013474753150994e+00 3.053869479205161497e+00 1.795356074041439243e+01
-6.940638620511600188e+00 1.438375131300144494e+00 1.605275915178065915e+01
-6.753414543549019378e+00 -7.654121183718176624e-01 1.587979000260910212e+01
-8.074539602111912018e+00 -9.344177235174688789e-02 1.601778440710978302e+01
-4.710120349806541817e+00 -2.498737570557929999e+00 1.831256727755704716e+01
-2.802935816711548789e+00 1.439054709871188553e+00 1.917440972584681091e+01
-8.168780816500841979e+00 -3.240497472505454724e-02 1.608652753743961838e+01
-4.188095706708522492e+00 9.557533141933478582e-01 1.921587654336836337e+01
-3.595650719189076305e+00 -2.209190602007489623e+00 1.952984981342047277e+01
-1.943753847479297026e-01 -1.265594843259417068e+00 1.698880640122475327e+01
-6.061502515067446417e+00 -9.983175762039007139e-01 1.922573793020263722e+01
-4.717396643580483939e+00 -2.649340254896703328e+00 1.875739017209211923e+01
-7.106463786953757911e+00 -3.900911500528279063e-01 1.463002456269159168e+01
-7.426855454425736802e+00 -1.456246646849552739e-01 1.607865335596229173e+01
-8.364785750137226472e+00 4.791095644154941269e-01 1.669021281149846558e+01
-5.273076881486083778e+00 -2.412675831233445756e+00 1.795285633208932907e+01
-1.555412624564948221e+00 -9.717454516257761910e-01 1.594206833218331454e+01
-6.783025694655676396e+00 -4.935156192267839970e-01 1.486278615890158861e+01
-2.889346705319063346e+00 -5.624411673594331695e-01 1.948817511312477180e+01
-6.400135786813507366e+00 -7.000726179339351596e-01 1.483421764689855493e+01
-2.770227609719368544e+00 -3.494562119703537029e-01 1.459177413530919765e+01
-6.383538970428494608e+00 -6.735054395070125821e-01 1.503522896612505733e+01
-4.774396830250438484e+00 2.227412018646445446e+00 1.579682396227654451e+01
-7.573160871315953280e+00 -6.922253464541152645e-01 1.729419093588934331e+01
-6.134909262253450457e+00 -8.770752288905931948e-01 1.521769445560093814e+01
-6.061640045009887068e+00 -7.700928736935743757e-01 1.919767963259787891e+01
-3.775561763736572374e+00 -5.615575828576888640e-01 1.498616054109531248e+01
-6.052129832523302611e+00 -9.738324641614664046e-01 1.531162184225238221e+01
-2.920913350803835407e+00 -1.251279164070594696e+00 1.628860024325176070e+01
-2.620989078345929535e+00 1.327715027232872158e+00 1.922067196366993969e+01
-2.200448249031154102e+00 1.651313861103472558e+00 1.718095543830015615e+01
-6.857022657103452268e+00 -3.831330403292096953e-01 1.547166536633712397e+01
-4.313025079393405292e+00 1.921730765024100007e+00 1.532864103156428470e+01
-5.683243310665244685e+00 -2.063510033632967478e+00 1.713508318861920898e+01
-3.632848425133656356e+00 2.008991424987904395e+00 1.601970045283048805e+01
-1.933846277108436151e+00 -2.106698731970674032e+00 1.860250284686401656e+01
-5.865740085204978804e+00 3.027331033802174609e+00 1.717825695126409258e+01
-3.564762897109962303e+00 5.657675646074840081e-01 1.296676967162018812e+01
-2.736546661623294519e+00 -1.291858961621533020e+00 1.645280070590584032e+01
-3.908391605032509375e+00 -2.031403079121289146e+00 1.764463687755555199e+01
-6.306831621714437119e+00 1.375098738467441128e+00 1.523569021870740769e+01
-4.672974877944344740e+00 2.309985529803930682e+00 1.603875202124877930e+01
-4.647732923082743106e+00 1.783357440512390868e+00 1.886874439406757986e+01
-2.160118715731526695e+00 -3.950980080343149403e-01 1.470325420201600863e+01
-6.532392894558650021e+00 -5.734813662756153008e-01 1.445168621968032951e+01
-7.292630593173186071e-01 -9.841635284022762775e-01 1.615416962661501188e+01
-6.478652343658966473e+00 -2.463212829948703941e+00 1.828919332083261295e+01
-4.037686725881306504e-01 -2.048750937398830629e+00 1.856148803393411484e+01
-5.379555160864746277e-01 -8.996861477584863209e-01 1.613317111270955806e+01
-2.423808112093555067e-01 -9.396704207945330012e-01 1.882461462443933087e+01
-3.728312422789213265e+00 -1.355636817292151797e+00 1.644981018844309872e+01
-2.773868838270664661e+00 -1.964425628695189552e+00 1.953092307678679518e+01
-7.176177356740793378e+00 -2.030974072270010033e+00 1.876180645336264874e+01
-5.982028005981713470e+00 1.412685858467357392e-01 1.377856840734955668e+01
-3.194725977604182532e+00 1.036884809109070105e+00 1.928090142488794712e+01
-7.007974886978034057e+00 -3.139530314986207493e-01 1.562855255381014175e+01
-3.370281239780775095e+00 -2.048271677467778495e+00 1.953732384791231524e+01
-3.568439059778911293e+00 -2.054427167658428921e+00 1.955042365366070456e+01
-3.295354168834388808e+00 -2.480954324379499809e+00 1.906459756242702142e+01
-4.867874131688565420e+00 3.002365145545042857e-01 1.351497247939800772e+01
-4.921646193537983827e+00 -4.537199228768025172e-01 1.457926979302891723e+01
-7.040003241407307932e+00 1.657021199709102222e+00 1.831365261163611180e+01
-4.255411250476082152e-01 1.408766275201109863e-01 1.807328793187389593e+01
-6.753144572024281977e+00 -2.246634894280150618e+00 1.911481716242927220e+01
-4.799722708884895717e+00 -3.437155866857213304e-01 1.448324335522625361e+01
-4.043284198559327969e+00 1.111466145373839254e+00 1.362148865586628332e+01
-6.833105087408010370e+00 -1.860914259138410465e+00 1.920971949415192981e+01
-6.548822352658919321e+00 -2.005287534026845009e-03 1.416811472473851197e+01
-3.733673215380600041e+00 -1.525240306094252318e+00 1.671280517824696332e+01
-7.109959849516477526e+00 -1.692798034130778007e+00 1.777402339987832747e+01
-4.739316231613264208e+00 -6.444432053289110840e-01 1.497041800996123939e+01
-7.013008025200295315e+00 -1.842575218538408777e+00 1.917340751936833598e+01
-7.032068184276323741e+00 1.832945365746181388e+00 1.660100794852713690e+01
-7.168561682680969049e+00 -1.850017986161845762e+00 1.912048406941496737e+01
-1.584690573376285716e+00 -1.892446106111372650e+00 1.945586451363696412e+01
-7.562317869154964178e+00 -1.651479141412206531e+00 1.890150214749898439e+01
-5.766798994239622722e+00 -8.145589374593908971e-01 1.486427761975883399e+01
-7.254084084132869314e+00 -1.815296693223280577e-01 1.589474489532836898e+01
-6.819203527015354815e+00 -2.280957256560735225e+00 1.892064880149379391e+01
-6.704624843492076103e+00 -6.200856754323238462e-01 1.909031651417035036e+01
-7.248247495312960531e-01 1.348969418660725950e-01 1.707788473416013275e+01
-3.788267953331997617e+00 1.681743398160024938e-01 1.363784906345726355e+01
-6.221582670970301265e+00 2.765613985292324273e+00 1.684002009018967172e+01
-6.847003497220101487e+00 2.522723545437350001e+00 1.799133723503434723e+01
-7.674474596242187197e+00 -5.406237470821420033e-01 1.722955419155291068e+01
-2.944697178992303321e+00 -2.180886607159398416e+00 1.945186164210707247e+01
-6.274650594717284591e+00 -2.676725504770921304e+00 1.868018500838575235e+01
-4.920450075212447594e+00 -1.051430324061988664e+00 1.566897041680463687e+01
-6.327113995577975381e+00 1.362920803447547957e+00 1.877625906437807757e+01
-7.838714822269982285e+00 -8.381280951902656540e-01 1.779310570829418836e+01
-1.275791376964824586e+00 6.149813997555195755e-01 1.669446495396685393e+01
-2.244523758743940167e+00 1.620748877377365282e+00 1.702751398117788639e+01
-7.568674522749296862e+00 -1.837817659805551784e-01 1.509056817924824756e+01
-3.969772196011346566e+00 -1.934070347561003267e-01 1.433291790853445846e+01
-7.419887079575249622e+00 -2.143105605704165306e-01 1.624674880030759638e+01
-4.169744435018163387e+00 -4.875939565141740317e-02 1.411956972218318995e+01
-4.357348134943317852e+00 3.416418176254838457e-01 1.933912117410022447e+01
-1.528590347466230348e+00 -4.197468683210514584e-02 1.460742291675952131e+01
-7.214281745086087660e+00 -3.215969851694517878e-01 1.487126625926213919e+01
-2.302034002164052851e+00 2.009333447658967486e-01 1.357058656825582332e+01
-7.108066311371149304e+00 -3.837178993764784884e-01 1.480055657493043597e+01
-5.097622583520933226e+00 -1.792063778000495766e+00 1.678470772612678630e+01
-6.097408180365921915e+00 -1.010329884957752000e+00 1.543383539872936794e+01
-3.990001728092241962e+00 9.974336632382616585e-01 1.923099000787164314e+01
-5.832007238398220217e+00 5.264744007180799379e-01 1.374042048929242910e+01
-5.434968353779939143e+00 1.104690044737461019e+00 1.403976970692084691e+01
-4.166615270198432697e+00 7.146673716709726065e-01 1.298558672841845052e+01
-4.716568452817543111e+00 -2.334935939808643113e+00 1.798802945205084214e+01
-5.248086506290096764e+00 8.334779683495270319e-01 1.354921685250632990e+01
-5.954758218883290155e+00 -1.154840695020558528e+00 1.554899263881947391e+01
-3.156147466223379716e+00 -1.433555475166865989e+00 1.664117553010884265e+01
-3.510987294362198696e+00 1.362204446536579905e+00 1.473271426525805694e+01
-7.740586543345675530e+00 7.845002778960754597e-01 1.816483960487054716e+01
-5.923023550444734830e+00 -1.219947465411844512e+00 1.563851707628867516e+01
-6.194155339990524922e+00 -5.170877850554869148e-01 1.430580934605613308e+01
-5.312473717736033940e+00 -3.671097129313083407e-01 1.927917560102266137e+01
-6.776671479150681243e+00 7.055747699094316872e-01 1.504232201234433930e+01
-6.179743345989048287e+00 1.843683324949933144e+00 1.860608164320766988e+01
-4.542204764665224381e+00 5.427866016997526799e-01 1.926998309136289222e+01
-2.309037637702660017e-01 -8.895992632992753002e-01 1.664725165653873162e+01
-5.910974410676896440e+00 -1.475719798720320775e+00 1.597100169442155604e+01
-7.309388805641799713e+00 1.693716261618428476e+00 1.806847904572746089e+01
-4.941691303934661939e+00 -1.289492018383493033e+00 1.601175922551048458e+01
-7.229649477805266677e+00 1.205518160617007339e+00 1.840595284729823433e+01
-2.290461675318531398e+00 1.208174743335255652e+00 1.592480520676493327e+01
-5.740080937900060576e+00 -1.224038647846559691e+00 1.563759782894800665e+01
-6.086402393957667023e+00 3.073459694798165831e+00 1.736099235712914535e+01
-3.853704622933591395e+00 2.418038149920946012e+00 1.876365290944939446e+01
-7.239091620125724269e+00 -2.157126912590676682e-01 1.514698569054531774e+01
-4.525534731910632047e+00 -2.011264123578435203e+00 1.755747719995089895e+01
-1.561311033304734419e+00 1.282684954038188385e+00 1.754720754834329810e+01
-5.718330223407101620e+00 -1.471053053792501508e+00 1.596643118659006788e+01
-4.702068017676675815e+00 2.302366806477560424e-01 1.930630180638535975e+01
-4.312022307121709197e+00 -1.728969411210017348e+00 1.701710548780200227e+01
-2.949130136359556786e+00 -1.339857355602016575e+00 1.649074367218826254e+01
-2.038278148726491157e-01 -1.320161393743368272e+00 1.876041824495821331e+01
-5.607637866933239401e-01 -1.050033633167879898e+00 1.633864351810542459e+01
-6.163914212351899735e+00 -1.340763048600772223e+00 1.601440903098794521e+01
-3.118758023838128501e+00 -1.888907394350907154e-01 1.946824604631759215e+01
-3.387575880996693378e+00 -2.164259640737554946e+00 1.952140875261229880e+01
-4.137428863863574779e-01 -9.098096656794671944e-01 1.623065859018916868e+01
-6.330613160179928478e+00 -1.079632499190450012e+00 1.584441707071950489e+01
-5.135956771961089018e+00 -6.961080450224370608e-01 1.488966972565932068e+01
-6.740710468866107696e+00 1.024469083179361917e+00 1.875157918342316421e+01
-5.325791897876169578e+00 -1.763926583823329786e-01 1.925659396089799102e+01
-3.146364162153151511e+00 -2.184778949754666577e-01 1.437208687001379204e+01
-3.379593254473831632e-01 -9.143102639355689121e-01 1.635327639472825112e+01
-3.240414070095770427e+00 -1.010126753533325150e+00 1.951270706573827241e+01
1.183303783512987817e-01 -8.134338917598071816e-01 1.779134352959366439e+01
-6.802946088635406063e+00 -3.596756696861591607e-01 1.525913152229035674e+01
-6.954371155643854330e+00 -1.234174997300114818e+00 1.675882344609390273e+01
-8.432799111938120262e+00 1.959862814108368489e-01 1.729935520974104790e+01
-2.534011426076799189e+00 -8.680882160146836668e-01 1.543645808859907831e+01
-3.355987987876460910e-01 -1.793074939234045928e+00 1.788434271311642831e+01
-6.717717832899412933e+00 -1.451520733959339893e+00 1.679678497810069970e+01
-2.626586096090477440e+00 1.506596752743085244e+00 1.916143874078668219e+01
-7.293469299367774106e-01 -6.720975301225746712e-01 1.576467625354207414e+01
1.111325276551349273e-01 -8.226457487141365377e-01 1.797624639074556185e+01
-5.956033732193044550e-02 -4.741279942849310203e-01 1.822338287884594976e+01
-6.869403066484159659e+00 2.020517679791998589e+00 1.663896195503274456e+01
-3.086280495892397280e-01 -1.972129802597359927e+00 1.845263004401921947e+01
5.376010724927104967e-02 -8.673885165735022440e-01 1.816186850307967759e+01
-5.697810323794573861e+00 2.590334349208727183e+00 1.845584474713074385e+01
-9.371889567681916944e-01 -2.129966047116190531e+00 1.866699977905505747e+01
-1.789813570073264248e-01 -4.872866399208466426e-01 1.867047426645381947e+01
-5.355579338677674883e+00 2.282555660993059732e-01 1.344972605523301112e+01
-5.737730798051959624e+00 -3.627590561786537826e-01 1.919766564645985696e+01
-6.871503126860556421e-02 -1.699819430286666488e+00 1.815412007209075895e+01
-4.371970182379523173e-01 -1.605758632338695868e+00 1.907523496882565794e+01
-6.314930728487726519e-01 -6.615668837736667918e-01 1.586651187406157604e+01
-5.377798951029345353e+00 2.142130954710638413e+00 1.535221349874767682e+01
-5.592904360036397016e-01 -1.601675612072086530e+00 1.918112197824848764e+01
-3.984379287563180050e+00 5.923810437884018398e-01 1.288314181595567831e+01
-6.203055623093878701e+00 1.964203654971758306e+00 1.584563225886179438e+01
-6.565025455173706170e+00 -2.006801772009499274e+00 1.924339006724591528e+01
-7.708372425640104275e-01 -1.807032490797036317e+00 1.931265261666477429e+01
-7.586852419712065476e+00 -1.185794241463868914e+00 1.782045438647043412e+01
9.928060633633739585e-02 -9.939851163105846155e-01 1.754534196377953137e+01
-2.335393855555123466e+00 -1.845220155211454660e+00 1.766995453136928163e+01
-3.408733182144995766e+00 1.100365862515545246e+00 1.426968577658984927e+01
-2.211711393664397285e+00 -1.927896440762854269e+00 1.950560985710172091e+01
-8.403981799454367518e+00 2.278404857168654374e-01 1.673260027605775591e+01
-8.847088206816291489e-01 -4.114746000412661253e-01 1.928318102747928364e+01
-8.086716227402725110e+00 6.986992260148734424e-01 1.654221757282745742e+01
-2.181739185937855208e+00 -1.775082798464863387e+00 1.956740394841571984e+01
-6.753401966668806544e+00 2.778885581837402086e+00 1.769589464816843005e+01
-2.436118755306851291e+00 -1.874064753730576349e+00 1.956252892540996768e+01
-2.560890488666377252e+00 -1.992276076440400168e+00 1.952077888006898476e+01
-5.722602009127376377e+00 -1.951317903098054529e+00 1.675799658769716771e+01
-4.266825705625114651e+00 -1.304733748223037004e-01 1.423938675941647247e+01
-3.132085219476635984e+00 -2.196648703174714612e+00 1.946714714048146888e+01
-4.689468931074308955e+00 -1.435781340964417119e-01 1.424343336809378613e+01
-7.621695795166425036e+00 -1.227002733829296588e-01 1.608819633809639882e+01
-5.936286385478963368e+00 1.558450350400097939e+00 1.508861996205007827e+01
-4.370104472116336680e+00 -2.288324129788590788e+00 1.950688322296867838e+01
-4.564797352721743806e+00 -2.320353055304217094e+00 1.951007630182537511e+01
-4.865338784590790944e+00 1.928088937358230170e+00 1.502466777171825996e+01
-5.928921368495692512e+00 -1.330078345442535337e+00 1.579323706726607313e+01
-1.783690612740304715e+00 -1.722754179811474273e+00 1.956843412912899893e+01
-2.055891083890966531e+00 1.042831888859393263e+00 1.589970877142240013e+01
-1.799327119712556211e+00 1.115453416320263180e+00 1.927163050427358471e+01
-4.769634794862914973e+00 -2.343474022764310938e+00 1.950102400377452838e+01
-3.363648185103465416e+00 -6.607002369471213221e-01 1.512324490413847755e+01
-6.928762203187242896e+00 -7.146310499598502730e-01 1.607453547077885858e+01
-1.556287090376953230e-01 -1.643905121705087957e+00 1.769805041922007760e+01
-5.956289590849003446e+00 -2.215621955869372606e+00 1.933687379415821184e+01
-6.157672346746525527e+00 -2.202057376351040929e+00 1.930976269661338662e+01
-6.377547882791451350e+00 -2.222902882838555527e+00 1.926972569040416872e+01
-3.473779612320007537e+00 2.552142484661248378e+00 1.744491642244853935e+01
-6.350230155618392658e-01 -9.785115688777095144e-01 1.919173431830736476e+01
-6.959739969368750501e+00 -2.038104504999644462e+00 1.912930493345472271e+01
-7.607276338548273564e+00 -1.672625990180361732e+00 1.873862634446497921e+01
-3.863021228925316741e+00 1.812309182838911292e+00 1.896966369615732972e+01
-7.897200132388698002e+00 -9.187517969209642033e-01 1.797136082629506504e+01
-1.311481787642334584e+00 3.973547206401448761e-01 1.609695027556395175e+01
-5.464432751534349819e+00 2.498213824097823554e+00 1.852523978547901251e+01
-7.875635408540321514e+00 -1.260008561304476693e+00 1.838899670666105735e+01
-8.368180184921229170e+00 -4.522168470390308670e-02 1.653442424534565092e+01
-7.060125831254858930e+00 2.058430134364696684e+00 1.808353931861038788e+01
-4.960165513368431256e+00 -2.536044340441431899e+00 1.932761456843801895e+01
-3.809756798566798608e+00 7.700313474568836192e-01 1.930696661494557631e+01
-7.619067619027902971e+00 -7.461862684550815139e-01 1.741962464135590594e+01
-3.334728542381760974e+00 -2.482724497824694510e+00 1.880885366799897085e+01
-7.542908916848246825e+00 -4.815586813225531948e-01 1.690720593198497923e+01
-1.984049710946800715e+00 1.478094259167348046e+00 1.716050704341670397e+01
-7.638432292036630322e+00 -7.742538006024490826e-02 1.567892811637594619e+01
-7.846958532892052141e+00 -5.316493303778813129e-02 1.565186592117962405e+01
-2.159974430002285395e+00 -2.123559524621888350e+00 1.922747435877120736e+01
-4.825140869206800964e-01 -1.757460505457167699e+00 1.778188469536350524e+01
-7.977606274607810910e+00 -2.896596835233777867e-02 1.572714428897252148e+01
-6.216347085975943543e+00 -1.617704116779387746e+00 1.927304868890432843e+01
-7.210685463664291639e+00 -2.425683880889897281e-01 1.509051367494166485e+01
-6.092634737475970397e+00 1.211579011231249670e+00 1.481249946718999055e+01
-3.945151453704271560e+00 -8.377478117095522592e-01 1.549956774653032099e+01
-5.696320841740694085e-01 -4.999949671586909616e-01 1.620048865391672521e+01
-4.308428407529150128e+00 -2.621521022155729241e+00 1.893456648977891987e+01
-1.047040917304705498e+00 6.823078845354801913e-02 1.604837094905852624e+01
-2.130870933853813209e+00 -6.182773506165584187e-01 1.508017256094746372e+01
-6.994610122428363219e+00 -3.553516573425090641e-01 1.496255173325495846e+01
-1.338137920790304136e+00 -1.881470805784359435e+00 1.945447810017112644e+01
-7.358298482676322472e+00 1.512203081900521218e+00 1.666638770609668896e+01
-6.960151430905596293e+00 -3.152218980256153991e-01 1.506927266154210443e+01
-3.167159800457630681e-01 -1.725006383617384564e+00 1.891715559202456021e+01
-4.486247034455574045e+00 3.059991725150372766e+00 1.763052310217719665e+01
-9.958841309897663585e-01 -2.040075271713803318e+00 1.844184297697801256e+01
-3.604983122794985562e+00 1.435670551999090216e+00 1.914313344220706981e+01
-6.623281979230131178e+00 2.872654431742791559e+00 1.790790454300030987e+01
-6.732227000194701994e+00 -4.290080414025583266e-01 1.507260442425971192e+01
-6.702564852714233190e+00 -9.604443888578417798e-01 1.609730467371288043e+01
-3.848423617973766753e+00 1.676419961372165535e+00 1.903247189368636683e+01
-4.963216473603579981e-01 -1.005171312431573760e+00 1.626881674220154750e+01
-6.598033671306908765e+00 -5.098592124734446784e-01 1.503660654236904648e+01
-5.297883033173074629e+00 -1.851561978872035219e+00 1.678268065510346574e+01
-7.860429676163316337e+00 -1.445759381498357143e-01 1.623833002130912817e+01
-6.198134538920959002e+00 -9.157971435182359343e-01 1.541027795333347328e+01
-5.499142092986846642e+00 -1.854040354497415777e+00 1.660366115734835901e+01
-5.380005639091176128e+00 8.891875873184713619e-01 1.905199627065239198e+01
-4.344340659795310700e+00 2.631638685982831127e-01 1.356169459638217134e+01
-4.984376625404715710e+00 -2.305986257830238806e+00 1.949676177024711521e+01
-3.328975552448762976e+00 -2.249985469360823664e+00 1.947562960658025943e+01
-7.282471581016277007e+00 2.135334974621167170e+00 1.766141318812783467e+01
-4.544306718961268921e+00 -1.746710652824313037e+00 1.700647393782962169e+01
-7.628661192141490410e+00 1.598553099339189654e+00 1.764368336189923170e+01
-4.133601210478168753e+00 -1.766604289170315312e+00 1.715050881215912781e+01
-1.989207596849492443e+00 9.355659199129044978e-01 1.934395973432759419e+01
-7.286768556234956229e+00 -9.960395556405003958e-01 1.690243688311115378e+01
-3.931086184714010834e+00 -1.711023019796570566e+00 1.703600515807949378e+01
-3.699065786912359322e+00 -2.379830285386558053e+00 1.838308700799045070e+01
-3.957095363912064734e+00 -2.289819532245418898e+00 1.951332402015419021e+01
-6.447880146833899317e+00 2.441211215992218353e+00 1.828871866753539521e+01
-1.325656028391943853e-01 -1.447301504389656657e+00 1.732815608057633128e+01
-1.135548190853507666e+00 -1.301659378814538748e+00 1.687160433308054408e+01
-5.399437946308416336e-01 -1.792151888445228103e+00 1.791456638424832093e+01
-4.356731825313890027e+00 -1.095748266382298830e+00 1.592202989593908669e+01
-4.774630505893616927e+00 -6.439875318440901886e-01 1.940673476219260252e+01
-7.264011461820659044e+00 6.464152355903585168e-01 1.554267913612015306e+01
9.092098599887754595e-02 -1.029104543914497683e+00 1.798596454282936818e+01
-2.717953462066542869e+00 1.946659212403124561e+00 1.708914728094369551e+01
-5.308862889802403728e+00 4.410716702355275132e-01 1.326220096334459342e+01
-8.334214979330956119e-02 -1.722374681600691737e+00 1.834582968537464964e+01
-4.393999615021662031e-01 -1.794095301888315674e+00 1.905876866511833256e+01
