5.163581980060081289e-01 -2.660912737539193884e+00 1.550301168958253584e+01
1.459460688789508964e-01 -2.292578522256951246e+00 1.854762210787896493e+01
-2.121096221823981498e-02 -2.037459709154402887e+00 1.861971606822656611e+01
-2.745746076172438155e+00 -2.115013830185636046e+00 1.480857959263514800e+01
-2.839106754067564076e+00 -2.000089575590576096e+00 1.866384281794591260e+01
-2.779663544878459014e-01 -3.301831360691234174e+00 1.887397673760310113e+01
-4.964472230961865407e+00 2.321357626360618820e+00 1.735648660197194459e+01
-8.483532868801391125e-01 -1.428999539952222619e-01 1.331919847489339759e+01
-1.807188609735028262e+00 -2.751208333799508132e+00 1.451580582729283719e+01
-7.450518335818806293e+00 -2.539337210393083133e+00 1.877734226134853657e+01
3.443317898149180767e-01 -3.048811068018843606e+00 1.825386948226081074e+01
-6.196115265161963315e-01 -3.310438174912502696e+00 1.884618938135375998e+01
-3.597321918407909713e+00 6.339902928859373343e-01 1.800080875902016686e+01
-2.734746910530502007e+00 -4.353566726038161860e+00 1.894800182371692898e+01
-3.070038056311537034e+00 -4.464265573294806444e+00 1.898624496916110616e+01
-2.027438269547408911e+00 3.655645645788194287e+00 1.460331670046499397e+01
-3.279214049860898150e+00 -4.455670991284671700e+00 1.902256093044900354e+01
-3.443174832071987712e+00 -4.438250997131047093e+00 1.905813220247025441e+01
-9.064165179718147725e-01 1.454235406000343733e+00 1.422222494127036896e+01
-2.727943103275938697e+00 -3.502080208150889717e+00 1.647584672048123622e+01
-6.521766108186891842e+00 -5.064581639363661125e+00 1.806523068496978368e+01
-2.854330080907883538e+00 4.855318013252261977e+00 1.474152392032662107e+01
-3.479455441741242439e+00 -4.622727095333779346e+00 1.902607898483210391e+01
-4.335640502605452085e+00 -2.764610048655238295e+00 1.606210317845042113e+01
-3.694064021748448390e+00 -4.829893752620456837e+00 1.899619618336236471e+01
-4.097347947610618490e+00 -4.872088733514051917e+00 1.902130295174291064e+01
-6.521788514890147326e+00 -1.367408100962808071e-01 1.173848577295685658e+01
-7.391268493157562958e+00 9.246235995979523725e-01 1.311796207681975801e+01
4.675052059649404956e-01 -4.067599341661843226e+00 1.556513385850212927e+01
-2.005397667751086743e+00 -4.839601662521212155e+00 1.709131423570978825e+01
-4.723185320996031500e+00 -4.829729627822225702e+00 1.909183452190531227e+01
-5.360763219313287919e+00 3.066259000445007210e+00 1.695469788822432378e+01
-5.713683057736874460e+00 -4.802063285762582900e+00 1.913432298333024306e+01
-5.107705923508195411e+00 -5.005223421220349245e+00 1.805204163128788508e+01
-8.266080887288666190e+00 1.157645095177081362e+00 1.558854863086011733e+01
-5.908811381694333065e+00 -4.807370247033940558e+00 1.912448014646770389e+01
-1.319246489876916506e+00 -4.658107105847672180e+00 1.876182901022436056e+01
-7.169414771976324374e+00 -4.419690843609296316e+00 1.904747650296192063e+01
-2.911925112279989403e+00 -4.732886474396381438e+00 1.712240626197909421e+01
-7.289197214588606144e+00 -4.158079534339655048e+00 1.902781206821178728e+01
-5.061184695964612956e+00 4.230836671104469815e+00 1.350493625656493180e+01
-5.633682681266144243e+00 -2.144579488925241861e+00 1.874244194943106834e+01
-6.198823227808693659e+00 4.117353535854939572e-02 1.125081025880992769e+01
-7.472992431140824010e+00 -2.232226595694174698e+00 1.363146118595729916e+01
-1.595936150949430754e-01 -4.912348931249151285e+00 1.713878420929979995e+01
-7.613188781456329934e+00 -3.935863184902950174e+00 1.891346975291025245e+01
-8.785130110270289450e-01 3.471266817180679531e+00 1.598244833038542367e+01
-5.392223751489435557e-01 -1.897365132945329158e+00 1.332193214119951818e+01
-7.695232461144776437e+00 -4.107006982956701080e+00 1.885915351167498955e+01
-4.355262574536912901e+00 4.573375220751525916e+00 1.629980377771488520e+01
-2.290632684863802560e-01 -2.750371204936130631e+00 1.408713303181387033e+01
-7.287449421192066623e+00 -2.149408210643508177e+00 1.869756073634211191e+01
4.724544215645187784e-01 -2.836490288038175933e+00 1.726279110194323607e+01
-7.953340416287490555e+00 -3.976092254241645030e+00 1.869075420266024423e+01
2.942484685176800507e-01 -4.125916444657702797e+00 1.527610502658947667e+01
-5.190064567452846944e+00 5.307992123773143334e+00 1.544623843469958047e+01
-2.193702801551128623e+00 1.033783971593792206e+00 1.790952409095381626e+01
6.150867982242747001e-02 1.071075427054466012e+00 1.579268998846732330e+01
-8.155297533112323194e+00 -3.673247351861534504e+00 1.852589427306568837e+01
-2.551808698678430964e+00 -2.678813374629983812e+00 1.571243754600580900e+01
-8.344911504118694978e+00 -3.242510863516496755e+00 1.832204255845231700e+01
-2.568104223818159504e+00 2.791342765813435989e+00 1.729452588562035942e+01
4.940343354629659345e-01 -2.236336329768878528e+00 1.512639277343553346e+01
-8.821370248166987338e+00 -3.016837075433895343e+00 1.732057974967646885e+01
-8.595287866215180372e+00 -2.823005895206756044e+00 1.789408284635978674e+01
-8.595296317430658917e+00 -1.630211127917019720e+00 1.782188249153515613e+01
-5.949619858005830153e+00 3.592720415497723252e+00 1.649646515130377367e+01
-8.608182921911245344e+00 -1.813182005154339915e+00 1.782894488785365894e+01
-8.724719436503574954e+00 -2.396827720491569558e+00 1.751391132173495180e+01
-4.293392691712299758e+00 -3.835434259041956118e+00 1.915330569531136717e+01
-8.908057223510242650e+00 -2.733368043971795558e+00 1.675701774613609984e+01
-8.925448264151226496e+00 -2.724505410806260741e+00 1.635452747790285599e+01
4.926911721562130531e-01 -3.302546776805912465e+00 1.562594674263158367e+01
-8.906100605326443542e+00 -2.887743224529219610e+00 1.615247617893975729e+01
-8.524135746052900586e+00 -4.594472534002037811e+00 1.737971339613683597e+01
-5.420838643374100485e+00 4.845266845173592962e+00 1.395798566378198302e+01
-8.885122809358367846e+00 -3.064471756491238708e+00 1.608617474000445213e+01
4.575688218985771716e-01 -6.842058926152043696e-01 1.543167861183029999e+01
-6.332333333927774532e+00 3.528336044326133347e+00 1.323907227191753577e+01
-1.305609687214706494e+00 -4.260846599980964378e+00 1.576871753062573589e+01
-8.803817705655005099e+00 -3.055248169360687882e+00 1.570834868190532063e+01
-3.452405739639868631e+00 -2.436941626699723251e+00 1.885324858083529165e+01
-6.245572316614543595e+00 -2.754213183673691390e+00 1.890029574320034556e+01
-4.807588813180879939e+00 2.463177287464958454e+00 1.731026955377525667e+01
-8.596459961511559555e+00 -2.837521570883658306e+00 1.524726763172861865e+01
-6.026770974437038575e+00 -1.938427017487563297e+00 1.867263134624778331e+01
-2.527583272880288501e+00 -5.113550766200443576e+00 1.802522990442161444e+01
-4.181052079827835222e+00 -1.696270105988211263e+00 1.447174388915734511e+01
-7.390866981165466143e+00 -1.441985431258226313e+00 1.326217606192475529e+01
-2.511280745314198981e+00 -4.073157085287196111e+00 1.890831440108711803e+01
-6.635224809708345717e+00 -1.844081728973309353e+00 1.331918613792139183e+01
-8.018299497182387325e-01 -3.729525922626958589e+00 1.462761153495628719e+01
-6.378845463390847570e+00 -2.064023863103033207e+00 1.387937947016428097e+01
-5.793059178096886086e+00 -1.691913726236522031e+00 1.371821121776408603e+01
-7.326791678852579537e+00 -4.964919271481559981e+00 1.755140404632395956e+01
-7.720304543311263146e+00 -2.115520570022230373e+00 1.380983235528025688e+01
-5.974156593223105105e+00 -1.876508875985694047e+00 1.406895236194264953e+01
-4.533841881803164497e+00 5.808570188076172869e+00 1.515116131828285972e+01
-2.231061479820037441e+00 -6.114262107833012827e-01 1.826794085237340681e+01
-6.181809608740389095e+00 -2.064415131851985663e+00 1.430372259951149516e+01
-7.331053825014414826e+00 2.586941937340409225e+00 1.642690729308391440e+01
-5.797307576040706678e+00 -2.253115338091259190e+00 1.528161728183796697e+01
-3.265467990417805666e+00 3.072081921407437299e+00 1.275917508239565024e+01
-5.506067185144724263e+00 -2.143395953423816280e+00 1.523616757625213580e+01
-4.372162705412877770e+00 1.489077977750619564e+00 1.771210318362083314e+01
-3.720378903981498286e+00 -1.953992450535008363e+00 1.504609468352520452e+01
-3.374513201024916143e+00 -1.895613696993271091e+00 1.485349520727881156e+01
-5.152610158406689678e+00 -2.026509927706350744e+00 1.515740901943285479e+01
-7.954894491376380827e+00 -4.597139988076312633e+00 1.653757600632012981e+01
-3.342694938465334165e+00 -1.773404061221784289e+00 1.443367341212736932e+01
-3.928584274761333095e+00 3.180775413477163305e+00 1.269915950873575383e+01
-1.527940942893213361e+00 -3.164111751099425440e+00 1.466941553750989158e+01
-1.119651085206739838e+00 -2.420360080946233339e+00 1.341793259605321964e+01
-1.948373240154273045e+00 4.632035214606215590e+00 1.614875379144822176e+01
-2.970832103137220681e+00 -1.939852585201958135e+00 1.443493013684829407e+01
-4.553259610983909411e+00 -1.475508690007007129e+00 1.365452014834554006e+01
-2.736334933914958967e+00 -2.060970961949771585e+00 1.459005094687092452e+01
-7.322181193610161287e+00 3.199472268158636279e-01 1.290817023881474057e+01
-8.522672902642048243e+00 -3.661863259935587145e+00 1.805827302767185927e+01
-2.186022448953192754e+00 -2.296398146046863431e+00 1.437621496648206687e+01
-2.253214040211815039e+00 -2.099309377237019270e+00 1.396394680803859956e+01
-5.687886968746141747e+00 -4.931366393010377713e+00 1.906322764074995035e+01
-2.001489318987720978e+00 -2.338132596310650513e+00 1.396513081211422502e+01
-5.782007969595012398e+00 5.128980365719931100e+00 1.523010824823165876e+01
-5.605769609232986284e+00 5.524856211780367232e+00 1.462955422396023408e+01
-7.481456007293482813e+00 1.227700157447382701e+00 1.728378288907493499e+01
-8.484450876225523075e+00 2.673972721919168904e-01 1.696785571293060002e+01
-1.763807058450819421e+00 4.414027576135344688e+00 1.544839399158028925e+01
-1.455370473056477376e+00 -2.757011048571305523e+00 1.386413145916945666e+01
-1.925871139544027555e-01 1.904620694851484108e+00 1.603483114829836609e+01
-1.223240033711265218e+00 -2.720748288166557671e+00 1.369591366628687013e+01
-7.850939152646265740e+00 4.059934260090760638e-01 1.754983355776278842e+01
-1.037959298403784203e+00 -2.730969558533542951e+00 1.367436087324455940e+01
-8.209756074834995143e-01 -2.697037856612312545e+00 1.367212675254647536e+01
-7.391124472064813933e-01 -2.583559275650343601e+00 1.360611422934519510e+01
2.671405315538917247e-01 -3.302628778612741733e+00 1.842227630567569463e+01
-8.412158634265461288e+00 -4.489778898625184311e+00 1.640953578125343881e+01
-8.733682873603122232e+00 -4.203428628673768763e+00 1.705792057230347325e+01
-7.897524035745970838e-01 -2.926077045424888112e+00 1.386152748487963038e+01
-3.053998906826644433e+00 1.315290858237085025e+00 1.110069561213885692e+01
-1.709352556535526091e-02 -1.937285477738486694e+00 1.398915039752585443e+01
-7.158693588250386597e+00 -4.532235622051504542e+00 1.679240064794014842e+01
-4.725403637944568302e+00 -2.415537393234844288e+00 1.577068582756366055e+01
9.297162316663920567e-02 -1.126527003062434140e+00 1.396733478888019420e+01
5.660338402872535646e-01 -2.272342975122538355e+00 1.547014374650089508e+01
-1.159161225475251022e+00 -3.567625204247891091e+00 1.468095262942362211e+01
2.762363220044452561e-01 -8.009096292869353206e-01 1.441008899589220960e+01
8.335027776982373293e-02 -2.538066577343826680e+00 1.867887046327118838e+01
1.600472332577373979e-01 -3.083045745449430441e+00 1.865288061767169836e+01
-4.958104081605940738e-01 -3.895905845801268974e+00 1.883568135214046890e+01
-1.292663468801313442e+00 -4.512805525037253851e+00 1.878994673865464193e+01
-4.342535708151757490e+00 -2.062293031853300818e+00 1.528483735411420241e+01
-2.731548861657211447e+00 -2.811829690163175854e+00 1.594513625582826677e+01
-5.684941305503590669e+00 3.161014324896889160e-01 1.076556023524904759e+01
-8.001856543091721008e+00 -4.873367680056812645e+00 1.709823460478071411e+01
-1.021849724094080036e+00 3.678468324559056146e+00 1.615233947832835071e+01
4.371010769268071083e-01 -2.238325951091062471e+00 1.753193741634914460e+01
-1.504016621223932981e+00 -4.661437787493293960e+00 1.876786651889869262e+01
-3.122449962196281792e+00 3.199386907044847739e+00 1.301323314689753374e+01
3.632319091998115201e-02 3.631202117452230205e-01 1.754578328777290608e+01
-5.184043802277711777e+00 -3.509072504195161812e+00 1.910026792817913588e+01
-4.742549396853359411e+00 -5.092183059948688140e+00 1.849607518450307708e+01
-8.307522326122845913e-01 1.544146515896146710e+00 1.756407467537602685e+01
5.205451705103902871e-01 -1.314667639206184901e+00 1.577606282261749016e+01
-1.886166588430025381e+00 -4.464821633087035835e+00 1.882719945658927685e+01
-2.489437691974842437e+00 -4.530291093618142639e+00 1.890712050164159308e+01
-3.428325949940949968e+00 6.092831649802055161e-01 1.022318711384900070e+01
-3.142428553595940421e+00 -2.771556390934623693e+00 1.602046457169132054e+01
-4.484472825003127383e+00 -4.887690619274539294e+00 1.905522996970589844e+01
-7.977496520171351690e+00 -2.580523125862383083e+00 1.432019050053354903e+01
-5.351800536915442663e+00 -1.895255877983931914e+00 1.469030561457393702e+01
-5.281718525102309769e+00 -2.209224530356213911e+00 1.540910099255835775e+01
-5.304517049245289328e+00 -4.860411755441162107e+00 1.911824981146187241e+01
-6.488788211658889082e+00 -4.758170744669014240e+00 1.908626184528295511e+01
-7.103101612100742202e+00 -4.707505231263565015e+00 1.898298737268591196e+01
-6.271602155380675558e-01 2.423276585510655501e+00 1.543092733595629795e+01
-5.000917381247113269e+00 -5.377691094912355751e-01 1.101327208407890623e+01
1.106948745129439082e-01 7.502514319811712795e-01 1.551751007262946302e+01
-7.676724881115470467e+00 -4.497664495050852196e+00 1.880543071367129926e+01
-7.871028124815053317e+00 -4.290948448275097249e+00 1.872023038210900836e+01
-1.297686137966919784e+00 -3.897762333902289988e+00 1.880499914215602075e+01
-8.549456156562447173e-01 -3.500502665133165436e+00 1.882336314868191351e+01
-8.038573141146384771e+00 -4.081462745712626905e+00 1.859405821860414676e+01
5.890654522746738841e-01 -3.488478091384368263e+00 1.597719766831709620e+01
-8.254282323866865667e+00 -3.846752685733801691e+00 1.839946764956178527e+01
-5.508875585418254062e+00 -3.601643974556396621e+00 1.673054405292596414e+01
-1.106130643262612789e+00 3.121337025539868915e+00 1.678257012894120237e+01
-8.422346943869888136e+00 -3.444951485888100073e+00 1.822291825871106852e+01
-6.768726050040410058e+00 2.328088838933809246e+00 1.300317292458792906e+01
-7.667295396961202769e+00 -3.560950283490766921e+00 1.885384320232520849e+01
-8.521291050207700835e+00 -3.447441608489501874e+00 1.806552460894607748e+01
-8.703108864859325777e+00 -3.244705609193625051e+00 1.765857445784462953e+01
-8.630432740253608515e+00 -2.186042484592914725e+00 1.778732531712603304e+01
-7.873900613958721095e+00 -3.135835340759705936e+00 1.870167812883835978e+01
-2.776213821534883053e+00 -1.097155049769888979e+00 1.840436712036240152e+01
-6.047128844327643193e+00 5.281035760566718196e+00 1.438822284288889364e+01
-8.756031605081858515e+00 -2.809258919146120803e+00 1.749470660727460825e+01
-7.595848754439559869e+00 2.726746764564357051e+00 1.569375931531531876e+01
9.641029567577752424e-02 -1.758817689988621424e+00 1.412588848769398453e+01
-3.016541755660266499e+00 3.446956145786199244e+00 1.336945214418386030e+01
-2.983141698583989143e+00 4.579836561626585478e+00 1.444719043353382659e+01
-8.911359209003181903e+00 -3.109359166836308752e+00 1.646726290212587429e+01
-7.422683347555510736e+00 -6.614229819865151683e-01 1.821891024064180442e+01
-8.576649473134828838e+00 -3.261259931337360030e+00 1.527192427498204808e+01
-2.615038839711760321e+00 -6.042371669317359029e-01 1.827434881011141954e+01
-1.855161608998281197e+00 4.004034468616936238e+00 1.507297985157888576e+01
3.518752473362911637e-01 -4.232695737628535682e+00 1.542148128811109586e+01
-3.624407285110200050e+00 -1.222033868917888455e+00 1.848840745077024650e+01
-8.604973328023222123e+00 -3.063961508442961446e+00 1.528105412060964596e+01
-8.485424498724551512e+00 -2.951938878952769407e+00 1.511875620345195159e+01
-3.000601111062052517e+00 -2.005912107927513510e+00 1.868663115068537195e+01
-2.542443699216343944e+00 -3.404706433510268582e+00 1.635661485418810912e+01
-2.188069798116014208e+00 8.520449900220454786e-01 1.795687144232233123e+01
-7.426672960578144966e+00 -1.544558927730278253e+00 1.330020569445936474e+01
-1.963480382716097372e+00 -4.091174293411552476e+00 1.664828694043939095e+01
-8.864840182380136824e+00 -2.723107173400511449e+00 1.591981989324266067e+01
-4.476924525078336714e+00 3.130567856414863126e+00 1.260798981218184167e+01
-5.205545178300654996e+00 -1.178144450062532655e-01 1.815946311189302520e+01
-3.151652599925115261e+00 4.968468291102952961e+00 1.613115211812600336e+01
-7.171546514714240317e+00 -1.756941290104662379e+00 1.317583293318450899e+01
-6.355590175598633706e+00 -2.937241111874532074e+00 1.584107570145760491e+01
-6.605559652599062304e+00 -1.991645203893921412e+00 1.353474731370660322e+01
5.328835902437054628e-01 -3.155480867242567378e+00 1.665664640014446718e+01
-6.126556972791954436e+00 -1.853261112878010319e+00 1.373268533994699681e+01
-4.986287171960372078e+00 3.769081432792786845e+00 1.664418501034791831e+01
-8.549226099930544720e-01 -2.927121621943559404e+00 1.877966000775614930e+01
-6.319160694379256427e+00 -2.274971205092223947e+00 1.465095980014932309e+01
-7.996468066083370019e+00 -1.144382150548032495e+00 1.398561569937751159e+01
-7.662508334241056929e+00 1.648536307099586651e+00 1.388958641632778068e+01
-3.666449550950632741e+00 -1.814425016412140934e+00 1.868067945424803611e+01
-3.120873852600659859e+00 -5.077987807302385193e+00 1.819397044198306901e+01
-8.348989012849557412e+00 7.962560291018307979e-01 1.537014223688134962e+01
-6.149748658928627876e+00 -2.377570061960855519e+00 1.523360381351882609e+01
-2.669550358690000458e+00 3.355384024346574456e+00 1.362706300857453101e+01
-8.876657621974189283e+00 -3.566383529502433980e+00 1.684418372788360330e+01
-5.801441921222803444e+00 -2.488204222515394193e+00 1.562788684431426844e+01
3.743363106580308575e-01 -8.187964295328100661e-01 1.742785190375700921e+01
-4.903825418368992217e+00 -2.182519632189076297e+00 1.546417893957041656e+01
-9.931604392710328133e-01 -3.144247870303942705e+00 1.406823874259877982e+01
-7.532634527548655257e+00 6.863642484621153006e-01 1.332056006725688491e+01
-3.788927133373165557e-02 -3.172727266769814314e+00 1.448135865573049585e+01
-3.311833767142377205e+00 -1.989550576284969452e+00 1.505048652444624935e+01
-5.223509858600838385e+00 -9.350885390635101935e-01 1.838294056840397417e+01
2.347860192518167466e-01 4.610262487103025109e-01 1.575276698130952013e+01
-3.120252627566198367e+00 -1.961617736805777223e+00 1.482465351534612097e+01
-9.539480351217907161e-01 1.405241854770205467e+00 1.765645031134234699e+01
-4.020686983920723989e+00 7.519901856991273448e-02 1.001343586196403379e+01
-3.050134148808236301e+00 1.093267100354118782e+00 1.090798091501214628e+01
-8.605425044828440839e-01 -1.860010363680798307e+00 1.859641992786386311e+01
-3.172966080550849277e+00 -1.886414365951212257e+00 1.461992686684234144e+01
-6.760346471718314376e+00 3.881264380083106591e+00 1.575847906975602086e+01
-8.759351611979855790e+00 -1.092786498020329233e+00 1.604121365192063564e+01
-8.474000050011399887e-01 -3.105087938456373209e+00 1.880013993016284957e+01
-6.806346072772297973e+00 -4.728531910764634638e+00 1.903147686214940393e+01
-2.467913318928871558e+00 -2.306260371354431626e+00 1.505320903543999833e+01
-1.709449976602812615e+00 -2.873739770758027667e+00 1.450548694284410089e+01
-1.167949028937933509e+00 -2.935131921009054068e+00 1.389084788526311343e+01
-5.151257078235062181e+00 2.213456052682564401e+00 1.170203699288899912e+01
-2.126446026280784274e+00 1.421469677925071284e-01 1.124969181822208242e+01
-7.340253091421951481e+00 5.284161863337430987e-01 1.292435631426026532e+01
-6.010141254800641875e+00 2.299989398732866785e-01 1.104814647028483421e+01
-3.797560240813286470e+00 2.906211902548818671e-01 1.808356561332126233e+01
-9.997055835297108395e-01 -2.846064328131262755e+00 1.377096500348464048e+01
-7.682684741346783142e+00 -3.524968009901789934e+00 1.468187017308927267e+01
-7.886921495506133972e-01 -3.160414877151489499e+00 1.406318712278897465e+01
-8.545556656442835575e+00 -4.234861468335832768e+00 1.783306146759854727e+01
-3.022648089469203159e-01 -1.441454040476459753e-01 1.406975011852090773e+01
-2.648844266466447994e-01 2.086784374692960409e+00 1.647933611920083052e+01
-4.044561067149849976e+00 4.200278739696864605e+00 1.358323022808986025e+01
-6.166517523173056237e-01 -3.128942246668000138e+00 1.405505342944431391e+01
-4.377005799003798714e+00 -1.629078147317448266e+00 1.423498338104489847e+01
-1.864438015148663919e-01 -2.977192017695276860e+00 1.425428764836399154e+01
-4.807207167024207806e-03 -2.968095681276741615e+00 1.443780692118171061e+01
-2.946734493326548687e+00 -4.662309278148834224e+00 1.709549548018777898e+01
2.219673722198778343e-03 -2.182726729307293390e+00 1.410752401191643912e+01
-5.622869487658816112e+00 -3.216620922826951556e-01 1.820818503589480741e+01
3.219076159756126820e-01 -3.469655631928134198e+00 1.823401076181318103e+01
4.715692791859915634e-01 -8.020437415756846988e-01 1.478793544955173189e+01
2.777682280903088774e-01 -2.717504786615463352e+00 1.847980590946144019e+01
3.780030484510161770e-01 -2.239219636295296745e+00 1.789192514796484090e+01
-4.227807310986030132e+00 1.086411839360852838e+00 1.039782759609620655e+01
-6.518258474377335077e+00 -3.188633647575272789e+00 1.600506344408637460e+01
1.632307404030768350e-01 -2.911835278258565474e+00 1.865019455066965293e+01
-1.452731435520390857e+00 -2.681918888258269185e+00 1.865542692503042588e+01
-5.089159782874800309e-01 -3.462718470267009963e+00 1.435031945535082798e+01
4.070279657172852783e-01 -2.682474427243983328e+00 1.787793097606155612e+01
-8.662778662855328271e-01 -4.487595256476758721e+00 1.877238265223923719e+01
-2.738045797027498729e+00 -4.546409599263040668e+00 1.703366745451727127e+01
-1.112622772376133717e+00 -4.707809414332587927e+00 1.872623092993433858e+01
-1.744025417646068998e+00 3.182692026498735061e+00 1.702077153591127967e+01
-2.811423226390565411e+00 3.221950300041244830e+00 1.334064971059026306e+01
-7.446586315767193653e+00 2.090061459461349802e+00 1.671726757848266232e+01
-3.096323230797751513e+00 -4.848917752244134682e+00 1.886377763390971296e+01
-3.786742170505761340e+00 2.472330357451381744e+00 1.740303268942304271e+01
-7.128350797974292163e+00 -4.925105225604224479e+00 1.884303248819207255e+01
-1.357939374683119205e-01 7.814985492880455187e-01 1.498046091761762000e+01
-1.336017808437325982e+00 -5.109122394705478243e+00 1.836953638842530978e+01
-9.475084535160916976e-01 1.269865025537377790e+00 1.402488643814004377e+01
-7.641313663977662429e+00 2.366996037563716460e+00 1.462057284404031066e+01
-7.536343253881518933e+00 2.696199270764643607e+00 1.463079484484272541e+01
-7.502080513074636414e+00 -4.544869743810705742e+00 1.889291141359024095e+01
-8.483515754376833584e+00 -4.072389825550072118e+00 1.800466587483055747e+01
-4.859041158514220804e+00 -4.044169242001099285e+00 1.917793294048240682e+01
-5.815278237161274788e+00 5.329339953389255591e+00 1.484587078055798059e+01
-8.702724168200438370e+00 -3.609789642786865649e+00 1.765452672580489946e+01
-8.636544719892444988e+00 -4.407613688051696954e+00 1.694819395751373037e+01
-5.082109760244978958e+00 8.740707046054070339e-01 1.059386656196975451e+01
-8.385942922894633611e+00 -3.212933502174069034e+00 1.508037134265331503e+01
-3.441822566954641616e+00 -4.131078826430067963e-01 1.053283738070759767e+01
-4.691666454646170159e+00 -5.026473153812980321e+00 1.820669140066618752e+01
-7.490165017984823592e+00 -3.075426043523187936e+00 1.886679678061986465e+01
-8.408463157605995164e+00 -3.051676693913688787e+00 1.506289799505708515e+01
-1.156144483442557380e+00 -3.998754410092812961e+00 1.521336077392020769e+01
-5.710532607514167580e+00 -2.992195705802345174e+00 1.617664095343193509e+01
-7.338838631927284695e+00 -1.856662431334728858e+00 1.331900695979580718e+01
4.999861667337130999e-01 -2.802587201884225721e+00 1.687367627706293405e+01
-5.163054252968969138e+00 2.418694902543125469e+00 1.190116580177812722e+01
-6.627946720283768300e+00 -2.123134121858583079e+00 1.370833099699231639e+01
-6.542449672718420928e+00 -2.440902825353625794e+00 1.443522939153862694e+01
-6.420797146862135207e+00 -2.463839449195257103e+00 1.492604308731598906e+01
-5.137582186217741764e+00 -2.371901582180569790e+00 1.565405135825955085e+01
-6.005273776263690522e+00 3.672186212328305110e+00 1.641646375958782045e+01
-4.876003685322453096e-01 1.224051521244432950e+00 1.479962482474686425e+01
-6.177486047355607468e+00 -2.671654679181120429e+00 1.563863980751646210e+01
-2.953251895478429478e+00 4.850861606074426291e+00 1.621682861033833944e+01
-5.319189905239618099e+00 -3.153684066227995686e+00 1.641871639010862083e+01
-5.932991978328519878e+00 -2.711688717022204820e+00 1.581384241292698789e+01
1.234233284975532197e-01 -3.997650730399786134e+00 1.501862182271327839e+01
-5.595240642523387820e+00 -2.601078570439833371e+00 1.580832263252780479e+01
-6.865734912576762383e+00 2.082874325298619933e+00 1.708902924287397695e+01
1.198344222710749918e-01 9.305337421425237121e-01 1.595876614662573445e+01
-7.534766315047897178e-01 -4.820418774552805097e+00 1.613212568029627647e+01
-1.607058636359551818e-01 3.979527369445683416e-01 1.779315333833958590e+01
-5.518556554917193324e+00 -2.381350612251217136e+00 1.559334233389188284e+01
-6.983688406776748181e+00 1.916051008066585126e+00 1.713388316045104887e+01
-1.318692308356590459e+00 2.086729821936869733e+00 1.409583289675261142e+01
-3.766804089733437610e+00 -2.556957334790722847e+00 1.583866581266425300e+01
-3.178370813323910582e+00 -2.226913832173265995e+00 1.539746332397886164e+01
3.797894811534370252e-01 -1.774656130902651618e+00 1.476036713694693958e+01
-1.189226072726011774e+00 -5.049837839715952015e+00 1.731341501415234774e+01
-9.943971317285460465e-01 -2.302834904085320211e-01 1.821730959669511662e+01
-3.152935796296739035e+00 -2.100746967916906627e+00 1.519519837717029986e+01
-3.101401316441394496e+00 -2.018934285143578755e+00 1.498847097890329394e+01
-4.286937592983187884e+00 -7.758466937673658137e-02 1.018516148556079060e+01
-2.657187014876583930e+00 -2.309728779389732978e+00 1.526338341167986101e+01
-2.160414422253840172e+00 -2.445730953300743415e+00 1.495192800402971756e+01
-1.627910348182900702e+00 -6.250035584433177860e-01 1.825374589824778582e+01
-6.539286864210996697e+00 -4.932803975639444616e+00 1.746157028001247369e+01
-1.563383845345900358e-01 -4.493273054986056891e+00 1.852622192461810613e+01
-3.279435115609441898e+00 -3.456741941521712214e+00 1.901510036041613461e+01
-7.231188046472187381e+00 -3.212354261083034679e-01 1.283523105488157512e+01
5.391640580121581650e-02 -2.209628518470294622e+00 1.861889017092877907e+01
-1.718022611497021179e+00 -2.923159588377037821e+00 1.489464280969019683e+01
-1.198066468438726773e+00 -3.100870962022742816e+00 1.410489239647852600e+01
-3.267576172253503497e+00 -1.624926309654476153e+00 1.859149111096020590e+01
-6.943074074772349391e+00 -4.787594571381455388e+00 1.898576281492456275e+01
-1.184950130204678764e+00 1.643171642261888721e+00 1.391859997785004310e+01
-9.986188413198193725e-01 -3.333477826840960390e+00 1.427152507297024187e+01
-8.178900901929075928e+00 -3.184330534604481677e+00 1.487365183050793149e+01
-7.727998127225808034e-01 -3.344370452950998107e+00 1.422283838817560309e+01
-2.570282598918519845e+00 3.792010552516573707e-01 1.070124771772728423e+01
-7.735551362682345555e+00 -4.958318949392009678e+00 1.841931073813092468e+01
-6.184590527155074957e-01 -3.380438402040047308e+00 1.425902304506190887e+01
-8.176686117769329520e-01 1.479841371639779801e+00 1.439037264506085023e+01
7.296572160727743395e-02 1.093989615416087302e+00 1.594740316375091993e+01
4.611508324757185306e-01 -9.635761740516568530e-01 1.458641718032519918e+01
-1.380727383116799434e+00 -1.037613925746756927e+00 1.832188150305051977e+01
2.764635743648440336e-01 -2.912501900532411092e+00 1.845786085665269383e+01
-5.849771431165669000e+00 -4.396992792927727045e+00 1.917491438639024892e+01
1.671273352006068524e-01 -4.271673454175483720e+00 1.797090114193061794e+01
-2.704641007086726612e-01 -4.289657154143153406e+00 1.873847080486519445e+01
-4.120880638726521106e+00 -5.009408018249779104e+00 1.803874077887410010e+01
-8.163655834561199809e-01 -8.661968203603569449e-01 1.836239230600511974e+01
-7.203852237338304043e-01 -4.485537349039240951e+00 1.875965242387513854e+01
-5.702637880286589578e+00 -5.102506676863393764e+00 1.865336276265936988e+01
-3.791133474847114826e+00 5.312740411123420436e+00 1.461059302731086262e+01
-8.642783790077997352e+00 -9.517554851916418812e-01 1.744346892724390585e+01
-7.480965935600863759e+00 -4.917694347325029192e+00 1.866655115776000429e+01
-4.645590708532889579e+00 8.045467206424983253e-02 1.811690968302063709e+01
-6.324865077953740311e+00 -5.086330258768709811e+00 1.827325668605688236e+01
-4.366649956269248456e+00 3.311525964621147899e+00 1.697796699722542968e+01
-8.456323285455166427e+00 -4.407906037348895190e+00 1.791014028756302423e+01
-7.190824817390838675e+00 -8.761118300632779743e-01 1.298142147051641615e+01
-3.455559115424824856e+00 -2.443185648192809367e-01 1.030142995238340120e+01
-8.691348096058867156e+00 -4.047515705104100192e+00 1.757767150215087781e+01
-8.812350256544995375e+00 -3.802875609334229523e+00 1.723350719209331317e+01
-7.193347680433021196e+00 -1.097100975185509419e+00 1.301374468571690102e+01
-6.570535800021293227e+00 -4.606195791286714858e+00 1.711201687368090774e+01
-8.802013184761234399e+00 -3.986394072728581150e+00 1.699742840537622612e+01
-8.814176584359712407e+00 -3.959978270894565000e+00 1.666870854483561004e+01
-8.784524915937685918e+00 -3.906576706304240254e+00 1.623759207513031555e+01
-8.710677327311726614e+00 -4.078402828008447223e+00 1.620075786470216173e+01
-1.615609733180503493e+00 1.385601873354525004e+00 1.305636407257227205e+01
-1.452656385999007149e-03 1.263181047836615889e+00 1.658218889522559891e+01
-8.614478090369278362e+00 -3.863537033724496084e+00 1.562949856361122869e+01
-7.621054218724417240e+00 -1.740119112441454341e+00 1.354375548536526708e+01
-4.750885414950081653e+00 -2.153327625710756088e+00 1.543584383599088738e+01
-7.427366790731859680e+00 -2.103472228190526927e+00 1.355349893143224449e+01
-1.435023680848786398e+00 -4.812448806316315775e+00 1.676404373421784300e+01
-6.706638541406120257e-01 -4.300048527171613344e+00 1.878957641342648088e+01
-1.771731252809424451e+00 -3.327127195186747599e+00 1.584752166310354227e+01
-8.753318026468081214e+00 -1.231986690919847582e+00 1.720314187352106927e+01
-7.233743721479491740e+00 -2.261845913496630445e+00 1.355272023880687726e+01
-7.281343895127845300e+00 -2.478884507279301097e+00 1.375047825262884515e+01
-6.488633237796035402e+00 -2.988498457258297769e+00 1.579894971024433659e+01
-5.372212456090935007e+00 4.052281774992991359e+00 1.637870403628659233e+01
-8.704672831477019201e+00 -2.215924644072319261e+00 1.756782493083918695e+01
-8.695069388698893675e+00 -4.209433251048594116e+00 1.744247194773873844e+01
-5.348720262673920089e+00 -5.028452102163369908e+00 1.824875996712820836e+01
-7.025629395376308040e+00 -2.506870252341275140e+00 1.392246831023378917e+01
-7.852814043640625741e+00 2.088735933745742734e+00 1.604342392784512583e+01
-1.298981805019606028e+00 5.934564142375196028e-01 1.295378810526466395e+01
-6.572371200322528750e+00 -2.200423720411023076e+00 1.388822518968989783e+01
-7.633508702162151494e+00 -2.827481601825605040e+00 1.406741032677643943e+01
-6.710851150744181481e+00 -2.671074748437610502e+00 1.447852669144166526e+01
-5.181350390659448024e+00 -3.495457836911734617e+00 1.669486984279523512e+01
-2.582855868946804190e+00 3.516845674755448847e+00 1.696947612249893922e+01
-6.602139700708427483e+00 -2.831612288641977671e+00 1.518717891093760386e+01
-5.330596432016957209e+00 -2.856574407395412685e+00 1.613851876417400177e+01
-1.224156294107719312e+00 -2.591047665875745309e-02 1.271629015526787754e+01
-4.961188118126520052e+00 -2.800043115452969467e+00 1.614096984754138475e+01
-4.926526979466798295e+00 -2.635455437380379351e+00 1.599388485959693185e+01
-8.283340217081596180e+00 6.230545958430429021e-01 1.498101293833949654e+01
-7.360950048064580642e+00 -3.006453621274580712e-01 1.306856674998579848e+01
-4.538341089482663904e+00 -2.657855123591216007e+00 1.599542415741264989e+01
-4.744578735997809105e+00 -2.665869363923539126e+00 1.602464963518369245e+01
-6.467225594577547199e+00 4.415346818022808151e+00 1.543970138711665641e+01
-4.117657921316723701e+00 -2.662791238355374901e+00 1.596224452980256103e+01
-3.566389191689617544e+00 -2.866757256194671477e+00 1.613003712714031934e+01
-7.121486835941693627e+00 -4.976429045565402554e+00 1.757070354382155131e+01
-2.770235639701455810e+00 -2.361038314865371746e+00 1.543124121299138807e+01
-1.823743603362153687e+00 -2.806050633463520683e+00 1.510449775624456237e+01
-1.713559727969999891e+00 -2.981859743580150379e+00 1.511302413805757539e+01
-8.854399605386131800e-01 2.592323723239455813e+00 1.509731343030895090e+01
-2.831815466463489805e+00 4.489834066396392487e+00 1.448016801290382460e+01
-1.597826494440461875e+00 -3.172960093260614123e+00 1.507313639590614684e+01
-8.745248497298957702e+00 -8.726152155670829913e-01 1.607528489281398265e+01
-7.604434744911577226e+00 -5.182137203570111872e-01 1.347235353240486688e+01
-8.660421670399481853e-01 3.011204008967356405e+00 1.664815192477273342e+01
-1.565494469007425504e+00 -3.181838467213779609e+00 1.490646225850530726e+01
-3.948515359660051960e-01 -3.340233659125988908e+00 1.430016292593209215e+01
-5.364484262852092789e-01 -4.668368563647452341e+00 1.571399914387104957e+01
3.001686650520021260e-01 -3.176226963543073545e+00 1.500638996778714329e+01
-2.521230655633620366e+00 4.613364499762649729e+00 1.635975008636764727e+01
3.053610901280729983e-01 -2.657743866555783541e+00 1.485459253141554825e+01
-5.152924585344797137e+00 -2.804099084122094965e+00 1.612470414288441845e+01
-7.830749309131277869e+00 2.173003985516670511e+00 1.527008483591252741e+01
-2.568717930857033593e+00 -4.082113447370132597e+00 1.681186607239529707e+01
3.805981702158016677e-01 -2.378629588135271256e+00 1.494754575688933329e+01
-6.760886745849308710e+00 1.934382630650755219e+00 1.278383901623301000e+01
-1.835288151230945353e+00 -6.171787114680022945e-01 1.825767627777823776e+01
-1.518893692026294540e+00 2.656742501622984864e+00 1.433682219978771144e+01
3.951560151614530447e-01 -5.254333887865310082e-01 1.512857373572658304e+01
-5.929393620038263535e+00 -4.294516925677794639e+00 1.707973467886964869e+01
-5.865274810590122456e+00 2.704052782805286714e+00 1.229693623355697696e+01
-2.087780403915935779e+00 -3.180441515232541150e+00 1.594356677774963060e+01
-4.947482275111372729e+00 -3.168431402885870440e+00 1.643299153777920907e+01
-6.777514413706553498e+00 1.339871636222115692e+00 1.752476978928669382e+01
3.760730840220956051e-01 -1.598072082538501970e+00 1.470607586398895705e+01
-6.419732744996331064e+00 -6.429128676535054154e-01 1.829554034862045597e+01
-6.275922379730419776e-01 -8.673285176657801188e-01 1.837625780528792774e+01
4.700501839265212034e-01 -3.035119971198243505e+00 1.764377171090242769e+01
-2.490023922789331712e-01 -3.067150509591275664e+00 1.885950578337390482e+01
4.398551132328423208e-01 -3.256185552766100777e+00 1.784544964341026230e+01
4.253512921020394799e-01 -3.301236330324111456e+00 1.798295937634328823e+01
-7.506368232133631579e+00 2.980254452521987396e+00 1.512340368142236002e+01
5.472779672114493899e-01 -3.373968254808160872e+00 1.661577742413340530e+01
-3.196291807383994099e-01 1.712644765976512495e+00 1.544723251045508761e+01
3.395546452483588773e-01 -3.646663617162085202e+00 1.799733985862429364e+01
-4.032012465376425325e+00 -1.622770367481670917e+00 1.863763719371999628e+01
2.407510301443658296e-01 -3.832508330901541527e+00 1.818546701246045671e+01
-8.556979102407728632e+00 1.836820335902744628e-01 1.687108064994708201e+01
1.959289137352648869e-01 -3.709719208839688420e+00 1.846371997536129328e+01
-5.611333245897294209e-01 1.199633916197075489e+00 1.465880957213278180e+01
-7.937872131887102611e+00 1.378794240777065694e+00 1.679990114032617754e+01
-6.368630757267506937e+00 -4.214836489281499787e+00 1.693679290979435592e+01
-4.314994639156906509e+00 -5.075255585157671945e+00 1.836519234853876981e+01
-5.316342947840940525e+00 -5.117114171747275009e+00 1.867046148062536304e+01
-6.397454192181951882e+00 1.402028159542585861e+00 1.209671583359960323e+01
-1.681781317696400269e+00 -3.238409392413881704e+00 1.552262193864914508e+01
-7.895050596712678725e+00 -4.902877721943541545e+00 1.833107564949234813e+01
-6.791878051218327883e+00 -1.323928229002380164e-02 1.207395001041636817e+01
-8.512558978593741443e+00 -4.579937616748759766e+00 1.752973610464511012e+01
-4.977353291437955463e+00 1.456361993623889628e+00 1.088274035142621443e+01
-7.268758467212174113e-01 -5.019999172219591799e+00 1.748924129088679535e+01
-6.959231520035613627e+00 -2.636570197217059430e+00 1.411841734781555857e+01
-8.576900729730139616e+00 -4.073350907647122376e+00 1.580920460840179231e+01
-7.726382740529697202e+00 -1.922088166456140446e+00 1.376963508392057634e+01
-3.748534127538019067e+00 -5.030397881677751037e+00 1.800115461388674021e+01
-7.242840694174629945e+00 -2.784343229436331946e+00 1.407070021623485445e+01
-3.346744532491887192e+00 -5.092703001883788438e+00 1.836627671275878981e+01
3.290713459252858630e-02 -1.555707509143259060e+00 1.393901549088874958e+01
-6.715767919050859902e+00 -3.040180699290821131e+00 1.520176997446742462e+01
-7.414375795488810539e+00 3.151901725567885393e+00 1.533997162503592193e+01
-6.580014895976226796e+00 -2.895073918136722213e+00 1.543505811324585153e+01
-6.698061109146333791e+00 -3.088648311856003303e+00 1.544026463365494806e+01
-7.701248561412088023e+00 1.066592535571230238e+00 1.725254118435682216e+01
-4.406740818106268165e+00 5.244795573852005788e-01 1.800380254676863956e+01
-8.772545069696993991e+00 -9.611820190520310447e-01 1.700818644430625426e+01
-5.903201319068916320e+00 -3.234565915807030123e+00 1.634675463592057554e+01
2.053978787528321082e-02 1.181665393282495646e+00 1.574616666504983442e+01
-7.156363085426466597e+00 -4.636498077229788350e+00 1.688325744671680440e+01
-7.076647912776577343e+00 3.618343769439025692e+00 1.554385852191625617e+01
3.766614917376547300e-01 -8.511833325200051092e-01 1.448749126924700192e+01
-4.858091641029242957e+00 -2.960442462734723001e+00 1.627109128092758539e+01
-4.700777636446300534e+00 -2.805909399475718047e+00 1.614427318831398139e+01
-5.094354940941375531e+00 3.044432489357659755e+00 1.248737688088558428e+01
-4.526347296556705757e+00 -3.044181562326791379e+00 1.630810325390048376e+01
-5.734410651786294721e+00 1.401215482229205556e+00 1.138753875638411728e+01
-1.033500509832174341e+00 -4.310495953210017994e+00 1.536230784232372315e+01
-5.164491054713522544e+00 3.842067793237032181e+00 1.656679568985285300e+01
-8.793444176203280449e+00 -3.980359549436660593e+00 1.645268280964577201e+01
-4.317548503937586268e+00 -2.660446177605950702e+00 1.597055197066648446e+01
-3.528597188422631259e+00 -3.098958725632959599e+00 1.630170416909644615e+01
-4.533758637781411416e+00 5.516454408000617704e+00 1.547543854400699104e+01
-2.936145991758013718e+00 -2.700762144628097161e+00 1.592059023521940020e+01
-4.785501200429971291e+00 -1.633737029618250958e+00 1.408220752934521869e+01
-4.330395857846637497e+00 -3.657781455426849959e+00 1.669815023479080907e+01
-2.722812827403243929e+00 -2.614433562354513185e+00 1.575550440758492243e+01
-1.760854920879292518e+00 -2.996247348824121026e+00 1.532128578634830518e+01
-4.427046590185646835e+00 -1.198417297544995819e+00 1.849167409183448285e+01
-1.441138348923336920e+00 -3.467075420745751480e+00 1.505101676002401234e+01
4.153619118808364874e-01 -9.327128718614492442e-01 1.684804218238404871e+01
-3.186236747399205704e+00 -4.495405739302595016e+00 1.702979997884469299e+01
-5.170693937670531426e+00 -1.727807454730286629e+00 1.421815743840207347e+01
-2.856679946340458187e+00 -6.610046480681570635e-01 1.085956550158481804e+01
-5.720262361451546873e-01 -3.771671686942180912e+00 1.460746578362584813e+01
5.173533299740151747e-01 -2.341485265375892411e+00 1.669436130708268706e+01
1.765349905028372746e-01 -3.834146067957020065e+00 1.499615348684717020e+01
-6.657855682160400690e+00 -4.178305187205330284e+00 1.913513781050556872e+01
-8.915110946211761700e+00 -2.896602464149968803e+00 1.653896518863867016e+01
-7.992730531730922294e+00 -4.736116024574632100e+00 1.842256574148923676e+01
-3.725060891456350554e+00 4.104065293006126325e+00 1.663689915851943368e+01
3.983392732676382941e-01 -3.285358430871257340e+00 1.523737408890032441e+01
5.493873678843439468e-01 -4.093619922233950881e+00 1.579666891037896903e+01
4.611325496954135073e-01 -3.058078092669860304e+00 1.544599882670268443e+01
-4.115352418506856402e+00 2.890176843563390552e+00 1.240107659655127037e+01
-7.808383729911927418e+00 -3.400686452324014120e+00 1.464656171536706353e+01
2.167741819500548228e-01 -2.599343805576395994e+00 1.847977417849756421e+01
-3.862072973037794732e+00 4.234613419251431310e+00 1.363944841498935290e+01
3.827155849385410757e-01 -2.848102029975674299e+00 1.507291195304456721e+01
-6.985720615834036806e+00 9.098170091411346139e-01 1.768173853595035183e+01
-4.781195313041960659e+00 1.858869387110173355e+00 1.130167515037010162e+01
-5.080829506037364496e+00 -4.021957466191333097e+00 1.917050836456316176e+01
-5.989790371959655246e+00 -3.948124766099698313e+00 1.685139600658215642e+01
-5.947865717859247781e+00 2.767397464127202333e+00 1.241495947241924824e+01
4.437098393175600286e-01 -2.423828699954711396e+00 1.509156060504898988e+01
-3.662193794652738532e+00 3.799604235092969073e+00 1.330216473946037326e+01
-8.345066789833758492e+00 -3.416152846504194152e+00 1.507941212694160527e+01
-1.599559724444734821e+00 3.554173315726860682e-01 1.807854292429465914e+01
4.519981926366822833e-01 -1.832122485046076665e+00 1.492140978680676255e+01
-1.127956925858669246e+00 -5.097036979469722340e+00 1.793395040638554860e+01
4.492107537770173575e-01 -3.401086125468227195e+00 1.777696848168694288e+01
-8.327691023708288398e+00 -1.989953732400215003e+00 1.459825994577948194e+01
-3.200096170354062686e+00 5.666629838709754452e+00 1.507792040068661521e+01
4.413642534924289151e-02 -4.272577496141301445e+00 1.838209945034020620e+01
-5.203123519462755198e+00 3.575759261863402649e+00 1.670702907533567583e+01
-5.920919933192351436e+00 3.512870680370694387e+00 1.291410585993863691e+01
-2.523746548336294193e-01 -4.727151787509377812e+00 1.841157468303067191e+01
-9.373725906622222270e-01 -5.042491639567278305e+00 1.753237252963003812e+01
-4.819486087323024748e+00 -2.357711302431328981e-01 1.052560500218628903e+01
-2.104063758105221282e+00 -5.129358757361385912e+00 1.815100751505330834e+01
4.975066740101687923e-01 -3.022158117548348955e+00 1.724326529723735746e+01
-6.707350226126740367e+00 -3.366231978083549237e+00 1.598952636928515858e+01
-2.908496784279175351e+00 -5.103502696847487918e+00 1.838874332887634466e+01
-3.269528627072504801e+00 3.770107330975585924e+00 1.346766322514714176e+01
-7.373243612637461197e+00 -2.824575903507800412e+00 1.402370859834803696e+01
-5.605365181196143354e+00 -8.912796596119929582e-01 1.194815963233435241e+01
-3.329116398969324209e+00 -5.073974918772843345e+00 1.822155598773406382e+01
-1.761522150513121776e-01 -4.070718424685019876e+00 1.491373582095400252e+01
-5.130359748554568000e+00 -5.024203280022777385e+00 1.823366628344330564e+01
-6.070777572577860326e+00 -5.099552301674864729e+00 1.846191610540736860e+01
-3.155017722761029209e+00 3.490105799536957321e+00 1.700301407488597505e+01
-8.616354326356162829e+00 -4.355225295078198222e+00 1.659998606457610748e+01
-8.561144432110298297e+00 -4.369362432169826782e+00 1.640870902647483121e+01
-7.661008536221528331e+00 -2.336375141385777177e+00 1.383509997939797387e+01
-1.463979506656782448e+00 -4.083474267311568262e+00 1.880652439789974295e+01
2.114552913700138426e-01 -4.369330631274236154e+00 1.538499040265293161e+01
-7.218939492678916992e+00 -3.000399235304837653e+00 1.430610106225270783e+01
-7.931626917409768662e-01 -4.752145237315651194e+00 1.593115375424022773e+01
-8.504867623172435387e+00 -4.440631226897923334e+00 1.775992101293386582e+01
-2.007454801058426996e-01 -4.161835721176315950e+00 1.499471182271192049e+01
-7.992440670079052900e-01 -4.534012722250884586e+00 1.549669190893178694e+01
-6.990610755731688997e+00 -3.272102276616577932e+00 1.481791660343612449e+01
-5.390684811760728223e+00 -7.698187223050374506e-01 1.163423201342905600e+01
-6.838815138031471008e+00 -3.270732132695840733e+00 1.521870529396844063e+01
-7.106771456176407042e+00 -4.208761800962927069e+00 1.654045102791051391e+01
-7.575384965233954659e+00 -1.548229742803276299e+00 1.850381214445835099e+01
-2.763750404841722741e+00 1.156204529647593127e+00 1.117714280233924029e+01
-1.411791117864974243e+00 -4.501849047005554993e+00 1.637145509173029723e+01
-6.927219307842332086e+00 -3.509344214716993982e+00 1.558813227703363680e+01
-6.749322419860114053e+00 -3.313330281003636912e+00 1.582213262513057117e+01
-4.806320229753735518e+00 1.648356058220509013e+00 1.106704664333410193e+01
-6.936307920861812804e+00 -3.749878123402269559e+00 1.617800417779910305e+01
-8.807871960374189513e+00 -1.675558319835160237e+00 1.599662719222775564e+01
-6.345454518626434393e+00 -3.558452614658578206e+00 1.646231953800010217e+01
-7.859300190193264868e+00 2.022386317790434429e-01 1.394346903013356354e+01
-2.037937943597685653e+00 -8.973039202342736331e-02 1.130890797571581885e+01
2.794584074008179542e-01 -4.874546222869624579e-01 1.755786344722477565e+01
-6.141161589391062492e+00 -3.399610714855270110e+00 1.640478498732488077e+01
-5.776175895000159599e+00 -3.531293120596423307e+00 1.662283334289887904e+01
-4.930923606294321360e+00 2.228079001866556386e+00 1.171010211628487951e+01
-5.529012303595189692e+00 -3.387159236017678765e+00 1.658557677713739054e+01
-5.362394246506235973e+00 -3.380004396053161386e+00 1.660675839518409447e+01
-1.712894593163197809e+00 -3.443129027693665023e+00 1.588039435027749136e+01
-1.397178799396882720e+00 1.617513810039001854e-01 1.812188771501385531e+01
-5.135540596411976466e+00 -3.275953032915866814e+00 1.653389482886022677e+01
-4.125696612300776778e+00 -3.431260351391603791e+00 1.653934313211832574e+01
-6.800797414888492654e+00 9.635446421894715563e-01 1.229533454353578037e+01
-3.917598726103401763e+00 -3.575480831014389516e+00 1.661671535009698175e+01
-1.780758428182544151e+00 4.753512435080884835e+00 1.589486219828464186e+01
-3.346013179955832140e+00 -3.469345596285924316e+00 1.653242249278697074e+01
-7.742191928769916132e+00 -3.144175239062225735e-01 1.368589789483287689e+01
-5.248465364877388240e+00 -2.164129948578544571e+00 1.876466731375639085e+01
-5.308092991473602140e+00 -2.693394443569847141e+00 1.891195468212194442e+01
-8.186497414543641327e+00 -4.307985188214197514e+00 1.579297732543169275e+01
-6.296184277249778916e+00 2.341439470538678957e+00 1.714980872935966971e+01
-3.122188642076718867e+00 -3.230898830994631155e+00 1.636444899738719272e+01
-3.367653715339210763e+00 4.835960426870940410e+00 1.620650371617945495e+01
-2.522569967604766816e+00 -3.534824688945019666e+00 1.644736835494932592e+01
-2.131585420478440795e+00 -3.698423147539304345e+00 1.644135862268032611e+01
-4.364898434869731503e+00 2.706494428380450845e+00 1.725424630358647704e+01
-1.712987790919973330e+00 -3.275395403289300233e+00 1.567060592128585483e+01
-1.527558411830928220e+00 -3.409935833036096042e+00 1.528952091038318173e+01
-3.988977824070706335e-01 -3.962372652236644477e+00 1.477330820908548503e+01
-1.428356348662240372e+00 -3.616085264254727427e+00 1.527302730732412073e+01
