-9.924909834664024544e+00 9.072583386639594405e-01 1.670301651218354522e+01
-1.013090698050057625e+01 4.627876056204595079e-01 1.651865628995420821e+01
-1.016303768589835954e+01 6.694994750763572089e-01 1.621216575791179082e+01
-3.545922234518695149e+00 9.393796624263996975e-01 1.800496263038608191e+01
-1.015730568658532462e+01 9.159820678203518529e-01 1.545129884392062536e+01
-9.945620425329455117e+00 1.568225762988863181e+00 1.507126430134418626e+01
-3.368855794540758453e+00 7.193225693554550215e-01 1.798757640589320772e+01
-1.008965728529668482e+01 1.136730815543285367e+00 1.525799098043724911e+01
-1.001217868020137303e+01 1.367215867763948101e+00 1.505530286059664746e+01
-9.760099757869607373e+00 1.768121988201531547e+00 1.467260380883337945e+01
-7.038330224094749177e+00 -1.340149899123508348e-01 1.426042008534452776e+01
-6.050202771187962014e+00 1.758936069884838194e+00 1.203908822915538224e+01
-6.351263253083055282e+00 4.053261304543385179e+00 1.510284839134548207e+01
-4.064305623083676267e+00 2.705870809407180388e+00 1.460161754865978878e+01
-5.462623445321838744e+00 1.701575424382717472e+00 1.209652494984231197e+01
-3.903113031889503759e+00 1.548355844715010754e+00 1.246901384102944377e+01
-5.731824851146113176e+00 -5.015677508600221435e-01 1.806274943436022085e+01
-4.767417258324931240e+00 1.918977492248544525e+00 1.789908159519340103e+01
-4.308892723714688344e+00 -3.801295760131338408e+00 1.622013605649389945e+01
-4.974258081550039456e+00 1.937809475917950497e+00 1.788144748685876806e+01
-4.216388241785340441e+00 -4.258185684785494862e-01 1.421092621424694613e+01
-5.604488120188556799e+00 2.056201624038129783e+00 1.780459004012632107e+01
-5.142627503283399903e+00 1.907817419854849650e+00 1.787392651268999089e+01
-6.550804648314316303e+00 1.279004247583910514e+00 1.786715041680807303e+01
-4.770261151533748745e+00 1.699268204343228561e+00 1.794161341085251138e+01
-7.426236039993889371e+00 -1.708756372795814382e-01 1.424938937389919147e+01
-6.761402770691696595e+00 1.283195214035175447e+00 1.783608099181329010e+01
-7.345274709021665238e+00 1.502000432177406086e+00 1.769600548833177811e+01
-7.740532325279157355e+00 1.491130206045300444e+00 1.762480191027562171e+01
-7.939871176154045251e+00 1.290102351634261346e+00 1.762704395544291458e+01
-3.142227439844389458e+00 1.342177353530616291e+00 1.324421844495492451e+01
-8.124316883309155912e+00 1.116991979922671963e+00 1.762848099650453548e+01
-7.740882406158953621e+00 1.105504999783397668e+00 1.769926141388121721e+01
-8.338281547764399448e+00 1.288001537611302538e+00 1.755734494464235240e+01
-7.522103287186783227e+00 1.019099600335901190e+00 1.283106400320708929e+01
-8.152233211278097968e+00 8.512190414680391726e-01 1.767540013463884918e+01
-3.723852913151790567e+00 -1.431120303929540150e+00 1.809020047282621846e+01
-2.736567356074013357e+00 1.603646043858080183e+00 1.460193354603866567e+01
-5.016094408349592193e+00 2.617837637582093091e+00 1.318900652333386603e+01
-1.019378020118105610e+01 3.005182384896150083e-01 1.642091035556449441e+01
-1.020279769466308650e+01 5.012334765056453145e-01 1.620510167186914430e+01
-1.020221446854143466e+01 6.911186445401651390e-01 1.541195250295927366e+01
-7.483195460463154980e+00 1.896523879055297179e+00 1.206776134162295477e+01
-6.613816761923667187e+00 1.860483538930144842e+00 1.195693469672402642e+01
-6.479933243308136248e+00 1.784132966218834770e+00 1.202525514561813225e+01
-9.737504661457542454e+00 1.574360543360560527e+00 1.654537223145093350e+01
-6.850670371581469631e+00 1.697450066735225693e+00 1.213545101930859715e+01
-5.436745941471544441e+00 1.514659104481221874e+00 1.227627168316208639e+01
-5.050008471929591458e+00 -7.049336288957025465e-01 1.468008014063919120e+01
-3.473126650294942941e+00 1.529454770580223499e+00 1.281487168536395416e+01
-3.788253406587593908e+00 1.645522653546749314e+00 1.794317482239306827e+01
-9.118727329673056659e+00 3.383071753794437697e+00 1.591914508295663211e+01
-3.901894498249748544e+00 1.780208521610741279e+00 1.793065067646046629e+01
-3.373697459158177203e+00 3.319419691730438049e-01 1.346108750803283982e+01
-4.178285864069861688e+00 1.897507472372289783e+00 1.792635369731951300e+01
-4.005049847429243748e+00 1.531613694154954519e+00 1.798303329141548090e+01
-6.734368624458418218e+00 8.803203734600810737e-01 1.789232766740631320e+01
-6.971378607922163795e+00 8.936687493921930958e-01 1.786081920909916931e+01
-7.189371062611054519e+00 8.792715363340763979e-01 1.782931038622829334e+01
-5.484546482615000329e+00 3.183856719418255210e+00 1.379962522881680798e+01
-4.777208102867023243e+00 -3.049222277874005238e-01 1.810236710978247032e+01
-7.345385208386537634e+00 1.064170680130563484e+00 1.777525065733532728e+01
-7.764566913460787312e+00 9.123072714808860839e-01 1.772971108178885657e+01
-7.907068445575409221e+00 6.200992268914813366e-01 1.774779976592343900e+01
-4.157225478652121886e+00 1.327167248466600391e+00 1.802008419353170865e+01
-8.527820204816148220e+00 8.597018484295438912e-01 1.761212106048764525e+01
-8.732201030152594967e+00 8.598012084697064239e-01 1.757176818869081103e+01
-1.010108077114890790e+01 5.761153593598278277e-02 1.682005794081909755e+01
-1.024856825671142602e+01 3.374800248647932821e-01 1.522940358684945750e+01
-9.933075697427316442e+00 1.428483292340711475e-01 1.456349526373856662e+01
-7.658487982624808232e+00 1.910336262897927906e+00 1.209286322719183460e+01
-8.168118081772281158e+00 4.306689053286043567e+00 1.536132425482011143e+01
-7.073421245530238544e+00 1.466317805883517345e+00 1.236064933231854468e+01
-6.517334163902282818e+00 1.356237381281361287e+00 1.243959798222409319e+01
-6.876681912523038065e+00 1.275638592911776836e+00 1.253055777580302532e+01
-3.699837977242940390e+00 3.331921718160649526e+00 1.673942413458357237e+01
-6.240839213948206066e+00 1.351254599003535617e+00 1.244212332367605001e+01
-6.774406323488152637e+00 2.090756450212540862e+00 1.765926082013260867e+01
-6.061628083472407447e+00 1.357934253538662261e+00 1.242744741515439699e+01
-8.091258129769226315e+00 2.598433363421520870e+00 1.268636087689404945e+01
-4.269600359851613014e+00 1.295898167538813262e+00 1.250809246757499693e+01
-3.732226428036230281e+00 1.159704506397311707e+00 1.801197784351871434e+01
-3.955931033797120300e+00 1.340961305605486320e+00 1.800775102604937672e+01
-4.945449676296288288e+00 9.070109120623989218e-01 1.803806695134772298e+01
-5.556684333792240693e+00 1.175304797986985728e+00 1.796258523735804857e+01
-9.946147790794125143e+00 4.886893092691968477e-01 1.691445032209482946e+01
-6.349631374263811523e+00 6.771880032743161637e-01 1.794738041744399482e+01
-7.151210671454490075e+00 6.490403255199497234e-01 1.786197157533182889e+01
-6.139543738664622552e+00 4.084826274136009516e+00 1.525038306768053786e+01
-7.336857405271978827e+00 7.051426803574325497e-01 1.782573105136516034e+01
-8.735749131255793998e+00 4.808551863601953080e-01 1.763956196270217447e+01
-7.948028072452966164e+00 4.302109725212942770e+00 1.518299435208145098e+01
-1.031192931874141294e+01 -5.075223397705954653e-01 1.641545435710961698e+01
-1.032472622109873228e+01 -1.000876707864942206e-01 1.557263538573304373e+01
-3.295373405319049098e+00 2.011941903385497721e+00 1.426452742122661732e+01
-1.009794061140941324e+01 7.397654037420489104e-01 1.485019972484713691e+01
-9.564285938562210987e+00 1.996603198093507836e-01 1.409056686996434848e+01
-3.261306331471546471e+00 2.061537696042478274e+00 1.445770011229168972e+01
-3.539013437276303797e+00 1.686025761841262405e+00 1.306260487684292571e+01
-9.872653836031116015e+00 7.494726919857628289e-01 1.445861072376532519e+01
-7.204453701052696779e+00 4.880787244570949923e-02 1.407546093517677832e+01
-7.886996600579094796e+00 1.604985587218428211e+00 1.238918631080105826e+01
-7.310207549818636075e+00 1.357875942993861385e-01 1.396795402852369250e+01
-7.924499145114014986e+00 1.385268352509776424e+00 1.256896502264113735e+01
-7.879411910300505362e+00 1.242323340444289048e+00 1.266708747093684906e+01
-3.473001481617859376e+00 -2.202334171616912251e+00 1.522557989498393027e+01
-8.062887953881094916e+00 1.298724653262039563e+00 1.267726869801265366e+01
-7.698680320813257261e+00 1.249027504092846463e+00 1.261900865740881272e+01
-6.952975010684188106e+00 1.185730099541488336e+00 1.262870011628517375e+01
-9.992703852994164748e+00 -7.252400357984223334e-02 1.466915307035582572e+01
-5.673910639819172097e+00 1.143382815802997055e+00 1.267562133289209214e+01
-5.725646059187984527e+00 1.039149535421087567e+00 1.283106209731730729e+01
-5.076745072308697537e+00 1.143443884817462175e+00 1.265888704524699193e+01
-3.369815341709633039e+00 3.103924985599729514e+00 1.679919247091844881e+01
-4.093275195723387050e+00 6.491519716787566008e-01 1.309471735829647798e+01
-3.058423183086039998e+00 -1.914473549050782264e+00 1.503900045894268089e+01
-4.273708326331366436e+00 1.059485181046554647e+00 1.270775166152086655e+01
-3.704406734392927447e+00 7.515626100890302475e-01 1.305893235591289425e+01
-2.941281779589092871e+00 1.306872269498798644e+00 1.362564321700757120e+01
-3.499647214921612459e+00 1.342725535003093995e+00 1.792472451316338322e+01
-6.012323258508655677e+00 3.787085855104816434e-01 1.372204897255024036e+01
-3.391856208884300727e+00 9.077942140800409065e-01 1.796207786376336912e+01
-6.541679564671955660e+00 4.052974706568574170e+00 1.502037084611760775e+01
-3.394455542040403451e+00 1.915041885463149018e+00 1.385603172582532494e+01
-3.594821960606855882e+00 5.381022208636252468e-01 1.807028534457111846e+01
-4.148134236706000344e+00 7.324654537908700247e-01 1.808482435786420695e+01
-3.839116189616878394e+00 4.784425102179997724e-01 1.809817558639566926e+01
-9.568711270986177908e+00 1.547614871527725366e+00 1.415965340995560240e+01
-4.097075318070801053e+00 8.119923210949764325e-01 1.807989820225444788e+01
-4.380120873237453694e+00 7.430392338644620231e-01 1.808280796944885083e+01
-4.984436506683723067e+00 5.302607071675869976e-01 1.806820986876820712e+01
-4.932551713897678880e+00 1.348825223414325536e-01 1.809218593073060077e+01
-6.318263798999094405e+00 8.347570624433611197e-01 1.317387291781290060e+01
-5.961296878639982033e+00 3.369895386423869543e-01 1.801275426425846149e+01
-6.372591856881314243e+00 9.453631938661394285e-02 1.799769574405821970e+01
-6.569469736931752735e+00 1.175455284364136377e-01 1.797357400439987174e+01
-2.838040859234174818e+00 5.336431354116912829e-01 1.375187054106834239e+01
-6.958426993652683024e+00 9.769550321053338537e-02 1.793424495489527715e+01
-7.150524688793452377e+00 -9.365871940180725552e-02 1.792395408592501127e+01
-7.167317971276660593e+00 8.174257355856584528e-02 1.790934935449342191e+01
-7.761998110296009834e+00 -1.543896525797560093e-01 1.783628017433994017e+01
-8.495748716700244785e+00 2.577688194401432487e+00 1.307594488350925133e+01
-7.742911402700932477e+00 -3.230131047512473375e-01 1.784826134390353047e+01
-8.920737945696654236e+00 2.111973104841658178e-01 1.764530614871284087e+01
-9.260459942476447992e+00 -1.854287444123058348e-01 1.760254987770340307e+01
-1.019362392717800603e+01 3.106655803183288045e-01 1.497364948225794734e+01
-8.543080525498108813e+00 1.193289722038243461e+00 1.290138077998931010e+01
-6.126350924268660236e+00 9.953981579730307727e-01 1.291828870590830292e+01
-3.290847641251138711e+00 2.261398268711643400e+00 1.489613278927964757e+01
-5.543113909408258877e+00 8.958826361199679900e-01 1.303699165203816790e+01
-4.122725596311613394e+00 4.421765759433054499e-01 1.330613466781884568e+01
-7.853441681383698914e+00 -6.178720323756290433e-01 1.458554582697864532e+01
-3.910970867780778626e+00 6.244098041206079808e-01 1.312472041986756466e+01
-2.587287520095590043e+00 1.328082048900762313e+00 1.430239326574256609e+01
-2.374694223205111143e+00 1.216796770297056129e+00 1.654726655279259262e+01
-2.419955842175541605e+00 1.224811002755954004e+00 1.673146242406940587e+01
-2.393231277601875373e+00 1.009858146870706630e+00 1.674250195256384899e+01
-8.101538506600533651e+00 4.102069948813345412e+00 1.494619582800366686e+01
-2.364251980874916281e+00 8.167781617669322980e-01 1.675708834104088396e+01
-2.506349154013383984e+00 9.892283991452252012e-01 1.710646907671029027e+01
-3.328833652025879886e+00 -2.940932621482031939e-01 1.809312265308978596e+01
-3.764848840089238813e+00 3.335364398327865243e-01 1.810798116775417554e+01
-3.947607088922748808e+00 3.139517725244531654e-01 1.811453253191192658e+01
-4.147610430379855551e+00 3.590440994226809512e-01 1.810976604782169375e+01
-9.527789664512930301e+00 5.656733424587195858e-01 1.395621539691738633e+01
-4.570223117293941151e+00 8.256887642737587019e-02 1.810706409533800354e+01
-6.898406246900728789e+00 -2.496792598084494053e+00 1.787171424732894565e+01
-4.754251068660914292e+00 -5.393152354668823145e-02 1.810233145994720871e+01
-5.364116489828309575e+00 -7.817396663322129235e-02 1.807716761060748922e+01
-2.372743801447524170e+00 -1.535157506392484938e-01 1.465490213715950318e+01
-5.583165258891198413e+00 -1.067758590440612831e-01 1.806683909241695574e+01
-5.164944130688482460e+00 -5.074441762570218728e-01 1.808343663941458601e+01
-6.761940078427723932e+00 -3.260894381517247531e-01 1.798801548153743823e+01
-7.359707245154921473e+00 -5.372375341739362709e-01 1.791033205265436123e+01
-8.136528834146233180e+00 -5.400533999902338289e-01 1.780585582879623274e+01
-8.326889945482616184e+00 -5.245957559387274260e-01 1.778666238753746853e+01
-8.730281289857025229e+00 -5.479072411511076712e-01 1.774747756743916227e+01
-9.142426198474662868e+00 -3.445700327533227636e-01 1.765400261828742146e+01
-9.112812876547799590e+00 -5.630226179488458937e-01 1.767902028715258922e+01
-3.304936334684195565e+00 2.195222755286379890e+00 1.470088166465149015e+01
-1.022693143388977433e+01 -2.519903849695119824e-01 1.504001762974837675e+01
-5.959419538021422547e+00 8.229736227347810296e-01 1.317854413904205302e+01
-6.541287998062257358e+00 -2.878320881480525895e+00 1.574264088717203691e+01
-5.720216976180421575e+00 8.141069893611841968e-01 1.317138310861037809e+01
-5.150883728286640206e+00 5.183268708218310428e-01 1.349483646894547917e+01
-3.350938857188929809e+00 -2.388845719868974982e-01 1.386732661154746182e+01
-3.451731598241655874e+00 -8.092348512898583923e-03 1.368261403610806326e+01
-2.326281759772143687e+00 6.329486171364510083e-01 1.652693237838570184e+01
-8.549117402970640711e+00 3.803163148676735883e+00 1.486203298682996632e+01
-3.281485667665865691e+00 -4.833483206378584862e-01 1.809661242250675883e+01
-4.556016614701119849e+00 -4.471831643737135265e-01 1.810812629287291031e+01
-9.465934189260238441e+00 1.376230254729086777e+00 1.390071782031302661e+01
-4.754131238728660946e+00 -8.854400735128592492e-01 1.808055835697372515e+01
-6.158444377279229442e+00 -1.100341476805862140e+00 1.502707931904750893e+01
-2.416266705227851919e+00 -7.420001767718836794e-01 1.484435312420771425e+01
-9.222886449877847781e+00 2.924703191343852815e+00 1.468651830018207249e+01
-5.325759438613424379e+00 -7.179555154645816950e-01 1.806211173871090381e+01
-5.556864837547879077e+00 -5.164006444915968386e-01 1.806476685190763476e+01
-7.159231376137134895e+00 -7.373735758737690604e-01 1.794059267773776867e+01
-4.070989802816690428e+00 -3.934776093981741329e+00 1.770711361849546250e+01
-8.107573266105596588e+00 -7.280538170275548948e-01 1.781438972217099348e+01
-6.700626797750512509e+00 -1.209854129923584320e+00 1.509485607129890639e+01
-8.324415770563678763e+00 -7.267588905906897656e-01 1.779309074996924522e+01
-8.529013725209132701e+00 -9.254487918159978177e-01 1.777279287353719184e+01
-7.978580215131519715e+00 3.479906076446601659e-01 1.357075280167772036e+01
-6.763037508862083769e+00 6.915669888455054926e-01 1.335581207705553908e+01
-9.244747906382936975e+00 -3.598897963391312071e+00 1.653182049233163298e+01
-6.970372978756611104e+00 7.001938531364125806e-01 1.332232642089041263e+01
-6.186841522463924825e+00 6.744267719727341515e-01 1.338673061028594446e+01
-8.823963872717797585e+00 2.798457130620870981e+00 1.380304358883964255e+01
-9.308580909936367220e+00 6.629260369816140086e-01 1.356332754212475322e+01
-5.205938174586863809e+00 4.048129781764439605e-01 1.363407510961989288e+01
-4.727478951696905796e+00 -1.483979139850205353e+00 1.803280392845555724e+01
-4.999561221704463598e+00 1.684632200260732793e-02 1.400772852589701500e+01
-7.810103114023816850e+00 3.245974205382738731e+00 1.349907979113906720e+01
-4.584978653745492849e+00 2.743615442951136130e-02 1.388439682989342572e+01
-6.331942927424996093e+00 3.736471778333656957e+00 1.452616068271148464e+01
-4.565359045924513914e+00 1.498697796481897881e-01 1.374716130871854602e+01
-2.315697811069938883e+00 2.407946131902720943e-01 1.629533761045198048e+01
-3.012529255128423511e+00 2.794825804957740134e-01 1.369531103182186627e+01
-2.797245998960795177e+00 3.183652760778507007e-01 1.388718007897180939e+01
-2.342477200121237946e+00 4.229296151877635079e-01 1.671879278023820348e+01
-2.301823283608786408e+00 -3.190125515450382698e-01 1.545173294081557458e+01
-2.990275048550647963e+00 -3.045797111249282096e-01 1.795275431280400369e+01
-3.924004681276200834e+00 -6.644420589121363685e-01 1.812340124450565781e+01
-5.236172937586048626e+00 -2.755698404299334880e-01 1.431368021262785106e+01
-3.272184418567576358e+00 2.733203361720313751e+00 1.610182147318469248e+01
-3.959610423033007365e+00 -8.590378430224122619e-01 1.811654698085963844e+01
-8.285818863361807729e+00 -1.671276056017643175e+00 1.524579416584744251e+01
-4.556865258690081966e+00 -1.260522167797032633e+00 1.806537964744899227e+01
-5.525359526229749463e+00 -9.076593811291459035e-01 1.803439594511548449e+01
-2.575492698643864653e+00 1.573544413119347229e+00 1.496661402103783445e+01
-8.347005924791201181e+00 -1.347685255383734848e+00 1.778134995843108612e+01
-3.482803891540935837e+00 2.796441520276478521e+00 1.760524538801544736e+01
-8.297721493088559441e+00 -1.556204685592411874e+00 1.777400078008528794e+01
-9.962607890669172406e+00 -2.324270950357133714e+00 1.688731824390072944e+01
-1.007636625343087999e+01 -2.129722651839165870e+00 1.677219834337834214e+01
-7.372202653651602766e+00 3.975680320068511464e-01 1.365010576675153686e+01
-8.469024070814246130e+00 2.231654375750769415e+00 1.264923533373729470e+01
-7.100176853073485894e+00 4.964732791034987436e+00 1.647209110640106644e+01
-7.393117949127920419e+00 2.250883993809095762e-01 1.385084487792879315e+01
-6.405902956319637020e+00 4.237707550258313915e-01 1.370642034529430475e+01
-6.202212192036214766e+00 3.184232496270520407e-01 1.379674860488191968e+01
-6.358695037263285776e+00 -5.157650167566751875e-01 1.457206097091427921e+01
-6.412260560596170222e+00 2.067816154692974362e-01 1.393028793531825471e+01
-6.001546378602547804e+00 2.854876166095304812e-01 1.381763916315831864e+01
-5.011935146071349045e+00 -1.156515035553540849e-01 1.413819422068088727e+01
-5.411774070997879882e+00 4.612678114119467265e-02 1.402244231039090039e+01
-5.730292845093508447e+00 -3.422209960823562547e+00 1.594899155685033065e+01
-5.670420303355902192e+00 -2.956392844884884408e+00 1.578414368911458610e+01
-5.025440723200964577e+00 -3.131609302723974420e-01 1.432347246165626586e+01
-6.324766602287853701e+00 3.552849721503127611e+00 1.415428507440216777e+01
-4.384895314395659938e+00 -1.989236664440074964e-01 1.404907322720213614e+01
-2.823514371162563652e+00 -6.703225631769490489e-01 1.429564822561599158e+01
-3.990485907523031450e+00 -3.806036886776561490e-01 1.409188958495109034e+01
-8.041260757832944250e+00 -6.442598056620064684e-01 1.455874264796639750e+01
-4.222644822234584261e+00 -5.355108771329619710e-01 1.431467201429845915e+01
-3.607851181642881322e+00 -8.988094160840295332e-01 1.438632563325957392e+01
-3.213862799306821394e+00 -1.165578775218292673e+00 1.452571933735324450e+01
-6.305757960524025485e+00 -2.431925758496303658e+00 1.560609985321980275e+01
-6.238941047416733277e+00 -7.490337602707247688e-01 1.476234673217033588e+01
-3.174064407742120508e+00 -5.723716746580977954e-01 1.412371823941249716e+01
-2.812106051663823436e+00 -1.208146197781052589e-01 1.404305556001071409e+01
-5.739239860981129482e+00 3.743607500678940436e+00 1.479293169775922934e+01
-2.733435149635400130e+00 7.528065017566226702e-02 1.404759132628219476e+01
-2.601229329169062687e+00 -9.249997507092710958e-02 1.426952826124854568e+01
-6.339141253814918997e+00 -1.537433356788653338e+00 1.796988978321002151e+01
-6.917820623209307129e+00 -1.934184457984571726e+00 1.790742133283557536e+01
-8.569475701305258042e+00 -1.775797205686013847e-02 1.373527518752972298e+01
-7.205092495312569234e+00 2.360998677305093107e-01 1.387104153375572935e+01
-6.001685945517783338e+00 -1.125664177246900044e-01 1.419517586727926073e+01
-2.990888371315460148e+00 1.730708450222476547e+00 1.428332724318901370e+01
-5.645275779134070859e+00 -1.412101874010418534e-01 1.420544302608510634e+01
-5.597397270322740148e+00 -3.033811733781511810e-01 1.435286694280446085e+01
-4.810280151722375663e+00 -7.359290296414263688e-01 1.466623222655853453e+01
-4.434309527422382935e+00 -6.940012909990856960e-01 1.452984079089490166e+01
-2.886061121754637693e+00 -1.052574004160960364e+00 1.449873614158688184e+01
-2.789806840635267182e+00 -9.010475124670719316e-01 1.444916100560677563e+01
-4.110127966351104334e+00 -1.884579759242319241e+00 1.802911314424780898e+01
-4.119164130767845045e+00 -2.064295307738896579e+00 1.801143417303728000e+01
-5.121751488179427270e+00 -1.681234157169241072e+00 1.797958203467904070e+01
-5.146725730719249547e+00 -1.886432201761176319e+00 1.795463816351981023e+01
-5.324015287398935037e+00 -1.892761767528293504e+00 1.793668297336881778e+01
-6.310578888418461929e+00 -1.726201485702581806e+00 1.795704690325438690e+01
-7.117695516542851486e+00 -2.120944279562054557e+00 1.785654608098448648e+01
-4.585448831188273289e+00 -4.103015599473709862e+00 1.649117616990630353e+01
-8.065113979309078474e+00 -3.168712111159487366e-01 1.422811896826603117e+01
-7.833243857817691058e+00 -2.201263476414626608e-01 1.421405060496013562e+01
-4.939936439890279196e+00 2.733856635059688678e+00 1.352108110922159057e+01
-7.208914458066909781e+00 -8.033957261918511783e-02 1.419575639552325441e+01
-6.236487113054453246e+00 -2.129859027108040870e-01 1.430229919228021629e+01
-6.462916352130958053e+00 -4.172278422454968050e-01 1.449469369405408514e+01
-6.049589901177476747e+00 -3.262849666829601425e-01 1.438638053510722159e+01
-8.727806282443371089e+00 3.055215054957938658e+00 1.397867790260999499e+01
-5.821842998052225049e+00 -4.674180831142576986e-01 1.450102975860826149e+01
-5.641345243734831705e+00 -5.946091889740985348e-01 1.461164508413818908e+01
-5.392847981485942022e+00 -6.799693570161738920e-01 1.468367150587504000e+01
-4.889562804987009237e+00 -1.186996135768322080e+00 1.505435195180253061e+01
-4.439351206123224536e+00 -1.333831662727656298e+00 1.508127212023798336e+01
-2.356043791654176101e+00 6.675047153793844945e-02 1.462273455556743329e+01
-2.315679623853883928e+00 2.611255953064740565e-01 1.490849260155817291e+01
-4.907530894781445774e+00 -2.467327315391064868e+00 1.791793326630617145e+01
-6.510461156597430410e+00 -2.293748752964817061e+00 1.791938990661535058e+01
-8.108313530998440655e+00 -2.142071385994072319e+00 1.774389685749939360e+01
-7.706305270993811796e+00 -2.313452003220781705e+00 1.776646290954834484e+01
-5.570123789299861627e+00 1.325751918583147670e+00 1.794421010440861153e+01
-9.415682782668774564e+00 7.619228325777909205e-01 1.371577984882777201e+01
-6.180636593638203280e+00 4.141551772085112049e+00 1.534056200615170695e+01
-5.715529021960092493e+00 -2.682316607067760206e+00 1.785787153724192677e+01
-9.333322680945592253e+00 4.033452169308776591e-01 1.372228251333205407e+01
-7.814159482176596505e+00 -4.188722741094678126e-01 1.440830379216934176e+01
-6.765690357330024440e+00 3.248132021914939660e+00 1.735049240188031661e+01
-6.868010706746947136e+00 -6.128452182335394349e-01 1.467059468857954840e+01
-7.085746439908917615e+00 -5.894529319491560448e-01 1.465484795128395490e+01
-3.489278398296377759e+00 -2.350475791634358824e+00 1.531548050149137197e+01
-2.691370010772921706e+00 -2.348965104244343127e+00 1.540355238133118831e+01
-2.541567834329643283e+00 -1.912309608049037823e+00 1.524497033220936970e+01
-2.338648515031936714e+00 1.261656348387526216e-01 1.475171908308465163e+01
-2.564874194480699199e+00 -1.228329197085407110e+00 1.724971487665656156e+01
-4.885269622721776450e+00 -2.880134612670453897e+00 1.788414054506242934e+01
-5.090586369263859545e+00 -2.683081223393410486e+00 1.787811202545204026e+01
-4.664429215027461773e+00 2.796787815454625292e+00 1.399545464215592006e+01
-6.317742987832478008e+00 -2.705928341327642705e+00 1.788684868121384852e+01
-6.102823624971511762e+00 -2.706932773097307177e+00 1.787560069143844999e+01
-2.546161045122296240e+00 -1.123952487427196001e+00 1.721263807217701469e+01
-7.680057557081471309e+00 -2.717709295596265395e+00 1.775157544558452827e+01
-8.279146403793301801e+00 -2.536705651528424976e+00 1.770054451336002188e+01
-3.155064325448020845e+00 -3.472007632691270995e+00 1.600237137532373310e+01
-8.068804607214421054e+00 -2.755962814373184688e+00 1.770770283286408642e+01
-9.702587947198374252e+00 5.243282053086031347e-01 1.422782226120857274e+01
-9.378395105369772722e+00 -7.615453162524821185e-03 1.391528844227799766e+01
-9.243086875931130209e+00 -1.055919675496700183e+00 1.438774160925525081e+01
-8.272934467713358941e+00 -1.229352940247307124e+00 1.496701957618795831e+01
-8.088832567440398691e+00 -1.200658763811705221e+00 1.500189298028917051e+01
-7.480338290597903672e+00 -7.067204611172551720e-01 1.471702925094974290e+01
-7.466239226041401444e+00 -8.375974028019145257e-01 1.482179593590629452e+01
-7.698851307351204376e+00 -8.414149148910238241e-01 1.479953930637645243e+01
-9.300068968448840678e+00 1.863332021395923910e+00 1.694407819697589446e+01
-7.052669191697884088e+00 -7.989768344044693160e-01 1.481764030188799808e+01
-6.680376972205102071e+00 -9.479203714978862161e-01 1.493100845294714674e+01
-5.763056357502634341e+00 3.042611282683379326e+00 1.329123712828494064e+01
-5.489972479388241844e+00 -1.243974945369908269e+00 1.511570289495485753e+01
-4.696837523690293281e+00 -1.772759873129631014e+00 1.538290683223608823e+01
-2.457654133778774952e+00 -1.709522214739649382e+00 1.542525064235059062e+01
-6.748880728786715189e+00 -4.900341783964500264e-01 1.799674428473852572e+01
-2.420452155032672970e+00 -1.553306356961938306e+00 1.560810702572133124e+01
-2.406800072354742692e+00 -1.163074068977286046e+00 1.541138940813106473e+01
-4.300600550089239249e+00 -2.993778661322491264e+00 1.792661924100792703e+01
-4.490439419194349746e+00 -3.116782207584762432e+00 1.789906632150075438e+01
-6.095697243450669767e+00 -2.897074571248539065e+00 1.786399363783097272e+01
-8.289446365170043407e+00 -2.926447320671412111e+00 1.764776111402628800e+01
-8.500246838950523909e+00 -2.938401353193191845e+00 1.760015700690691887e+01
-8.673223831929899319e+00 -3.132606373269956723e+00 1.749636129299776854e+01
-5.945388088517685965e+00 -4.221164302028240778e-01 1.446617842523207997e+01
-9.588669199642584573e+00 -3.103889538728412223e+00 1.610088948406188791e+01
-9.713984733676223726e+00 -2.606576629732733075e-01 1.436987818241063763e+01
-9.798643024342212016e+00 -2.477020256463816628e-01 1.447233762854786221e+01
-6.349094939448740149e+00 2.941116835461867751e+00 1.278846094879779116e+01
-9.582733691802072684e+00 -4.054338492198650279e-01 1.425981994364233429e+01
-9.024738913060442513e+00 -1.314410889377382929e+00 1.457599116834502695e+01
-6.864358217720270439e+00 -1.210037201872069978e+00 1.509712737696028739e+01
-7.096550287740567065e+00 -1.181090664741696106e+00 1.508398453033092323e+01
-6.070997527751992529e+00 -1.201650386307894003e+00 1.509062429594393251e+01
-5.685435796404433972e+00 -1.406496035754927654e+00 1.520511179696829629e+01
-2.427220781830889518e+00 -1.774988898482328548e+00 1.600244162191467012e+01
-7.541908894907817462e+00 2.538518767700443046e+00 1.228080125020245816e+01
-3.274577675366749929e+00 -3.426455215709191204e+00 1.767127274330318443e+01
-4.680611911814864357e+00 -3.483900803457523843e+00 1.783245926931148517e+01
-5.090060673181190154e+00 -3.697163296042901504e+00 1.776462249267795812e+01
-9.031897937304716351e+00 -3.729659794062448963e+00 1.697663991624918367e+01
-7.894050490027724187e+00 -1.639542633959893081e+00 1.528648964260836607e+01
-4.724150480064428059e+00 2.056895778155953369e+00 1.219372416555309968e+01
-7.803587886003891860e+00 -1.548094206444230903e+00 1.525270789806420879e+01
-7.094788668252644648e+00 -1.422174108866710363e+00 1.521461884357703553e+01
-6.728779037948867447e+00 3.997023894123448162e+00 1.484775901461582492e+01
-9.500017213764451185e+00 9.927536581500573387e-01 1.388259568314917658e+01
-7.674602793809410350e+00 -1.625988265834524160e+00 1.530004613186751783e+01
-6.866110079661319254e+00 -1.419509256608122882e+00 1.521109898612701272e+01
-7.088002859087414897e+00 -1.650248741543178799e+00 1.532808437633800480e+01
-6.498623035598950715e+00 -1.325414888087973253e+00 1.515750822418957000e+01
-6.689639900832230701e+00 -1.618460616960589071e+00 1.530732315127782783e+01
-5.702613660727845257e+00 -2.008436444880179472e+00 1.546709268661878411e+01
-6.456535202017239072e+00 3.444707965235610736e+00 1.387667571658445809e+01
-5.709490590455216008e+00 -2.197419630310721406e+00 1.554029755415782432e+01
-5.128228368843536167e+00 -2.461337937828199873e+00 1.566834161417042282e+01
-5.322208959318423638e+00 -2.504847424932315825e+00 1.567221064925514185e+01
-7.352078309243586851e+00 3.125351308863654864e+00 1.729457879858257030e+01
-4.507035238014767131e+00 -2.648837034665057821e+00 1.573001245394340941e+01
-7.371385269363222470e+00 4.399481150158808695e+00 1.539921472079655729e+01
-4.516532134153075972e+00 -2.814819821111457898e+00 1.579373260703170700e+01
-2.599217224559649431e+00 -2.781107698733289890e+00 1.675708636585959965e+01
-2.583283689209478151e+00 -2.600027887054444875e+00 1.678582848550731654e+01
-3.094381183648583722e+00 -3.402424846149190163e+00 1.750107514742925474e+01
-6.267189730203147846e+00 -3.634529831369529340e+00 1.774696477458417121e+01
-4.243617218943609437e+00 -3.865901279785746159e+00 1.773308004881379674e+01
-5.471886735599725604e+00 -3.446956647017652475e+00 1.781686396058601929e+01
-5.693513768475561676e+00 -3.690570286671823741e+00 1.774710151165583483e+01
-6.290561215824022945e+00 -3.493986998464859273e+00 1.778558861177300088e+01
-9.100609465439930545e+00 -3.433001796979711973e+00 1.623195595160387938e+01
-9.340808276026571377e+00 -3.077724504635600766e+00 1.597036407641139277e+01
-4.926304646122177999e+00 3.686637160606756947e+00 1.553084726604164700e+01
-7.736337226615096263e+00 -2.061896425830259005e+00 1.549300332140231262e+01
-7.272546698284030775e+00 -1.843126424579934586e+00 1.541256136669772303e+01
-5.145433333992178504e+00 -9.098558465904788006e-02 1.413462319850038540e+01
-7.078894720621479841e+00 -1.832558558582767283e+00 1.540708585195670111e+01
-7.525868883013377975e+00 -2.066122262021476974e+00 1.550290675663528361e+01
-6.697612280328161916e+00 -1.831766575769480099e+00 1.540174961659466391e+01
-6.115305039887224403e+00 -2.220231585855226619e+00 1.553807473604548761e+01
-5.911197667611762796e+00 -2.193823457955556222e+00 1.552825831022221337e+01
-5.534690785392375467e+00 -2.459460008786611862e+00 1.564293362939887544e+01
-5.121129763650297484e+00 -2.798331985081397466e+00 1.578478848281178415e+01
-4.940693229654519847e+00 -2.928047803566444784e+00 1.584260720567831271e+01
-4.736384490271053238e+00 -3.195932264660338085e+00 1.594472710193799259e+01
-2.643977059256399365e+00 1.727942249734410574e+00 1.510147576425661953e+01
-4.130629786626742295e+00 -3.786971189163419016e+00 1.621127942863074622e+01
-7.608429672201631355e+00 -2.386615678275579633e+00 1.563487198342405549e+01
-7.341023542913901245e+00 -2.262266808720804878e+00 1.558663254166664558e+01
-7.513178118972708042e+00 -2.645022001277639312e+00 1.573270356405673454e+01
-7.150195707316378879e+00 -2.222737561083584001e+00 1.556569715482991967e+01
-5.536005104681714251e+00 2.951234213885979063e+00 1.326052127616377163e+01
-7.269290799344058307e+00 -2.414442768011848095e+00 1.564641788675020706e+01
-5.316248489420334344e+00 -2.948373324861833122e+00 1.581811143796202401e+01
-4.494091095421529403e+00 2.975396779268678404e+00 1.460739997530863832e+01
-4.916598622484758430e+00 -3.404991231263612139e+00 1.601149349721123372e+01
-4.494369088770532983e+00 -3.627626414106665198e+00 1.612313337402954261e+01
-3.740732632803513091e+00 -4.022243267584137527e+00 1.639077794836281754e+01
-7.113409671129340417e+00 -2.462053780877867304e+00 1.565479389934161958e+01
-3.397277286713315192e+00 2.829544029132619709e+00 1.609686278178519103e+01
-6.926761291973230428e+00 -2.451395045709574116e+00 1.563969870477726687e+01
-6.016198588196426833e+00 2.395832782621744705e+00 1.182437727625561763e+01
-6.335536186188599928e+00 -2.820081304820063028e+00 1.571794506154157745e+01
-6.521921149093177661e+00 -3.042438984289084214e+00 1.579393987184245418e+01
-6.126701113822349498e+00 -2.821855732285703855e+00 1.572072939293781957e+01
-6.105332433888398747e+00 -3.039227253494341419e+00 1.578742083355252390e+01
-5.513821925883874542e+00 -3.038785181049400652e+00 1.582719699537724978e+01
-4.931097416191056126e+00 -3.621317384461574029e+00 1.610169020421984243e+01
-8.336334847972942441e+00 -3.446797196987251066e+00 1.611475561477094942e+01
-8.337886332974306924e+00 -3.534446160129630865e+00 1.618382203763365368e+01
-4.881036216590151078e+00 2.286080829702581863e+00 1.253613529925757319e+01
-8.530393193957618081e+00 -3.067564401549194741e+00 1.587337471664920940e+01
-8.740119928568407914e+00 -2.894350418015873228e+00 1.577054481494511862e+01
-8.360274448325650809e+00 3.815303921395048370e+00 1.470764386597240048e+01
-7.333496924919130855e+00 -3.266603552612586725e+00 1.594452319100643223e+01
-4.016235206473144359e+00 3.466733886876892434e+00 1.649628588857221700e+01
-7.516522581956997406e+00 -3.381197251094227418e+00 1.600143871578144683e+01
-7.136667215129379294e+00 -3.442785522453465585e+00 1.599692136023502798e+01
-6.128061235665398954e+00 -3.244480796132945599e+00 1.585240015184193396e+01
-7.753113254020459699e+00 4.183541974110539741e+00 1.496631496961615682e+01
-5.921575402957699019e+00 -3.231235041429973975e+00 1.586100330905448175e+01
-5.893304396783312527e+00 -3.409370297956917373e+00 1.592751163792693347e+01
-3.658617570401165864e+00 3.198449637885557806e+00 1.649880292909224977e+01
-5.521068485014205329e+00 -3.623065199866569053e+00 1.606221499835292121e+01
-5.148684427925823037e+00 -3.894308171170480559e+00 1.627166067750738421e+01
-4.783632676666624839e+00 -4.093345023778796943e+00 1.649526563474411489e+01
-4.913381468498846161e+00 -4.151455143630864875e+00 1.658360443581934618e+01
-4.157477600821350983e+00 -4.208637787482953030e+00 1.660142093353595527e+01
-7.922369923767898392e+00 -3.330456054547399791e+00 1.600453948801688142e+01
-7.531083844870432920e+00 -3.496397213583331443e+00 1.606271488285455717e+01
-7.558651171172368954e+00 -3.642900014015080234e+00 1.616090497050667096e+01
-6.544947662673089361e+00 -3.461062222014761325e+00 1.594458895377090357e+01
-5.905033912462247514e+00 -3.500873150688747160e+00 1.596687735049247436e+01
-5.734528357332304260e+00 -3.620820775870774444e+00 1.604168752886785398e+01
-5.562824645438020355e+00 -3.970192332404284929e+00 1.633757988232588332e+01
-6.481911162448060537e+00 -3.965656604880385405e+00 1.628312112353345498e+01
-2.543407648179801583e+00 -1.992510362428852044e+00 1.678434716361174850e+01
-2.490395821255739328e+00 -2.002667832887556454e+00 1.638198942695023419e+01
-2.579159670979228380e+00 -2.192311984210427944e+00 1.699854203743188918e+01
-2.563234826981990899e+00 -2.570636431681201373e+00 1.661100938828769102e+01
-2.506970881762905279e+00 -2.166231889294790491e+00 1.641314944608255644e+01
-2.572768362676518095e+00 -2.368302426785612091e+00 1.680700382337271748e+01
-2.563302718127437263e+00 -2.206818789417249516e+00 1.683238359662083639e+01
-2.525193584820028647e+00 -1.346213605245438760e+00 1.697807973720016861e+01
-2.531495324928694668e+00 -1.809024432339962019e+00 1.680132963404629720e+01
-3.708304247789914854e+00 2.655206205549918153e+00 1.506869944254089688e+01
-2.399838229091026065e+00 -3.704748622256542889e-01 1.671798316448739996e+01
-2.438877468186068320e+00 -3.971572258532374278e-01 1.687029739873781864e+01
-2.459984529052050117e+00 -8.185459693201596609e-01 1.683447803482479799e+01
-2.351348895931570482e+00 7.827419000738633503e-03 1.667342273810023556e+01
-6.873754439732694621e+00 3.867867786791687301e+00 1.458616946007583692e+01
-2.301316314196120594e+00 -1.598284901303892447e-01 1.567577819755092605e+01
-2.361134879973336709e+00 -3.873007099678767995e-01 1.626682596802803715e+01
-2.287409940850207324e+00 4.279307817026007377e-01 1.551635571168247196e+01
-2.298542581777836435e+00 1.067911279330000296e+00 1.589872733633159640e+01
-2.277904573148367362e+00 6.363053820191617582e-01 1.532050544550321547e+01
-2.284864900872165538e+00 6.808342678061520825e-01 1.574635815091827595e+01
-2.727525967728675393e+00 1.325738689807115289e+00 1.405197867136363499e+01
-2.535438664860633740e+00 2.047936057724450087e+00 1.613433758878358759e+01
-3.144825793502134204e+00 1.499333284747931483e+00 1.346041128392061381e+01
-2.905778662463192052e+00 1.396271819988991858e+00 1.379615555148781425e+01
-2.844715906561025687e+00 1.494315889238824191e+00 1.411919300432168711e+01
-3.482415846194127695e+00 -8.096139653586170715e-02 1.810299754036633857e+01
-3.132471058587924517e+00 2.958199700837211399e+00 1.694984415756769636e+01
-2.852800348609529912e+00 2.623373819890031822e+00 1.674382152907688948e+01
-9.655543532043381560e+00 1.382418020043031603e+00 1.425783988486315934e+01
-9.429214488330199373e+00 9.881918162068470401e-01 1.369962996836616043e+01
-9.482527090670586745e+00 8.011120519597210166e-01 1.385297160266033956e+01
-9.311533394062980307e+00 1.316740199474304429e+00 1.357861453182240297e+01
-9.389299892921293633e+00 1.240321994839249875e+00 1.368638793174680046e+01
-9.048092317475781243e+00 1.825533156594715045e+00 1.335693207199464894e+01
-9.247949235541607749e+00 1.795910347307900778e+00 1.372866336959911848e+01
-7.479450773731355362e+00 2.420447661130370687e+00 1.197189556957227552e+01
-4.435538823575017275e+00 -3.521532375266136050e+00 1.607190834959894943e+01
-7.716303253118476313e+00 2.632584209849985424e+00 1.251197594933386625e+01
-2.673024858297547102e+00 1.930051143323034069e+00 1.548568131356756794e+01
-6.161065693806969890e+00 4.006678111420615807e+00 1.510148649745053007e+01
-3.579944124725135346e+00 1.650107297406762097e+00 1.290084422785139395e+01
-7.143991451811483095e+00 9.981463572470903323e-01 1.782203931912234651e+01
-4.419190471798996711e+00 3.835836304030050048e+00 1.669722510161683715e+01
-7.387235671344826393e+00 4.531645162925885373e+00 1.562988968229979037e+01
-7.987199751255247726e+00 4.491142954732870507e+00 1.557234528227034787e+01
-3.520476200614237605e+00 1.744832842593763811e+00 1.323775576149490973e+01
-3.627492685412361695e+00 2.351419070681872725e+00 1.445589691115684872e+01
-4.238718993591155559e+00 3.604978964626055937e+00 1.642979783179806930e+01
-4.055162436068007636e+00 3.385797901289349987e+00 1.622191082667151818e+01
-6.852790389766100887e+00 -5.715677754280468204e-02 1.419774225920333777e+01
-8.324541449446801522e+00 3.642672317640052171e+00 1.443883953455026870e+01
-8.216293105737712210e+00 3.177998741371911073e+00 1.369379673905034878e+01
-7.338235944416189760e+00 2.811297289112822728e+00 1.260371532127748395e+01
-4.324104454832312427e+00 2.052019674204184518e+00 1.264693496144907670e+01
-3.957629089780859033e+00 2.068315313715553661e+00 1.321893124233985617e+01
-4.553731128839793918e+00 2.056413789007634385e+00 1.235979237367782702e+01
-5.041719618466432351e+00 2.178223595561840309e+00 1.211274426467682019e+01
-4.508075772852222052e+00 2.135969073256949180e+00 1.259610195842606828e+01
-4.291160812561956028e+00 2.181192968331614246e+00 1.299226155001223049e+01
-4.711543463277952704e+00 2.236015100916278087e+00 1.258694995559843477e+01
-4.927299393428058671e+00 2.248075329731687333e+00 1.238363870143230372e+01
-4.905867069873120379e+00 4.081438782842918833e+00 1.646983045001954338e+01
-4.603086129484335487e+00 -1.323970768492404915e+00 1.511025662335611486e+01
-4.705210450548062084e+00 2.363107360556622183e+00 1.293606252388026689e+01
-4.902071988915246870e+00 2.367090834868669891e+00 1.272785561674833588e+01
-4.576353480599282264e+00 3.402159292750501773e+00 1.540810519287823155e+01
-4.457492110239410721e+00 3.109844787047698400e+00 1.494291354225128288e+01
-4.470033194893057171e+00 3.058464801731490379e+00 1.481606971151503416e+01
-3.204307680297141303e+00 3.099901136171533622e+00 1.725573231912903083e+01
-4.618262432265719752e+00 3.551773524007376892e+00 1.566815615374909498e+01
-4.656739816798119769e+00 3.740928668802651291e+00 1.604694595225983278e+01
-5.045692677935916137e+00 4.149811538335694827e+00 1.641544017737040662e+01
-4.863486534865585575e+00 3.951800219027414851e+00 1.621204676199413797e+01
-4.821516710940487727e+00 3.832832525244951327e+00 1.599794739178862812e+01
-4.690706199018270794e+00 3.083192443956447537e+00 1.458059509225340378e+01
-4.758008356551155948e+00 3.612708195435288872e+00 1.560216047607968903e+01
-4.828938940033789429e+00 3.746061476384555000e+00 1.579306772277700333e+01
-4.955472635125365954e+00 3.437103126428662225e+00 1.497886517167506071e+01
-4.854431120905150721e+00 3.086982431356599221e+00 1.438376421021646223e+01
-5.156229421897791099e+00 2.753284875390563879e+00 1.331339973237464136e+01
-5.030722100511391126e+00 3.084864419611432762e+00 1.415727566709311702e+01
-8.173392190695739856e+00 4.166365762319779620e+00 1.512469127095549482e+01
-8.013397635276870545e+00 4.224096716011874086e+00 1.508598158412053181e+01
-7.561095446757714278e+00 2.926027261952022673e+00 1.286889239337134683e+01
-5.300939839616016336e+00 4.315579724864092803e+00 1.646597271225853376e+01
-5.649552147249472966e+00 4.434276303380141115e+00 1.632934266448123140e+01
-5.118897675355987609e+00 4.126123940348811914e+00 1.626114512021564451e+01
-5.619949315223882635e+00 3.924542608728803561e+00 1.524820458915224464e+01
-9.520869597482555236e+00 1.975284621065412249e+00 1.433385029127759225e+01
-5.271145903522700848e+00 4.181345749339167917e+00 1.618278610890703817e+01
-5.641599826526818795e+00 4.363416761357183482e+00 1.614675699459932190e+01
-5.278939258123789280e+00 4.115173751006653724e+00 1.600102537590521479e+01
-5.903464235719965814e+00 2.453176310498362156e+00 1.209818016751331982e+01
-5.527529171059352819e+00 2.649886238299810515e+00 1.269644728292971081e+01
-5.846994584923470129e+00 4.450122780807835632e+00 1.614031067211941206e+01
-2.856435124125984437e+00 1.685634890158551613e+00 1.450890093178387019e+01
-5.573962993074228933e+00 4.253446927216673501e+00 1.593500581688352469e+01
-5.261881551085579645e+00 3.227185135350122636e+00 1.416293416279275164e+01
-5.445027434678604727e+00 3.427105794435357566e+00 1.434704095374420518e+01
-5.471160307767799047e+00 3.632952182120704254e+00 1.474804180563631206e+01
-5.773949483932251603e+00 4.131956503033228145e+00 1.553918849045834349e+01
-5.771924731692156918e+00 4.013238809461729062e+00 1.531572691519222218e+01
-5.720004646648480851e+00 3.885650696957698713e+00 1.508508698295653971e+01
-6.069171073454712406e+00 4.509992331691557332e+00 1.613835437228786418e+01
-5.846848225189011927e+00 4.342942248750703449e+00 1.591819246832819346e+01
-6.032203900990430689e+00 4.199038158485119965e+00 1.552412224932448481e+01
-5.709135779533673016e+00 3.612935576378493607e+00 1.455462526136813040e+01
-5.587360791566473139e+00 3.088391462914008567e+00 1.350388726636290926e+01
-5.798804577059629928e+00 3.349193841657987836e+00 1.394270349670168940e+01
-5.926079633537234770e+00 2.822928976152237368e+00 1.271615673695777105e+01
-8.498299975707041654e+00 -3.403579643487157025e+00 1.609788672955530586e+01
-5.830676648124496708e+00 2.992853491701609858e+00 1.314374345642466579e+01
-5.968923288235863822e+00 3.086961124000766610e+00 1.327070768706478532e+01
-6.481648674621758310e+00 2.756397815534525897e+00 1.236662867217005868e+01
-6.092859009136995851e+00 2.724150052853625326e+00 1.244109079774412407e+01
-2.483203119098597256e+00 -1.425963790225644789e+00 1.662437087243218059e+01
-6.133808294425302066e+00 2.844486476320189361e+00 1.266168706092817331e+01
-6.058079611002143317e+00 3.465010271719198176e+00 1.408725679672751596e+01
-6.042274845595064114e+00 3.259641872700502319e+00 1.364247148875523408e+01
-6.447694062154069705e+00 4.309405554010541373e+00 1.553854605976579961e+01
-8.416646262050551996e+00 4.470696747910428037e+00 1.577516873723626389e+01
-5.893704261917813270e+00 4.598409616880957174e+00 1.654649289158648173e+01
-6.538269877930600771e+00 4.859086913560854093e+00 1.669701696985311656e+01
-7.643275347329676173e+00 4.850614153613689972e+00 1.609328033940398228e+01
-7.998062574959932114e+00 4.834413786262415691e+00 1.620668293986403796e+01
-3.125076053989737979e+00 -3.570870015397511033e+00 1.744633623506751263e+01
-8.252017967798284559e+00 4.607132260895837383e+00 1.590326210570976428e+01
-8.637419840442181140e+00 4.186038734399914141e+00 1.549592619964048623e+01
-5.036920686952834458e+00 4.213350345694148125e+00 1.658323342867882388e+01
-4.777506325351922101e+00 4.083041286722447261e+00 1.669085278189597688e+01
-2.307402656692786103e+00 1.222053027407096426e+00 1.596125225406439085e+01
-4.966357922383388690e+00 4.260802801834724818e+00 1.691154904563190797e+01
-4.733566693273667525e+00 4.103493289751187767e+00 1.686826925775626762e+01
-5.832876709661331205e+00 4.581863604267359058e+00 1.700366839567386279e+01
-6.008832954270092230e+00 4.653600067647283289e+00 1.706485760826301856e+01
-8.734854398812011311e+00 3.553291576162235010e+00 1.652351254745138931e+01
-6.307705419140898329e+00 4.532377206143614501e+00 1.705819300626755108e+01
-6.121484395264477740e+00 4.639768320617267960e+00 1.705546856537063150e+01
-6.492481500508676895e+00 4.616741765104128703e+00 1.699153238744757743e+01
-8.721464410905163334e+00 4.010350735122740318e+00 1.616481472909254791e+01
-8.895336680622627057e+00 3.857588629454780982e+00 1.531814781562201233e+01
-4.894901638737333194e+00 4.224118856968398283e+00 1.705491079948919975e+01
-4.605886176390002973e+00 3.998714058480777656e+00 1.678113654845490998e+01
-4.330635642832587173e+00 3.908140339645357120e+00 1.706927985986531127e+01
-5.592502011840601917e+00 4.178193807178209873e+00 1.575506268747486871e+01
-5.946584315870125259e+00 4.329081634432412784e+00 1.716995681982235311e+01
-3.831717107818007229e+00 3.236390797989851631e+00 1.627064995734450292e+01
-6.753501254792022124e+00 4.339568196985610804e+00 1.707264421206640748e+01
-6.760483549877820408e+00 4.126384837661924543e+00 1.713972793535507577e+01
-7.391514502148393895e+00 4.384210212221569591e+00 1.691423391593887970e+01
-7.779754866401563440e+00 4.576823840996190107e+00 1.667707612830813702e+01
-6.230041650839912570e+00 4.439085666514355211e+00 1.590207045578328149e+01
-8.252492974176668383e+00 4.437122859126229280e+00 1.644498379199259119e+01
-3.954258792549837587e+00 3.066753573023074608e+00 1.563052069219602913e+01
-8.974530388871865938e+00 3.635105758367116913e+00 1.601185753385760080e+01
-5.125665526533453864e+00 4.077496346708317176e+00 1.732631546870003802e+01
-5.527251202954630571e+00 4.085451248770467281e+00 1.728504247300569574e+01
-2.306622456990186087e+00 2.279568566835939725e-01 1.609740421097246355e+01
-5.949017816567356398e+00 4.087371337423318707e+00 1.724014149424566256e+01
-7.113100994234557994e+00 3.999805019232749004e+00 1.712522636124442243e+01
-7.805458331879639111e+00 4.136100698549491916e+00 1.686601542065883308e+01
-8.981274718658436740e+00 3.455982254815077148e+00 1.621814571172086517e+01
-6.353248865524039779e+00 3.702885270873927048e+00 1.730100097437318851e+01
