-5.391541660113377432e+00 -4.907508905416750888e-01 1.953020134682782682e+01
-2.250471764398159991e+00 -2.631398988187021004e+00 1.958376678267621074e+01
-1.950942536086903933e+00 5.541850544567704651e-01 1.322921369881540343e+01
-6.352495377990006631e+00 1.578850098179476857e+00 1.346852935666705875e+01
-1.485579366046052008e-01 9.574152994683694518e-01 1.800221727943766226e+01
-3.372587715638127648e+00 1.988405512933680619e+00 1.200454605214516235e+01
-7.050486033939101560e+00 1.212256473072989005e-01 1.386863312890451638e+01
-1.700764109115177614e-01 -3.058488502680333454e+00 1.761092832921446316e+01
-5.700066108873904192e+00 -3.459791023110747599e+00 1.849821402751349453e+01
-6.995330960446873192e+00 -3.460932879940537887e+00 1.701086725706946012e+01
1.507983473901076121e-01 -1.589083094749515812e+00 1.688475480317608302e+01
-1.258926065901840641e+00 2.347301056884455672e+00 1.901569988656595100e+01
-4.839126875044162723e+00 -4.688569261240871366e-01 1.971212358602066317e+01
-5.748320793148705476e+00 1.796482234058840888e+00 1.288145655710473036e+01
-4.878016263063261526e+00 2.462535650259678910e+00 1.375060601172615193e+01
-1.018554148326801467e+00 2.173734821958821950e+00 1.884112529921865686e+01
-6.898373921838978795e+00 -3.396423708698211197e+00 1.670600085513769884e+01
-1.780351848320793628e+00 2.188124967926564857e+00 1.951511099175278829e+01
-2.703878412953134802e+00 -3.825246072533729169e+00 1.847617786154090069e+01
-1.495577414674232053e-01 -1.279626248655341580e+00 1.871025699827668021e+01
-6.716530163107343299e+00 -3.418748696457047931e+00 1.672282487689898645e+01
-3.338329337017669651e+00 -2.517213336981328098e+00 1.569523445166130315e+01
-2.940515201169347392e+00 -2.432090041196757202e-01 1.393682277440177231e+01
-3.725011004704657402e+00 1.164363871488882096e-01 1.357797165811316020e+01
-2.378002522307030020e+00 1.613264253944499016e+00 1.250257416385626286e+01
-6.501372267353556111e+00 -3.322219594620324568e+00 1.650571728936891347e+01
-5.311130361779990317e+00 -1.853062631730707732e+00 1.936061454478369726e+01
-7.817245725381343213e+00 -2.686887512548280732e+00 1.658758015286177923e+01
-1.040047865672313776e+00 1.576340201130048468e+00 1.465084959651987262e+01
-5.175782237856114243e+00 -1.618787424329979796e+00 1.946146511840959548e+01
-8.286874376081588167e+00 -7.464256411569285543e-01 1.642932509583956957e+01
-4.884926465331009382e+00 3.246080759648370062e+00 1.652465943904978118e+01
-1.525985698633922194e+00 -2.456690752413818180e-01 1.377156910966841608e+01
-7.955438806499032900e+00 -3.220838456860413146e-01 1.505465854850397633e+01
-6.696238625133443811e+00 -1.453275049865916602e+00 1.435641891370122281e+01
-3.376831850346317498e+00 3.370140363091772562e-02 1.366594630835173874e+01
-4.646615726624514942e+00 1.321555207553386513e+00 1.967500698821637783e+01
-3.683894176624567418e+00 -4.917923765764199429e-01 1.987268779150061349e+01
-5.419904207506522908e+00 -5.834584689959476655e-02 1.953626927855742323e+01
-3.666233251996861231e+00 -2.887372611726636507e+00 1.935134197311933590e+01
-5.259474819758485076e+00 -4.355247852725904201e-01 1.957713125109682650e+01
-3.842895777717487693e+00 -1.685191778713384991e+00 1.971139174916728720e+01
-5.057384424192214567e+00 1.319183138149286894e-01 1.965488383480066048e+01
-6.682359366570190140e+00 -1.592381434459996914e+00 1.444412253547894309e+01
-6.541533703103751485e+00 -1.675679108076262303e+00 1.450871309622210603e+01
-3.452842893595522433e-01 -2.950372285231891434e-01 1.456759332766735682e+01
-7.573002357337125012e+00 -2.740370623373094006e-01 1.442343025894267683e+01
-5.941209209553091952e+00 -2.561823267070906240e+00 1.548591621853890743e+01
-1.282727271648637535e+00 1.694266090004336478e+00 1.937045417950075077e+01
-2.113582374578860446e+00 -3.601086481363100056e+00 1.746402920175120599e+01
-5.336406270880354796e+00 -3.357693743020218058e-02 1.344618063138928576e+01
-6.344330242174614831e+00 3.178696483849055898e+00 1.862212685029439641e+01
-2.280457095969015135e+00 -1.816369747901184883e+00 1.542872856960704198e+01
-8.068930360403594904e+00 -1.976447100967424930e+00 1.698231503483650684e+01
-6.495200863443958639e+00 -3.408242464809466465e+00 1.672100461350411038e+01
-2.749945436223978579e+00 1.312517546120501422e+00 1.256067300130345288e+01
-8.026386030138414895e+00 -2.171628034287536479e+00 1.694125095206207376e+01
-5.869353813364765138e+00 -3.043685731581038389e+00 1.870713427228927728e+01
-2.294330049740982869e+00 -3.803660981510270211e+00 1.865001593879835085e+01
-6.650547397638668201e+00 -4.615363007919541793e-01 1.919012626378578901e+01
-2.869962085572974053e-01 1.576616792878086648e-01 1.880077466038382639e+01
-8.095776498798935350e+00 -1.978511594023215192e+00 1.676055572418270501e+01
-6.828454241365606414e+00 9.299593980379838865e-01 1.900496371533371232e+01
-3.691914047792909770e+00 -3.784041073353663798e+00 1.865442585341376613e+01
-3.063937502323323958e+00 3.499825054497340382e+00 1.692484661711253935e+01
-2.438414251723007631e+00 -6.743212585112425828e-01 1.994686098773902572e+01
-7.068249783313437895e+00 -4.068341056221014274e-02 1.391361897882568499e+01
-5.140430482517231781e+00 -3.079357353815711296e+00 1.898541150872377514e+01
-3.489784398870863225e+00 -3.786071552881779212e+00 1.864561342256390830e+01
-4.904992268079563011e+00 -3.307979363280478591e+00 1.894501286270542195e+01
-7.963284358542681574e+00 -1.803236349616024636e+00 1.760378121834964915e+01
-3.882095561478614787e+00 -3.794767372710821540e+00 1.862749059301929933e+01
-7.658717165556413242e+00 -1.402174236844461186e-02 1.842516398928157528e+01
-2.658059813859083409e+00 3.161011480544642649e-01 1.993449953038788536e+01
-3.305954732604441393e+00 -3.786478339774026480e+00 1.863884343421812773e+01
-2.487178970014683355e+00 -3.477889986161464719e+00 1.721093226040281721e+01
-3.012900670245043599e+00 -3.738651356200159981e+00 1.873648880600942235e+01
-7.739410132630449857e-01 7.091923502303998372e-01 1.927805302667588094e+01
-1.216574102230167098e-01 -4.609860277491176772e-01 1.854817777668695911e+01
-3.465023171639774802e+00 -1.873304725089688816e+00 1.969831206418824721e+01
-1.740778387619491330e+00 9.640353707460789234e-01 1.301392047367599147e+01
-5.515810965128667753e+00 -2.747413262600318706e+00 1.898702866482777196e+01
-7.683899053851745542e+00 -1.428420756000554848e+00 1.838945788310968865e+01
-7.663767329121045080e+00 -1.608501326078225269e+00 1.838961249188018954e+01
-2.705915081839343816e+00 -1.288216001236882846e+00 1.985219055321821102e+01
-7.280767244159400242e+00 2.397977684187608816e+00 1.794770555206844520e+01
-5.306588147517838472e+00 -1.462012823598782596e+00 1.474660438402299079e+01
-5.033345756557100481e-01 1.272591632092062941e+00 1.519075983740663460e+01
-7.898545586475263391e+00 4.257685726094427858e-01 1.768333920300100814e+01
-8.055372076269611270e+00 6.073570170355477860e-01 1.703724199997114752e+01
-6.616557327716914294e+00 -3.540630682076947977e+00 1.802878006365586216e+01
2.365391695242713421e-02 6.286293403624578779e-01 1.618827012414768163e+01
-5.962591329471703894e+00 1.804129887544650312e+00 1.327448243977260844e+01
-2.073487341089807590e+00 1.300332969524524485e+00 1.983034940455039319e+01
-3.474838110835456462e+00 -1.043936216833734054e-01 1.378563668583763402e+01
-2.051807339456619417e+00 1.093988859160730520e+00 1.987187510240383048e+01
-3.581301300557555578e+00 -8.654765837784079707e-01 1.441245537104523677e+01
-5.736534004724391345e+00 -2.854610536763879658e-01 1.358874747843266206e+01
-6.109230480006312192e+00 -3.655283919035021256e+00 1.748172720706043393e+01
-5.297289672140585992e-01 1.737949581030082236e+00 1.762312271757039284e+01
-4.745794244112461868e+00 -1.449730969734430497e+00 1.496382965311103774e+01
-6.542475985390002080e+00 -1.358129699023538972e+00 1.429345773263603192e+01
-6.246718949564516343e+00 1.948299800565593376e+00 1.902827834276147811e+01
-5.634560099791523502e-01 -6.919859000767709656e-01 1.458805175174194702e+01
-4.350654599058079164e+00 -9.163698174967247478e-01 1.450659782860298108e+01
-3.315199574889584611e+00 -1.975158362075608132e+00 1.524560458722460865e+01
-6.518398138625484783e+00 -2.066293828255216791e+00 1.479095490129553880e+01
-1.458836454024168727e+00 -4.866748621357884774e-01 1.993875215952257562e+01
-6.492272891239784016e+00 -1.909378843207945931e+00 1.467752867859554655e+01
-1.407264974484618014e-01 1.191154220106554806e+00 1.639776980882604462e+01
-6.313536472414174483e+00 -2.062463797466913551e+00 1.482107606530233213e+01
-2.903591662296911569e+00 3.381332101544604063e-01 1.340169530781312446e+01
-7.352968260828451008e+00 -1.926491774537315127e+00 1.491770142970612412e+01
-3.120716094169675880e+00 -3.630336746470830711e+00 1.748895304445156640e+01
-5.751850223911143090e+00 -8.207413424943272862e-01 1.401097181293092220e+01
-5.731809316497186835e+00 -1.067057131316234253e+00 1.421138484621744524e+01
-5.058385958462903176e+00 3.979930824930082878e+00 1.893634151280150135e+01
-2.095685720350286996e+00 -1.258014701559460713e+00 1.477665552638255164e+01
-2.904735506247078103e+00 -3.616057476121678604e+00 1.746064430900163345e+01
-1.759096990040859732e+00 -1.526239683244358769e+00 1.488719154490692276e+01
-7.059063424278996024e+00 7.627317600083707294e-01 1.890671223616521601e+01
-2.104546508424666840e+00 -3.836011608945952389e+00 1.842444862252111548e+01
-4.469158843814525106e+00 1.506636673925380920e+00 1.969315172756995125e+01
-7.082090564276534828e+00 1.368878268266737974e+00 1.870689009638288169e+01
-2.070219500186349926e+00 -2.117734585189626539e+00 1.976025934799183048e+01
-2.282676565355479248e+00 -1.309193509320221382e+00 1.989504136405331636e+01
-6.112236524277145477e+00 -9.065842946964737248e-01 1.928361682691864942e+01
-2.193192116964446825e+00 3.063581681017728986e+00 1.785895634518840680e+01
-1.104914546040259626e+00 -1.749510509199188935e+00 1.493128992880653172e+01
-2.572717079762799397e+00 9.523392513662154446e-02 1.359981766985486829e+01
-2.252171993463322419e+00 6.638181708234816014e-01 1.993679362206106376e+01
-3.930681961767195975e+00 -1.868709858592039197e+00 1.518624345040538159e+01
-1.143735591408345353e+00 -1.956701881179961688e+00 1.512546716618730969e+01
-7.871607806796557583e+00 -1.199269337788002154e+00 1.800174124407867637e+01
-3.666905138720636170e+00 -2.408238006059014058e+00 1.560326435967243341e+01
-9.307353502854504024e-01 -2.599509453590286068e+00 1.581810228171302768e+01
-1.293572647357917438e+00 -2.091834634981840857e+00 1.530997669081355284e+01
-5.643550370151635853e+00 -3.719789963596820570e+00 1.776534792035062438e+01
-6.093030122153063388e+00 -3.718268264478040486e+00 1.784605634917637573e+01
-8.136845655869180405e+00 -7.660060201135410196e-03 1.705441675872588903e+01
-6.463863832334753923e+00 5.294389918573098042e-01 1.922697593579901465e+01
-5.885348619376815194e+00 -3.730982316592249326e+00 1.789016212415218021e+01
-6.082120263581439978e+00 -3.694591946683737582e+00 1.761856147288827756e+01
-4.688235854660173452e+00 -3.816898602255665907e+00 1.825443125875876049e+01
-4.526938781405007717e+00 -2.822121035817493073e-02 1.362725656723385370e+01
-3.907526002467866633e+00 9.099304647676231816e-02 1.987543354802966533e+01
-5.805589534324796297e+00 9.561502504208231334e-01 1.936998539274812359e+01
-1.457160445491167522e+00 -2.907775997285584335e-01 1.992200313218301133e+01
-6.159857842796188088e+00 -2.971387391227235053e+00 1.590254193691128037e+01
-5.856536043813178161e+00 3.731211274850976700e+00 1.873699998109357878e+01
-4.420025374201268065e+00 1.080203462201520637e+00 1.976355614505584768e+01
-6.386509261352554923e+00 3.314056190863826412e+00 1.782735887241446804e+01
-6.048643205222549390e+00 -2.802515889302815477e+00 1.571782112918785757e+01
-5.551272707439471432e+00 2.580416469134889201e+00 1.487862803871200512e+01
-8.226702573355190395e+00 -1.777719024396359204e-01 1.667355082129043709e+01
-6.125557390802833790e-01 -2.042739476218547345e+00 1.536564300388007709e+01
-4.917011287454434942e+00 -1.103965695337667752e+00 1.458110144552935949e+01
-1.305904229252074389e+00 2.042024271730585205e+00 1.601418633125318181e+01
-3.280883093556609120e-01 -1.674144059092813386e+00 1.911206764484767362e+01
-3.249428860308037348e-01 -1.446666334182626468e+00 1.912215722953097341e+01
-3.316062489647849443e+00 5.351056253120567430e-01 1.321919198062936474e+01
-8.042787999256015397e+00 8.404434650609486912e-01 1.628352775762293092e+01
-6.137415883032388386e+00 1.402648200368602271e+00 1.293020700630043862e+01
-7.071894294731797537e+00 -2.622165899202613559e+00 1.853023755092255342e+01
-4.391643637587790971e-01 -1.478997817168322237e+00 1.931801116443370958e+01
-2.853066211128424179e+00 3.298662133575691602e+00 1.648071382911396299e+01
-2.453146193326249946e-01 -3.597092680270810305e-01 1.465159185421159904e+01
-1.850794169660762822e+00 -3.835183682996478716e+00 1.840565253992459915e+01
-1.703811830060727894e+00 -3.825050932234225876e+00 1.822630711070798171e+01
-3.446465790563744580e+00 -9.208858422898935636e-01 1.985049704652812252e+01
-1.062037776660860411e+00 -3.779947060327918607e+00 1.847174424256388292e+01
-9.560664991350311670e-01 1.939619935715884091e+00 1.685769586998396008e+01
-9.560930446877884403e-01 -1.126423736674221132e+00 1.982216104987027805e+01
-5.350277168590500843e+00 2.216202383910520712e+00 1.365235336507048558e+01
-7.122213627416948967e+00 -2.563004789320983967e+00 1.528979825959064343e+01
-8.174584438648917484e+00 5.181677836983000773e-01 1.645599054083917778e+01
-3.286043240703047985e+00 -3.221229607470005973e+00 1.920412997861351911e+01
-2.856016659994537132e+00 3.456495664946335644e+00 1.729894637049413930e+01
1.037290412535342154e-01 -1.416716173163460324e+00 1.788115631284680873e+01
-6.780946573881940775e-01 -3.019015224486142124e+00 1.642450936178960674e+01
-4.919552832524947128e+00 7.904081140147561912e-02 1.969739736624090298e+01
-7.677324430445161774e+00 6.001610359984538290e-02 1.466186204359584266e+01
-7.846858936611625701e+00 9.245999267466664673e-03 1.488130996721399768e+01
-7.733236406498655846e+00 -1.103097015119914648e+00 1.477243198186407014e+01
-4.416203495647267885e-01 1.180970305631184880e+00 1.860602935819291659e+01
-6.781936167680967742e+00 -3.057094265698731661e+00 1.840008396785772860e+01
-3.057764490914733013e+00 1.490882779293289273e+00 1.982100291329640740e+01
-8.158256997371047703e+00 -1.357699250866682528e+00 1.695025462090041302e+01
-3.529973304265529577e-02 6.461177889393564522e-01 1.557214972933218533e+01
-7.053999709635160320e-01 1.106677052058965049e+00 1.898576218063089627e+01
-9.462192448919918286e-01 -2.611728546122138006e+00 1.960222611322878450e+01
-4.898684610087154390e+00 -1.093960195298926408e+00 1.963520142902786247e+01
-7.351386848359110715e+00 1.114421239111929030e-01 1.423759012587502681e+01
-6.541866928385339897e+00 -3.270519779348662226e+00 1.636585975899228984e+01
-6.948564141565577224e+00 -4.368706703009246350e-01 1.908588437839574325e+01
-7.088920024982443557e+00 -4.694099193831293704e-01 1.901752311129211037e+01
-2.934953471870524577e+00 2.322527151051300365e+00 1.226290130244100496e+01
-2.080678327660511195e-01 -1.075793042340306149e+00 1.889757351519515893e+01
-3.836454559324065094e-01 -1.927208547904974534e+00 1.550960501023230265e+01
-1.446128035969428405e-01 -1.051343133736440949e+00 1.868746362870806266e+01
-1.134735665215381051e+00 4.200269305847279533e-01 1.972575706798835782e+01
-7.300776971572899399e+00 7.578831442480018499e-01 1.425420396988197425e+01
-2.676356886645561151e+00 -3.341508834252847615e-01 1.993510856921107077e+01
-6.175404490839643046e+00 2.753503380970371506e+00 1.605807834280248514e+01
-2.251485445637842198e-01 -8.526126883883993202e-01 1.891196259815270153e+01
-7.300677226794923591e+00 -1.498195701980992389e+00 1.461621737048120551e+01
-3.774322954666393226e+00 1.539006064340805890e+00 1.220120205446367478e+01
-4.723585279536355763e+00 2.573568544029389393e+00 1.390518402398437914e+01
-5.444997124360150265e-01 -9.189104873824316400e-02 1.435939541507780959e+01
-5.915260913283272082e+00 -1.954281635921610860e+00 1.488746699794888784e+01
-4.508537520613140615e+00 -3.475084461135919067e+00 1.722447769317193078e+01
-1.287419990709915973e+00 2.548537206592596860e+00 1.886121016225599689e+01
-5.276746779678836319e+00 3.348858415926043275e+00 1.715303696083527640e+01
-6.196276589560955728e+00 -2.015772900272136958e+00 1.482054430004941636e+01
-3.284116766223870165e+00 -2.246273956150786955e+00 1.961872887741204252e+01
-8.926029538256221585e-01 -1.595622052462905671e+00 1.481531513740588579e+01
-4.913953189306658587e+00 3.643285935609788417e+00 1.789842604259346714e+01
-3.785142737396532953e-01 1.060714394757110934e+00 1.483416044702422099e+01
-7.746277579574355698e+00 -2.856636824572497124e-01 1.462895780960083769e+01
-2.829995879426156602e+00 2.119811677852379006e+00 1.972615478888745244e+01
-1.661131189664479146e+00 -2.308702916809220795e+00 1.973776203490761461e+01
-6.609295211571114770e+00 1.629809479498130376e+00 1.402689468549776919e+01
-6.803983454815964116e+00 -5.588729443461060153e-02 1.914574053348944105e+01
-1.530566947102058206e+00 -3.536031298644163101e+00 1.909014217645227873e+01
-3.259907303556213609e+00 2.528301422408055554e+00 1.964001966144904898e+01
-5.255941987604672683e+00 -3.153109046683476802e+00 1.674267817826277494e+01
-1.940078231963449529e+00 2.421106316259532321e+00 1.547436662925064965e+01
-5.059402031233580566e+00 9.187472041851728610e-01 1.960473592779415597e+01
-3.502649455399359901e+00 -3.680703596412374878e+00 1.761158564779829661e+01
-6.481622249817291959e+00 2.606970123022565478e+00 1.870763897748907922e+01
-1.182660957938954205e+00 -1.048722894365382574e+00 1.434778563370854343e+01
-1.525919707402410286e-01 -8.432523697865521584e-01 1.870020031288010998e+01
-5.823419687719623816e+00 2.820740117519444090e-01 1.941455224511787847e+01
-7.873825928923217532e+00 -1.385553919072059825e+00 1.798326831419491967e+01
-5.082098657100172723e+00 -1.326207282055436032e+00 1.472989280651659172e+01
-2.472178454405376868e+00 -3.830950267979011947e+00 1.843281407521368820e+01
-4.974614234818043101e+00 1.212874200309666861e+00 1.245806080481333211e+01
-6.516326001743283136e+00 -1.123970735173639435e+00 1.413583763950439121e+01
-3.063412111922099612e+00 9.025416065656537423e-01 1.988470540019723742e+01
-6.181952773134423040e+00 2.156643620676345741e+00 1.900636286933228192e+01
-3.863668558250398011e+00 -3.530039094902609698e+00 1.728503798351139764e+01
-7.654919705441258770e+00 -2.955583939739745425e+00 1.675432111431040383e+01
-3.230006323670641111e-01 2.938701496184826234e-01 1.880741806075192457e+01
-7.912243059479955321e+00 -2.182144429105196348e+00 1.754898534072940564e+01
-6.131063219596438962e+00 1.201441191830324495e+00 1.291403357453097200e+01
-2.682762529852671385e+00 1.502798613360588398e+00 1.983028167119494256e+01
-4.116647826084824047e+00 3.078842308820342932e+00 1.530114662891086752e+01
-3.704851027709446409e+00 3.291178840176137488e+00 1.586931876145612463e+01
-2.281122724974415927e+00 -2.328591093185076177e-01 1.384327556521624203e+01
-7.960922603707929035e+00 7.011324824153963853e-01 1.584815807573016500e+01
-8.839541446661223212e-01 -2.489394197501548778e+00 1.962678247776250728e+01
-3.885762031039236231e+00 -2.287566813096587381e+00 1.955667156318272148e+01
-8.041814455198160516e+00 -1.912172705793019345e-01 1.745752523444637561e+01
-4.876984338800384178e-01 -3.022054012471158568e+00 1.659935244744466942e+01
-4.269566401704869563e+00 -2.292469509603755728e+00 1.951420634337959470e+01
-5.786339750065425114e-02 -2.851843773769409118e-01 1.833392892082788350e+01
-2.270042031738900956e+00 9.825311726431443793e-01 1.990754731743328776e+01
-6.652684568176674418e+00 3.353249579205971331e-01 1.918417447266138609e+01
-1.672686305574527355e+00 -3.081580312434562430e+00 1.940603679485458954e+01
-6.705394055898244332e+00 1.436165399523586239e-01 1.917601748874140455e+01
-7.944741856445657113e+00 -1.969968130097824677e+00 1.758586925981080995e+01
-7.980490101224500421e+00 -1.768487930846166734e+00 1.548988457719029910e+01
-7.986181083354903620e+00 -1.504753911290404034e+00 1.535513616620420052e+01
-7.846713908650842839e+00 -1.697804979250074009e+00 1.521270014847148033e+01
-7.512479941635560543e+00 2.032007746149059102e+00 1.773367530642365253e+01
-6.084904202953588914e+00 -2.244228761806139172e+00 1.899402251336239189e+01
-7.485733849010857810e+00 1.200552243014040066e+00 1.829028759254745395e+01
-6.729483682684868739e+00 -8.769585024003188067e-01 1.403074107248075464e+01
-4.141708885621442349e+00 2.326851582718868272e+00 1.249881933360621034e+01
-7.104445756975658277e+00 -1.293893386063282192e+00 1.440292970619177382e+01
-5.316890794409975918e+00 -2.538366397921988593e+00 1.592011691187488864e+01
-6.988330257284269820e+00 3.072195889304157879e-01 1.378335976387241502e+01
-7.918993666872041537e+00 -1.893048787263545973e-02 1.780040642888564761e+01
-2.684822277925967615e+00 -1.549729909054313293e+00 1.510392971389899586e+01
-4.920787879758364625e+00 8.854581493742350595e-01 1.278160808255804781e+01
-1.810602217833832128e+00 3.010805867195038399e+00 1.908128737501988681e+01
-8.768721444449665281e-01 2.022067159343761134e+00 1.763556312445505725e+01
-1.208748177906419308e+00 -1.014542568934452271e-01 1.984073791448834712e+01
-8.182384088629110153e+00 2.504385853355960423e-01 1.665825024194574056e+01
-4.287615836418535942e+00 3.637714849570048425e+00 1.773380498662983840e+01
-8.231309824611365400e+00 -3.344881812362316964e-01 1.582788426104126600e+01
-2.968712836953354195e+00 -4.717305428223017572e-02 1.374926361060868985e+01
-2.907835091332584998e+00 2.896142275035705094e+00 1.429305921561554626e+01
-3.129849606878549739e+00 -4.839321621239727200e-01 1.414866713928261177e+01
-2.019698499548306714e+00 3.184659604477109607e+00 1.909102989320338750e+01
-8.190113538892103140e-01 1.880998146887727374e-01 1.405411082531763256e+01
-4.586857086467735489e-01 -9.896596310047685030e-01 1.482643769930596633e+01
-6.478266391809407665e+00 1.144691327321021523e+00 1.911748286440897360e+01
-7.453685279709096889e+00 1.249633510621249499e+00 1.514765563611939925e+01
-1.141306483406844485e+00 -2.128009214222535750e+00 1.530111018068627615e+01
4.276910674001965784e-02 -4.374151492159332744e-01 1.771857433714506769e+01
-1.138844400951989577e+00 -2.301037242885994871e+00 1.549588818782330080e+01
-7.052917112208751504e+00 1.349607550473743700e-01 1.901362227835828023e+01
-3.975829814017701302e+00 4.278566747502924872e-01 1.326921539122050930e+01
-4.579495892708433935e+00 -1.597747978965516680e+00 1.508930185885246900e+01
-4.288030255398937562e+00 -3.148340862554986241e+00 1.916313630289474546e+01
-1.332483186771278749e+00 -8.376075130987272743e-01 1.418216183745960635e+01
-2.247501560688037747e-01 -2.632304371704902834e+00 1.865429788254263244e+01
-5.966158230786221539e-01 3.374754424249661877e-01 1.422702579646516696e+01
-1.707350045899057367e+00 2.240255072990906982e+00 1.545118439103479702e+01
-4.107075527929753278e+00 -3.211683116508104785e+00 1.668144086263020043e+01
-6.120748204639760992e+00 -3.315285181306522944e+00 1.670336763026357474e+01
1.265400297449265077e-02 -3.419052447104746761e-01 1.479384618347248548e+01
-1.162953024692030546e-01 1.025353334620849655e+00 1.578246632154803208e+01
-4.479832307286359949e+00 -2.652371928417376346e+00 1.935328488055487028e+01
-3.556158922110880916e+00 -3.898025718569932963e-01 1.403279761690975036e+01
-7.855011201428268031e+00 -2.517181644760153603e+00 1.613455764063607134e+01
-7.951251346985359625e+00 -5.051466390816293783e-01 1.502603250632578735e+01
-5.724177601811485161e+00 5.705315580243233153e-01 1.302652716812898959e+01
-7.968271857313362183e+00 -2.317728473245152632e+00 1.613716931108139718e+01
-5.236403076339197327e+00 -7.714299942614766259e-01 1.410430230870712975e+01
-2.124485620000224451e+00 -2.013500354851291974e+00 1.562867556953112924e+01
-4.507148455591055480e+00 -2.424987006241896559e+00 1.943359149416044218e+01
-8.212745084083618252e+00 7.131992676062948178e-02 1.660547658856709674e+01
-7.326827610987633577e+00 -1.708007955947620893e+00 1.475763121269468670e+01
-4.227657323697535219e+00 -2.607714114013544915e+00 1.941005897821623094e+01
-7.018572308748937338e+00 2.922507455697958445e+00 1.794494147359542424e+01
-3.894777738033893044e+00 -2.485585182280912075e+00 1.949136353927242382e+01
-1.763486222966222705e+00 2.715532800947782377e+00 1.772254083756635978e+01
-5.938055824496732527e+00 1.923372642751625672e-01 1.328644257366457637e+01
-4.264954834487935109e+00 -2.487090491143141069e+00 1.944889506484024722e+01
-7.406246480786310649e+00 2.184744194940873463e+00 1.785196359731807192e+01
-7.491252514134476570e-01 1.239698805441481921e+00 1.420048337439580521e+01
-7.034797979042207494e+00 2.191195249935177003e+00 1.612018558820252778e+01
-5.082518179975798134e+00 3.564033426550172745e+00 1.773851371217407902e+01
-8.252464588074843732e+00 2.419314777291687590e-01 1.604340583071433102e+01
-1.908455194747252115e+00 4.800121705665383320e-01 1.993031728238856104e+01
-1.141205779944153009e-01 -7.719629030242309842e-01 1.492610485764857842e+01
-2.859336355233707661e+00 -4.634267277967812904e-01 1.991444509306472455e+01
-5.573502352985757469e+00 -2.047521488685980717e+00 1.518541917869977098e+01
-8.270172343858227748e+00 -1.269881428482111385e-01 1.603922221088051359e+01
-1.338674593037640248e+00 -2.558020940968965817e-01 1.382071188509300796e+01
-3.010346735022865428e+00 2.427887368036807658e-01 1.348629605875118287e+01
-4.911845498013580169e+00 2.918924099008434858e+00 1.932498925215101693e+01
-1.908184213594644074e+00 -2.511188689616157710e+00 1.614947860119319145e+01
-5.240657386652292082e+00 3.141834975558931653e+00 1.915795146357904244e+01
-5.096814851444467109e+00 -2.485168274456613702e+00 1.590555350051017669e+01
-3.588831064572862939e+00 1.928796200252284043e+00 1.197997287943732303e+01
-8.055810820910970449e+00 -1.923955710733507463e+00 1.578257654035455815e+01
-4.902658607815101099e+00 -2.715947488012066202e+00 1.612153600916701990e+01
-2.275709701107184291e+00 -3.503834406823030712e+00 1.907618416812678319e+01
-4.082936076346897813e+00 3.720410374251666319e+00 1.926763031055240916e+01
-3.312115192039344347e+00 2.646072762987472071e+00 1.282313250703357355e+01
-3.050330965535651195e+00 5.153305427955242601e-01 1.990353655803338384e+01
-1.735575444340932805e+00 3.395886597438207422e-01 1.339941061208036999e+01
-7.981198463342090932e+00 -2.030317168439941700e+00 1.741930701770064971e+01
-3.875600467955137240e+00 1.750926836119127250e+00 1.974103483881824772e+01
-4.894509256961184107e+00 1.111828043595841864e+00 1.255908357103505679e+01
-2.817345302148402286e+00 3.312884749765332426e+00 1.668943757850381004e+01
-4.490130173247201206e+00 3.162119704339093840e+00 1.937231389280336558e+01
-7.818197644104246891e+00 -2.535262625120880742e+00 1.751660237452231073e+01
-3.961926483677045141e+00 1.183279330327278722e-01 1.356165037626638181e+01
-4.078035718687442746e+00 1.732402348293152317e+00 1.972447024683870964e+01
-4.336276920772363930e+00 -2.201748477718090680e-02 1.365582689973711794e+01
-5.668605454777225994e+00 3.163482668584743696e+00 1.898740818050563561e+01
-6.198826876584349055e-01 1.518768803879455787e+00 1.598043763645794613e+01
-1.049192744437220381e-01 -2.756117310180771884e+00 1.663032476848125540e+01
-7.983936905113888649e+00 -9.470094688789882920e-01 1.517455673067586375e+01
-3.469958922405027124e+00 5.200740634115145200e-01 1.988308627174025744e+01
-7.196826570905651366e+00 -1.131145884163883952e+00 1.436868270772432865e+01
-7.950538614469030207e+00 -2.421022153624681650e+00 1.675630085453903817e+01
-7.914504870198195263e+00 -8.828476332038943664e-01 1.498850655241968965e+01
-5.552154403244784930e+00 2.203807729614746691e+00 1.388078740641634212e+01
-3.352440650664009425e+00 2.402218328340698594e+00 1.202668619746567558e+01
-4.963325920152559689e+00 2.435230380465465139e+00 1.942644428832007364e+01
-1.251159694408492395e-01 3.610228811002815230e-01 1.838231659811281915e+01
-7.075777868270352045e+00 9.243992719112954504e-01 1.385636936654740836e+01
-3.949620740357332682e+00 1.638809511516292172e+00 1.210340821497904429e+01
-3.089422349088431385e+00 -2.419683585848402263e+00 1.561072443188045256e+01
-4.640314878051473357e+00 2.723207546331250395e+00 1.944836135760629858e+01
-4.166173665302814300e+00 2.431346110847671049e+00 1.284814310166827411e+01
-7.489680959541836991e+00 -3.103415884374608247e+00 1.653986086664496824e+01
-5.301021601549124718e+00 -2.970975381783525826e+00 1.649073053871659411e+01
-3.661764850547123196e+00 -3.662340409103071792e+00 1.883366067142581457e+01
-2.730692789573280765e-01 -3.206209021876574194e+00 1.764164866162177603e+01
-2.731239472772181376e+00 -4.760672459677304236e-01 1.416406028434128572e+01
-5.262487927171821234e+00 -3.200432874724836285e+00 1.886815641318839099e+01
-2.694994150198030347e+00 -3.829074729669946997e+00 1.826001793972314502e+01
-2.752240559015713739e+00 2.679253300634190094e+00 1.366004958119090062e+01
-5.676515261219678088e+00 -3.097011668822505115e+00 1.874964355315069398e+01
-3.098225632781335559e+00 -3.441142646119911053e+00 1.707599338403877809e+01
-7.347552447224815708e+00 5.145641673921060866e-01 1.425662770865564610e+01
-7.543223633817279783e+00 -1.246146172564898125e+00 1.862440837360810164e+01
-6.729126224875300544e+00 2.695939286697307313e+00 1.670110840958988874e+01
-7.612596233805171586e+00 -1.252520434912409275e+00 1.852870561352792933e+01
-2.329976118787402850e+00 -3.133957210127207293e+00 1.668031991642399348e+01
-1.178187203822638196e+00 7.257168288871271855e-01 1.967103699313866727e+01
-1.291284361821297244e+00 7.273622440566764880e-01 1.972747759372500909e+01
-5.287565971767518747e+00 -2.230839137141287676e+00 1.926260523037577244e+01
1.392157157647804788e-01 -9.797083366292385076e-01 1.649763944857797426e+01
-7.802608804451200086e+00 -9.015478696217933408e-01 1.477767363871792483e+01
-1.011092101551077427e+00 5.173145672484629198e-01 1.962494096789245290e+01
-7.428392206087692351e+00 2.377057128845959433e+00 1.768583604770531181e+01
-7.286566982097091305e-01 1.156039839536902036e-01 1.415522840104489077e+01
-6.814363059167082959e+00 -6.705061228061082179e-02 1.373936174459464965e+01
-7.298166187155582740e+00 2.595076600567134850e+00 1.772504993491788028e+01
-7.818320308527659357e+00 9.364861602030370991e-01 1.764297988418303120e+01
-7.104713945627383787e+00 2.110449935253862819e+00 1.608611513946307170e+01
-7.286450409242596571e+00 1.786890701425543293e+00 1.828763287562075490e+01
-1.884831771245081278e+00 -2.797613702602800512e+00 1.646879711989641848e+01
-4.086861317113545944e+00 -1.289077027417528942e+00 1.976112788482047122e+01
-7.267751474877270468e+00 2.176186632448646296e+00 1.809580270354177500e+01
2.448690947318293842e-02 -7.113409873011502516e-01 1.494975853434351265e+01
-1.074355613050101133e-01 -5.254089058842100757e-01 1.478579144722076322e+01
-7.846335544410595553e+00 -1.481651382224173474e+00 1.506506677557750962e+01
-5.918036001603504737e+00 -3.695652399000073807e+00 1.810422364980339793e+01
-6.963799102736632385e+00 9.871678352112996935e-01 1.366283554628084929e+01
-4.912119150590956274e+00 -8.313786625404462338e-01 1.966183164114577764e+01
-1.623189724484998209e+00 -2.532300173564537182e+00 1.966173094603823657e+01
-1.707647030662771792e+00 4.617506471004617641e-01 1.332814598068719292e+01
-2.901976361228850720e+00 -3.331218430331789992e+00 1.686898075126181240e+01
-3.861734177356228148e+00 2.835694580300322176e+00 1.398483176939798867e+01
-2.465213477395117980e+00 4.972725071840006228e-01 1.994084802316949734e+01
-7.345894823693670084e+00 -2.073827590193221493e+00 1.861152999627160298e+01
-1.856692513815129342e+00 -2.604589122918087973e+00 1.625354340053025837e+01
-1.510641639604376252e+00 -2.718423437903080941e+00 1.625319719450920886e+01
-6.991305966253972493e+00 -1.537905299431581163e+00 1.448693088201403256e+01
-1.522806076725470081e+00 -3.016147957286947179e+00 1.665047921077855975e+01
-1.298808136178232653e+00 2.849801470994570152e-01 1.981574547461209690e+01
-7.775092225912075605e+00 1.629730337194762901e+00 1.731549566709258059e+01
-7.808370452942541284e+00 5.917557841542173680e-01 1.786204835190411799e+01
-6.875109495069236409e+00 -1.034474699470813164e+00 1.908099245191323590e+01
-2.149803111814455381e+00 1.188768381691093778e-01 1.353102793002168980e+01
-2.129057420437567849e+00 3.474109190434805927e-01 1.336595846085739581e+01
-1.902625359399006566e+00 1.127403663107699461e-01 1.352390713057190297e+01
-1.987553590817321414e+00 -1.131143520428756766e-01 1.368323611310484367e+01
-2.085684532282136239e+00 -3.161591643181730582e+00 1.933965328609855661e+01
-1.764844266993728095e+00 7.036214705754648691e-01 1.988381641489544549e+01
-6.524384630920710748e+00 9.609907265442280133e-01 1.324770275207445636e+01
-3.053744168036497397e-01 -9.291152586721891371e-01 1.492386312739991538e+01
-7.654488608932651594e+00 1.574806715317431216e+00 1.769325252249596403e+01
-5.848075039883227966e+00 -3.157792400882292849e+00 1.865021044921781979e+01
-6.294334635085322205e+00 -3.433212233134948832e+00 1.687471635994662833e+01
-3.501898255574986685e+00 3.686514985839869141e+00 1.750837272582819182e+01
-7.788618486865874324e+00 -1.952191196636412052e+00 1.530603421069146819e+01
-4.863078375164707978e+00 -3.165343472797034874e+00 1.670949103795656399e+01
-6.697350525635068053e+00 -3.178690346340972805e+00 1.612132794640674760e+01
-8.480602239282472032e-01 6.926523627105827252e-01 1.391302498279928201e+01
-1.903756426825571335e+00 -2.418377653682612927e+00 1.604339347637307256e+01
-3.077177244720589733e-01 1.358166050932529512e+00 1.837137867675653879e+01
-4.521288326563726478e+00 -3.176256274292081461e+00 1.667264113327166442e+01
-8.914385291125221933e-01 1.492648225240888582e+00 1.902888776348104827e+01
5.320580208487635243e-02 -6.035185868987174018e-01 1.775595718436302306e+01
-2.018202958262478308e+00 1.266848672973179268e-01 1.996398865035261494e+01
-1.086615511879017060e+00 1.904097855869784750e+00 1.904399399174093688e+01
-2.674048099863167494e+00 -6.138200974762741957e-02 1.993785898349789321e+01
-4.251021535329503109e+00 2.756110381291458911e+00 1.951902644591847391e+01
-2.744257929117927652e+00 1.428322731458825823e+00 1.248271129153946291e+01
-1.890676933462380527e+00 2.645020295948228739e+00 1.685677832127597853e+01
-4.532849778832825471e+00 -2.370112757833492179e+00 1.569239406570003226e+01
-2.017714614412669416e+00 2.064222010457826606e+00 1.329413931691692952e+01
-4.032761340383216542e+00 -6.766813279778760570e-01 1.983887491403665493e+01
-3.055036734158205647e+00 -1.491312236859976048e+00 1.979424625162297602e+01
-5.061930764589777088e-01 1.609787938734718704e+00 1.701111189361228426e+01
-1.964371877440511005e+00 -3.508349529233857567e+00 1.732924108246557537e+01
-4.141912006140545444e+00 1.413862547508110357e+00 1.228339857577352845e+01
-6.296501397466306438e-01 -1.332055038975467509e+00 1.483016527492329928e+01
-3.276472302636457279e+00 -1.692815772973720545e+00 1.974560889987460754e+01
-3.061182774715857757e+00 3.141273446707899542e+00 1.945930297002059817e+01
-5.471362457848792715e+00 -3.740855913570377389e+00 1.825480920606849011e+01
-4.938038714117453098e-01 -1.722341306264017824e+00 1.523819079561012657e+01
-6.129591410274821683e+00 2.710892291314175306e+00 1.589809383938456833e+01
-3.293312580454359040e+00 -3.770537910393195524e+00 1.785361984388979195e+01
-5.299333478906101291e+00 9.417038253172667073e-01 1.952753143013071124e+01
-3.884110346658153912e+00 -2.278520928076531060e+00 1.550744054213692280e+01
-1.649402882486451949e+00 -2.896620896228180086e+00 1.950467111886181115e+01
-4.433589864073898212e+00 2.478578708724735513e+00 1.955074862298360117e+01
-1.084116154518262931e+00 -2.051080935828532681e+00 1.979909652167543399e+01
-7.889197358839902252e-01 5.342393512476236728e-01 1.401193360237826724e+01
-6.699449954132192353e+00 -2.590441935306025734e+00 1.523976067507519261e+01
-4.403833979058368264e+00 9.540944571203191504e-02 1.982457476385778605e+01
-1.068840847370392311e+00 -2.291288213083525260e+00 1.972794022668722036e+01
-1.527760344549119020e+00 2.521192784294538747e+00 1.918592036844786364e+01
-3.298320694434821121e+00 -3.446556428268136241e+00 1.904412083163041913e+01
-1.479689964501730293e+00 2.318045726881214907e+00 1.924012214016378763e+01
-2.069595874528075807e+00 -2.409527487911133470e+00 1.601172953425431800e+01
-7.516768019742976037e+00 1.140600887595805690e-01 1.446466446731941247e+01
-4.535213215708816747e+00 2.789969221191202386e+00 1.447999271158317569e+01
-2.553591678389152797e+00 2.551723714825173683e+00 1.369393149625171091e+01
-6.248589380281964978e+00 2.530092469020707835e+00 1.887419368729611691e+01
-1.852835334054495409e+00 1.685253278061931592e+00 1.968701543958891520e+01
-6.037882228224043857e+00 2.950633874116141531e+00 1.886715057403337070e+01
-1.454827528678983573e+00 8.981349068061914576e-01 1.975625944168557524e+01
-2.268641128449425448e+00 5.079013804443521796e-01 1.994590022245077066e+01
-8.110033514025952073e+00 -1.926612247826653412e+00 1.598044116953492377e+01
-6.305028177857662008e+00 2.279620466741714147e+00 1.510806927993469273e+01
-7.075739680792841213e+00 -1.219843681247335887e+00 1.897452061582010074e+01
-6.675733801982582705e+00 -1.248664931140027967e+00 1.910574819732410035e+01
-6.877984760975079048e+00 -1.233575496218000112e+00 1.905227520217459514e+01
-2.077616463139130509e+00 -3.803464130216539729e+00 1.801290564776655501e+01
-7.574184531503824758e+00 -3.005427603535880898e+00 1.648519050381895212e+01
-4.790401289182070421e+00 -2.826788873544404890e+00 1.621975235353950850e+01
-4.718678238926687918e+00 -2.549266727016009426e+00 1.590495201635021871e+01
1.194772994021505164e-01 -9.569721387790375289e-01 1.531372145697085685e+01
-5.526605033897499020e+00 -1.644749706926242894e+00 1.480772791711710212e+01
-1.699385753384422104e+00 1.371978503226305435e+00 1.294592755667186523e+01
-5.293393056207103875e+00 -1.674699831933217808e+00 1.497068292681891322e+01
-8.122361061212700406e+00 -1.936708671462361586e+00 1.658321884318580786e+01
-5.330561790103094388e+00 7.504209154333114640e-01 1.286971164770170262e+01
-4.850831080352759450e+00 3.914261162573169806e+00 1.908458146500956687e+01
-8.139403212226474338e+00 -1.782085374499626784e+00 1.675525326274737736e+01
-4.585677622788510988e+00 8.413142865025026174e-01 1.975487815442918915e+01
-9.186918759456942363e-01 -2.310448752796596228e+00 1.548057373683826299e+01
-3.918887925698267605e+00 -2.973143971144385667e+00 1.627128390107943190e+01
-1.910787269189767823e+00 -3.579486588391477930e+00 1.743645712516937962e+01
-3.259121673964774146e+00 -1.159003419479502028e+00 1.466938774815119118e+01
-2.976887904727393508e+00 3.672728688976584444e+00 1.815340267986075773e+01
-7.612304538898264639e-01 1.907552296332049480e+00 1.751586030791613169e+01
-9.196583349719162914e-01 -2.134951821605112876e+00 1.530300904901354997e+01
-5.106390313588036634e+00 2.862258451684808858e+00 1.530511044713372470e+01
-7.570092785016921511e+00 -3.056413107619398772e+00 1.728339449298315245e+01
-1.282437243745926825e+00 1.916230688015615691e+00 1.544994701337347109e+01
-6.972388653643655232e-01 -2.186858611812662279e+00 1.542891087698801655e+01
-4.092146260043662664e+00 3.182523933798897087e+00 1.573397697436781684e+01
-7.766203294504698817e+00 -1.695154088113225210e+00 1.511165940435883570e+01
-4.852351603253873158e+00 2.155405876646690810e+00 1.950671281325159967e+01
-7.569649041568891512e+00 8.155030975789336889e-01 1.833754318368791658e+01
-5.094926957955496327e+00 3.383715840926883267e+00 1.715199777850164153e+01
-3.483290739700281691e+00 -6.536195222637306568e-01 1.987186187750844724e+01
-7.612229914437231848e+00 -2.383778566857163828e+00 1.814700549519050199e+01
-8.248679246050944158e+00 -7.516541002965795304e-01 1.596737108437929820e+01
-8.273550648494964577e+00 -9.334345026920380928e-01 1.614522703253132008e+01
-1.934346724508922422e-01 -6.367120426616712514e-01 1.881190107940555478e+01
-6.912130944692059131e+00 9.683253541250491647e-01 1.894610382567713813e+01
-4.504859143648211273e+00 3.495084311924185450e+00 1.727155410329445928e+01
-1.486486799271569126e-01 1.466241534443473160e-01 1.851782942837253287e+01
-6.314135922672568846e+00 -2.275653045153887444e+00 1.499332847278919800e+01
-4.335221916174644363e+00 8.297802806173855128e-01 1.286997094627122706e+01
-6.346823887698635147e+00 -2.501785782546831705e+00 1.518646098958935298e+01
-5.575706667270466710e+00 8.931079634152221391e-01 1.277851356171879260e+01
-8.004765200823428017e+00 -1.396396873324052157e+00 1.759045017034089042e+01
-5.082337754006289288e+00 -3.228596213199473208e+00 1.892647018118141844e+01
-9.142400020158183427e-01 -3.212160825301566103e+00 1.664754958165664434e+01
-3.309411566679131944e+00 -2.841821607117455795e+00 1.940553988474929881e+01
-1.636470411717609208e+00 -1.499533121134573932e+00 1.992047980923164729e+01
-7.170919153204950547e+00 -6.629315701505000824e-01 1.415502236921971146e+01
-7.434892001805417650e+00 1.787204726495121188e+00 1.804046630549551011e+01
-1.502313234600437308e+00 -1.669738511846142526e+00 1.989735756644605047e+01
-4.782046279653680010e+00 1.687751949589722633e+00 1.958861073803083386e+01
-2.884631653545521868e+00 -7.006294314168186599e-01 1.438284286797040679e+01
-2.661876016639716624e+00 3.311302316694540782e+00 1.936182456301230914e+01
-4.746511318348701103e+00 1.115024060286427865e+00 1.256259069774752746e+01
-2.902440088176712951e+00 -5.081657529903208514e-01 1.419579655718692024e+01
-7.241982582881845154e+00 -2.528540416018388859e-01 1.408779090207115914e+01
-6.937993247808188713e+00 -6.314994445332178241e-02 1.381790754568774204e+01
-6.106949126179033627e+00 -3.228637279899792212e+00 1.650351598279364751e+01
-7.887781812200720388e+00 -6.678383636083009556e-01 1.487336065464691259e+01
-8.961561140713405482e-01 -3.044372449651401302e-01 1.413008906333253023e+01
-4.058576852526873502e+00 -2.256221383168670158e+00 1.954939831785913285e+01
-1.676837258330512892e+00 -3.429658876776992660e+00 1.917791188424510906e+01
-3.314693303429806281e+00 -1.631207294095053051e+00 1.499680105906647398e+01
-3.514591282125658633e+00 -1.516850865817974681e+00 1.490028502754988793e+01
-6.830576434239923778e+00 2.776491542737805851e+00 1.833085566958096635e+01
-3.494622553948514843e-02 -2.871000456670724343e+00 1.723888101339091961e+01
-3.759943239290803429e+00 1.646878065867016350e+00 1.976386190661441944e+01
-6.824595053183632132e+00 2.948710506612693294e+00 1.826092361451991408e+01
-2.104400664744281890e+00 -3.182440347171257233e+00 1.686898190803219322e+01
-3.971696269701056048e-01 1.192528701437840954e+00 1.524620384743591117e+01
-1.293435853505835897e+00 -3.723971815533118068e+00 1.768253075130810359e+01
-4.882119760187272561e+00 -2.989363982506512141e+00 1.645142472578548265e+01
6.383106314531872272e-03 -2.109415004404591620e+00 1.594317797101303213e+01
-5.635249994729082168e+00 3.296369504412904883e-01 1.946884454574309231e+01
-7.530086862946974158e+00 1.647513650293975118e+00 1.609773076574890283e+01
-4.714502320558815462e+00 -3.027994108997617673e+00 1.646906294344726618e+01
-1.613082855192456699e-01 9.637634323766879341e-01 1.818822210556468022e+01
-5.335691925189224527e+00 -2.070672942673226657e+00 1.536113241522749107e+01
-1.686921885286264633e+00 -3.626332702382437212e+00 1.899920180643895051e+01
-8.164815133886587972e+00 -1.190872426601272460e+00 1.698178190118960273e+01
-4.911065635351741232e-01 -6.655035499188881598e-01 1.931870963529780383e+01
-3.979801871687645765e+00 -1.494741460928727061e+00 1.491442599013811687e+01
-2.613193992023890910e+00 3.427214551744913074e+00 1.823470394173043374e+01
-3.471585793214938764e+00 -9.899334738648468690e-02 1.989207678667675694e+01
-1.166744844072996612e+00 1.599379870524913372e+00 1.929915564390308802e+01
-2.485846559616520235e-01 -2.254118981337458472e+00 1.884611338747342657e+01
-2.326907377679397371e+00 3.132674098776789595e+00 1.769592275727086061e+01
-8.217831914493162415e+00 -9.888795940554682140e-01 1.676137022575610658e+01
-1.182194143053869606e-01 5.996202219070380091e-01 1.819017042122493777e+01
-7.665361420289380945e+00 -1.439341947592695847e+00 1.486409332754417889e+01
-7.353662164183254468e+00 5.662904759990728953e-01 1.871929104524233978e+01
-1.191783359537588738e-01 1.198447387019257349e+00 1.659742221571558574e+01
-3.557855253687617125e+00 2.353698023293012920e+00 1.192495067626753880e+01
1.647301124773413172e-01 -2.215075386606756069e+00 1.645439252344980829e+01
-2.251154766017292808e+00 2.915181218103069516e-01 1.995624751453253154e+01
-2.092418937849379823e+00 -3.829243951988587469e+00 1.822621738716027195e+01
-4.730253916529614244e+00 -2.089334492664508769e+00 1.550776769578183334e+01
-6.073630575216932392e+00 9.659863994615194294e-01 1.294267634664739219e+01
-8.913697500572039800e-01 -4.745031066685286847e-01 1.974030489438370850e+01
-3.478667717668514570e+00 -3.225780991111613094e+00 1.665986203342319882e+01
-1.540643023062352013e+00 -3.765415245483946016e+00 1.783710698226206048e+01
-3.498834341643148438e+00 -1.762011875410441686e+00 1.508291248582959909e+01
-7.505161770506055596e+00 1.801959188431625947e+00 1.789043947737299689e+01
-7.070032983029955531e+00 -3.357288762841299512e+00 1.670911865902843729e+01
-7.203778809848738085e+00 3.313776180464794163e-01 1.401431937192757360e+01
-3.634620304115961709e+00 2.536385961156261803e+00 1.962493187628306046e+01
-4.047764830786592327e+00 2.483548297016775486e+00 1.960585550977328140e+01
-6.303895955710491883e+00 -3.524849404083344684e+00 1.708378898240857424e+01
-5.524696577565689992e+00 -6.832285658085233138e-01 1.394218292672019643e+01
-3.868011424333404502e+00 5.113767433289913011e-01 1.986847705475803494e+01
-9.550303147387022573e-01 9.918242575066168465e-01 1.937159293840616314e+01
-1.763706839881913346e-01 -3.204577912528350225e-02 1.864245189937525637e+01
-3.438571807047392515e+00 -6.941010735319816938e-01 1.428888451352107225e+01
-1.040849568760836785e+00 7.187220662272582050e-01 1.957229227063157495e+01
-2.707764611539658972e+00 -2.666481799608694025e+00 1.593597962985131389e+01
-6.442394613637121736e+00 1.172960544604308097e+00 1.314511384399444793e+01
-4.295968560144566517e+00 3.279744712740955137e+00 1.631621519772362561e+01
-4.522195095023724853e+00 -1.915473880423559372e+00 1.532688721053073877e+01
-3.886643591555900112e+00 -8.609637613702703085e-02 1.987405473353090102e+01
-2.146929998649097782e-01 -2.831801956172695700e+00 1.846736844016654899e+01
-6.679104612435653898e+00 -1.843806038161269534e+00 1.897651499362072158e+01
-1.490702306416140210e+00 -1.062208260580995933e+00 1.436697359353820147e+01
-7.505028745893865150e+00 1.471220142328367508e+00 1.568670049552617840e+01
-4.884469370560797330e+00 -3.774331759528595676e+00 1.846460347568431004e+01
-8.203672693552855222e+00 -1.527200472076971627e+00 1.659616859735305994e+01
-5.513300997021000072e+00 -1.526386192460862823e+00 1.469966664317473359e+01
-1.483380728515620417e+00 -1.294302957962246925e+00 1.455911228636407984e+01
-1.884430538464082261e+00 -2.941277282165946971e+00 1.663501629316610675e+01
-3.840821865883232156e-01 -1.042237575445830178e+00 1.920597184708695337e+01
-1.848235228633891447e+00 -2.280227393089702570e+00 1.973395851743824991e+01
-4.434188876720600581e-01 -1.284821023208909230e+00 1.932048908727439240e+01
-1.717033774876413732e+00 -1.884611196872974404e+00 1.529720411075939168e+01
-6.348183576234990078e+00 7.640662973892762277e-01 1.318678761715860404e+01
-8.992341144005845388e-01 3.462698025600268181e-01 1.958988755798567993e+01
-3.486002885847955479e+00 -3.777087479942683679e+00 1.787229420337083141e+01
-7.638930082430738011e+00 1.611337370533380442e+00 1.632270809891941710e+01
-5.467791840444935048e+00 -2.223798205258459060e+00 1.919696307728909446e+01
-9.367113541257083842e-01 1.266221602998525708e-01 1.968482088960765353e+01
