-3.188842070470314649e+00 -3.962840980945307123e+00 1.831619951652558598e+01
-1.959882789684732618e+00 1.582690347513600937e+00 1.505952162611378498e+01
-4.641403487996186072e+00 -3.369662284556895315e+00 1.885675101346682681e+01
-6.577679500596332218e+00 7.621615114087245679e-01 1.268493266843420741e+01
-7.085144440720644532e+00 -9.543624050227195177e-01 1.510547017099702316e+01
-8.237581694265415422e+00 -1.630629705524952122e+00 1.487895994079079998e+01
-8.410736395209255534e+00 -2.003152402816584576e+00 1.873075090205905724e+01
-2.659754211409835367e+00 1.405014223174572807e+00 1.388500689625855955e+01
-1.700118205097196133e+00 4.210967685328440568e-01 1.509646722121805595e+01
-1.737879622859625828e+00 6.577352930590707469e-01 1.499127463767445079e+01
-1.863575085874348503e+00 -1.102257328437455275e+00 1.782846435413119224e+01
-8.971693990556797615e+00 1.577332561532786448e+00 1.650950717546189139e+01
-1.830295716792104344e+00 1.078922603076157172e+00 1.475052657794415722e+01
-1.827291820507427333e+00 1.633819698224657113e+00 1.560532753212378054e+01
-2.975851998104802387e+00 -3.142270461580149998e+00 1.657870083902823666e+01
-3.663061798404388281e+00 1.901564881542251229e+00 1.787035119776438563e+01
-6.348563478228334667e+00 1.542493855212439424e+00 1.332997424002715547e+01
-1.722420228596329039e+00 1.063815819861224199e+00 1.552604014787826259e+01
-9.841215713288153921e+00 -1.010566495855718117e+00 1.748033910148209458e+01
-1.686691126423095710e+00 8.486054715186619468e-01 1.554285973060731152e+01
-4.906707856222582542e+00 3.398446102219041087e+00 1.685939115314465653e+01
-1.689336458787899398e+00 8.175850148632988201e-01 1.595660740283392443e+01
-2.221259344670603042e+00 2.618478663013366514e+00 1.677937794143588945e+01
-6.153919312856650059e+00 1.961135462623292636e+00 1.376552460099884456e+01
-9.622157911353877324e+00 -6.539672497091832959e-01 1.532172317954758967e+01
-1.943530161117963839e+00 1.190274850277701857e+00 1.697962676051496089e+01
-5.491760443693312510e+00 8.548115161868501399e-01 1.823238765875851186e+01
-2.003076156903388139e+00 1.146231289923034469e+00 1.716493894362874784e+01
-8.341255187767906421e+00 2.538570788257028532e+00 1.629172885003801241e+01
-2.237673429560679939e+00 1.122683579829971467e+00 1.755834116735757533e+01
-5.422562734124714900e+00 -1.654898200626760740e+00 1.603764832882254865e+01
-3.492375931614949636e+00 9.907955462933166757e-01 1.255774441233002392e+01
-9.528432459625957307e+00 -3.218650935348542852e+00 1.838827766075986858e+01
-4.593804704863360122e+00 -2.863675869263882845e+00 1.682541821889473255e+01
-2.396622762322362821e+00 -2.689520056778116341e-01 1.814401475623373727e+01
-2.339398188786427468e+00 1.482919291551489716e+00 1.752590838220688596e+01
-7.201717647280085011e+00 -2.638714991474118587e+00 1.884355004043780468e+01
-1.729241439156113724e+00 -3.257806190627487553e+00 1.751735930562712440e+01
-1.821589702660430632e+00 9.767963956576533047e-01 1.672398876703591242e+01
-6.992991634809329504e+00 -3.040953206510098816e+00 1.889651254241860556e+01
-2.488402646537273721e+00 1.711055170925532165e+00 1.756489771420810087e+01
-3.286680495415470471e+00 2.128716550924139916e+00 1.497123198951535272e+01
-2.676925869016133497e+00 1.273196005115047935e+00 1.787261225824935451e+01
-5.693178140341568216e+00 1.554305859212162577e+00 1.299546975679934491e+01
-2.856802324448497021e+00 1.132452085526765906e+00 1.798779773949290473e+01
-6.086829955806045689e+00 2.874532418250572707e+00 1.558238325099071631e+01
-9.583892163412077281e+00 -4.755575284676418768e-01 1.532574991920923679e+01
-5.886660255778723538e+00 -9.219210110619746601e-02 1.273403907632872034e+01
-3.109970879115468989e+00 1.038161348179527987e+00 1.807598736602993483e+01
-7.928285609715606697e+00 2.010078805537528712e+00 1.520330619871801758e+01
-1.720375761806734571e+00 -6.866111075322207657e-01 1.722641392212144495e+01
-3.445181537670954253e+00 8.917026398747017746e-01 1.813531843506792285e+01
-4.003724183713936569e+00 1.129556176581533622e+00 1.811162838200074532e+01
-7.214288405194078990e+00 -5.904205985904100729e-01 1.848402459813220133e+01
-4.329892793562781783e+00 5.291610492423131085e-01 1.188128758724311496e+01
-7.202524888428407657e+00 -4.384788103074039878e-01 1.844939131232456475e+01
-5.597215861183935992e+00 -1.696588219907506634e+00 1.874209466676614966e+01
-2.622543845290457476e+00 -1.524616440716041410e+00 1.850512147886723113e+01
-7.111244146263314470e+00 2.829598518376971850e+00 1.544303865000325260e+01
-8.659194674517955548e+00 3.520537921594346642e-03 1.813503447211554942e+01
-8.240233282874871890e+00 8.098074614970447449e-01 1.793748368576129337e+01
-3.179938445928296442e+00 -3.451147948789072828e+00 1.733133462480641640e+01
-8.499720515197672910e+00 9.989920040151554215e-01 1.776194472638279365e+01
-8.863899023650695597e+00 5.962525745372766472e-01 1.775756783607503309e+01
-6.320959773449698282e+00 -8.804414255629016139e-01 1.507252505148866106e+01
-2.257526844064488447e+00 -9.059586451049390643e-01 1.821492350077772926e+01
-4.490623575352537422e+00 7.193290339994957705e-01 1.178853711562815221e+01
-3.816433730304289451e+00 2.859293864765231508e+00 1.616818114660524941e+01
-9.257812413741429935e+00 2.464518640439795627e-01 1.757038051813153601e+01
-9.253543524039791635e+00 1.317502409512161243e-02 1.776983964158374363e+01
-3.316704052993308949e+00 4.142122538466179726e-01 1.239969220273490436e+01
-9.575765871830405729e+00 -2.005483314522624738e-01 1.734013509291798272e+01
-4.439464683627965869e+00 2.263740118275072710e+00 1.782551293991006247e+01
-9.852313508410688314e+00 -7.933967997199447009e-01 1.711409015246250220e+01
-3.097018680116667255e+00 2.097099798449457708e+00 1.500843585774480715e+01
-8.783853159428002044e+00 -2.198352281874019987e+00 1.869753339385790269e+01
-9.916737262515891160e+00 -9.347945516017586165e-01 1.695115896457281934e+01
-9.837651424878924189e+00 -7.233439160592498585e-01 1.596000019305967754e+01
-9.798642587265835147e+00 -4.968562684880388769e-01 1.636257804043482622e+01
-9.773915070091039325e+00 -6.983223274722836216e-01 1.570167440537776571e+01
-4.021675473054200367e+00 -9.278074091243166954e-01 1.444897619407313272e+01
-9.706747835825694892e+00 -6.958308386058955630e-01 1.550840031076073444e+01
-3.582315531236492934e+00 -3.754500596360759168e+00 1.789745810252147606e+01
-4.026150921424385132e+00 -3.667913437691488809e+00 1.770762649765048025e+01
-9.593238539563760270e+00 -3.385316379367075967e-01 1.538192177466760313e+01
-8.810036700531163945e+00 -2.879712790690525548e+00 1.666754191620357517e+01
-9.391472549617674304e+00 -2.774341751840081471e-01 1.502643154854489893e+01
-1.674801601600132139e+00 6.701524715456986803e-01 1.535178933435329185e+01
-8.928038160850181981e+00 -6.102572518558422310e-01 1.444667320248932896e+01
-9.205211236150894649e+00 -7.995403344584417482e-02 1.480507291612074283e+01
-7.748185559873481232e+00 3.198917042939536604e+00 1.663929104841629680e+01
-8.629836779226085497e+00 -4.097503223172422882e-01 1.411753532496653207e+01
-7.443272501936968766e+00 -1.793450196334779090e+00 1.871822786976381536e+01
-8.025393584975399008e+00 -6.820084202481626612e-01 1.378202872371778653e+01
-4.230006125687747698e+00 -1.444189646590903209e-01 1.835461544417970003e+01
-7.854049986073182943e+00 -7.436922000725891824e-01 1.390171288694570251e+01
-7.690134523569578384e+00 -8.290410134858807734e-01 1.410927226482400698e+01
-4.161520536364932354e+00 5.047529587434221865e-01 1.822687629515074548e+01
-7.416443753150349316e+00 -7.373957286387673449e-01 1.409149426035346409e+01
-5.598639342661728691e+00 -2.382070580594337628e+00 1.884954085480994479e+01
-2.528931686569969361e+00 -3.601539615009450301e+00 1.755416274963418033e+01
-7.662221025638444871e+00 -9.378739098076729341e-01 1.432663008001217264e+01
-3.036648504302470464e+00 -2.175373394576028296e+00 1.520489446176213733e+01
-5.451563226863680001e+00 -1.464397937852435216e+00 1.585704366243178498e+01
-7.070233180587225164e+00 -8.779974205401137599e-01 1.490247148180444725e+01
-6.661987180070279457e+00 -8.360329007474642804e-01 1.494514705691096168e+01
-5.239804828263066483e+00 -1.024331701564663355e+00 1.527207530100949384e+01
-7.760289170500596079e+00 2.963840292173377300e+00 1.626419033665671776e+01
-5.850586940688865312e+00 -7.246901477956730897e-01 1.468431532817709950e+01
-5.448094290916506210e+00 -7.792076592857983819e-01 1.485349885749606358e+01
-5.452932072612330927e+00 -8.648321334599382570e-01 1.503129118919414964e+01
-4.895178681338154369e+00 -1.041929790477318818e+00 1.527188819701886047e+01
-9.718802935571954293e+00 -1.144744929792552046e+00 1.780657568117346301e+01
-3.784749469035488811e+00 -2.204187756054552860e+00 1.599763943671243283e+01
-9.661989568766827574e+00 -5.780998730826376608e-01 1.753616048408141381e+01
-4.808429269665057681e+00 -9.372936811455545580e-01 1.508177644778041326e+01
-1.018903948034203211e+01 -2.014761358081828657e+00 1.704983928657306080e+01
-4.473109642249435858e+00 -1.023633473540602079e+00 1.507515938124102206e+01
-2.826811362416889128e+00 -2.155323391170086644e+00 1.514718816188820938e+01
-6.924890261376003942e+00 1.070645666061075252e-01 1.271626563638805862e+01
-4.088649054574521102e+00 -1.011169761263225997e+00 1.467644750956550581e+01
-2.374990973601954991e+00 8.024504441076563133e-01 1.319784779442352374e+01
-3.868782597203309859e+00 -1.148556996582775103e+00 1.466666415984452243e+01
-3.793415591512427021e+00 -1.085225652386813344e+00 1.447532370851914152e+01
-3.430097779453810336e+00 -1.267263345907573058e+00 1.448597254713334337e+01
-1.651087544653958572e+00 -5.499070415853202221e-01 1.565537123560618227e+01
-2.811381566267049159e+00 -1.343540368122105200e+00 1.439190198224600437e+01
-7.789754828153497179e+00 -2.685726272632564360e+00 1.685806705137791539e+01
-2.018819552265428641e+00 -1.125759733299634302e+00 1.462441787106131841e+01
-1.796828940249215023e+00 -5.074584044943728500e-01 1.488117165080001314e+01
-1.737944626586233721e+00 6.413032243745853123e-02 1.492843633074093646e+01
-7.054766926402082916e+00 -1.028416573888178753e+00 1.526591861984748988e+01
-8.115605522066118738e+00 2.194787187822327290e+00 1.560909549444026823e+01
-1.654208355068161662e+00 3.899171148614838378e-01 1.532846219769162133e+01
-3.455182675422125982e+00 1.277446454207136650e+00 1.804204163161102059e+01
-1.746915129736498873e+00 1.049149881570049292e+00 1.517114685753674053e+01
-5.100548411897684709e+00 2.840517488854953143e+00 1.762107886158380410e+01
-5.906486467346337754e+00 2.015290282818376078e+00 1.384817985301266674e+01
-2.314638313448615925e+00 2.124824818165122586e+00 1.719353002636989203e+01
-4.693874732461088328e+00 2.675796213620982300e+00 1.769058958722669672e+01
-1.920157478698572895e+00 1.827748354547999110e+00 1.559210581212242630e+01
-8.997624310896672029e+00 -1.380322025220265036e+00 1.849148527546135057e+01
-1.650815726289803331e+00 5.987205963715094281e-01 1.574216080915843463e+01
-6.205156304394360944e+00 -3.869515487505948315e+00 1.816147744834156441e+01
-4.512799849784431494e+00 2.830095077694199546e+00 1.585532004269722961e+01
-2.430455792791535341e+00 -2.574977816795755103e+00 1.554900228601110257e+01
-1.840883791408530090e+00 1.175272393711444874e+00 1.658394505059339963e+01
-6.970568938965895356e+00 -2.818141841733358799e+00 1.887219096513463512e+01
-8.419330972058848062e+00 3.325756839235919360e-01 1.425422389951035029e+01
-6.972284223876249243e+00 -1.592467624802193171e+00 1.868991789162615902e+01
-1.878642988607507780e+00 9.967322910027858196e-01 1.692857152779269825e+01
-1.833297582871278752e+00 7.888865587097209087e-01 1.690835360750391914e+01
-6.301167046180447429e+00 2.748415022332329372e+00 1.527705611429783517e+01
-1.631848377811539130e+00 -1.767500676204595056e+00 1.600651905862216751e+01
-1.989237993877756017e+00 7.401529738196210850e-01 1.733830579508505565e+01
-2.022467822605857446e+00 9.347944741131570812e-01 1.731501400878283192e+01
-1.963629839091744600e+00 1.780701659804257542e+00 1.542264557751136778e+01
-5.404936256912176162e+00 -3.406798530576775619e+00 1.893441616469219468e+01
-3.684067035406555224e+00 1.549059458739563855e+00 1.356186905983656033e+01
-6.426758190565745821e+00 -2.204754157244143364e+00 1.880324959462872414e+01
-2.106883661312041411e+00 7.161351573703214068e-01 1.754421723158376523e+01
-4.988423425969555680e+00 -1.952996418852294802e+00 1.628288722143161493e+01
-2.405365187047194819e+00 9.146078032456538276e-01 1.779043229343540133e+01
-6.310914707541273927e+00 2.892107816380534935e+00 1.557175385927076405e+01
-3.856158721829342273e+00 5.056032629252261712e-01 1.822291418346832614e+01
-3.028589361233218646e+00 6.925713532015365104e-01 1.814233098766152352e+01
-3.263026232313086972e+00 6.911067350175639223e-01 1.816872706953610361e+01
-9.195865909228636781e+00 -2.675733049732555546e+00 1.620195237622964157e+01
-3.476429763765043646e+00 4.097150359245598228e-01 1.824046419003860819e+01
-5.670508429969983055e+00 2.068486986835063490e+00 1.789473790301599365e+01
-2.325373879339005523e+00 -5.861097334016220906e-01 1.818322203047595309e+01
-4.426878195987397291e+00 -2.053645407220835661e+00 1.622098355527999303e+01
-3.839531437375156564e+00 2.675140353647986746e-01 1.826743207959793835e+01
-4.067157773318334613e+00 4.680622434955838962e-01 1.822923493709269138e+01
-7.174125376956846267e+00 -3.665389795720269461e+00 1.893104146193282133e+01
-4.062943923573342886e+00 6.645364025102562522e-02 1.830398932032183268e+01
-3.785452845275119937e+00 -3.369878301769926310e+00 1.871322987197691390e+01
-2.337409433349183718e+00 1.090041717964719048e+00 1.766737525571483758e+01
-4.584759097741455847e+00 -5.575727141546469312e-01 1.844986024812567393e+01
-6.613292567412021761e+00 -1.307122190047970367e+00 1.578666598620505823e+01
-4.775079577791961682e+00 -9.869487479591598778e-01 1.854298620190002111e+01
-9.195004142500891930e+00 -1.023467442939088201e+00 1.476053764984320082e+01
-6.771823174843455639e+00 -1.594323092805152164e+00 1.869137578099685726e+01
-8.628869601351652818e+00 -1.002994104778151208e+00 1.846108299832004462e+01
-8.213523385969441648e+00 -1.027436908567005425e+00 1.851239124133253000e+01
-2.553951067084436310e+00 -2.350673326884632708e+00 1.863440352094118424e+01
-5.743269351869177974e+00 2.872648867308698062e+00 1.564653066816578786e+01
-8.852090683042458608e+00 -3.351910899096954832e-01 1.821853892605041381e+01
-6.118206639436798433e+00 2.627585065357386895e+00 1.506934449937515552e+01
-3.988647780719160707e+00 -2.618659708674682562e+00 1.644509414016855686e+01
-8.866695556719655258e+00 -3.352444965002865374e-02 1.810118935818238128e+01
-2.897457959893482204e+00 9.065341647927493973e-01 1.280736056556792590e+01
-8.877273436268328766e+00 2.260800341072833897e-01 1.796824108606043779e+01
-5.685371312180035552e+00 2.330103609264865039e+00 1.455479258505631890e+01
-8.768695010560623615e+00 3.705643648358105668e-01 1.794566268844948098e+01
-6.709805019614568877e+00 5.331294684097138692e-01 1.254661949940145149e+01
-7.659425589812767221e+00 2.696541132673452079e+00 1.573166451167065816e+01
-9.059874991759013341e+00 2.432442401812894284e-01 1.782855027888390254e+01
-9.168868430511523115e+00 -4.477029050557690404e-02 1.791978174027414639e+01
-9.244596230019457295e+00 -1.894849907916777987e-01 1.792935644688716934e+01
-3.503846378694999153e+00 2.012876591396445480e+00 1.462321275448922364e+01
-7.657993115942128171e+00 2.336223660086993004e+00 1.531500985464929698e+01
-2.311186347296370958e+00 -3.117832663112701574e+00 1.860690639058665141e+01
-9.385562835313930208e+00 -4.170473107669117052e-01 1.791613781701462926e+01
-9.443958235199886531e+00 -6.000978205005977895e-01 1.793227727611310485e+01
-2.796155407780941626e+00 -3.992752909891523316e+00 1.829164892469247405e+01
-6.229942479140260225e+00 -2.266099685443474065e+00 1.661823596054014729e+01
-9.648951828681568088e+00 -7.953122868633457632e-01 1.774392202345144653e+01
-8.794627679497107664e+00 -2.602443845079217333e+00 1.874071225316927780e+01
-9.968328262219362301e+00 -1.172426763027866858e+00 1.711517351199318426e+01
-1.003569217617414822e+01 -1.340647156799214645e+00 1.688802445042515643e+01
-8.018737919350044763e+00 -4.045905153580647173e+00 1.882328462866261987e+01
-9.999806503470924923e+00 -1.300187705285582584e+00 1.631722496615976326e+01
-6.814526540620144957e+00 -9.853510238575298175e-01 1.525991941372944893e+01
-7.791544487777811945e+00 -2.915056038140617645e+00 1.699127716327961224e+01
-9.903273806021939407e+00 -9.248419525534763430e-01 1.613279265345792624e+01
-7.041644070237136788e+00 6.742300466908885959e-01 1.302192438382831341e+01
-9.802891067709076367e+00 -8.859640694848069931e-01 1.572722342119438110e+01
-8.806365136762984491e+00 1.601409111950346631e+00 1.701911132051302644e+01
-9.473286268816274003e+00 -6.366181872337695058e-01 1.509521643262291235e+01
-4.263249332084813048e+00 -5.890927218437145285e-01 1.404332682211428818e+01
-2.586795430668080265e+00 -2.510294206947521367e+00 1.866322959067706222e+01
-5.909650192127830159e+00 2.401115694365544506e+00 1.464784798849356662e+01
-9.227055982018917746e+00 -4.334391003497093386e-01 1.479169152356562478e+01
-1.914413116952611738e+00 -1.662016780870832378e+00 1.805484893514973521e+01
-5.720239211134551915e+00 2.900016217445655187e+00 1.570564137716463193e+01
-8.678506722232295800e+00 -5.936639649000026164e-01 1.412749967032748089e+01
-8.148504304854707669e+00 -4.266657567944063700e+00 1.788906726029935612e+01
-2.376355853599814605e+00 5.779542475133458979e-01 1.322301116178256564e+01
-2.480317853250526561e+00 -2.721325740660205827e+00 1.866721023032565796e+01
-3.311658434698895093e+00 1.982872111727505882e+00 1.466178592153391236e+01
-8.043135241210281450e+00 -7.943717375884888909e-01 1.391988164008752449e+01
-8.950737568598167826e+00 2.592384554302556987e-01 1.470715736984026023e+01
-7.684525930946494832e+00 -1.030128623793358678e+00 1.447220151000357902e+01
-3.992242712114673076e+00 -2.832552387203836286e+00 1.660651117301346602e+01
-6.783214634061400794e+00 -3.390523328588191276e+00 1.892271103477204974e+01
-6.198980378982924755e+00 -2.959612384983107525e+00 1.891835862091332388e+01
-6.507372676068876594e+00 3.443248990767169282e+00 1.674053027294833385e+01
-6.580924511224380602e+00 5.820174601557389638e-01 1.247113485918067965e+01
-7.608334017120436776e+00 -1.066660386010384709e+00 1.465189655144880021e+01
-5.862902877417973890e+00 3.450079919261929806e+00 1.675628381410247414e+01
-7.414490058233542236e+00 -1.078013016402336710e+00 1.504570370164723414e+01
-8.795989645247189515e+00 -3.058163724252678684e+00 1.682713686443379686e+01
-5.251990440552336992e+00 -1.665412220562255463e+00 1.603824748945645950e+01
-2.640379074238097257e+00 -1.562695137671948231e+00 1.456627813268860194e+01
-8.786252252642157146e+00 -9.404504162699653946e-01 1.435487785871193722e+01
-8.160607664811600159e+00 -2.146295567360903878e+00 1.622214980111142779e+01
-7.222381684337515928e+00 -1.000368357066711233e+00 1.509853222361572733e+01
-4.283663858087746412e+00 2.788565253117569753e-02 1.276803053951435629e+01
-4.504967693051993294e+00 -1.691143872450407759e+00 1.594085784702776465e+01
-6.659236234516286324e+00 -9.909085687283094579e-01 1.529539547130621457e+01
-3.764366776191002462e+00 -3.602771799121611274e+00 1.758430330852407764e+01
-5.576129785962029572e+00 -3.214792075711700114e+00 1.893421736195497118e+01
-8.001527573038469399e+00 -3.026934918029507315e+00 1.885231698765898045e+01
-6.467654487313012623e+00 -9.621528677772777094e-01 1.525475016441299658e+01
-8.664683680276567657e+00 2.098022077837887078e+00 1.670419599545375888e+01
-3.085457416779560536e+00 -9.371178758365590333e-01 1.404972135356202756e+01
-5.507615197148049369e+00 1.990162310654987721e+00 1.388805173050359798e+01
-6.036739763328686337e+00 -8.716085177254899730e-01 1.505336271818483596e+01
-6.038110425839926521e+00 -8.011759834293858962e-01 1.487596171849686755e+01
-5.451326026729543806e+00 -1.157882754984024043e+00 1.549735120257549426e+01
-4.613048267597632091e+00 -1.187069065289362957e+00 1.544174709024671444e+01
-5.054767474470844846e+00 -1.051318476010117298e+00 1.530145429639099319e+01
-2.991608264346143464e+00 -2.417570309437303333e+00 1.869902546398151344e+01
-4.282940235138259943e+00 -1.227035618706290521e+00 1.524415431565569889e+01
-5.480719186083735650e+00 1.986264835834461451e-02 1.258059640592255590e+01
-3.604559359124371642e+00 -2.809747226901763817e+00 1.639691500763997567e+01
-5.971122635378626420e+00 -2.800075159515110101e+00 1.687767124853371570e+01
-4.045081855586513342e+00 -1.376129515460083663e+00 1.524643867556165588e+01
-3.060123574072200814e+00 -1.748192992754335595e+00 1.482533414252564086e+01
-2.645606431696676530e+00 3.134418838820988151e-01 1.302877053028175425e+01
-7.995576828855396556e+00 -1.958899391054534256e+00 1.873834272195497874e+01
-2.640339293466669623e+00 -1.664650503881695442e+00 1.465143746203464303e+01
-1.836954888308269140e+00 -7.323309765642680436e-01 1.484094207309068736e+01
-3.079594751123576390e+00 2.289408648850694838e+00 1.539680134491813845e+01
-1.772005021418397330e+00 -7.588372097590576626e-01 1.505785152399239735e+01
-5.224732118958654858e+00 -1.747290516168540364e+00 1.871672477455506112e+01
-4.881879153316728726e+00 1.094100109248644426e+00 1.222226143943521492e+01
-1.995361761887908481e+00 6.780692160723990058e-01 1.408677688935264172e+01
-9.939622394952319695e+00 -9.759033882405652172e-01 1.671806267592467776e+01
-9.563778271281570653e+00 -1.241019612879894485e+00 1.806735162531718686e+01
-9.174924180899683535e+00 -3.197997026305179347e+00 1.861409368139864995e+01
-8.891848995418349944e+00 -2.854474014018185457e+00 1.872044804215715885e+01
-1.671732865433984250e+00 -5.611848011955844484e-01 1.546136378867156225e+01
-4.966092923763571143e+00 -1.924648932300969673e-01 1.343056862638673721e+01
-2.455513993128272343e+00 -6.941752396556259974e-01 1.827704150433388008e+01
-1.640270065477865469e+00 4.501219773357773013e-01 1.570130197667738514e+01
-1.660660427181548382e+00 6.270583921560174412e-01 1.611976432016690097e+01
-1.713704694224552627e+00 5.734920644806793533e-01 1.652793372183742804e+01
-2.639597535264659012e+00 7.354998764791456090e-01 1.801296873906282059e+01
-5.032458404300880872e+00 -2.195305169753162478e+00 1.646795108733962110e+01
-7.472241033513310704e+00 -1.259799359345732395e+00 1.546233314228170030e+01
-2.698055095715779839e+00 4.879094190999551106e-01 1.810293091255670817e+01
-3.063688656380921582e+00 2.610641867822113271e-01 1.823978217907198740e+01
-1.846169231624885443e+00 -3.255663429945372389e-01 1.468192579143336474e+01
-3.892008175130800662e+00 2.287111207114181255e+00 1.500626975902076765e+01
-3.216123577026144709e+00 9.441718765118434220e-02 1.828761642099384943e+01
-2.654502287500402957e+00 -2.814667984817886381e+00 1.598471214355048886e+01
-9.767403300787332654e+00 -5.540274286106057211e-01 1.710676404997880695e+01
-4.395632248534069753e+00 -2.578478306211489546e+00 1.874996354401030629e+01
-4.372491384444738394e+00 -9.357839926058217905e-01 1.850257112777428858e+01
-5.643212733780099022e+00 -1.340965211671117707e+00 1.868794062299284775e+01
-1.640641893051796085e+00 4.459604359326619916e-01 1.589548844958655138e+01
-9.461692976111290676e+00 3.225723077821458507e-01 1.578067272962819345e+01
-9.919025845684117826e+00 -9.184363801722854603e-01 1.634366675999862650e+01
-2.651085901161172043e+00 1.011015109738198081e-01 1.816649049955672979e+01
-1.641108014466674092e+00 -6.223473667052581426e-01 1.603859810216487602e+01
-8.427726322228533462e+00 -1.602531415107272483e+00 1.863801625229797310e+01
-5.521695661737462402e+00 3.339033874051300810e+00 1.739374713956353702e+01
-9.060921404359351783e+00 -1.018167566545969294e+00 1.838569333490551116e+01
-4.966688585410206969e+00 -3.088271208790532185e+00 1.698880760871718110e+01
-5.926188819784965034e+00 2.725366385795420676e+00 1.531465869347516673e+01
-5.113105724693016718e+00 -1.349865940253405672e+00 1.571092850117558726e+01
-9.197658235174124286e+00 -8.613173103712461476e-01 1.827226750272572531e+01
-4.573908301244565600e+00 -1.901072595695266987e+00 1.616259191574601317e+01
-3.631870232706125190e+00 -9.191198538715643629e-01 1.848609332752834433e+01
-4.586908245095316694e+00 -3.175848363438989352e+00 1.884064616786280766e+01
-9.088619237748758906e+00 -5.218444412513718600e-01 1.820410789486260938e+01
-9.557978556905240453e+00 -8.055488640906107722e-01 1.788454947345638857e+01
-5.495821180799583594e+00 2.277543506921932970e+00 1.782096238970301272e+01
-9.002272461296541906e+00 -2.080681321274473472e-01 1.811642860336376515e+01
-9.136591669044364039e+00 -2.351829140045564870e-01 1.805518629757808924e+01
-9.251758677534908770e+00 -6.023757998314691608e-01 1.813368668601938083e+01
-7.225617729667333400e+00 -1.802838340568188258e+00 1.872391537873097178e+01
-1.871231855252689869e+00 -5.346342547237525888e-01 1.467950758235878794e+01
-7.307152373084919716e+00 1.503400669414873381e+00 1.790366384307090897e+01
-9.406501673091700155e+00 -9.859670514398768404e-01 1.813863169138835474e+01
-8.717042541411533563e+00 -2.455195379397763666e+00 1.874222485930565085e+01
-9.804643392669909474e+00 -1.191559841885891480e+00 1.768674067697516250e+01
-1.007823012976935573e+01 -1.707266569892296637e+00 1.647428145030333013e+01
-3.059050939344704290e+00 1.574161066079880600e+00 1.396721393309081805e+01
-9.958773704446208797e+00 -1.292140555698878757e+00 1.610694564919186433e+01
-1.002481075594656446e+01 -1.528519455975200447e+00 1.630256420823083374e+01
-4.534363726189431176e+00 -5.977313700199675672e-01 1.422109618917239970e+01
-4.057105065388172171e+00 -3.957986903866854700e-01 1.355970328144788795e+01
-9.960473180079802091e+00 -1.470875658684617004e+00 1.606078695656014332e+01
-9.828360556413901605e+00 -1.273570869786913917e+00 1.571154370907655817e+01
-9.577067461489910727e+00 -2.427985457007457271e+00 1.589931426427372685e+01
-5.859568323039177073e+00 2.274188890630496340e-01 1.835585112827877197e+01
-9.303534275902890727e+00 -8.207551111264934640e-01 1.488203066241007377e+01
-8.618265556890303714e+00 -7.558771747347894365e-01 1.410675267128036836e+01
-3.868080518200936346e+00 6.131778216444421226e-01 1.198535772801071175e+01
-8.430688863967535696e+00 -1.195779133004850614e+00 1.430580804967100050e+01
-6.632524676229540006e+00 -3.557483861802874792e-01 1.844967117544110380e+01
-8.450022661057179363e+00 -1.868724490413065098e+00 1.503788444125339652e+01
-8.451243080890158410e+00 -1.346830592530886328e+00 1.446627233884267127e+01
-5.432639753816527417e+00 -1.852847181821887457e+00 1.621605390338184094e+01
-7.108934176149314332e+00 -4.781532929442469104e-01 1.370849475805878370e+01
-5.018643286726674368e+00 -1.174628590171286735e+00 1.548209530644918175e+01
-8.256034900269231258e+00 -1.270084924330062037e+00 1.446152837297449878e+01
-9.554732083467357029e+00 -3.891365831359556715e-01 1.526998581529269927e+01
-8.075672289287435746e+00 -1.190767435931670892e+00 1.445020363086401005e+01
-8.066396718367460750e+00 -3.449752161383847771e+00 1.722071257397579558e+01
-7.657032461002698298e+00 -1.238266058061903596e+00 1.504896795604954463e+01
-7.631550234376287989e+00 -1.274496530014688656e+00 1.529100370170275625e+01
-4.588105318429061441e+00 2.884221920299408382e+00 1.593425596996949878e+01
-4.211258934271438825e+00 -1.781216295453951215e-01 1.319429871998423920e+01
-6.411465405016324226e+00 -1.132272657772805058e+00 1.555936869237836362e+01
-7.577638257989739223e+00 -4.307036379037520568e+00 1.835502460901934541e+01
-6.024464830211856636e+00 -1.094833789951397129e+00 1.546895347082428174e+01
-5.677402727273773486e+00 9.274563986201422860e-02 1.230766329739347498e+01
-9.369957391750684650e+00 -1.818195328685031420e+00 1.843545843915610760e+01
-5.638484057695041685e+00 -1.261843567368913011e+00 1.565840599183931658e+01
-3.854211679678382296e+00 -2.951468591962601806e+00 1.877144459464161486e+01
-9.168031837562857334e+00 -2.602083707277786484e+00 1.607377887497185043e+01
-8.180463018305218270e+00 -3.249642020763420902e+00 1.884442586385377894e+01
-4.805937028875510997e+00 -1.452798853728382689e+00 1.582076871345714153e+01
-4.244796524809046012e+00 -1.571765576997957048e+00 1.565121216491949951e+01
-8.807902325763027562e+00 -4.005322651780604204e+00 1.857833069305424800e+01
-3.621341744108772520e+00 -1.690407468984740813e+00 1.522646780257105803e+01
-7.771688403524056099e+00 1.484250854709107559e+00 1.453012253207094062e+01
-3.652589536412052418e+00 -1.552541603115564772e+00 1.505796492497427863e+01
-4.215264060714717154e+00 -2.371741977510457566e+00 1.871946281817847790e+01
-4.381442368512420416e+00 -2.393825800246426549e+00 1.871936584676827664e+01
-3.330530189586210277e+00 -1.831164011717092421e+00 1.497350413998096741e+01
-7.214828594915631221e+00 -8.508084963444939586e-01 1.461867832959614333e+01
-5.561440095267768058e+00 -3.653200827601592593e+00 1.757384096310946120e+01
-7.656530537836593986e+00 1.751356797227301421e+00 1.469498354299712872e+01
-3.027556014505034199e+00 -1.946560889132442629e+00 1.499766722943306974e+01
-5.170071314677695540e+00 -3.865352293727664090e+00 1.848015028141544747e+01
-6.712362059662520863e+00 1.485634653925037130e+00 1.358399772371048186e+01
-2.097479660630029663e+00 -1.740255971691568870e+00 1.483765956094699590e+01
-1.782455427884937826e+00 -1.356269841488899619e+00 1.522238874446792067e+01
-9.902153588721525068e+00 -9.518221821403001215e-01 1.711327979056956394e+01
-7.919338218296047671e+00 -2.811259143305766539e+00 1.691807585975846706e+01
-1.833654692382714613e+00 1.622446174698787491e+00 1.597297724460279511e+01
-1.695955188204957276e+00 -9.492396716201829676e-01 1.542224878761902573e+01
-1.984938866892602016e+00 -1.284051205936891371e+00 1.807232284214842366e+01
-1.656916142271519510e+00 -7.696865747416390402e-01 1.565816990933332420e+01
-6.816815282400197518e+00 -1.905993053927273362e+00 1.639666240682191756e+01
-1.657783649002253945e+00 3.811590048096535899e-01 1.629711428426509912e+01
-4.958123272596107078e+00 -3.869175430220889389e+00 1.851894624368696896e+01
-1.806815344360427567e+00 -4.592533476093989542e-01 1.743984836913982406e+01
-3.392639621993485566e+00 6.197739719306417649e-01 1.221398740909275915e+01
-1.920952673030412727e+00 -2.574252006148989302e-01 1.763502293696625145e+01
-9.171090506686436328e+00 6.114855786728030651e-01 1.736806990780358717e+01
-2.023107905124313710e+00 1.416084056815639647e-01 1.765547498757089784e+01
-2.379765493379824015e+00 3.357117726608462860e-01 1.795714736780692533e+01
-2.487139866753495188e+00 9.735006220811559530e-02 1.809196748808532362e+01
-6.696942183772812918e+00 2.804143207801446103e-02 1.270797800874245809e+01
-3.190209717307601611e+00 -3.691802080982752976e+00 1.775519795023391367e+01
-9.010868565745710157e+00 -4.108500090907029723e+00 1.780562117719708226e+01
-4.027250064408685937e+00 -9.473878537101150243e-01 1.850483442388576805e+01
-3.066678896262675647e+00 3.004774338307405479e+00 1.731335455232459708e+01
-4.164820599791746680e+00 -1.518046856523401544e+00 1.859805081911385116e+01
-1.865717898895140614e+00 5.796895243353793470e-01 1.711246227463803393e+01
-1.641856258097419641e+00 -1.406772888262698196e+00 1.642546125513764821e+01
-9.046826899901265762e+00 -6.480088622983948277e-01 1.826154870391770402e+01
-5.802194328931457257e+00 -1.438753402041239582e+00 1.871177169805559259e+01
-6.407071211985710057e+00 -1.956403562201045609e+00 1.876480663350096023e+01
-8.819403960119046815e+00 -3.833502479202508084e+00 1.863535291573144548e+01
-1.922629521206650205e+00 5.205238511609030505e-01 1.431130236446360726e+01
-8.215652949650454673e+00 -2.059654045101624753e+00 1.875904249001650470e+01
-8.600882178360127028e+00 -1.861665210197223086e+00 1.867942093690742666e+01
-4.467844947301138347e+00 -1.157650783360293367e-01 1.311823933877374770e+01
-7.747509562538043681e+00 -1.252544793828963332e+00 1.484498116521054101e+01
-8.793944385070641800e+00 -1.663128831338763991e+00 1.859881610472344704e+01
-4.070377487497148117e+00 -2.348149739527900515e-01 1.327153627532156577e+01
-9.238203539317542123e+00 -1.210257991815523404e+00 1.835170977904957823e+01
-3.200274351884092816e+00 -2.152995568033622131e+00 1.524082630823279061e+01
-6.506616570069770233e+00 5.332395940689055314e-01 1.234927635168160975e+01
-8.663988594286426093e+00 7.828687216079295297e-01 1.480895387780565642e+01
-7.593712546300991129e+00 2.367978034726619940e-01 1.823128481128821932e+01
-9.268347671046818448e+00 -7.674939108218961081e-01 1.818917606647558216e+01
-4.382069731257632661e+00 -5.606873562290359825e-01 1.843811868576723612e+01
-2.457365386187746914e+00 -2.874621563340947983e+00 1.606886858317601252e+01
-5.487679711165862173e+00 2.753455517090549698e+00 1.546359848811297866e+01
-9.404610264399220654e+00 -1.407627794384969988e+00 1.829673244270191645e+01
-5.498484136460989546e+00 1.748992371025045678e+00 1.338400690424435169e+01
-6.752174519933397789e+00 3.934780041235271808e-01 1.248352078974814106e+01
-1.013698894501788317e+01 -1.819843230853556815e+00 1.673277754429518183e+01
-3.502593505209662172e+00 1.716791526299171533e+00 1.400643397975422033e+01
-1.010863613977933184e+01 -1.734803368120731992e+00 1.665367473660888464e+01
-1.008130213818226650e+01 -1.945925758551583229e+00 1.646595951878223474e+01
-1.003465307595712019e+01 -1.727695719932944574e+00 1.628283111251850102e+01
-9.700067104287096953e+00 -1.510276220024945104e+00 1.548513739252826582e+01
-1.704669808509907680e+00 5.429120187563940547e-02 1.511301425795907960e+01
-8.821492813130920041e+00 -7.637259220534355908e-01 1.433746735710723641e+01
-8.994664063868693660e+00 -6.496382542108660729e-01 1.452066302991308078e+01
-6.985849299156612346e+00 -2.691494942883733366e+00 1.695358229823150964e+01
-2.601946540696038923e+00 -1.898239896970771667e+00 1.856393844716902208e+01
-8.908164787318654021e+00 -1.013760068642171497e+00 1.447283882821586332e+01
-8.018942462815381589e+00 -3.838859082563899072e+00 1.885312472461389888e+01
-8.848769031771180238e+00 -1.442986866435078674e+00 1.460450562092726301e+01
-6.806344371530795634e+00 -2.703555010893080368e+00 1.696055121475320249e+01
-1.814549852969863597e+00 -1.330440230248103095e+00 1.780747452228558103e+01
-8.655605252287536189e+00 -1.627054495554657088e+00 1.469801637701700514e+01
-6.906325549370520456e+00 -4.051217849163852414e+00 1.793575284486967547e+01
-8.043122306358252871e+00 -1.354960515310004165e+00 1.468773664024367775e+01
-7.240807677501479134e+00 -1.194239937781000460e+00 1.860994088396505219e+01
-7.081000080041697231e+00 -1.282758908593606417e+00 1.568881798160911245e+01
-4.636123251947767976e+00 -2.424003839440066699e+00 1.656141398350104055e+01
-9.026989567032007500e+00 -7.989337482434724080e-01 1.457352995647594440e+01
-7.025078041599189582e+00 -1.399828063837825098e+00 1.585314606465177434e+01
-4.832167677532782868e+00 -1.654589259872390361e+00 1.600556804335706573e+01
-6.829744031450502462e+00 -1.799819909130016882e+00 1.630238650336297468e+01
-6.028632323798750470e+00 -2.056483762675858973e+00 1.643804090189706812e+01
-4.625095662799464158e+00 -1.586159726980745255e+00 1.590961414298350007e+01
-4.638962402914359018e+00 -1.462627503731866785e+00 1.578924637788241370e+01
-4.237598347999537829e+00 -1.969381740994558427e+00 1.604854695572537793e+01
-3.969508143298448477e+00 -1.758592032624484602e+00 1.567537605468061912e+01
-1.911207413612224570e+00 -1.746638116104358041e+00 1.507617537436587440e+01
-1.793184584414291738e+00 -1.537733938663251365e+00 1.523865853456584318e+01
-6.590590376346814772e+00 -3.003840163092800886e+00 1.890634037289497371e+01
-1.760677256953503633e+00 -1.744961967307990136e+00 1.537711566925077733e+01
-4.003899645126667295e+00 -3.751880883985284854e+00 1.791754065077920188e+01
-1.689435318347644044e+00 -1.559845372078422443e+00 1.560609646415780816e+01
-5.963992070782089705e+00 -3.492618748183352828e+00 1.719981086111550184e+01
-2.825967229948666226e+00 -2.556491470205014771e+00 1.870552550511496293e+01
-1.000181942569171767e+01 -2.110962585044878548e+00 1.629113404235655338e+01
-1.697983231528568560e+00 -4.464112763756906688e-01 1.687247992696846666e+01
-4.311759788243253233e+00 2.393929784610535627e+00 1.504773559767423308e+01
-8.838572014343000660e+00 1.673274830403049362e+00 1.684184336714798746e+01
-1.754965903707434771e+00 -8.238487595269190500e-01 1.745564100044204281e+01
-8.186935063244433763e+00 -2.428597576482399045e+00 1.880141161107799519e+01
-1.829185215421917921e+00 -8.114997265887819999e-01 1.766156988680327089e+01
-3.055446434856112781e+00 9.983839158177369999e-01 1.285087246676377504e+01
-2.281752995611353807e+00 -8.384609097386563903e-02 1.801408421731205323e+01
-1.927392816989205171e+00 -1.364674705854566739e+00 1.488496620460045960e+01
-2.461136845419444441e+00 -5.273864707542306185e-01 1.823619574642517449e+01
-1.901289078919584874e+00 -7.710983165870575196e-01 1.780100922674605357e+01
-2.807051140117024168e+00 -9.338816764446842278e-01 1.842659336839594175e+01
-3.784630971477511707e+00 -1.575847650792320032e+00 1.861313733069803789e+01
-4.274467488121299397e+00 3.497180895077489637e-02 1.832297657357084120e+01
-7.239759833259642008e+00 -4.169780212266759989e+00 1.811285649948487020e+01
-3.077532671549331855e+00 3.144840292836466045e-01 1.265950690489759012e+01
-4.211039648482027609e+00 -2.503021278776196734e+00 1.873653986454284848e+01
-4.779803129458088939e+00 -2.382023258791800657e+00 1.876168017823464140e+01
-8.944131134042176967e+00 9.045361611061262241e-01 1.744863146678974175e+01
-6.403099938117054357e+00 -3.874083673728584643e+00 1.777591497367811257e+01
-5.379401010989321108e+00 -2.549746597073163645e+00 1.886176471683046429e+01
-7.697517418345833029e+00 1.615047170108165009e+00 1.459234541240901706e+01
-5.073033414521073148e+00 -2.546531399738662049e+00 1.670230411711465734e+01
-9.738934707064636598e+00 -1.668562530830934421e+00 1.799340733825520999e+01
-5.995203702551254565e+00 -2.176058635897554883e+00 1.881618297073957535e+01
-5.949200797516533967e+00 -2.601559003472793563e+00 1.888138720316914032e+01
-5.976121882816936015e+00 -2.842288410575394053e+00 1.891111426868013723e+01
-7.640178187104040397e+00 8.224554081603474565e-02 1.337545842308865218e+01
-6.391393974077349327e+00 -3.006129708702468761e+00 1.891498306901851123e+01
-7.193601290972138962e+00 -2.841292439339552445e+00 1.886785177845796113e+01
-7.223202811528552481e+00 -1.831845263131217649e+00 1.626935310097464082e+01
-5.608840195977967014e+00 -3.706592686383063384e-01 1.848020231590302132e+01
-8.605388157516255632e+00 -3.221652748541292688e+00 1.878290511816108932e+01
-8.791014277654177533e+00 -3.639044359054598665e+00 1.728110361601081024e+01
-8.841485294710704324e+00 1.912368106231618903e+00 1.624404687838881500e+01
-7.784876411098845317e+00 -3.011184753227629685e+00 1.886243119639491539e+01
-8.168344733385271894e+00 -2.828813727500992581e+00 1.883261722366211188e+01
-1.694050810097767368e+00 3.860338983287089354e-01 1.648753646305969767e+01
-8.998720439658370651e+00 7.445720485120382870e-01 1.751765551915502783e+01
-8.218466328056724279e+00 -2.639299358565827536e+00 1.881948584789981282e+01
-9.185837472765033596e+00 -8.282811441219959381e-01 1.474942513361929031e+01
-7.441595070732327954e+00 2.829904745865240434e-01 1.318417396798431440e+01
-8.395938917600133777e+00 -2.420003970871514642e+00 1.879115484708043482e+01
-8.834270503874449787e+00 -4.116445558982433361e-01 1.435305583695576104e+01
-1.680408118914774818e+00 1.876272577506554740e-03 1.645847307479674981e+01
-9.129647559613040642e+00 -2.053697435372897839e+00 1.857335109340364454e+01
-9.779476302269607402e+00 -2.017011044330094371e+00 1.804530763020895279e+01
-5.494201685251536738e+00 3.101341600130437470e+00 1.749737965647356219e+01
-8.398583154037684295e+00 -1.000182946303857623e+00 1.848511615861517043e+01
-9.996736319794141679e+00 -1.979375493079497783e+00 1.764958370097149043e+01
-1.004323614971433898e+01 -1.800203711499922754e+00 1.747967079874010921e+01
-3.177843616742009658e+00 -3.116120867567536479e+00 1.875635757450600494e+01
-7.363657545713573782e+00 2.639249260051745871e+00 1.539262027193712612e+01
-1.017562805094489775e+01 -1.982994125144889708e+00 1.686603554435700403e+01
-1.659209647740438553e+00 -1.736995610672349422e-01 1.624509754341205081e+01
-5.377919921254657787e+00 -3.789078153388659942e+00 1.813975920649622964e+01
-1.013610434489508805e+01 -2.133391004122734191e+00 1.666768377236650167e+01
-3.292457074735307021e+00 2.795734947395956738e+00 1.624451497941652889e+01
-9.761737823867306929e+00 -1.888566569125732730e+00 1.571137963824764228e+01
-3.474245477634312795e+00 -9.900748774787606621e-01 1.421243874614848579e+01
-4.611359038632030227e+00 -8.995157754437697051e-01 1.491275815571828645e+01
-9.817422352508604178e+00 -1.515179001195908981e+00 1.569217102001660891e+01
-5.465030036073126318e+00 -2.690816818120789211e-01 1.353159309762253315e+01
-1.877758213874112903e+00 1.463567207308168472e-01 1.734761141061902379e+01
-2.063072638594491526e+00 1.993556626412940069e+00 1.561932161002504671e+01
-8.983422069583191671e+00 -1.178345952940180297e+00 1.456130005767793278e+01
-8.640036166304415843e+00 -1.801995226025465247e+00 1.487107623275304036e+01
-8.323731974182848603e+00 2.274332891408991086e-01 1.410274715633747888e+01
-4.180057648522553571e+00 -2.996716911883965828e+00 1.879271304006519472e+01
-5.504893798767534818e+00 1.089930095827694734e+00 1.224065047955600960e+01
-9.497636442667708678e+00 2.976224207558041401e-01 1.619005533599013802e+01
-7.984716941500471066e+00 -1.625202638382784226e+00 1.527494105555394555e+01
-6.513337713776440552e+00 1.493452096118082606e+00 1.341995657056673963e+01
-6.204776231363510419e+00 -1.414585346213012240e+00 1.592637218201365812e+01
-7.661932829200704731e+00 -1.145925834925764608e+00 1.474625036206929707e+01
-9.511741994173632975e+00 -3.588445692225199934e+00 1.832429106713528455e+01
-5.839701548143004572e+00 -1.622468492719734368e+00 1.605915978750533668e+01
-7.622944260587536824e+00 -2.648198484062238123e+00 1.686015927996002972e+01
-5.609444083409830029e+00 -1.659408543896058852e+00 1.605579597247947277e+01
-8.969987229128840056e+00 -3.947300735532910387e+00 1.758604468138964450e+01
-3.166148164622582861e+00 1.243347304398969566e+00 1.322755978363119311e+01
-9.620310669289729333e+00 -3.367669383738571831e+00 1.824947280602669508e+01
-4.663300750807192863e+00 -2.000381501104359749e+00 1.628104050269912761e+01
-6.084401211898083695e+00 2.680582120075687858e+00 1.518740848887947692e+01
-7.347885619667745338e+00 1.871705377666231351e+00 1.454981927510213069e+01
-7.501049380035499148e+00 2.391625122049165775e+00 1.523991479719652631e+01
-4.419391315198056169e+00 -2.251298438209734520e+00 1.637351359263420392e+01
-4.264514113328394807e+00 -2.314839596519662202e+00 1.635113531704874390e+01
-3.989711359360256893e+00 -1.307651062656219665e+00 1.507345940464787049e+01
-3.825323104273425479e+00 -1.991503810411348052e+00 1.582384682111820240e+01
-9.882051337220445930e+00 -2.361517678289430489e+00 1.618055753048027157e+01
-2.639189064645576455e+00 -2.389572950028219456e+00 1.534820676894580060e+01
-5.676521506408620077e+00 5.145350266163595254e-01 1.161461308588491903e+01
-1.720384178376789919e+00 -3.054607778049018840e+00 1.757984605847733661e+01
-6.214423590441770173e+00 -1.605535170686954949e+00 1.609744726321135744e+01
-7.704678749694545914e+00 6.887795257019466710e-01 1.372479777778903554e+01
-1.867636902674742361e+00 -2.524116584474191516e+00 1.810367401282609023e+01
-2.251771844386052379e+00 -2.468319174799743276e+00 1.541806746362804859e+01
-7.632905246142771993e+00 -1.823475495483319886e+00 1.871940542972065202e+01
-2.185228944643109905e+00 -2.395682781212855605e+00 1.534365796848881303e+01
-3.778241889928843467e+00 -3.665130571145287952e+00 1.771868150106276119e+01
-8.105682810045998110e+00 -2.051862267368094628e+00 1.613735159507211137e+01
-1.673333186160948172e+00 -8.293671323925384531e-01 1.685690595572923911e+01
-8.932306018260373293e+00 1.339052200083010735e+00 1.561294168448357311e+01
-1.696521820315063600e+00 -6.449479410439020732e-01 1.702972025577726356e+01
-6.043471796468983470e+00 -2.676520823498743873e+00 1.682773136750049758e+01
-1.718063239298692091e+00 -1.089111268750225126e+00 1.741565733289362328e+01
-4.370827104636267002e+00 -1.730064849106144997e+00 1.589501432411452697e+01
-6.953700404874896712e+00 3.793294195668511781e-01 1.267786887686751385e+01
-5.267996413367121988e+00 -1.736024859517399932e-01 1.843762170684421164e+01
-7.985039203989513723e+00 5.254828680487571013e-01 1.808674696414342264e+01
-1.797762725266243811e+00 -1.034325924304444921e+00 1.766608523600666558e+01
-1.994616600530677353e+00 -1.074752285217974723e+00 1.801966091638235667e+01
-7.591185593358124706e+00 9.472730451964688214e-01 1.384160733600598547e+01
-5.832277272511532829e+00 -2.172160536035378620e+00 1.649056942661304248e+01
-2.240522625171532223e+00 -3.194260346606199175e-01 1.804896587315232637e+01
-3.399909693791661969e+00 4.971434516051561614e-01 1.821860893507776069e+01
-7.548639337795450821e+00 -3.137917436655363268e+00 1.888373132369458318e+01
-2.215050126143378595e+00 -4.725089741521735220e-01 1.807336517852831292e+01
-2.798880483330610236e+00 -7.123749552394991191e-01 1.838847203794544072e+01
-9.631674880453868326e+00 -3.429373083366974662e+00 1.715136035157686223e+01
-2.813936025770984894e+00 -2.152216461796713443e+00 1.864023826200492095e+01
-1.676992176639180654e+00 -1.837160214519482082e+00 1.735535578612235952e+01
-3.192864041293781430e+00 -2.140684322739984324e+00 1.866774576866505697e+01
-3.808637712249197005e+00 -2.780625535334349863e+00 1.875880991132466136e+01
-8.833573425902727649e+00 -2.425296351069124778e+00 1.871222771337210133e+01
-2.840683986048350818e+00 -1.111964806614380574e-01 1.319794733386117969e+01
-4.649320929892289733e+00 3.239780355233996545e+00 1.658900233948392611e+01
-5.776738544828366351e+00 -3.175889139206869771e+00 1.893777563088399774e+01
-9.280032506562733374e+00 -3.033362715745613336e-02 1.494451581263218998e+01
-5.991118072135395600e+00 -3.181746479133287231e+00 1.894037894127865940e+01
-8.563802085616483595e+00 -4.001230636536440066e+00 1.867698630422943751e+01
-6.187349687758723960e+00 -3.176602990557801931e+00 1.893799881931705897e+01
-7.381864850515527543e+00 -3.211111328726997449e+00 1.889763063573385438e+01
-7.467941716911732364e+00 1.290102896190425952e-02 1.830418942708835317e+01
-9.848703529240751209e+00 -6.742996530118443577e-01 1.614451622479849391e+01
-4.676156252442015493e+00 -3.280805241805078154e-01 1.368404440752760109e+01
-7.554070566991510915e+00 -3.597020415616594136e+00 1.892469882732513042e+01
-7.780333305665227073e+00 -3.611281386012266559e+00 1.889735285293936329e+01
-5.333274134715552783e+00 1.849078975439041983e+00 1.363665353144580905e+01
-4.322078067945549940e+00 3.263285783267771745e+00 1.675198922831415160e+01
-1.972973338983130320e+00 3.726713780212786986e-02 1.423250824597993613e+01
-7.548261759339840005e+00 -4.005027658587896333e-01 1.348238684743161997e+01
-8.381591790547098242e+00 -3.021946473439374614e+00 1.882328923718134916e+01
-9.972260884228077771e+00 -2.394335252915793077e+00 1.781820835352296939e+01
-1.006413427899449076e+01 -2.556379883904611905e+00 1.764202727904719836e+01
-7.294267142415236549e+00 2.051399165669002933e+00 1.770065061298357278e+01
-3.075870181862864872e+00 9.466266330641539550e-01 1.274885913579473140e+01
-9.206277914136546059e+00 -1.459261309031336662e+00 1.486882376393226224e+01
-1.012910824244178087e+01 -2.399136875982637029e+00 1.745914105269814343e+01
-6.480747153616581713e+00 3.033980616033004729e+00 1.740767663711974933e+01
-1.008450724631829232e+01 -2.359634499963013443e+00 1.661842412404806169e+01
-9.394300273262867762e+00 -2.229307997731957425e-01 1.774325381546213265e+01
-9.970011271121343555e+00 -2.308314632942529698e+00 1.630685156287203341e+01
-8.382532354942973996e+00 -1.684584899243259049e+00 1.485506332224242954e+01
