-2.473562275595428961e+00 -5.800808071153557011e-01 1.156821221412893763e+01
-2.669397121543910512e+00 -5.791572973494044652e-01 1.175750654075041624e+01
-2.264457318785267237e+00 -7.345475005304874516e-01 1.157454050224985664e+01
-1.658353132965090682e+00 -7.325295958009135910e-01 1.120458888657205776e+01
-7.060531679727694021e-01 1.235642376251980146e+00 1.521604608364183164e+01
-7.032317519440842712e-01 1.029648444176277433e+00 1.525033871567406507e+01
-3.607829712608284778e-01 -7.925805402466087335e-01 1.526253051155709883e+01
-1.305773588459089085e+00 1.197207952912151097e+00 1.542841648890194151e+01
-2.911223684113324328e+00 2.348627327199633186e+00 1.150377271070317775e+01
-1.698594768449851466e+00 1.194469663252164526e+00 1.552314852131731371e+01
-2.123498848110091153e+00 1.181152370768984827e+00 1.564132348952807305e+01
-1.696429295048511809e+00 9.581834453260731355e-01 1.555737842860616027e+01
-2.290575674508356752e+00 1.396664679953623756e+00 1.566176925411723531e+01
5.435632730567366289e-02 -1.037130920630769282e+00 1.273676327131077457e+01
-3.913420974180835898e+00 3.310222252488972394e+00 1.378798277833822183e+01
-3.908668109043102135e+00 8.985068451510493936e-01 1.619582426614302406e+01
-3.877689234226258996e+00 6.894788743657837005e-01 1.621976250702101296e+01
-4.283846351723513912e+00 7.401009319841992395e-01 1.631336108457327683e+01
-4.351164924742342066e+00 6.806078371442267905e-01 1.633745614751037678e+01
-4.529541281606358716e+00 1.128947475691619573e+00 1.630635567706356781e+01
-4.750272277320569003e+00 7.463887837959528593e-01 1.641584813308512381e+01
-5.919932896426053581e+00 1.718285911982344594e+00 1.607253456710730077e+01
-6.256945673405957642e+00 -6.680586014455930366e-01 1.298325238628320122e+01
-7.668902124798939290e+00 -1.085432293296447082e+00 1.534250010455984281e+01
-2.285540460318108202e+00 -1.896436130765855044e+00 1.267859687646481959e+01
-5.077355612950945840e+00 -9.693168959233214865e-01 1.328281188517095401e+01
-4.701718877024642751e+00 -8.036263912005777721e-01 1.306177486188313352e+01
-5.249660956413192636e+00 1.993299297586621055e+00 1.032684740953738967e+01
-2.718440506706591986e+00 2.572319531822214955e+00 1.233638600152717757e+01
-3.507543652889574037e+00 -6.510012190927660924e-02 1.615904053755819447e+01
-4.293422605484379595e+00 -9.630743177753521289e-01 1.309395458052376782e+01
-3.877149254214416807e+00 -9.408453022596560134e-01 1.292898159782800249e+01
-3.488085204958936814e+00 -6.964224427135424778e-01 1.253938563591275468e+01
-3.675632984705321959e+00 -4.436374830972938943e-01 1.235811302679060830e+01
-2.690880428531110979e+00 2.777967897673811137e+00 1.292509314062357006e+01
-2.490035097246839246e+00 -8.626685353715065618e-01 1.193468709068151767e+01
-3.059426359522477323e+00 3.702928078518739063e+00 1.509423101447656634e+01
-1.308183561544700835e+00 -7.502708429433303516e-01 1.120507765800784128e+01
-1.044743185057256385e+00 -7.934132599243811645e-01 1.129326280809715755e+01
-1.102054553657907832e+00 6.201328607509650759e-01 1.544988650874460845e+01
-7.096518380808896964e+00 -2.426440574796763450e+00 1.459781437741407828e+01
-1.525027103303350673e+00 5.789989619865160142e-01 1.556270361280239811e+01
-4.697580960885685997e+00 8.862649425597201036e-01 1.638188194756156335e+01
-2.053810406354305673e+00 5.532918949651586260e-01 1.569566619785937078e+01
-2.686893909098503563e+00 9.793514825230487109e-01 1.583330785821240383e+01
-2.945726556801394835e+00 7.936952252575126820e-01 1.593103248741514832e+01
-3.132740627565251401e+00 9.389580753545185843e-01 1.597650471311520803e+01
-1.032222616110575864e+00 1.806117511744524951e+00 1.323683542803471980e+01
-7.611436901084350559e+00 -2.726643816373252038e-01 1.512933857303913143e+01
3.040695340031943084e-02 -3.378715070911661122e+00 1.374875723480731793e+01
-2.874843640485787333e+00 6.575123080973548362e-01 1.592345776480096831e+01
-3.304138133504689545e+00 5.420490273414181326e-01 1.606522433793582749e+01
-2.694396421985672863e+00 1.993305312593712575e+00 1.568888332582321610e+01
-4.707468233803322910e+00 1.311467623550827133e-01 1.647082917452551598e+01
-5.700004864367246071e+00 1.079286323857857388e+00 1.635934068950728815e+01
-5.887254921191047430e+00 9.167737677130547436e-01 1.637849468447491219e+01
-5.043570489223760944e+00 1.525477025821334376e+00 1.012605107469423515e+01
-3.865920549517903204e+00 -8.161713709673715789e-01 1.280883126817449735e+01
-6.300730957866532478e+00 -9.519969661772275105e-01 1.333793068285516981e+01
-6.475502837173868542e+00 -1.025627363223259980e+00 1.346192726680081719e+01
-5.261426738246727908e+00 -1.290180851112440408e+00 1.357839465995594352e+01
-5.489012961775970645e+00 -1.389046577830690410e+00 1.367425028312240798e+01
-3.734654011391876693e+00 2.230541834490387565e+00 1.051873896012835630e+01
-4.921442849093600636e+00 -1.200352894279709925e+00 1.346338440826884053e+01
-4.674913501748879874e+00 -1.212919699546842089e+00 1.342212475708063479e+01
-4.081254284197437521e+00 -1.110236333719982760e+00 1.315094055961014519e+01
-4.429379940685045369e+00 -1.262494864184400711e+00 1.339706634359557214e+01
-3.280976239722750432e+00 -6.426226827743538594e-01 1.236439833538154787e+01
-9.303572469095428010e-02 1.356754604045340651e+00 1.403490064060177289e+01
-3.027836759629927155e+00 -8.169935614018287717e-01 1.236645478025536349e+01
-7.024513043334085438e+00 1.180800539380753467e+00 1.345757266117844964e+01
-2.867173748702962044e+00 -9.580867287120139464e-01 1.238553599565552688e+01
-2.690215404520132747e+00 -1.079503540005898543e+00 1.235336478833506035e+01
-3.048421866437273309e+00 -1.028038427089641438e+00 1.259547820656925055e+01
-2.069403248688385766e+00 -1.430452599323767338e+00 1.209363549706451479e+01
-2.188264935107469000e+00 2.108885590188768866e+00 1.190430006086893044e+01
-1.765566405679483086e+00 -1.476057724710959196e+00 1.183745403853466982e+01
-1.194807647292674413e-01 4.445498968580282595e-01 1.496001685282550042e+01
-4.354571176750643424e-02 -2.657536014304117788e+00 1.306435002045975935e+01
-4.083898664613513141e+00 -1.719027027360492177e+00 1.617346999496168891e+01
-2.324690042768201570e-01 2.629391691943990805e-01 1.507396292234354362e+01
-7.977712535662440096e-02 3.255172629101799053e-02 1.497544278304263443e+01
-3.756844428895937948e-01 4.507476897995830178e-01 1.515225580507366132e+01
-5.202656018826571360e-01 6.167077824252424900e-01 1.521799096094870762e+01
-1.723018527327027316e+00 3.649688905733032285e-01 1.562989871395783936e+01
-2.010768873233145015e+00 3.630318065529036797e-01 1.570128388407835374e+01
-2.312471718887241678e+00 3.653976914125656172e-01 1.578076340667013611e+01
-2.506508577276713279e+00 1.493630625987228955e-01 1.585296113390647221e+01
3.515045206004677181e-02 5.205840799630523374e-01 1.320684308795661011e+01
-2.919556902245007635e+00 -1.154470652442607381e-02 1.598352902030926614e+01
-7.019863359240349432e+00 1.237678386058222557e+00 1.287764115368770135e+01
-3.328875994968433005e+00 3.285874618183335927e-01 1.608398976530920876e+01
-4.456068457383920212e+00 -2.650731248690129105e-01 1.644161664151353008e+01
-4.736915886079470894e+00 -9.044470952117256157e-02 1.650463316543131853e+01
-6.932513300779540089e+00 9.795913292871161193e-01 1.566821877406274766e+01
-4.676251404663150701e+00 -1.336642149786784639e+00 1.351489586080975513e+01
-3.350409088180346107e+00 7.941643839263093918e-01 1.039948875168720477e+01
-4.523990009054510431e+00 -1.594344683554541398e+00 1.363796655456865992e+01
-3.876355665586197929e+00 -1.353367898910537104e+00 1.326418657921023581e+01
-4.089865139048219689e+00 -1.533574982060575742e+00 1.345947305668408589e+01
-2.345636021089322565e+00 -1.542863408566164996e+00 1.246453858218316313e+01
-2.614449562782021008e+00 -1.585110994810706941e+00 1.275090259643924995e+01
-2.171009172992077740e+00 -1.707817491809331401e+00 1.242172832953245987e+01
-2.331618830005300680e+00 -1.752929637599282664e+00 1.261636867542301488e+01
-5.706300729428072094e-01 -1.088584123903037604e+00 1.161097752670829308e+01
-1.278088300686510470e+00 4.623805821202244815e-01 1.100268518540601903e+01
-5.645552370142199905e+00 2.082419356298383928e+00 1.150296489426992608e+01
-5.094433900272624660e-01 -9.587880061962640310e-01 1.158786384663074287e+01
-9.549157341345337890e-02 -1.746680221141279077e-01 1.500747889760037523e+01
-1.272160509925615024e+00 -1.710414686752848024e-02 1.554881821663411401e+01
-5.869075771319075763e+00 2.495118420227108391e+00 1.531166992761806611e+01
-2.092821993010792081e+00 -3.024486065387776978e-02 1.574237498018470305e+01
-2.286175585466625026e+00 -1.198280835723819493e-02 1.579634401991456016e+01
-1.855282704535528904e+00 -6.383479393900185483e-01 1.570122966243672025e+01
-2.497060076279388863e+00 -4.490257698355049065e-02 1.585860472126113407e+01
-2.281210408063774508e+00 -2.461971778736909977e-01 1.580283465758941830e+01
-2.700607692404366933e+00 -2.282099436802021986e-01 1.592708926733493158e+01
-3.507025058124331629e+00 -4.430242068739002059e-01 1.618535092290821709e+01
-3.682674893701147756e+00 -8.939552151315480755e-01 1.626799373213421163e+01
-6.963200580729773215e+00 9.045380624575491968e-01 1.243063837427905227e+01
-6.495352902965559672e+00 -1.566346790190493721e+00 1.390752574555492416e+01
-6.284219685725205728e+00 -1.560874779129632905e+00 1.387292192982755878e+01
-2.407056061551434034e+00 3.173307764755545879e+00 1.423107545479586733e+01
-6.067277473467982851e+00 -1.723790296524503329e+00 1.395884620649368557e+01
-4.478233147630564126e+00 -1.958402147132414672e+00 1.384086603217363276e+01
-4.102875409081665481e+00 -1.765059326132044415e+00 1.360152960171184944e+01
-4.047938598925913567e+00 -1.704000298200525343e+00 1.354548919938961760e+01
-3.882318745172057106e+00 -1.576120198850859744e+00 1.341386069248994417e+01
-3.666931543813295225e+00 -1.621217750675708391e+00 1.335942849383576814e+01
-2.426819359981399860e+00 -1.787977931219727701e+00 1.273161289779463701e+01
3.663205106950279677e-01 2.755793692345019918e-01 1.419590049577859858e+01
-2.586072319286728538e-01 -7.550323502385868357e-01 1.518698349414249904e+01
-1.517096652274931179e+00 -4.253117981482991139e-01 1.561681713160075802e+01
2.162853677174701728e-01 1.347127683458856362e-01 1.341053263380793581e+01
-1.784115426336391419e+00 -3.871155562186304744e-01 1.567541581397193440e+01
-4.516682172005400453e+00 3.239461645242317278e+00 1.434032120788137021e+01
-1.635746281657347589e+00 1.301368866023961068e+00 1.136911955385287243e+01
-6.992056269239849797e+00 7.874027077786178719e-01 1.252905146655160351e+01
-2.043278632131031891e+00 -4.228951009050544441e-01 1.573982148373720591e+01
-2.674916162119330032e+00 -4.099645068022029770e-01 1.592646917701446441e+01
-2.704221620859696529e+00 -6.281954933921812811e-01 1.594198422044803820e+01
-4.318940294150277026e+00 2.062666166117556266e+00 9.880246253429650238e+00
-5.490675125479684837e+00 -2.986222058394165657e-01 1.254944884915486725e+01
-2.905011090811765673e+00 -6.046198481677566017e-01 1.600982948635757808e+01
-2.687399443457304749e+00 -8.811732543138285356e-01 1.594781529954650168e+01
-3.290009639445262035e+00 -8.667984759462358246e-01 1.614721980558492831e+01
-3.479261862381328285e+00 -8.646906447563528220e-01 1.620542376568548448e+01
-1.017402789930403895e+00 4.650249707216957962e-02 1.547860900627594916e+01
-6.884677401756230886e+00 -1.653603130780904262e+00 1.402488287714814064e+01
-6.273405878516586043e+00 -1.795502226477039276e+00 1.403126448343807553e+01
-6.072186706769245212e+00 -1.970822175762455775e+00 1.412507304304852696e+01
-6.467150370366452350e+00 -2.167390544453771550e+00 1.431367574090528549e+01
-6.858256534262426207e+00 1.491858794792184417e+00 1.324477740645458468e+01
-5.696359263987658572e+00 2.137191177406047249e+00 1.188734954002641686e+01
-4.646607228787571486e+00 -1.990099565062607656e+00 1.390917306265174958e+01
-4.418395741131567078e+00 -2.121359176039275152e+00 1.391494399534634496e+01
-6.637906600252008182e-01 -1.819586420899514945e+00 1.184452230834802933e+01
-4.215794148119386131e-01 -1.867617503213617081e+00 1.201941208131858829e+01
-1.454669945306663381e+00 2.184355389852743023e+00 1.324432885428919704e+01
-1.290727622330571256e+00 -6.043992383709354543e-01 1.557396526789149860e+01
-1.890558849015510301e+00 -8.114031163877956088e-01 1.571165826124780196e+01
-2.889489451372710072e+00 -2.427296094747110278e+00 1.582150415887928929e+01
3.315012602175679834e-01 -2.939043860182186663e-01 1.396096174136927104e+01
-1.904516098361795695e+00 -1.044603661244036807e+00 1.571602859671429187e+01
-2.090803516946369456e+00 -9.935832630201196780e-01 1.576628650789102082e+01
-2.479623030607709833e+00 -1.240290688448549172e+00 1.588644684356178871e+01
-2.068194639693807346e+00 -1.432194109505135149e+00 1.576663573089669157e+01
-2.684933656254507195e+00 -1.272677799319612557e+00 1.595472738818875413e+01
-2.941207175656489703e+00 -1.233837656260344584e+00 1.604297146309054156e+01
-4.056870453589579206e+00 -1.594551275470550422e+00 1.620908372852916202e+01
-3.877855113131777998e+00 -1.867259626618594570e+00 1.610554100162941538e+01
-4.495545060464741560e+00 -1.277446299920895090e+00 1.635564204186381332e+01
-4.285670215813432549e+00 -1.645331359385794556e+00 1.621979432585594694e+01
-4.675025144366324881e+00 2.324040359605511696e+00 1.095602213893178245e+01
-4.460537080786430408e+00 -1.489999530479895196e+00 1.628452753512302209e+01
-6.919860022783316467e+00 -2.460164852905470045e+00 1.460197711391827724e+01
-2.885210059787384207e+00 2.414890846271829705e+00 1.171180069157994197e+01
-6.498055855502974154e+00 -2.280857374668813442e+00 1.439668391914608137e+01
-6.248789530052149210e+00 -2.186475114865104263e+00 1.429190031800159844e+01
-6.091522835885085918e+00 -2.199918122579862523e+00 1.428355345461740811e+01
-1.448746261425846837e+00 4.476231095258147441e-01 1.077882456384939402e+01
-1.430234858964541389e-01 -1.816604810033829676e+00 1.233151453742395987e+01
3.069965247492504878e-01 -7.463785260391259113e-01 1.435706781756231365e+01
-6.532803172102290556e-01 -9.868802295401361002e-01 1.541333189885302701e+01
-1.302712160006645359e+00 -1.208342125381418164e+00 1.557790126154921140e+01
-1.468568920133480615e+00 -1.173388861084539325e+00 1.561418525089427689e+01
-1.686168729206980021e+00 -1.234735953226469896e+00 1.566233623953205623e+01
-1.314061811246836742e+00 -1.364616491133159748e+00 1.558023593435023813e+01
-1.877674362315650658e+00 -1.614395201738236363e+00 1.571017964557139024e+01
-2.274251786372766482e+00 -1.858793733392118064e+00 1.581953104860633985e+01
-2.913505987573797640e+00 2.941644799358711815e+00 1.556928025817794392e+01
-2.921933374336933120e+00 -1.856600917113914839e+00 1.600540334520771424e+01
-3.665718238070808876e+00 -1.866748859968781815e+00 1.608665659070177512e+01
-2.256327048465255336e-01 4.225070556664092258e-01 1.257767718079774610e+01
-5.105970241195479709e+00 -1.239657192930831542e+00 1.643749110952353121e+01
-5.085800746210900058e+00 -1.454167984713509831e+00 1.636041808936004927e+01
-8.991163705901616954e-01 8.159470270073340137e-01 1.201131803073621640e+01
-4.494233376330383223e+00 -1.218667876645517234e-01 1.643909279022876646e+01
-7.283329205015249386e+00 -2.556678811644524707e+00 1.473122657803888913e+01
-7.252057777629125068e-01 -1.756751852161255290e+00 1.541106055516840101e+01
-9.196978939966031774e-01 -1.621391753525389667e+00 1.547232273183511708e+01
-4.363093024131713626e+00 3.296494916937346531e+00 1.567715658318187266e+01
-1.305148980063913111e+00 -1.651336451422873441e+00 1.557010926297130382e+01
-1.519561535368820326e+00 -1.638853901119898371e+00 1.561931008413023036e+01
6.811946284479425406e-03 -6.049733060827923170e-01 1.253753639667204922e+01
-1.681951745239843810e+00 -2.043692966582232096e+00 1.564344149805480910e+01
-3.673469563403826132e+00 -2.291150329332860558e+00 1.594556034088443752e+01
-5.267348841380542268e+00 -1.495642313143197288e+00 1.636396433986930887e+01
-7.101382703784287820e+00 -9.103875809760036963e-01 1.636216318331081609e+01
-5.409678566101828068e+00 -1.424595177123340495e+00 1.641081309965770529e+01
5.982806676563834358e-02 -2.392409696557441512e-01 1.276829571741740565e+01
-7.202360709280061002e+00 -8.913426718463280940e-01 1.626272698301761821e+01
-5.386026966109430658e-01 -3.000952151132720847e+00 1.228771569926700025e+01
-4.239860227474242516e-01 -3.022790641522945965e+00 1.240600509594019840e+01
-3.769400259307158052e+00 3.283259599332448708e+00 1.567111988214942286e+01
-6.617072658898404125e-01 -2.214937404295905576e+00 1.534372922382937432e+01
-2.673705892817844099e+00 -2.419468555238949214e+00 1.579386728076144308e+01
-5.096958924395477375e+00 3.918525983486582653e-01 1.160638786635428588e+01
-3.073006966658973216e+00 -2.452314703709684629e+00 1.583629800517788411e+01
-6.749622709954955724e+00 1.567893102400433669e+00 1.485899740035028671e+01
-2.666611898542278869e+00 -2.636284793513584468e+00 1.570589955695647078e+01
-3.091960615628773557e+00 -2.616512560777100926e+00 1.577234112299974456e+01
-4.858832087429944657e+00 -2.070863803596026287e+00 1.610267594501624089e+01
-5.076526304059629346e+00 -2.048287519618893437e+00 1.613266782817271050e+01
-6.817334129023671085e-01 -3.371319490644486550e+00 1.400356650252122037e+01
-5.282804289696313660e+00 -1.884635468754497722e+00 1.621453195769733568e+01
-4.432172603757909002e+00 2.833182733164451239e+00 1.253945036755505171e+01
-5.469840948731348185e+00 -1.888684696758658355e+00 1.623605586285667712e+01
-7.413515286053660169e+00 -1.109829964371093158e+00 1.606647547663154185e+01
-3.394736694586905745e+00 3.538637737008567097e+00 1.446802769860049054e+01
-1.564463206863578426e+00 9.938521685764800662e-01 1.106576975629763027e+01
2.027377064146878294e-01 -1.692640360342920758e+00 1.369493987746293229e+01
-7.787123956455447527e+00 -1.845037937198628075e+00 1.498851453071803164e+01
-4.307180507451098705e+00 -2.887021369287569694e+00 1.478235569363062396e+01
-1.326185389710536899e-01 -2.926144678812661937e+00 1.476734070725921200e+01
-6.327612470785831889e+00 2.107285086243471106e+00 1.348970214353544250e+01
-2.844103096550690157e+00 -2.667026836311618521e+00 1.571736406140137277e+01
-3.056648363871041774e+00 -2.701166234635643537e+00 1.572688953934199318e+01
-7.175109390697824274e+00 -1.451000402121075172e+00 1.640014812021679447e+01
-3.873845907213312678e+00 9.262879872895022348e-01 1.051445678920615379e+01
-5.718969656936565116e+00 -2.720344288729692916e+00 1.499492727943836812e+01
-1.866906961060008197e+00 -2.678333371881768787e+00 1.385471275250342060e+01
-1.632683652105632488e+00 -3.052545296465222879e+00 1.318167322966682420e+01
-1.179275200382864597e+00 2.393068663431599408e+00 1.396977652365716338e+01
-2.317230478740385458e+00 2.602509575331039215e+00 1.546284689767518827e+01
-7.729840940909110891e+00 -1.878153825532757892e+00 1.548585449735258024e+01
-7.744518863654085372e+00 -2.097318114343783346e+00 1.547108213888088457e+01
-1.342939299016181698e+00 -3.150452346196510156e+00 1.347674287908464308e+01
-1.056578769519757044e+00 -3.513884415101974135e+00 1.320660068753556615e+01
-4.334694782055842355e-02 -3.007884284034630262e+00 1.325801413857526612e+01
-6.679013678667828025e+00 -2.098732307065613867e+00 1.625431936363904484e+01
5.272182102984124263e-02 -3.278761226110222360e+00 1.383008360924322133e+01
-8.490960575055293003e-01 -3.231108516356671512e+00 1.411900597369191601e+01
-3.527685109444056000e+00 2.779422866683537663e+00 1.233403668850639079e+01
-3.540138132082891076e+00 9.607823727997986119e-01 1.609333932340290474e+01
-7.060675612064416740e+00 1.329362755417650366e+00 1.536584422460731858e+01
-7.733745499016221991e+00 -1.692080451920054518e+00 1.527017083752018678e+01
-7.687393960665485970e+00 -1.057418324092738615e+00 1.516625846564267377e+01
-7.696265402802560551e+00 -1.261565229564052704e+00 1.533635867937625719e+01
-7.597113117238036395e+00 -1.009313211860372483e+00 1.432462057356493901e+01
-7.643107001290744940e+00 -1.021830564520701312e+00 1.449457652418470488e+01
-7.621825965717421880e+00 -4.656226560656310243e-01 1.480674018694797311e+01
-7.542761688777607887e+00 -5.683610130064896682e-01 1.394899588957770575e+01
-7.581674060885740474e+00 -3.599911915352250746e-01 1.451371775405724307e+01
-2.324884097119132687e+00 1.768568336792274209e+00 1.561549781899962497e+01
-7.474887664173093249e+00 1.658736283715681048e-01 1.497488060313487424e+01
-7.360583626324744166e+00 1.882367539993712313e-04 1.358714663537381639e+01
-7.389052043376047152e+00 -1.037087935112263049e-01 1.359268766034177744e+01
2.445502824506734230e-01 5.430656429353513115e-01 1.379425220665529039e+01
-7.417365633029836758e+00 -2.060545229949113377e-01 1.357414605666933838e+01
-7.290440048582090604e+00 5.756260151336409780e-01 1.480485844218867797e+01
-7.380063809652902762e+00 3.410366169394777325e-01 1.475822870791855834e+01
-4.523944439479904212e+00 1.625347276776300864e+00 9.816552754321744345e+00
-7.005805532970864391e+00 1.220552871488825186e+00 1.507360174779446638e+01
-7.178709133549221910e+00 8.081749675027681823e-01 1.481105512143988179e+01
-7.245558009267790034e+00 5.859797194546437771e-01 1.440167569893492683e+01
-7.150014181645981459e+00 8.386168975025914962e-01 1.462444569881708745e+01
-1.722713732676124376e+00 2.907318370493241932e+00 1.435410273224151823e+01
-1.222718385608873026e-02 -1.685221555757653089e+00 1.270312735400441895e+01
-5.948425964350946282e-01 -2.706748276763221828e+00 1.217122904422906871e+01
-7.087777297283812672e+00 8.544500544445299273e-01 1.301124398743558785e+01
-7.115648027395035768e+00 6.744187039161122499e-01 1.302266230196719121e+01
-7.096780199188001070e+00 9.732340522238642766e-01 1.466263371965644424e+01
-6.640410049131160619e+00 1.706734277860423976e+00 1.468672512174833500e+01
-7.150611114042854766e+00 8.080786448211425554e-01 1.424706863527059042e+01
-6.973901347100905035e+00 1.229630951884437273e+00 1.487312905312364464e+01
-6.968508564133362171e+00 1.201655543147616134e+00 1.445245919691119596e+01
1.557159344521208966e-01 -8.623598583205743795e-01 1.314474096101082878e+01
-6.281985731607084844e+00 2.141283009468909704e+00 1.530009971450649076e+01
-7.051460514526262102e+00 1.074652137865273804e+00 1.323248456568058273e+01
-6.896901074270034293e+00 1.419422281060898294e+00 1.345286410385891784e+01
-6.563592927674359423e+00 1.810234260606165879e+00 1.469908919567202688e+01
-6.178690483596052552e+00 2.231284423741772827e+00 1.508153025690405613e+01
1.189762357492125666e-01 -2.272070116373026138e+00 1.366807150612200061e+01
9.065791694184385796e-02 -2.478986957760512144e+00 1.365027883170945344e+01
4.220591660010430957e-02 -2.668833353360488658e+00 1.350418358032431243e+01
2.604225184690063810e-01 -1.528147390649949866e+00 1.394142649160115965e+01
2.553368656113169655e-01 -1.339286230124774324e+00 1.375278917502356890e+01
2.333688947159925642e-01 -1.471167927464352765e+00 1.371979492198929407e+01
-6.276670290722244694e+00 2.138191526533331110e+00 1.470233948873844199e+01
-2.451491072433897855e-02 -1.829760162802720469e+00 1.269420420204932398e+01
9.501133220687368874e-02 -1.685385404061245929e+00 1.311629426975841639e+01
-4.313012819626095506e+00 1.658507629082220713e+00 9.694003529943135078e+00
-1.452872988555153011e+00 9.935336902722787800e-01 1.549186046254619598e+01
-5.150355948828444497e-02 -1.439337146439118253e+00 1.249395539921541953e+01
-5.263062870429306095e+00 2.301414786186477102e+00 1.134544717021509186e+01
6.363061294648900135e-02 -1.478933704994429998e+00 1.289922586869090892e+01
2.711627825503752365e-01 -9.005323565502197924e-01 1.375520891824393388e+01
2.113520610965266000e-01 -1.254364352072587785e+00 1.349138320341351616e+01
3.391646886890901103e-01 3.076262601175793199e-01 1.401194437667725268e+01
3.427751315642875718e-01 1.365209474025312897e-01 1.397814089876427701e+01
-2.046258294768032560e+00 5.066191399948904994e-02 1.068255305387807752e+01
3.042993069676958040e-01 -9.893822459376999667e-02 1.374867146488564984e+01
1.345870873804553280e-01 -6.548780989363659488e-01 1.295807147728087827e+01
2.664610658709909430e-02 -6.876559004695000921e-01 1.260499111393994909e+01
-4.487771003408173698e+00 6.820258651285209250e-01 1.106209746061297849e+01
7.372420279421923461e-02 -4.232365614743155424e-01 1.274779839958911154e+01
2.269856284060943474e-01 6.632170145638429659e-01 1.383981656856722608e+01
-6.530289053933612919e+00 1.914475473585769194e+00 1.306507915266279340e+01
-2.514359358634401520e+00 2.148785196949379639e+00 1.150437803912151580e+01
3.227210104628966403e-01 4.670225705836180130e-01 1.401833387396740349e+01
-3.429181094391977602e-01 -2.554090091440129884e-01 1.184601244805202569e+01
-2.352120586959198234e-01 -3.863407017372900709e-01 1.196819331543773401e+01
-7.104451120765814531e-02 -4.193616755220078707e-01 1.236912221692513825e+01
-4.367024370089956919e-01 -1.531434015632515688e-01 1.173563068269296039e+01
-1.104110982026074161e+00 2.100142359806398962e-01 1.104031581083971147e+01
1.571095494903368972e-01 1.097745248112006911e+00 1.404961998427857495e+01
2.211351521555856847e-01 9.202500426372424158e-01 1.403129963495879551e+01
6.342043957778170649e-02 1.254157999598091155e+00 1.407510538062776462e+01
-5.512562068499962109e-01 2.241738936499172441e-01 1.184229490501643411e+01
-3.570213753793509692e-01 5.309252890045327300e-01 1.246895941595963464e+01
-2.493095209415241875e+00 2.154313943562558453e+00 1.559969328545971834e+01
-4.620461583862155441e-01 5.834078086629020943e-01 1.237059790638164358e+01
-5.549891011421130838e-01 2.033305593787265053e+00 1.432547099707485572e+01
-5.399172659327619250e+00 2.826398945939788909e+00 1.554858418231118478e+01
-5.182704919137070654e+00 3.046729371738187808e+00 1.536533582592307923e+01
-5.284389317955023202e+00 2.917188410084980532e+00 1.552704821681006209e+01
-3.664908687493452222e-01 1.158340640537231181e+00 1.328691743480070286e+01
-7.120896417750455232e-01 2.057599332286164984e+00 1.411909238675929501e+01
-6.491632646344364099e-01 8.195525222334325566e-01 1.240594244595979134e+01
-1.682332949105143971e+00 6.460853026684219014e-01 1.059553368757333303e+01
-1.033318971670577069e+00 2.513554565314529032e+00 1.443530984488345936e+01
-9.156947276456715024e-01 2.107287701139487712e+00 1.389879940191760355e+01
-8.536522445508933910e-01 1.616123158851058284e+00 1.324716361398099806e+01
-6.366538012638509159e+00 2.048249027584830184e+00 1.464820527673751727e+01
-3.025123799210586828e+00 1.937930356268703136e+00 1.023292985576093983e+01
-6.645297377137811878e+00 1.757838175945327208e+00 1.403168346316858006e+01
-6.550192014791546669e+00 1.879148408729404807e+00 1.406797075358207749e+01
-5.545140411605458119e+00 2.774243588230032920e+00 1.514162217882957506e+01
-5.192256009999765887e+00 3.053204030095411525e+00 1.514335874554959460e+01
-5.791814604025649516e+00 2.600362588739570935e+00 1.473133310573055965e+01
-8.244510363943733378e-01 7.993013450694423927e-01 1.533036491329797357e+01
-6.083242521447843387e+00 2.354753241031105837e+00 1.432157741275596763e+01
-1.646487788271305375e+00 1.046466692046060576e+00 1.099402541817926604e+01
-5.975984680653216863e+00 2.442952000202467833e+00 1.433320106028959273e+01
-1.112183961086572692e+00 2.526337993003836768e+00 1.433019828276271923e+01
-1.089690555246357162e+00 2.275741368965799705e+00 1.389687541009430660e+01
-1.137145835605577471e+00 1.138978075072073937e+00 1.205298977798465998e+01
-5.330739794159784495e+00 2.397893657086084040e+00 1.213124822516907741e+01
-1.124052539824321739e+00 1.553769893033551064e+00 1.268943743873541408e+01
-5.532545443347885339e+00 2.796006536512313012e+00 1.472915758195082603e+01
-6.532736150756845106e+00 1.554890027481933057e+00 1.165720168292661540e+01
-6.604575052243927047e+00 1.794726962848382623e+00 1.262639920090938617e+01
-6.511415807101395892e+00 1.766266292074675892e+00 1.227349924946467397e+01
-5.918388732583343526e+00 2.456191752482406621e+00 1.409468854353643152e+01
-6.280557748942005247e+00 1.686340399372208143e+00 1.150257773092331703e+01
-5.920979010273691223e+00 -1.845537655728025417e+00 1.402754422408176183e+01
-5.832306875666050772e+00 2.525072576267959334e+00 1.419337165947059631e+01
-5.560134609558664565e+00 2.682997167558566431e+00 1.413681435296954092e+01
-1.125502592702980031e+00 -7.145634523396807714e-01 1.122962103077216156e+01
-5.105003988668554094e+00 3.112786574642549375e+00 1.514819647844259620e+01
-5.334772019026280176e+00 2.950204037999595741e+00 1.493076121396950029e+01
-5.677858183592253916e+00 2.573638488527643542e+00 1.393794778515379917e+01
-1.177265858641559415e+00 2.248907585668700193e+00 1.372047462250448646e+01
-5.496988746395533809e+00 2.759686951194848969e+00 1.433152227993683070e+01
-4.698573158505663372e+00 3.320318668350672464e+00 1.515154492674580311e+01
-5.130329183249822123e+00 3.045789697574290855e+00 1.475899905190184214e+01
-5.116949089274225315e+00 3.015154428953940702e+00 1.457564746251356169e+01
-5.866041540936674181e+00 1.899638606832405596e+00 1.133151830314228548e+01
-4.074709719323385215e+00 -1.479566546052500264e+00 1.624771108619937721e+01
-1.446908720321574693e+00 1.094648033497078288e+00 1.141628114507686220e+01
-2.549365313308308512e+00 1.455507217140821652e+00 1.008720868783825964e+01
-1.530721065059673647e+00 1.232155817240664142e+00 1.146144580480813246e+01
-1.286465222812304132e+00 1.432434836125251243e+00 1.221039321920453702e+01
-3.328533668954270386e+00 3.617013172924573805e+00 1.479583919583546603e+01
-5.102298388068394530e+00 2.967545720753899108e+00 1.434066923209381983e+01
-4.338787196142295244e+00 3.431816735295972531e+00 1.495484563198967365e+01
-3.116784500320815443e+00 2.795383863047114392e+00 1.254938283656158760e+01
-4.548866360300300116e+00 3.389787270397317087e+00 1.516348290980668523e+01
-4.736022044456311697e+00 3.225900697192513267e+00 1.473391394221489392e+01
-4.500026509089564364e+00 3.333065421684225260e+00 1.477859027054519814e+01
-5.705800696602453925e+00 2.260262730904385453e+00 1.250932233026578544e+01
-4.143068620606216612e+00 3.464231610609697753e+00 1.475885263751571230e+01
-4.951657084451976942e+00 2.905212787304716660e+00 1.374839310566659734e+01
-5.136259987524399939e+00 2.687414885285471566e+00 1.313552791014716448e+01
-5.444141822518279383e+00 1.939122695506183547e+00 1.053844681570837238e+01
-5.523201578273411627e+00 2.003109749509536019e+00 1.087397794006697538e+01
-5.434340965483362318e+00 2.268061785675767883e+00 1.172556687834212497e+01
-3.291040206404202806e+00 2.265682824087617231e+00 1.089748366978945526e+01
-5.306711863958325281e+00 2.338412551167268205e+00 1.170098278067272091e+01
-4.112256193053560160e+00 3.035656238354344616e+00 1.296127050906831712e+01
-4.915499921370142467e+00 2.875267329478558676e+00 1.351907834103338146e+01
-4.405358153946462352e+00 3.322694450460933258e+00 1.448911017705637860e+01
-4.528064727832786573e+00 3.195659614343739019e+00 1.415603574837399137e+01
-5.318525678246862398e+00 2.163097959350742006e+00 1.091199532501835634e+01
-5.133843517698736925e+00 2.227715529977256192e+00 1.088344552447447811e+01
-1.551585652928202830e+00 1.538321150131035209e+00 1.189258814261138397e+01
-1.364085106755723142e+00 2.616999052421500327e+00 1.418149914887347407e+01
-1.288966351186611403e+00 2.334468890371973693e+00 1.372414859089305494e+01
-3.920719627048137923e+00 1.750064516894126676e+00 1.605738283666855537e+01
1.923505167781765224e-01 -1.799313634493496572e+00 1.456535478729278665e+01
-5.634460413866996253e-01 -5.864423484695734379e-01 1.141206940266435410e+01
-1.505612951860821447e+00 2.348943967018922052e+00 1.349509353530981670e+01
-2.729750901628932525e+00 2.880296278970611468e+00 1.314944767043159501e+01
-1.726299716214892088e+00 2.714672823721999695e+00 1.393247269048870507e+01
-1.676185645672749303e+00 1.635456416946375224e+00 1.185554070279230032e+01
-2.477882350954618840e+00 2.971599854704379595e+00 1.368444912071867847e+01
-1.719101682268181275e+00 2.505023906718195192e+00 1.349968309517542409e+01
-1.667074266900530732e+00 2.559836061421631115e+00 1.369628171821395668e+01
-1.733044976113657709e+00 1.933296888505812383e+00 1.233171002722078313e+01
-2.251482967053838991e+00 1.491342845453374366e+00 1.060504263976101313e+01
-2.376586743594979900e+00 1.588029734322840003e+00 1.054061647615271013e+01
-2.040649824063789808e+00 1.657193151459378289e+00 1.125513506649716433e+01
-1.823188441621583333e+00 1.847279891147108000e+00 1.200927116977791442e+01
-1.764198037086860626e+00 2.660805782849636092e+00 1.375785420697414807e+01
-2.347165517845090310e+00 3.267707528836813147e+00 1.455971648684321806e+01
-3.035982879066741802e+00 1.732063787150290413e+00 9.807443231044242538e+00
-2.689320404400769249e+00 1.714047363083402775e+00 1.025306978723476803e+01
-2.347773103308290921e+00 2.211465959513162716e+00 1.191078253600863590e+01
-2.125022379005179651e+00 1.964918851269819022e+00 1.170799914641471773e+01
-4.869815114194812722e+00 2.797239035098768145e+00 1.299981612838248779e+01
-4.146698435226947588e+00 3.385321242316367218e+00 1.435816785398497686e+01
-1.855473046704910978e+00 2.769465118292246064e+00 1.389694750725480432e+01
-4.318443552099208382e+00 3.243768527870936502e+00 1.395565379433800857e+01
-7.566550117398224806e+00 -2.031807491355842599e-01 1.473662598209793728e+01
-4.110831476648138860e+00 3.370578677861211236e+00 1.419731978021929919e+01
-2.272224901046268730e+00 2.246897788464625734e+00 1.210727301808013223e+01
-2.726027719878877598e+00 3.475506272848912559e+00 1.476956435574250648e+01
-2.710886732070743044e+00 3.319439251294781457e+00 1.433171819222675580e+01
-2.286118024972017437e+00 9.936288153522772060e-01 1.571311002387233557e+01
-4.868604643706500923e+00 -2.008945065504821326e+00 1.397950351020419291e+01
-2.795477808891675853e+00 3.380703845226639803e+00 1.441748031674617536e+01
-2.536663934184251623e+00 3.034255309377426713e+00 1.377939946127112236e+01
-2.362365139097771571e+00 1.974529020957086711e+00 1.132467314401903380e+01
-2.301092962336372949e+00 2.348397266777833448e+00 1.231806977581252127e+01
-3.110348610733207231e+00 1.836875350103970295e+00 9.907413926687926420e+00
-2.730938319021288585e+00 2.199506011700621766e+00 1.131722742313796104e+01
-2.734304632000548185e+00 3.039663280385947797e+00 1.356803854885223259e+01
-3.903244407943649463e+00 -8.573465847320563826e-01 1.632563177152286116e+01
-2.571547215594757407e+00 2.328887774548579870e+00 1.188675967678913636e+01
-5.103267308648241851e+00 2.179084532855672052e+00 1.068594885254120541e+01
-2.435538567190472570e+00 -5.089349295644208793e-01 1.144470259522912059e+01
-2.934904350578825927e+00 3.418658593164402237e+00 1.437426819563446756e+01
-2.745756551851660454e+00 3.204326947281415983e+00 1.398518278542304571e+01
-5.068065300230023773e+00 2.311522429758166464e+00 1.114266859579180746e+01
-4.918757766125120057e+00 2.275916244963505530e+00 1.090044257235220826e+01
-5.405645200722865029e-01 -2.530446761299522507e+00 1.213965424769116552e+01
-4.699078533173484118e+00 2.296978216758966962e+00 1.086881841202430721e+01
-4.898102490375077167e+00 2.646735349815979799e+00 1.236419207190782643e+01
-4.565029103640887875e+00 2.911431424122076006e+00 1.296846066207569592e+01
-4.346391381741380400e+00 3.139246909723504508e+00 1.356114484474387538e+01
-4.707091615199788137e+00 2.528588515951727622e+00 1.171761192007831553e+01
-4.605915177603301380e+00 2.815052774220629495e+00 1.265077607983415575e+01
-6.176280522672401574e+00 2.237856523801129427e+00 1.469910148574973263e+01
-4.680813799329404112e+00 2.489591743651566436e+00 1.155578968074086887e+01
-4.500000323471513575e+00 2.229975785791901366e+00 1.048455938530273457e+01
-4.553426545511515044e+00 2.276321074811273881e+00 1.069851474204835640e+01
-4.117075299891562068e+00 3.316985401183851767e+00 1.395158777690216212e+01
-3.727069558022526152e+00 3.498442434371214382e+00 1.438285670361954161e+01
-2.996092868958150746e+00 3.376751152379636522e+00 1.417804046167973908e+01
-2.873434957518756772e+00 3.156907660125265469e+00 1.371139085365014054e+01
-2.931236068212674795e+00 3.121193545889844323e+00 1.354734425901682826e+01
-3.923605922841872484e+00 3.105432570753061228e+00 1.316686928494246800e+01
-3.705260889586142969e+00 3.242589545177214649e+00 1.356819258009009488e+01
-3.245697446797256358e+00 1.959827568573730527e+00 1.003856805734645619e+01
-3.311715539879304782e+00 2.013032486625637052e+00 1.010649532500402259e+01
-3.335488604923050548e+00 2.078818165351013825e+00 1.029926785314327375e+01
-3.134358545175649713e+00 2.219651563851690490e+00 1.091886035272088051e+01
-3.098554570551415477e+00 2.466026469476886085e+00 1.162316543678893410e+01
-2.969399625571147006e+00 2.683026756016496428e+00 1.233721494030711696e+01
-3.123510261220019846e+00 3.410025139795832327e+00 1.419231814867898933e+01
-3.879425612269049140e+00 2.132553711583617062e+00 1.008190429611115135e+01
-3.710909563116786547e+00 2.645142479280702563e+00 1.188829371012061742e+01
-3.296995645119119800e+00 2.541240996763741489e+00 1.172541835680761224e+01
-6.371956123567527719e+00 2.085450922879295010e+00 1.409474913215381875e+01
-1.061425076987793537e+00 1.015346215154930842e+00 1.201722689658007326e+01
-5.023560553286431363e-01 1.705313711502590035e+00 1.388498514273482343e+01
-3.155335739091034597e+00 3.040523156817468653e+00 1.317646923163972517e+01
-3.922085477466427328e+00 2.357765493154056369e+00 1.089718459280141971e+01
-3.525921215293524646e+00 2.262062344332044450e+00 1.073443617619833290e+01
-3.735678641631181129e+00 2.182547040168480112e+00 1.033782103442662148e+01
-4.070609009424173586e+00 6.308265122759193488e-02 1.182833884019244763e+01
-3.504942143928280629e+00 2.570354388913618227e+00 1.171883983080382663e+01
-3.718568468886892298e+00 2.348652865754920605e+00 1.092787541838948684e+01
-3.895099236826712996e+00 2.501764339248882862e+00 1.137275485196784430e+01
-3.531071682552338498e+00 3.224836658242597132e+00 1.355084428774493333e+01
-3.344981258777512068e+00 3.293559307351465293e+00 1.377836820862740908e+01
-2.640847660572832378e+00 3.507027974318718044e+00 1.499858612131106028e+01
-3.667366885389589992e+00 3.682946525744308808e+00 1.549996224015601243e+01
-4.352507196228532216e+00 3.451374297271176950e+00 1.539046484002622250e+01
-2.035875073147873415e+00 1.857053087528412139e+00 1.165122784562892022e+01
-4.879344183185973627e+00 1.734006766650783238e+00 9.895404584434846385e+00
-4.669844152169893903e+00 1.553508560882754574e+00 9.960459666842776727e+00
-4.495103651998880068e+00 1.292182140090477827e+00 1.025276793931802288e+01
-3.518894325175296434e+00 1.385509441179324952e+00 9.732236245414018327e+00
-2.078815336991464147e+00 3.311941002336368900e+00 1.491730981992493454e+01
-4.119892127856735087e+00 3.191535499672637055e+00 1.573865068906212272e+01
-4.929595196661118450e+00 1.161225585128995430e+00 1.054977024315851608e+01
-4.928215860475323673e+00 9.525869020496717798e-01 1.080738560118942004e+01
-7.017312809765379633e+00 1.148550896374466834e+00 1.380408877775454002e+01
-4.457246688203044371e+00 8.454393707681499004e-01 1.083609326838645259e+01
-4.332590367544803200e+00 1.162597723755731671e+00 1.037439899333869064e+01
-4.070646417512298498e+00 1.297766778551651345e+00 1.010686995401954036e+01
-2.316661446291725657e+00 2.377275405871844161e+00 1.550471116801929483e+01
-4.905109063566980510e+00 2.809731591889722324e+00 1.316014760276211248e+01
-3.894782406044079437e+00 1.106473895886446179e+00 1.028377574893609037e+01
-3.512688592164615375e+00 9.960029174625952830e-01 1.022804470171856295e+01
-4.045235139828123216e+00 6.970295000083885917e-01 1.088185441165135714e+01
-2.787548411838151274e+00 3.198807620394055196e+00 1.547604935598650044e+01
-3.394357995630203906e+00 3.087448743750373037e+00 1.566713962833166462e+01
-3.904981349691733605e+00 2.918869705345227494e+00 1.579990484618728530e+01
-4.508506566391316639e+00 4.303833291132320715e-01 1.141447472529324259e+01
-4.343473062564791931e+00 2.512025762612771995e+00 1.138078457304377977e+01
-4.305327065395096575e+00 4.693903998882539286e-01 1.130484568823437641e+01
-4.087585945032353507e+00 5.324947793364650517e-01 1.114930305382495490e+01
-4.358389447054174859e+00 7.291905840130395999e-01 1.094972915414878756e+01
-3.909857974936334024e+00 7.401299097951974382e-01 1.077915650878448517e+01
-3.465345235402080615e+00 5.737427686174523256e-01 1.076687944589796686e+01
-3.529996065636336944e+00 7.676034539867229167e-01 1.054080228735582025e+01
-3.211872895547199569e+00 5.125126135389423965e-01 1.069289289278973243e+01
-2.528563140151383504e+00 1.671349156096685884e-01 1.072686535027120058e+01
-2.232374959638703249e+00 3.215789133078010842e-01 1.048518643194322308e+01
-2.195981867991410486e+00 1.388965973460344339e-01 1.064369662665891880e+01
-1.554754685531692049e+00 4.340292804702754470e-01 1.064561802729730644e+01
-1.433204532584553270e+00 3.005794870797481866e-01 1.070272779357520321e+01
-1.831751049897887285e+00 3.131792995356566855e+00 1.477634713628811269e+01
-2.486815307559317123e+00 2.912335108011659734e+00 1.545285521102764292e+01
-3.135811519650260504e+00 2.768536183672440032e+00 1.567117716841307740e+01
-3.509682157771449429e+00 2.577820797889801341e+00 1.580543625186175305e+01
-3.951190685434470495e+00 2.496616511644679903e+00 1.590826879663468318e+01
-4.295092676768931028e+00 2.378825987717013035e+00 1.598816847648837225e+01
-4.511676092359933499e+00 2.325723491645824481e+00 1.602831512383756163e+01
-5.326986618876381918e+00 6.641634611229487728e-01 1.129244614261872570e+01
-5.102881916042682597e+00 2.179798554582900727e-01 1.184324366397030204e+01
-5.104356844983011676e+00 -1.157879142431161856e-02 1.215695993470064096e+01
-4.890854502140630444e+00 1.327810904805235559e-01 1.192194233226360822e+01
-4.521290334476929296e+00 1.960997401135156637e-01 1.176106180252568478e+01
-4.655399605093310633e+00 7.620516381350406210e-02 1.196000260045913777e+01
-4.949380483573159850e+00 3.812388419473722312e-02 1.206144994965911721e+01
-4.441406216095216131e+00 2.452496520827779913e-01 1.167028681830461423e+01
-4.115952500531256497e+00 2.864721272156275367e-01 1.152623670536443612e+01
-2.946300647213041302e+00 3.582383089959071953e-01 1.071825419556209980e+01
-1.409473768210691924e+00 -1.429588015015892832e+00 1.560133172893290876e+01
-3.011716521233707144e+00 2.825407229399400366e-01 1.085486916469226415e+01
-2.092292284322286200e+00 -1.952668304965372581e-01 1.089336232841104746e+01
-1.050949681630372612e-01 1.129824118856402215e+00 1.365676076698824559e+01
-5.965825291945239250e-01 2.157845289747835071e+00 1.483408165834907422e+01
-4.143298528340491060e+00 2.103500866294530258e+00 1.602816116782024736e+01
-2.775503709233213101e+00 2.320635655292893063e+00 1.158277266088463975e+01
-3.843141886437780208e+00 1.983095138182155548e+00 1.599368296869605288e+01
-5.870688078831241441e+00 2.313149596960869303e+00 1.582262706831376065e+01
-6.405614293535442982e+00 2.036782431319402065e+00 1.545456723301067470e+01
-5.011335503342785103e+00 -2.403980601230985004e-01 1.245089001529320072e+01
-5.740241899031440553e+00 1.843344899076332588e+00 1.086947081320426989e+01
-5.861326100025840979e+00 6.336607250446675277e-01 1.151284401105107591e+01
-5.278553785958950861e+00 -2.249063671081262816e-01 1.244495701680249411e+01
-5.287265148114780544e+00 -4.633876528596539979e-01 1.275137485979091068e+01
-4.905002788444434714e+00 -1.925759697977993401e-01 1.236558755566632684e+01
-4.697828466439633033e+00 -9.497085981408537325e-02 1.220943020616994446e+01
-2.132032473941682937e+00 1.242823311175730971e+00 1.047472663245629221e+01
-4.709624757327976141e+00 5.460499482754399558e-03 1.206816841417153441e+01
-4.489302942892483550e+00 9.078031451718360234e-02 1.190280833983013409e+01
-3.298275296655529321e+00 1.103862248327051043e-01 1.134011952929027345e+01
-2.776095239185951247e+00 -2.946445607816896572e-01 1.146911121698591884e+01
-2.528870626459097881e+00 1.786717398612837293e+00 1.567445529006060312e+01
-5.436700599231920616e-01 1.480688948271201344e+00 1.349634188075826202e+01
-1.936838611027123402e+00 1.134671289962039697e+00 1.559385252246105935e+01
-2.163096829106968766e+00 1.563783883895256466e+00 1.559770890011191469e+01
-3.176266875148035407e+00 1.929771909395897822e+00 1.583834294618278804e+01
-2.648002695496940007e+00 1.604238903840206287e+00 1.574345766632858457e+01
-5.658291119628711563e+00 2.552713976459077383e+00 1.378560385796889776e+01
-2.927412865530540032e+00 1.512394859956006421e+00 1.584301823381904128e+01
-3.512911415045266939e+00 1.711607572933162125e+00 1.596715206194677350e+01
-1.953131408449380491e+00 2.115639058558288710e+00 1.231567742435416690e+01
-3.554071896330064373e+00 1.562278733257224328e+00 1.600518956169431917e+01
-4.140771910788997978e+00 1.149337211487047927e+00 1.621714696396859878e+01
-4.350179075256784600e+00 1.507276661884567215e+00 1.619519578426213613e+01
-6.215531174963206063e+00 2.024170887374886707e+00 1.577213640112342929e+01
-4.374171912616425573e+00 2.643777149655500036e+00 1.183843923581838098e+01
-5.444772792778656445e+00 -5.921482037407980181e-01 1.291335906525264576e+01
-5.118954174009412661e+00 -5.732275905752407530e-01 1.287970565916081611e+01
-4.033189377782107066e+00 -5.817862839528539221e-01 1.264443832640154497e+01
-4.049150373462899744e+00 -3.793534263475152324e-01 1.242307621857713329e+01
-3.796230026478891517e+00 -1.777010936820908604e-01 1.206132588883816581e+01
-3.606623874356932991e+00 5.370855466561585967e-02 1.165605968647709645e+01
-2.583172596297822921e+00 -4.316530167802522522e-01 1.147493240231692724e+01
-1.810925968009460263e+00 -9.341801328193674037e-01 1.142712707561843999e+01
-1.466876415492295749e+00 -8.452042531002151859e-01 1.125435084987407564e+01
-1.171853752303300134e+00 1.321191618123330080e+00 1.536831073765695876e+01
-1.613733403915875719e+00 1.023751198626488446e+00 1.552650914632372903e+01
-2.108580771875332882e+00 9.636744063461983867e-01 1.566559815432549030e+01
-4.330772964564673977e+00 9.243515209249972830e-01 1.629575559003246710e+01
-6.089366305343880903e+00 -6.512637200161141005e-01 1.296895790599105069e+01
-6.272659169704880355e+00 -7.668869176227103290e-01 1.311384552347413646e+01
-4.459315810751377285e+00 -9.181905359769743091e-01 1.310447024846249420e+01
-3.914543396382174301e+00 -6.872522575785676713e-01 1.270378699365300079e+01
-4.111844908244529861e+00 -7.575130120097451902e-01 1.284418790113312880e+01
-4.244360320157925415e+00 -8.848426130475185447e-01 1.300879550988708999e+01
-3.841072266411024394e+00 -6.418826092374126935e-01 1.263146564670651273e+01
-3.715727512147783962e+00 -9.365314032788590870e-01 1.286182973803721197e+01
-3.473029032773573110e+00 -3.923278022711137458e-01 1.219505260213227515e+01
-3.220810656712459252e+00 -3.968441297478541019e-01 1.203146971504889606e+01
-3.144454402532320447e+00 -5.096470431389475975e-01 1.211481191074651420e+01
-2.479639536774766562e+00 -7.513885559059861885e-01 1.179110230567874495e+01
-1.778220522200388398e+00 -1.149005651836429109e+00 1.159383291147384298e+01
-2.122173155622322782e-01 1.028568414673053599e+00 1.494534835078222912e+01
-4.175055453642261272e-01 7.672815118922454714e-01 1.513272171724389281e+01
-1.547719083995532818e+00 7.484688713363201185e-01 1.554637779008430343e+01
-1.726169086727488144e+00 7.580102437602880272e-01 1.558878742277235929e+01
-1.900834952548257739e+00 5.711911446878927823e-01 1.565407934995206674e+01
-2.360184923018497472e+00 7.291488541880466467e-01 1.576234645833284631e+01
-2.892655501523646588e+00 9.371753121432253586e-01 1.590070454848713766e+01
-3.095887684182031308e+00 7.595459849456238643e-01 1.598116954712311966e+01
-6.092129124931390471e+00 -8.600579620594658303e-01 1.323051778598464168e+01
-5.266299051415609611e+00 -1.185042403164514813e+00 1.348966740836108258e+01
-5.488448170620397804e+00 -1.284669057946188353e+00 1.358832523915758728e+01
-4.275954231224011082e+00 -1.168871818428053988e+00 1.326933863872441677e+01
-4.296485476429377393e+00 -1.087350828970985006e+00 1.320406853624136190e+01
