-2.004748366073352273e+00 -3.175922924982136131e+00 1.754472052207655253e+01
-7.414545460128362464e+00 2.426925612850583391e+00 1.561983969402552219e+01
-2.009183666466221041e+00 -3.330661098151343147e+00 1.776108805416755843e+01
-2.199560744969301762e+00 -3.339919880397356877e+00 1.792896184789234937e+01
-3.396477059719857472e+00 1.168540437388827735e+00 1.406210921287551940e+01
-1.059753914392122631e+00 -1.812240734242565043e+00 1.929783069822788022e+01
-1.611452791105036919e+00 1.912377508727103326e-01 1.955346432526598832e+01
-3.198576338738480906e+00 -1.577430799251433591e+00 1.945261160002510437e+01
-4.831855980029542863e+00 3.273456260298641674e+00 1.833499536660555762e+01
-2.251830142075685437e+00 -3.606638884471886186e+00 1.829182992686926568e+01
-2.409516244946205532e+00 -3.765541112960958614e+00 1.850968463848170842e+01
-6.213786905738452937e+00 1.082536492169025921e+00 1.398129328839093688e+01
-3.028071520194973054e+00 -3.768683655575438607e+00 1.835584860449703726e+01
-5.825276967508989934e+00 -1.221612518041670370e+00 1.626652241225372464e+01
-2.191340452376998371e+00 2.383143484790871014e+00 1.880526341684267777e+01
-3.249044090829191322e+00 -3.821898643721286959e+00 1.845045911606213451e+01
-3.788183412615730550e+00 -3.770689621668423364e+00 1.849346512056528624e+01
-5.602447392391115777e+00 -3.194097131749656704e+00 1.797297138530028704e+01
-5.000321067782760309e+00 -3.244844465206554451e-01 1.491495450098144104e+01
-3.793409666880775966e+00 -3.717332970576348039e+00 1.837981503695458585e+01
-4.041084148176122604e+00 -3.738997003993840273e+00 1.835676014243773579e+01
-4.568666267113610679e+00 -3.844081471165149644e+00 1.848963481323779945e+01
-7.171679851025483998e+00 2.415947266072769217e+00 1.546347710883307514e+01
-4.981043014174351136e+00 -3.891906992085810479e+00 1.860071335295394590e+01
-7.598505829716675208e+00 -1.839288377365680294e+00 1.546682335658113416e+01
-9.036484814525593379e+00 -1.370823740693640103e+00 1.794455291936601782e+01
-5.592545678443548773e+00 -3.743477219492893582e+00 1.871991891647703454e+01
-2.821874144380080107e+00 2.081501939258059153e+00 1.895427853179077360e+01
-1.941407946625331338e+00 -9.954316556123992132e-01 1.979288065313447476e+01
-5.823476595084764007e+00 -3.721519042875549133e+00 1.872048295606539980e+01
-2.636296693814764502e+00 -3.378770754228820117e+00 1.950878828846107282e+01
-6.188301553594513393e+00 -3.798098237890124906e+00 1.889210550850170023e+01
-8.675755323615561565e+00 -4.037062055507266711e-01 1.895246423548638859e+01
-2.572024120384821977e+00 -9.700329554724038683e-01 1.528321514665032765e+01
-6.635693094554846461e+00 -3.752494279301067159e+00 1.873378781948417782e+01
-3.094435170360414933e+00 2.496607760896646155e+00 1.614704739898143160e+01
-7.035003061609579333e+00 -3.772560221832988780e+00 1.893434634662006744e+01
-8.868679550104861420e+00 -1.210302719357852386e+00 1.566693313237277252e+01
-1.213778743171652907e+00 -4.364835576441726817e-01 1.490642695845759746e+01
-7.202155501939706994e+00 -3.742442808408788402e+00 1.895216514141192121e+01
-7.405553454727026086e+00 -3.596725553005033049e+00 1.913402426190805627e+01
-9.219765334704831616e+00 2.309211569560543076e-02 1.788213998598820353e+01
-4.165946207561340486e+00 2.264756934129995791e+00 1.480402501228988044e+01
-7.989054349663644139e+00 -1.719513413030964166e-01 1.918609941331452973e+01
-5.587547335786642755e+00 -4.618406390047046228e-01 1.504170522193975046e+01
-8.907767064482793984e+00 -8.144538396062815933e-01 1.561919966198199461e+01
-3.634031618104445194e+00 7.293872733485846638e-01 1.328520135374423816e+01
-5.639747414730305053e-01 -1.981358605135161932e+00 1.806643793576761681e+01
-5.393588145652720378e+00 3.520455287420249935e-01 1.305418946250997791e+01
-6.076373780208689013e+00 -1.100556037028939338e+00 1.599581477753328684e+01
-5.245110399784811861e+00 2.517251735470535934e-01 1.308969554971632832e+01
-2.994288431085248892e+00 -2.598411219711957987e-01 1.409363367165509828e+01
-9.112414561987424833e+00 -9.410597568754026643e-01 1.710311976342045170e+01
-1.891842932707361147e+00 2.139903397351273107e+00 1.732839333024372763e+01
-2.614908876131788684e+00 -4.475476466937546860e-01 1.426066215715250962e+01
-7.198331315976611577e-01 3.719035900584488630e-02 1.623577932992129647e+01
-2.957703101652233713e+00 -4.142685218301815908e-01 1.444187806058413059e+01
-7.286276530006054131e+00 -1.729919017520848978e+00 1.558404355370190686e+01
-2.082285209473134557e+00 -3.221508295741823957e+00 1.767824798531442099e+01
-6.585076120753851070e-01 -1.996391524727703981e+00 1.830161772100315432e+01
-9.075039041019191899e+00 5.335604752480296309e-01 1.815119093102035563e+01
-2.387764777942157579e+00 -3.309955183273007862e+00 1.800142639432109704e+01
-2.431034944367087558e+00 -3.421160847140908956e+00 1.812733213386509235e+01
-9.347849126397282049e+00 6.120259962980234558e-01 1.730587620889033929e+01
-2.228735412955868078e+00 -9.806565140695246985e-01 1.967914264940250391e+01
-9.022881938264756485e+00 -1.343717697002293487e+00 1.729066360672565139e+01
-2.616572755941012574e+00 -3.710088694084881844e+00 1.839035048085818502e+01
-6.004140508596868209e+00 4.246435164062010159e+00 1.661759495728386682e+01
-4.842588192756673848e+00 -2.358737525216694220e+00 1.737210540338804421e+01
-3.172604365951304128e+00 -3.736657466470057365e+00 1.832404464739182259e+01
-8.053600359493096050e+00 -3.441786497346987161e+00 1.858652892199975426e+01
-3.795500439390159020e+00 -3.636252725259230267e+00 1.825185011162210102e+01
-6.781304408849755383e+00 3.873175548617613373e-02 1.914554670226808497e+01
-3.037824485558723531e+00 -3.067874372415754225e-01 1.423214270233920686e+01
-6.783767979235991952e+00 -2.383037818107728967e+00 1.730702103094414568e+01
-3.995734487749708741e+00 -3.567236146454510148e+00 1.815093343181911933e+01
-4.038436480637740189e+00 -9.948047879056663989e-01 1.940382039377484702e+01
-6.023151391324026882e+00 -2.666521954362997882e+00 1.764592326998727501e+01
-4.041782547621709298e+00 -3.658488333807382809e+00 1.824923105653230948e+01
-6.401587705865504851e+00 -2.973230118737178351e+00 1.952155836559463609e+01
-4.235763017336350522e+00 -3.723221897107434231e+00 1.834252276541358029e+01
-9.995296963488145003e-01 -2.190966314228770084e+00 1.891710806718526783e+01
-3.386291248670016074e+00 -1.626894461590457031e+00 1.668277240978228804e+01
-6.036629592433335745e+00 -1.452541835772050982e+00 1.647330024996392339e+01
-4.451910339437922914e+00 -3.730476969235356322e+00 1.832411083565824228e+01
-2.992112520570004541e+00 2.182335540863254764e+00 1.584106134388502340e+01
-7.395132811668964301e+00 -2.592995144101853722e+00 1.733580822084437401e+01
-3.576007688288562747e+00 2.227209759292560598e+00 1.883887868809913968e+01
-4.601335995687034774e+00 -3.787270258978754356e+00 1.836416877992549956e+01
-6.410057344564029869e+00 -7.624000321729414997e-01 1.510866318497527061e+01
-2.828277091831748358e+00 1.944235781375968974e+00 1.570778444378278849e+01
-7.604874263887065666e+00 -7.599307820032756844e-01 1.427396329130943542e+01
-9.060635730905776342e+00 1.326062904972470813e+00 1.774459514727404752e+01
-1.385002307344123551e+00 1.373899330331637580e+00 1.705935550426440983e+01
-4.801869944107009403e+00 -3.905963895308525835e+00 1.858137928684032047e+01
-6.423163333672858855e+00 4.097287557244185585e+00 1.659404445495404445e+01
-5.433451581876175496e+00 -3.662119735958191846e+00 1.842792420035132395e+01
-8.213322229141883923e+00 1.240096222434591278e+00 1.863451565329322435e+01
-6.815697663654573191e+00 -3.760466697655533430e+00 1.870785286315600615e+01
-7.035213952267232784e+00 -3.785213377382053324e+00 1.873973544548999115e+01
-1.092450840262312761e+00 -1.702433873609773052e+00 1.940877541037159304e+01
-6.006909359218470357e+00 -1.721342760407410299e+00 1.677814933657614915e+01
-7.392758316398669649e+00 -3.703157220501077873e+00 1.893090136594608808e+01
-8.663130482145128042e+00 -1.348608256185409804e+00 1.890944734596806853e+01
-7.613651894889678751e+00 -3.611815131671166412e+00 1.895419957828757163e+01
-2.211785674433543569e+00 6.825933350181976333e-01 1.936015036986664484e+01
-7.407068970224244708e+00 -4.871999278191818661e-02 1.416767070105025894e+01
-7.816689437854877021e+00 -3.588690289498050134e+00 1.872466565793416748e+01
-9.098781886902600036e+00 -1.031722997319421520e+00 1.723819828108960905e+01
-1.202553900644264484e+00 6.150048504746890021e-01 1.627515288261657389e+01
-8.015960538572146632e+00 -3.400425493497130525e+00 1.875155524722672240e+01
-2.406885276017305397e+00 2.559717834111127743e+00 1.709192401762458502e+01
-5.194237206434916487e+00 1.007559677880860205e+00 1.899849153246047706e+01
-6.225329890623316764e+00 -1.703471596708672209e-02 1.365772204185878991e+01
-8.894757990458430186e+00 -1.240959840765911260e+00 1.592674141278894240e+01
-8.925508668630005360e+00 -1.136926373624048914e+00 1.594384342217086825e+01
-4.194968281162518409e+00 4.358000613957773162e-01 1.906454441595143123e+01
-6.027095356858009900e+00 -9.057808101623043839e-03 1.366935525980549571e+01
-8.934391484310182818e+00 -9.923153511476530131e-01 1.573517578085976609e+01
-6.375396189553443449e+00 5.129949643383111546e-01 1.375141134161603773e+01
-2.795027275995421778e+00 -2.953014563158856909e+00 1.778496948642558095e+01
-4.577776880687629557e+00 2.407972455775696297e+00 1.865727668670039918e+01
-8.885580007717656770e+00 -1.003607591985935299e+00 1.562238441986951543e+01
-8.562090836733787569e+00 -1.348164345654599083e+00 1.906876799394753519e+01
-6.053064697340787781e+00 5.603665686720216144e-02 1.352485494712017555e+01
-4.598229367271080115e+00 3.279648336701595390e+00 1.832795665337635072e+01
-2.629346347339210244e+00 7.467107442794240768e-01 1.428970610609355063e+01
-2.966301768589170162e+00 -3.541665625423442432e-01 1.429860141184416733e+01
-2.213904279723525992e+00 -3.158730262849428705e+00 1.771768784611381520e+01
-2.616457261735436468e+00 -3.280109098097356402e+00 1.803564600699284881e+01
-2.293053896756572119e+00 2.308935603065684461e+00 1.692001467389417613e+01
-4.810806813214384414e-01 -2.555329536392597634e-01 1.629884222893102219e+01
-5.117125125816171405e+00 4.499478867768393897e+00 1.696286199035362330e+01
-2.601954896600429112e+00 -3.550765053465553933e+00 1.824575024227309683e+01
-5.009412806813965169e+00 3.169480340925252548e+00 1.837828812418546320e+01
-4.547356416780767852e+00 1.698450035346621423e-01 1.915351174559106084e+01
-2.786287811465291586e+00 -3.492994055304489365e+00 1.817010361796777573e+01
-3.200895712702158669e+00 -3.643813935633181345e+00 1.825397936109393981e+01
-2.573513632259960549e+00 8.070766558483317699e-01 1.444391863004253551e+01
-3.211390071112084410e+00 -3.536466975592051476e+00 1.818036122328288329e+01
-8.563640870892367474e+00 -1.169256920427301560e+00 1.908518859618045482e+01
-3.240542892473983749e-01 -1.195941398442576853e+00 1.768321588729650884e+01
-3.463926232178457187e+00 -3.500612053286374703e+00 1.816593488247201194e+01
-3.671602704030316300e+00 -3.559076422739606116e+00 1.819109238109820481e+01
-7.478442640439959099e+00 3.874415911690812564e+00 1.750108177826523459e+01
-3.840593504778687439e+00 -3.529823481846570132e+00 1.812399315543481038e+01
-2.009147127567594282e+00 1.800882466319167152e+00 1.665972532388150285e+01
-4.170655287558862057e+00 3.424019564269921823e+00 1.623209467146155660e+01
-4.206120018755376222e+00 -3.566076397954740962e+00 1.814974587908734449e+01
-5.628088340757343211e+00 2.458181513110385019e+00 1.478457537757820717e+01
-5.582149463055407601e+00 1.956254133445830545e+00 1.430040926126866552e+01
-6.967456271144177649e+00 2.112790396870763310e+00 1.513367818852714564e+01
-4.353895378020955498e+00 -3.649592960159887767e+00 1.823508644167618087e+01
-5.606950331585745850e+00 2.384494346366982320e+00 1.858782686919914084e+01
-4.415951207073359086e+00 -3.573967084825662610e+00 1.813410490678666420e+01
-4.607681696586096720e+00 -3.600460282707508064e+00 1.811414570343965380e+01
-4.807037134663163513e+00 2.409525556764469112e-01 1.325242454248875745e+01
-4.353834183506103628e+00 1.033400534697894058e+00 1.319752829252371029e+01
-7.137652838570951452e+00 -1.871893787476450743e+00 1.605437532671746936e+01
-5.579502481485246079e+00 5.971881966623988625e-01 1.898678134673411932e+01
-4.845879141486724606e+00 -3.775058418873988408e+00 1.831095482091843962e+01
-5.001588997542681270e+00 -3.740408874652662696e+00 1.831384986717263885e+01
-3.590915439265176534e+00 3.147516266564743148e+00 1.646403895119624750e+01
-6.506868239472366255e+00 -7.544054362355195886e-01 1.497946107521574532e+01
-5.395943898965104069e+00 -3.599028645480158772e+00 1.829839890910176337e+01
-4.651810866488515828e+00 4.329765944756967855e+00 1.693099526434773949e+01
-2.725518107195141315e+00 8.269295536594072349e-01 1.920973762253586159e+01
-7.410004786895848738e+00 3.626810088508436891e+00 1.766407294883453361e+01
-5.599146171637690905e+00 -3.545986517614121425e+00 1.831095736101687521e+01
-8.345587669816502796e+00 -2.325946774055403843e+00 1.615290618173757409e+01
-5.051245775711581842e+00 -1.680320865743362146e+00 1.684209042158763125e+01
-2.450104028646936882e+00 -5.112948787266313744e-02 1.354346758464716416e+01
-6.246200410399803005e+00 -3.693650785574102535e+00 1.857794671865583425e+01
-6.717541749663698880e+00 4.379374802523688714e+00 1.757853100907726329e+01
-6.295301692171805463e+00 4.758334429170220758e+00 1.755961097225193868e+01
-7.045107591752665321e+00 -1.399280249947898458e-01 1.399562198505576660e+01
-6.626865607925299884e+00 -3.630391439398423792e+00 1.846982630944642523e+01
-9.158111638985758418e+00 1.830906638464242286e+00 1.708102963904066840e+01
-6.821946760664178377e+00 -3.706374038386750058e+00 1.857337835476379695e+01
-7.231915359177510716e+00 -3.778573120247144423e+00 1.871178131119583554e+01
-8.862366797755260706e+00 1.926220772471327614e-01 1.524498994608906344e+01
-7.410221098686566421e+00 -3.754936034805525402e+00 1.871316255257518790e+01
-7.555743954926550821e+00 -3.681625276739040054e+00 1.885883643274884491e+01
-4.696625389635419312e-01 -4.359195605536680951e-01 1.612113115881563985e+01
-2.996968433608714566e+00 -1.386920086645042183e+00 1.945979930797077984e+01
-5.991904257872724848e+00 -8.442454258952261092e-01 1.563293758044068582e+01
-8.056032359578320978e+00 -2.515404859922240277e+00 1.669382653098065816e+01
-7.996359348731816752e+00 -3.504488914619435569e+00 1.850058817047319693e+01
-8.180608153920765346e+00 2.822289837007153857e+00 1.766002253671175737e+01
-5.955877246845805217e+00 1.525439301478616949e+00 1.413633275710141035e+01
-6.397032374228331264e+00 -2.634998402066369927e+00 1.761781582892502129e+01
-8.175062078545629163e+00 -3.359317466101436445e+00 1.834944478574432125e+01
-4.634222441012353144e+00 8.491868666837469881e-01 1.900990776115970249e+01
-8.865095893620281942e+00 -1.365046361884458825e+00 1.606653879164863952e+01
-1.042402336492302073e+00 -5.969043896735158894e-01 1.945477285710649795e+01
-1.857621233154667539e+00 2.331638329061139103e+00 1.766214601201604495e+01
-7.305478010620270801e+00 -2.479807639933153673e+00 1.722805529068875074e+01
-8.288463857334942730e+00 -3.220304990946404544e+00 1.834377134643436946e+01
-3.613650570164400833e+00 9.010842142642649932e-02 1.343788143846482441e+01
-3.410427079215013091e+00 -1.811293089903248221e+00 1.687632325232926789e+01
-9.476475017250129973e-01 -1.095965385533153702e+00 1.520279010722425284e+01
-4.731755896499505454e+00 -3.171672269861295357e-01 1.493801482685813298e+01
-5.552056936946963006e+00 2.868048476250692147e+00 1.517718269188671698e+01
-2.500384326284447845e+00 -3.078969641351877673e+00 1.781871972784080072e+01
-3.792842651485086591e+00 -6.207066196589410279e-01 1.927932950074551499e+01
-2.653284201864853031e+00 -3.181086268291097419e+00 1.795457760527575175e+01
-4.192804108160174792e+00 -2.201068048033386404e+00 1.724726832442305380e+01
-3.702478047921668569e+00 4.283602300490612969e+00 1.776753357089779328e+01
-6.588552753952396923e-01 2.588461970872746321e-02 1.885506160288146660e+01
-6.224154150532249297e+00 -1.658711141839202652e+00 1.665585495234185487e+01
-3.405767574718270740e+00 -3.391787825384475319e+00 1.809010802723450340e+01
-4.423180292871570884e+00 1.974403806409350759e+00 1.428243115508090355e+01
-3.600466921824800881e+00 -3.408720254364476787e+00 1.807205177323495704e+01
-5.632004066549456844e+00 -1.789045211735456498e+00 1.689228609944072446e+01
-4.824419168550115877e+00 -3.600759479438409905e+00 1.809879109577444467e+01
-5.408918718701885453e+00 -2.759885411002902522e+00 1.950728104708666777e+01
-4.183007240713630281e+00 2.000758455594056962e+00 1.446686058327820490e+01
-6.424298522818997270e+00 -1.956700104025056453e+00 1.693687799870150812e+01
-6.048175622998258838e+00 6.454476727060520780e-01 1.360391323173829292e+01
-3.376072823938045975e+00 2.435713470757433718e+00 1.882771746549808967e+01
-2.988647832840786389e+00 -2.778351385743978774e+00 1.766405131005463502e+01
-7.591119835721717557e+00 2.384589325657771042e-01 1.909563674178617276e+01
-5.183692631710822063e+00 -3.544114104293024425e+00 1.812934135856037088e+01
-1.593032388718427450e+00 1.831073344163164807e+00 1.894978723623308170e+01
-6.474350992312829511e+00 -3.655150372437561579e+00 1.850411329093072510e+01
-3.015797551167258117e+00 1.221248958033249954e+00 1.907425451059781807e+01
-6.848093035446673582e+00 -3.645840009485478816e+00 1.847468311153349774e+01
-7.020412308485286523e+00 -3.662003926730009518e+00 1.846499762202379813e+01
-4.574149495748369154e-01 -1.177616734040940916e+00 1.825244277570065066e+01
-7.415278371388717815e+00 -5.949118952144061279e-01 1.411914889220167879e+01
-7.178176216380236951e+00 -3.737649607788512185e+00 1.855064581108879906e+01
-6.835796784702649731e+00 -6.568506646184582021e-01 1.447130263590731758e+01
-2.613611992544071061e+00 -1.274955763835551537e+00 1.582160217519652790e+01
-3.448927332045058858e+00 -1.051326204771149797e+00 1.607174729220895060e+01
-8.138348908390749870e+00 -2.618028774963750749e+00 1.687467562290017753e+01
-3.183512605881782420e+00 -2.562675540314592659e+00 1.952674983451218083e+01
-7.569539568898311366e+00 -3.724530743193258608e+00 1.870117485821997860e+01
-8.048460784428868919e+00 -3.450508213404215319e+00 1.824791863784830070e+01
-8.183798812961892821e+00 -3.345505184516311736e+00 1.820167060177766771e+01
-8.741595866091795841e+00 -1.758433379199464852e+00 1.613430366401420812e+01
-5.401084608141871080e+00 -1.545559012293413303e+00 1.667554016304789499e+01
-8.818970582708345773e+00 -1.383172570924440015e+00 1.569625819372175002e+01
-5.856560433854722802e+00 1.187112531731554510e+00 1.381878539577914466e+01
-3.794370314310828718e+00 -1.976068169762508209e+00 1.953223367310663150e+01
-6.630587943484135494e+00 -1.484619685337911221e-01 1.383655336018460957e+01
-3.824240791306198872e+00 9.773773585913803075e-02 1.349623022779426051e+01
-8.742095739273590738e+00 -2.351040336373709128e+00 1.812563964949782047e+01
-2.792979451613420316e+00 3.039125450056816113e+00 1.865692749472141543e+01
-8.266917858342523573e+00 -3.679056317684634703e-01 1.461405689675710917e+01
-4.642062974075003901e+00 -1.244565035166617761e+00 1.643430581150086311e+01
-6.197700450777784198e+00 -2.716403200897496539e+00 1.953386731634040530e+01
-3.768301468495926176e+00 3.422866216013137119e+00 1.845038419398356666e+01
-8.665109167765429277e+00 1.902765868765543766e+00 1.600931939805179027e+01
-3.641628186129012512e+00 4.729267812608206611e-02 1.355526666721416618e+01
-3.568747136291537725e+00 2.004672116502342227e+00 1.501029608560001449e+01
-3.794768071305147927e+00 3.119284756091267319e-02 1.366690222157883383e+01
-3.949066869742953845e+00 1.012494261280920904e+00 1.895322560685044877e+01
-2.601728635619722674e+00 -2.851613495351364769e+00 1.763424481309237635e+01
-2.620083303198690317e+00 -2.956038007372782772e+00 1.774141259724284581e+01
-3.388828426817141803e+00 -4.519593639484826841e-01 1.485582597271167771e+01
-2.833828121786079901e+00 -3.180445034506623081e+00 1.796666021898229459e+01
-8.665623044028411215e+00 -2.579691643052775429e+00 1.810504313739573234e+01
-5.013568498088600833e+00 -3.405198931241641525e+00 1.796194727061519814e+01
-8.268031169395499091e+00 2.669386166406778393e+00 1.769191039821159706e+01
-6.184903467710478608e+00 -3.520679882632532731e+00 1.831143973041492146e+01
-5.367049665629568977e+00 2.223260757455883585e+00 1.869149999463527934e+01
-6.409550247281890378e+00 -3.553067550326068691e+00 1.836099366765611762e+01
-3.986778834161015084e+00 2.998920722240172587e+00 1.587317872040712885e+01
-2.966958177235743399e-01 -8.091795647883086584e-01 1.651034049765286582e+01
-2.638272615771421581e+00 3.473864539153341813e-01 1.368271937833931062e+01
-7.015717842786237668e+00 3.654466500346531532e+00 1.639980339682433552e+01
-8.079417418695129527e+00 -1.473212429742307483e+00 1.501927665568570092e+01
-6.998864761092937314e+00 -3.533864298814173743e+00 1.831905114158167081e+01
-7.522489024074029418e-01 -2.798960083056937886e+00 1.690842334963795679e+01
-1.059384289943158919e+00 1.751458927349142991e+00 1.823850421574135083e+01
-7.716021865540428237e+00 -3.674759245562468024e+00 1.851508329693569976e+01
-8.019374817965019275e+00 -3.397463197783208599e+00 1.812143335890566220e+01
-7.329235233686140383e+00 4.347504974274176703e+00 1.713270774797168983e+01
-7.135105107809238234e+00 3.486530436035981673e-01 1.417920917036453687e+01
-8.551791574211168978e+00 -2.898295702721699563e+00 1.788739126701821291e+01
-8.668323543420815014e+00 -1.145109149569617957e+00 1.895411878869723310e+01
-1.139386842066368422e+00 -2.391272208663653309e+00 1.910164462565722587e+01
-8.729334725269573880e+00 -2.213206628168650880e+00 1.692056473657208926e+01
-8.699172497714833696e+00 -2.203252033925211961e+00 1.668915659291218745e+01
-7.153623093701345859e+00 3.222178680810457330e+00 1.800431200883467397e+01
-8.641253131534583076e+00 -1.973435635101326691e+00 1.612164552515360327e+01
-2.271449098953398860e+00 -3.226836003546865506e+00 1.959413245960779548e+01
-8.986632146537857357e-01 -3.109823290276019669e+00 1.821089953465432743e+01
-6.803491202318147302e+00 -2.003028811139317966e-01 1.390165650584916790e+01
-6.451111695077492492e+00 -2.140182365043287405e+00 1.713804170066412169e+01
-6.633769402445446772e+00 -2.856640585143415123e-01 1.399775659546269324e+01
-1.170479997198999644e+00 -1.084584514718152981e+00 1.505386683046056362e+01
-3.992744590042276887e+00 2.008106566533641058e+00 1.463906995361361751e+01
-2.802080541896495802e+00 -2.716105756127753512e+00 1.758250842700578076e+01
-2.804428582838545569e+00 -2.837021135714024922e+00 1.768555994589176805e+01
-9.188070765568120635e+00 1.633392261317597738e+00 1.726847900299350158e+01
-4.398902180272685314e+00 2.222795909526702474e-01 1.912754688057266605e+01
-5.996594720146467772e+00 -3.258657442395676895e+00 1.807806589185862123e+01
-3.212104254401706882e+00 -1.835022115836000500e+00 1.684780420334697837e+01
-7.386315776222908802e+00 -3.608324753695517195e+00 1.832603716328577548e+01
-5.616732179482522014e+00 2.971981650574137213e+00 1.836967201300146613e+01
-8.135223474327275994e+00 -3.291300530288866710e+00 1.800695269820531053e+01
-6.783965632608728313e+00 3.390563493612575030e+00 1.610553316752081088e+01
-1.391710071239074420e+00 2.196472105804282648e+00 1.861249516950987726e+01
-8.254638297105611144e+00 -3.169120181043455275e+00 1.787553639891233104e+01
-2.586513716753043202e+00 -2.761205509550162418e+00 1.961999559737889598e+01
-4.406504897000530718e+00 -1.638167967139769754e+00 1.681917586534671116e+01
-4.052396635016809467e-01 -1.611248920188402156e+00 1.670149145088107900e+01
-8.392249701672469087e+00 -3.104041527920645471e+00 1.790476450162684685e+01
-2.967091479598721993e+00 1.227633743435997848e+00 1.458875920649000690e+01
-8.428836105441536830e+00 -2.965469360747820193e+00 1.766816608000748090e+01
-4.225735309979530285e+00 -2.004805667946888637e+00 1.955178225291280469e+01
-4.364979078304760840e+00 -3.864410194509222407e+00 1.862974628431813784e+01
-1.690426444483937862e+00 -1.113812701398774196e-01 1.449020166306361190e+01
-8.600437788548841667e+00 -2.753526292308255297e+00 1.771382634649301480e+01
-9.083929976628077441e+00 -8.445186556932382516e-01 1.815287843646699173e+01
-6.689106942284967161e+00 -5.122183715315564712e-02 1.381908131196545142e+01
-8.656302968306505363e+00 -2.392700524055323186e+00 1.689906585382993853e+01
-8.572017079032985265e+00 -2.356197309810677876e+00 1.653223538727141317e+01
-8.535367663343215838e+00 -2.298146226788760238e+00 1.634352183677351888e+01
-8.446270726908657878e+00 -2.218783106972533226e+00 1.609953901092201534e+01
-1.860742791050989497e+00 2.765453561405507799e+00 1.827948413348234169e+01
-6.721416990523241708e+00 -3.255108253664979578e+00 1.808773531305049787e+01
-8.597518082197957767e+00 -1.921777037287187850e+00 1.593139409117016214e+01
-4.229657739490976454e+00 2.838197745191683552e+00 1.852320188188515360e+01
-7.663260534523930190e+00 -4.932220012658981023e-01 1.397519661186023399e+01
-7.388591488795960949e+00 -1.906421554456680489e+00 1.960699671172746150e+01
-1.740191281742042850e+00 1.620519799096801217e+00 1.905293773282901881e+01
-7.815159899483621331e+00 -4.635918629283231063e-01 1.411191974323959997e+01
-5.840443362537871330e+00 -2.791692890685997241e+00 1.772954079497000279e+01
-7.613987923284934567e+00 -4.429623459890313919e-01 1.409074545336507356e+01
-8.521561718039183830e+00 -2.677784483611358457e+00 1.847304861613025651e+01
-7.426003349777587026e+00 -4.017603932762575658e-01 1.406617524813088593e+01
-5.488261011753508001e-01 -1.793183201130118309e+00 1.815646551157795940e+01
-1.958268298767643412e+00 1.188477688581590863e+00 1.587617985085554650e+01
-5.437099142474146163e+00 -3.197477497015298376e+00 1.793608601435873240e+01
-7.620125846835692940e+00 -3.319569448911389387e+00 1.801462208747723182e+01
-7.974810841595214583e+00 -3.310775623130814083e+00 1.798495435848556312e+01
-9.373913496958140579e-01 -3.275496641930811803e-01 1.540656350837595312e+01
-8.016970953007684031e+00 -3.214395288339263246e+00 1.787422855659423249e+01
-1.998379159142267270e+00 -6.881507675614557673e-01 1.440972317107953415e+01
-8.462836122058128296e+00 -2.444799961373315789e+00 1.651248203047094876e+01
-2.797800561196260194e+00 -1.588488929429088703e+00 1.954023633179585673e+01
-8.409660865391138884e+00 -1.993196824647457177e+00 1.573725236824630613e+01
-4.412968745462641174e+00 -2.988815551387413727e+00 1.946237912404256676e+01
-3.975415075356100392e+00 4.230881121600559069e+00 1.808980147937081284e+01
-4.816533622649187940e+00 4.353214298468210508e+00 1.687517721655498448e+01
-7.801869507164426842e+00 2.407200075723449295e+00 1.584967708156138855e+01
-8.609008969040193193e+00 -1.409834474787918790e+00 1.530948382581178535e+01
-7.576041001209971704e+00 -6.023319207302598732e-01 1.410720882886115035e+01
-6.790712784696927962e+00 -2.753035556789027005e+00 1.955479726002877783e+01
-1.359126982904970582e+00 6.353201323722661442e-01 1.605661618781361355e+01
-7.220355832272980834e+00 -5.447139605467198331e-01 1.411240224723768222e+01
-6.872432117438790122e+00 -5.671337058221229688e-01 1.430841972933702522e+01
-5.636284877455485898e+00 -3.198634848489046334e+00 1.940811709004076491e+01
-5.996867553808407081e+00 -2.950156398094030852e+00 1.950405608577952066e+01
-6.998358640100845740e+00 -2.940682957647966056e+00 1.779397072324024975e+01
-1.980364886630137322e+00 2.234604826206867401e+00 1.884816530163624293e+01
-5.753871128227779685e+00 1.164689963669746975e+00 1.373973466104542496e+01
-5.472831238069668647e-01 -1.314380515284705453e+00 1.599913398768819661e+01
-4.049815793405436182e+00 -1.160233215278626551e+00 1.634351440734084804e+01
-6.958513284346667938e+00 -1.611094587077761098e+00 1.587437029598991245e+01
-7.800018202805491185e+00 -3.215850066673776375e+00 1.789364591629140477e+01
-6.326602936152155854e-01 -3.913089846377086900e-01 1.888220676658384534e+01
-1.260307386951767805e+00 -1.580054081002189470e+00 1.963498964537606994e+01
-8.238048355650768428e+00 -2.985650500836634968e+00 1.754035144009698399e+01
-8.824833107135414689e-01 -4.885186462753341452e-01 1.531642797240538911e+01
-2.854438723675011502e+00 2.599446283250803624e+00 1.878635295686686746e+01
-8.571602884995051852e+00 -2.729733970935940057e+00 1.753369345298647630e+01
-8.346644733413192796e+00 -2.501530645899776140e+00 1.651472041649123668e+01
-3.638757537761578398e+00 3.377610809025030747e+00 1.671657327601080212e+01
-8.214404995096842299e+00 -2.345949225512461211e+00 1.611916719876422732e+01
-2.218679230867350860e+00 7.771754047984831271e-01 1.487935103387821201e+01
-8.446598688363703644e+00 -1.799244031496663787e+00 1.552486243076116779e+01
-6.234823121040518501e+00 -2.154390281775331317e+00 1.718999285222136564e+01
-8.550007470628468553e+00 -2.207604500852395901e+00 1.874640874830432935e+01
-8.470301245690400549e+00 -1.585691207497101018e+00 1.527377954275107186e+01
-8.568405183756279797e+00 -1.549399362851480610e+00 1.532375834224739819e+01
-7.828322814600936042e+00 -6.016383649122166721e-01 1.413021794438325429e+01
-7.028233725250201402e+00 -6.429245283520450549e-01 1.432496181676271263e+01
-4.207046351948106278e+00 -4.679538631790636227e-01 1.524792674138658199e+01
-9.129791266639692537e+00 -3.692781944246370518e-01 1.651524197237145231e+01
-7.376172395601171550e-01 -1.455695222500106301e+00 1.877377010216626729e+01
-4.813168380680125757e+00 -4.526628867642435994e-01 1.525651133143675509e+01
-5.248830556307530593e+00 -1.371126985038872759e+00 1.651980697183656588e+01
-6.612709533834009612e+00 2.633290741853682171e+00 1.835790479311210177e+01
-2.130366390242787400e+00 -7.463455683650603856e-01 1.453316008291103856e+01
-4.001647581151114963e+00 -7.131906473462756857e-02 1.409801790239897912e+01
-2.358580868526630958e+00 -1.598869897770380799e+00 1.597784799995682548e+01
-5.224677732805405483e+00 -1.991851352299925271e+00 1.710986820232526640e+01
-8.439342309560618816e+00 -2.792041649048116803e+00 1.733989908767470922e+01
-7.972751098982583606e+00 -3.123121422217972842e+00 1.776214267315512174e+01
-1.095642912433550720e+00 -2.007595043019190229e+00 1.926540126149286536e+01
-5.496223328110297679e+00 2.272267558422556455e+00 1.457439558908977872e+01
-8.182949962674310740e+00 -3.061212447628136601e+00 1.765582867626018526e+01
-8.389055323151918486e+00 -2.731654103248164489e+00 1.712512700150945477e+01
-8.415229963712977934e+00 -2.652362121935690098e+00 1.693323836553962636e+01
-8.857468347443742118e+00 -1.370918147928585906e+00 1.857074623651144307e+01
-8.156900394303789881e+00 -2.469836174385254601e+00 1.646413583582330986e+01
-7.980288497858546437e-01 -2.579008051475499386e+00 1.830963290247287745e+01
-8.260272468126512280e+00 -1.867706844789215559e+00 1.546554328060360106e+01
-6.981510165255357947e+00 1.604016788522052872e+00 1.863282974685064985e+01
-1.638256611835378518e+00 7.200984209679239800e-01 1.572994543494242592e+01
-3.782806851324660435e+00 7.680036472631612821e-01 1.899095034979937680e+01
-8.224233518554463274e+00 -1.797510705717940027e+00 1.538053922191986445e+01
-8.352503728760229507e+00 -1.564875697913202357e+00 1.518013230693314597e+01
-9.207305231453357663e+00 4.158628564732793631e-01 1.589749973739662536e+01
-5.008597819648877625e+00 -3.907628381702107356e-01 1.507441317502716061e+01
-1.413118105080060749e+00 1.813191721273757162e+00 1.766284060661936905e+01
-5.622306180529387021e+00 -9.360747983464029476e-01 1.596105872049718499e+01
-7.820467061472246684e+00 -3.018036983102529991e+00 1.768654087492864946e+01
-4.189391017756735280e+00 1.810885971638029224e+00 1.422890034447584284e+01
-1.966982047088009500e+00 2.022830014004911803e+00 1.704131434624325081e+01
-5.781888564738991043e+00 4.061516183370965649e+00 1.793324672595884905e+01
-4.978800015676002388e+00 3.426898666001530813e+00 1.826866994038724101e+01
-3.585885160969670693e+00 8.267156260284365121e-01 1.345382955378775236e+01
-8.013574418163148749e+00 -2.945699444726571414e+00 1.752615186320113239e+01
-4.598676512436031594e+00 1.813740739727099482e+00 1.881597700701522058e+01
-8.232109665204106363e+00 -2.836847633175718641e+00 1.728998332186995057e+01
-3.935127825277166647e+00 4.478467039485122925e+00 1.780321719300953021e+01
-7.613935471236101371e+00 -2.179431010793702495e+00 1.610724978050081191e+01
-8.211243527345656545e+00 -2.578767824567241185e+00 1.673184571034444090e+01
-4.401251356339423992e-01 -6.002242319003350257e-01 1.847340385539967400e+01
-2.198768880156032779e+00 -2.162301976672376114e-02 1.385734704559862251e+01
-7.331214490076671808e-01 -5.924131978461474324e-01 1.907188229261587153e+01
-7.987574869042784798e+00 -2.287914340265126967e+00 1.601669327667899978e+01
-1.449247809361712713e+00 1.756521807068938790e+00 1.751551665780749190e+01
-8.229610263080250121e+00 -1.677346431897975831e+00 1.526246143716082670e+01
-5.675138289882508680e+00 -2.905183012430401224e+00 1.779201898634017098e+01
-8.205903220094292294e+00 -1.563154345065956186e+00 1.513338175186140688e+01
-8.230074129942218875e+00 -1.221859533846419543e+00 1.487403638610605583e+01
-8.215111721779104315e+00 -1.004354641534358050e+00 1.470480482161163138e+01
-8.027439246412830798e+00 -6.152204795613368526e-01 1.430358848546853068e+01
-5.233379715726925063e+00 -7.304843981491375704e-01 1.936493944248995902e+01
-4.396905819256464731e+00 2.232906538599592317e+00 1.461377366081552864e+01
-7.974475246348841750e+00 -7.787634769999220996e-01 1.436731764676312650e+01
-7.194377109556309158e+00 -2.129245952410468767e+00 1.672142809845293243e+01
-9.748087166707248841e-01 3.875712629136993659e-01 1.631317209953171599e+01
-6.741437008943540476e+00 2.326895656037732962e-01 1.906918221525177515e+01
-6.480393263651183844e+00 1.477399106025457209e+00 1.440611997770215069e+01
-7.995382941367275897e+00 -2.792409697518666523e+00 1.731416746353650638e+01
-3.551912467935878670e+00 1.037450812939359368e+00 1.898716720743602693e+01
-8.194865263035794101e+00 -2.761122652618404949e+00 1.714590941899140120e+01
-2.414393393168639435e+00 3.378446409570790010e+00 1.840518213092295952e+01
-8.238992647939831215e+00 -2.691996910561084810e+00 1.698255709651586542e+01
-9.375453919553184079e+00 8.002252335171506914e-01 1.648338903059390148e+01
-2.168740146305917271e+00 1.186814644955114462e+00 1.921295378584068203e+01
-7.975495597662710878e+00 -9.913063422221495280e-01 1.450568590355354459e+01
-7.004191362440314705e+00 -1.997843869664616134e+00 1.667337972472812524e+01
-7.400836775926071809e+00 -2.006526196446913435e+00 1.589945342305508902e+01
-5.786227512862680555e+00 -2.332984571883165437e+00 1.952845531655467681e+01
-2.587070277591895451e+00 -3.804281591812946672e+00 1.852577242195265939e+01
-2.602651234113112722e+00 -2.157813578715351177e+00 1.965589223430788834e+01
-7.433583928370897986e+00 -1.964715219698077942e+00 1.576984526663024155e+01
-1.891748893493391037e+00 2.513702137305886097e+00 1.787017260349404069e+01
-6.777891144944906188e+00 -1.637999318562440187e+00 1.627859729320039150e+01
-4.777270090325008489e+00 1.130144060809616935e-01 1.365524307990865438e+01
-6.877316695093526278e+00 -1.745413356806476024e+00 1.632094629752283055e+01
-6.944284219858600338e+00 -1.873837949437817674e+00 1.649777424897670386e+01
-7.599590241756784437e+00 -1.737469346740706522e+00 1.535187031585130768e+01
-9.126451642786733487e+00 1.213457685280277643e+00 1.770039839232027390e+01
-8.857344758690750552e+00 1.705676748859471514e+00 1.776947576444869270e+01
-6.546832200208810626e+00 -1.438144241123680223e+00 1.621448860979589313e+01
-6.607891524908160008e+00 -1.412900559896455466e+00 1.610347455360753699e+01
-9.439601727965876155e-01 2.709111201296470206e-01 1.619644305275790686e+01
-6.838983955698419770e+00 -1.611806038193873025e+00 1.611324305606084906e+01
-6.400032348193171572e+00 -1.186674055680179585e+00 1.591835010174662557e+01
-7.013385616437918024e+00 -1.777661453543764480e+00 1.610633720162354265e+01
-3.704265868135919737e-01 -5.619847288189609991e-01 1.827598084087955854e+01
-5.298236754649638947e+00 2.545828941598394124e+00 1.858409801353023383e+01
-4.984086525357464659e+00 2.613097867866524204e+00 1.487408614665168827e+01
-6.975127149368725910e+00 -1.829596698080012906e+00 1.632673897259515883e+01
-7.045342202117375940e+00 -1.730937330922554862e+00 1.593233001469720733e+01
-1.915171183751436468e+00 2.878274404102400652e+00 1.845052375989675397e+01
-2.796699521484470097e+00 3.630776335310293312e+00 1.838702424722923467e+01
-1.249148937169163531e+00 2.005672324813575713e+00 1.861218742688090089e+01
-1.572199285724343198e+00 2.418701530297843405e+00 1.860035469776470407e+01
-1.980124470378127777e+00 2.609579715715507398e+00 1.869199089194813723e+01
-5.217648210144362864e+00 5.761036811602242569e-01 1.907227668396510367e+01
-7.224226798760028601e+00 3.081587285084825822e+00 1.599607222987638266e+01
-6.785164677257609966e+00 2.018864965221892405e+00 1.852885822361846735e+01
-9.240506280029297415e+00 1.643906814605778921e+00 1.708399671806936482e+01
-1.558691633087101902e+00 -4.172662446593341512e-01 1.444072318777842767e+01
-1.754679681931132551e+00 2.617070672003209530e+00 1.859475510934520770e+01
-1.220729607850371767e+00 -3.489030878871580699e-01 1.953939520411233133e+01
-3.681185385060894433e+00 3.869292541650002804e+00 1.830945599772008947e+01
-7.408144606450942860e+00 6.058614985889776428e-01 1.449600835513376751e+01
-1.994949988490772652e+00 2.816636450523595236e+00 1.859777012270844665e+01
-4.796299255560454000e+00 -1.153902330276674659e+00 1.946738057300178326e+01
-2.530794052429397034e+00 3.463794418273485221e+00 1.839532416604266629e+01
-2.442664857921497124e+00 9.080616734250817057e-01 1.475414496852044621e+01
-2.975334655817140628e-01 -1.019255657435356399e+00 1.670862875822870919e+01
-7.005338108810281739e+00 3.986674374783172325e+00 1.667209246176366477e+01
-1.600971625114591790e+00 2.034602321894632304e+00 1.886495706122564542e+01
-1.979625912168237578e+00 2.411336535871233977e+00 1.877845836522742573e+01
-2.159822493238352958e+00 2.622701334104139193e+00 1.870584046994235194e+01
-9.315764041166069376e+00 1.414895261387201897e+00 1.710102381903427826e+01
-2.422732482143344246e+00 3.002159871411825165e+00 1.859341904824314540e+01
-1.972108210907878245e+00 -1.185950049909075377e+00 1.980906753416553201e+01
-4.214005165990974078e+00 4.225937905757628066e+00 1.801913998653600757e+01
-9.826689790365032984e-01 1.413352141941921269e+00 1.884129378560439960e+01
-9.223024825255028425e-01 -1.623809801196175462e+00 1.910045294979767760e+01
-1.835219837248814656e+00 1.964127972962634638e+00 1.893484114242327365e+01
-2.158322181143743634e+00 -1.779272232349636162e+00 1.594590381874646212e+01
-6.049007729813432377e+00 -1.344822566548093068e+00 1.634288515031535738e+01
-2.401759704807181262e+00 2.193109909936938884e+00 1.889505606164695806e+01
-3.404448248063204119e+00 -1.914344991835602805e+00 1.697337052869943719e+01
-3.658193028344756570e+00 -1.916247017623542437e+00 1.700192972163125305e+01
-7.036998934978824671e+00 -1.970858286859554553e+00 1.958639692172307534e+01
-2.631228744091782090e+00 2.417226273598680919e+00 1.882600544643207741e+01
-6.185138523451975345e+00 1.413101002054532929e+00 1.868505002695038897e+01
-2.779499992207227432e+00 2.814911194238667314e+00 1.871797593034115081e+01
-3.744954782550999006e+00 3.612728202152728052e+00 1.838526388574600290e+01
-4.405652659277801142e+00 4.113316166737379653e-02 1.388740465384180922e+01
-7.306400895012719054e+00 -2.142590144070610769e+00 1.659438250340986443e+01
-8.430035056527220405e+00 2.956646614923073013e-01 1.893764797052593707e+01
-2.361874149169064463e+00 -2.730335433487616648e+00 1.736079717542915546e+01
-3.789654239355031873e+00 3.985258708522945170e+00 1.822513432975800995e+01
-9.078307119724701835e+00 2.081883156057196871e+00 1.693618336807604052e+01
-3.521751084005294574e-01 -5.913541890015973079e-01 1.625721346837776693e+01
-4.192524710174910574e+00 4.011877516888691098e+00 1.807705826913808878e+01
-6.623541635359107893e+00 7.853023752173491356e-01 1.407538748356486735e+01
-4.435116432159686539e+00 4.726040129150573144e+00 1.770983169606150298e+01
-5.166366795710880311e+00 4.861069269894012557e+00 1.741784653263912119e+01
-3.181906338665442480e+00 1.603704908521426331e+00 1.485899086785132539e+01
-4.805358481358860345e+00 1.003479261392339117e+00 1.899556639813668824e+01
-2.032899901586359803e+00 1.770147202138110609e+00 1.902058348565645574e+01
-2.219222779277687074e+00 1.990611581324659651e+00 1.895874297836192568e+01
-1.634911429654227089e+00 1.132883470995975861e+00 1.631723939450040461e+01
-2.579643148317329882e+00 1.823767268541174547e+00 1.902782973078188178e+01
-7.131311492795722629e+00 3.639581624045725938e+00 1.778271409510103140e+01
-4.812156339415732731e+00 3.045158381453286545e+00 1.543731658979200105e+01
-4.109535771723700215e+00 4.247820904407382692e+00 1.736655959260455262e+01
-3.839879340766084503e+00 -1.604537040620074295e-01 1.428361493995518217e+01
-7.722715837874949862e+00 1.169135424358986208e+00 1.879395826406634029e+01
-2.991421267570587350e+00 2.613887852197308348e+00 1.879166799045044911e+01
-2.946562381006342601e+00 2.817499999551197121e+00 1.873891820246751649e+01
-3.000274574838659891e+00 3.010605351866233015e+00 1.869588877804280358e+01
-6.196008833576087227e+00 -2.980280095839128229e+00 1.951314271890881713e+01
-8.380062177620569486e+00 -1.779433543415941399e-01 1.472355145361977691e+01
-7.614534250184002317e+00 3.202540087495559185e+00 1.626127096547674000e+01
-4.217959730312005107e+00 3.831029883942779435e+00 1.812313676554468245e+01
-4.797466442100388306e+00 4.613073081363549655e+00 1.782186973406244945e+01
-3.988595021247548278e+00 3.061913080834303358e+00 1.851111532266680371e+01
-7.578166631358557837e+00 -1.458564437608830699e+00 1.507465224835319262e+01
-2.114537523002329777e+00 2.279019124431986398e+00 1.716607746886950991e+01
-6.361038516214383431e-01 -2.597017273730708453e+00 1.772271187960898686e+01
-3.476381357886282775e+00 -1.513738408591787543e+00 1.659777300254241439e+01
-1.864192615336526915e+00 1.378194924643059815e+00 1.629589904628113217e+01
-6.306985011525578777e-01 1.000182696675155691e+00 1.863197468048566563e+01
-9.019436667752099845e-01 1.078395874162193513e+00 1.895370069724830842e+01
-4.442076776247549930e+00 -2.624385089868574994e+00 1.952275121326183083e+01
-2.727886728036288400e+00 3.673023047483741088e+00 1.825392367844261798e+01
-2.398557012248995424e+00 2.386029470914819761e+00 1.686251172826084144e+01
-7.183301957982795471e+00 -2.619844589389513700e+00 1.961457891706486478e+01
-3.592314725644829121e+00 -1.221367213987973432e+00 1.940414978426812453e+01
-2.010293358988879397e+00 1.430150480573882943e+00 1.913601607622135603e+01
-2.597333291802450983e+00 1.588201525883078391e+00 1.908990870084532077e+01
-6.361185284687243424e+00 4.570460759568391040e+00 1.707629084816601051e+01
-1.013080251849056479e+00 1.593789548693157920e+00 1.805518134462814572e+01
-3.021600443525767510e+00 1.966597000464022083e+00 1.897920612607041946e+01
-3.171455331516912945e+00 2.621424256010041809e+00 1.879586742538428368e+01
-6.205499953689245451e+00 4.216522434477063541e+00 1.662683704032421517e+01
-3.395128504078249954e+00 2.844759059863740447e+00 1.873604222515605144e+01
-8.948115681879937000e+00 -1.158658220359899627e+00 1.629915150914459332e+01
-2.790500627394583599e+00 1.002613371145195886e+00 1.447119622351545587e+01
-3.579947489882961520e+00 2.811984321679904753e+00 1.871310270196938319e+01
-5.592010101090565399e+00 -3.028660548380533335e+00 1.786179881341746167e+01
-4.015942282390328799e+00 3.255788016238745364e+00 1.842699133072213513e+01
-1.281107547013050851e+00 -4.875806719851825122e-01 1.476360609171665672e+01
-7.553860796506542963e-01 8.041296604558307859e-01 1.890221905784604317e+01
-2.198628579153623974e+00 -5.995349389963621212e-01 1.963975431886146694e+01
-1.576151117810771218e+00 1.033318971308159417e+00 1.925533596430107508e+01
-1.803160070545981375e+00 1.177194578914212419e+00 1.921351859233546477e+01
-8.768080384189559595e+00 -1.184183259155299428e+00 1.547144234953327313e+01
-2.312908595126995426e+00 1.337660019723825533e+00 1.917088888594109974e+01
-5.906282602964450845e+00 4.270647372878797476e-01 1.339224389898310719e+01
-3.196900533725328231e+00 -1.349368717032052079e+00 1.632932120381102692e+01
-4.661715206281876078e+00 -6.256870878605995667e-01 1.934747610429505471e+01
-2.789772727644324934e+00 1.406531777593705401e+00 1.910526696017804582e+01
-2.832372195596191577e+00 1.629668642905423903e+00 1.906655338821103740e+01
-9.906778629586155960e-01 -2.602287975767902051e+00 1.867877804014758070e+01
-1.968721175080189734e-01 -3.794555298808018895e-01 1.750455377879237417e+01
-1.619302053373825157e+00 9.546339623162827248e-01 1.609071038487375915e+01
-9.207655413921152388e+00 4.357621183621940286e-01 1.787536247575920711e+01
-8.969409133438137616e+00 2.496229550217554660e-01 1.844873581181597899e+01
-3.141630847160245654e+00 1.800188665920967379e+00 1.898302454008782902e+01
-3.206980695757015276e+00 1.999079106952829976e+00 1.894472157084104325e+01
-2.615127996345618211e+00 -8.489954048138330656e-01 1.510571862966829570e+01
-3.371446030896769308e+00 1.831187551534891655e+00 1.893633699613028654e+01
-4.341781657898304836e+00 -1.099530828599345922e+00 1.628934784137390324e+01
-4.181151236513397151e+00 3.048499193177475419e+00 1.846105921851725995e+01
-5.390173810376215791e+00 4.655643599711298819e+00 1.779691226701270779e+01
-4.854050299351567510e+00 -3.317665776084854912e+00 1.943563760514766159e+01
-3.274676387112658738e+00 3.541090197708161469e+00 1.731664432447156443e+01
-6.415719236714513052e+00 -1.008298867970224499e+00 1.942085962630326890e+01
-1.796317189300567163e+00 9.889410986920605939e-01 1.928196944865936047e+01
-6.570455897905305598e+00 2.761662086024505136e+00 1.548479987674556568e+01
-1.824867664266363487e+00 8.266281088448996783e-01 1.933964131732495417e+01
-4.172967799541003941e+00 -2.766246608131942786e+00 1.949327934042142729e+01
-2.381042974072575369e+00 1.200782584965688793e+00 1.920418554053557258e+01
-2.828020356407048297e+00 1.041422507414777821e+00 1.914722964520744952e+01
-4.012992797848450977e+00 -1.168466519481057730e+00 1.943859951653754692e+01
-2.983058232216916572e+00 1.602873995598308676e+00 1.904017740318423435e+01
-3.271336932542735276e+00 1.738000091405507375e+00 1.896258248043701045e+01
-3.830416525010496898e+00 2.440780731139138737e+00 1.874039595349703191e+01
-4.169840746000543774e+00 2.431755561120445108e+00 1.866226597884701732e+01
-5.563210378413010915e+00 -1.561238482922713056e+00 1.667246988776932071e+01
-4.385696368474469864e+00 3.009150093917180691e+00 1.844657546920563718e+01
-6.396038760505914134e+00 7.814902749569525575e-01 1.391951061701842107e+01
-6.923915284294577255e-01 -1.194648936196589961e+00 1.557542409316166854e+01
-3.940855035820052255e+00 3.675949672014733771e+00 1.678614610787867178e+01
-4.977212138884913983e+00 3.807121489674559101e+00 1.808761209580431384e+01
-9.058528966496905976e-01 -1.918004275620677435e+00 1.885868063864176847e+01
-5.163335180296604321e+00 3.840478213611336678e+00 1.807968718999979885e+01
-5.576635383673462343e+00 -4.114982860981135637e-01 1.492676450667832810e+01
-4.491830187660883489e-01 -3.721565977439353912e-01 1.845938146213892139e+01
-1.587921626620841797e+00 6.151577531410301614e-01 1.940553827446801094e+01
-1.750123079800152137e+00 7.205347144145057836e-01 1.937834927722157019e+01
-6.984505529350601094e+00 -3.697716778648082681e+00 1.910050414258286722e+01
-3.802276359494249025e+00 1.571618872231560049e+00 1.890291535459921235e+01
-2.214813205207974089e+00 8.419037193039269340e-01 1.931062271113518491e+01
-8.662551117888849461e+00 -2.170889605537184686e+00 1.852076538915265047e+01
-6.237083564839591254e+00 -3.464234667286379965e-01 1.434631708343453482e+01
-2.423370081586049274e+00 7.813508270412901080e-01 1.929794278155711851e+01
-2.597311799086542639e+00 8.362796182402298939e-01 1.924717356044746097e+01
