-2.227984453205642090e+00 -5.201933699419751811e-01 1.822004341432240793e+01
-2.827693575462002062e+00 -8.677912180441404999e-02 1.815405827098026847e+01
-2.662971832596274346e+00 -5.083608382924897917e-01 1.824598094080192467e+01
-4.561353983056277706e+00 4.750091795766165248e+00 1.560293160663753653e+01
-6.273390821948172658e+00 2.949473304093363168e+00 1.371743112775988394e+01
-2.862104456989029266e+00 -4.686574816349051709e-01 1.824390018633224386e+01
-3.480040863169459264e+00 -5.379966524496149205e-01 1.828056325310025088e+01
-3.851506515948645237e+00 -7.910037382040746579e-02 1.814448122548752806e+01
-4.037076352346506525e+00 8.831645138770261028e-02 1.809076241029689314e+01
-3.847146568013642742e+00 -5.327285213911507888e-01 1.827367015062219124e+01
-4.857982082453544237e+00 2.891547384856236746e-01 1.798930405639868368e+01
-4.419943220831753727e+00 -9.414584238952983242e-02 1.812216256285607940e+01
-5.045465527576335596e+00 -1.117236362591049748e-01 1.808704266914816472e+01
-5.640097493888897695e+00 1.104182508981348398e-01 1.797150142480938584e+01
-6.224378544235094957e+00 9.039301435563285025e-02 1.789699354501901141e+01
-6.232518659003591921e+00 -1.029351238325126872e-01 1.794597405498563703e+01
-6.670525913168748211e+00 1.621757720733589814e-01 1.775097433251839973e+01
-7.424432642569492202e+00 -5.104041801750369700e-02 1.727142566408366164e+01
-7.493595997861788760e+00 -2.132207916732093977e-01 1.725690988630380573e+01
-7.761807005480877208e+00 -9.662851878872835698e-03 1.664747725888708274e+01
-5.064530011892070860e+00 2.798945598241375787e+00 1.254731323785130215e+01
-7.677674513546007162e+00 -2.562755163064656116e-02 1.686620356614818306e+01
-7.828496514854970556e+00 -2.172225876509119580e-01 1.663705601734260497e+01
-1.489309768213526119e+00 2.552967428360197744e+00 1.499132021751963251e+01
-7.756694049326938512e+00 1.910493309793639405e-01 1.645725173871057123e+01
-7.877080901138644009e+00 -1.774297179531543200e-01 1.643248480902913755e+01
-2.841519948045623689e+00 1.704017492855846250e+00 1.767990448650097690e+01
-5.029421652126742082e+00 -4.606523512251319730e+00 1.764715331299229106e+01
-3.278584411993818115e+00 -3.688976851377582467e+00 1.855009683432442458e+01
-6.029213190651058873e+00 1.681352780888915266e+00 1.222034851200060857e+01
-4.069003854627662342e+00 1.121962974506805821e+00 1.140854232898097464e+01
-4.083828052915468021e+00 9.576528331820470807e-01 1.159551929241611745e+01
-3.065651314653242032e+00 6.513383940784276405e-01 1.194453389251316011e+01
-2.867017852662687272e+00 4.755016455217646598e-01 1.223224049565169125e+01
-6.512035619503846462e-01 -4.647767526014479067e-01 1.723272073645498281e+01
-2.259605399369448708e+00 -7.558358495220920403e-01 1.827643085988203708e+01
-2.462408350956547753e+00 -9.500503004617306679e-01 1.834498416789733355e+01
-3.267398858217832824e+00 -1.130394602403852922e+00 1.842826118276368774e+01
-2.819721176198969115e+00 2.178663108183466868e+00 1.215618105990220599e+01
-3.646263192546188137e+00 -1.085796304103089582e+00 1.842577831222516593e+01
-5.122526975265869531e+00 3.952030532986487987e-01 1.246889338987875462e+01
-3.634483741854546146e+00 -9.979622972460187036e-01 1.840719627073132258e+01
-4.048734479691105115e+00 -4.863715656338873927e-01 1.825777567843076454e+01
-4.050849603648681629e+00 -7.134230971642803176e-01 1.832431892830223674e+01
-4.850315125636917024e+00 -2.942765947677172811e-01 1.815629394210287373e+01
-4.830106418997436535e+00 -5.400793880455778684e-01 1.823536939020390335e+01
-6.446988780834478128e+00 2.552364071604648288e+00 1.350859981056232684e+01
-5.470068199601628933e+00 -4.521933974943848078e-01 1.815203468284697053e+01
-5.224681509715048300e+00 -5.535167034974031175e-01 1.820233443448567456e+01
-6.668310741646660489e+00 -3.079413322387249963e-01 1.788868377237433194e+01
-7.286481182399464629e+00 -6.879654998183895032e-01 1.765996315616113677e+01
-7.663952554188259825e+00 -6.510112796107483391e-01 1.720540693815441458e+01
-7.740359701764148781e+00 -4.410734229217636582e-01 1.696645573053945455e+01
-7.881583391148845763e+00 -7.808074251538639210e-01 1.683617789416629407e+01
-7.918399948012950773e+00 -2.826610013303811897e-01 1.636652318409039353e+01
-7.922150527969364475e+00 -1.748563486113869914e-01 1.620592911513474021e+01
-4.066358969997183159e+00 6.655259445785426387e-01 1.194329377598297626e+01
-7.339291870937595164e+00 7.608868102761190411e-01 1.408275263421284862e+01
-4.268478270975792022e+00 9.671544964783060916e-01 1.161232855638938943e+01
-3.315027683108970891e+00 3.451169790981936991e+00 1.378074336845914516e+01
-6.298977557531953764e+00 2.257616498806472638e+00 1.303966721148715280e+01
-4.051697430332960259e+00 8.651230913304164272e-01 1.169811703385204638e+01
-4.079381528061096773e+00 7.793140698429554813e-01 1.180202093470878921e+01
-6.480996572444553294e+00 3.114400606777250946e+00 1.412780173623604796e+01
-4.951736019237089614e+00 3.293841174488917112e+00 1.330680468970848196e+01
-2.506194815436246781e+00 2.956558214623798975e-01 1.263337920654600666e+01
-2.455135992190546457e+00 2.024553500201191625e-01 1.276912213339817370e+01
-7.425031248486295254e+00 -1.092955001566187523e+00 1.448810429651519982e+01
-6.692513517356601938e-01 -8.568950905892362968e-01 1.741096605187656010e+01
-2.665684735017062934e+00 -1.300708508535223018e+00 1.844365463436759356e+01
-3.262229306921057947e+00 -1.536161618566815878e+00 1.852265743464823444e+01
-3.382920924550780306e+00 -1.706621290858859830e+00 1.856170087981559291e+01
-3.714603157001832301e+00 -1.288659169247455605e+00 1.848060847218087943e+01
-3.110323658063490981e+00 3.520449371165224051e+00 1.402736845465062387e+01
-4.216001139130035824e+00 -9.086413866371825243e-01 1.837733847874215698e+01
-4.306811110960745204e+00 -1.133357730683544062e+00 1.844002399712486451e+01
-3.766531914272291282e+00 2.920532606527645569e+00 1.726166393674299471e+01
-4.891083995291330311e+00 -6.927892530964236961e-01 1.827673829780876602e+01
-5.095848414166633589e+00 -7.192142712193780874e-01 1.826511033152860008e+01
-5.460364187828989024e+00 -7.498001071547824026e-01 1.823901054059460236e+01
-2.692746447202358784e+00 3.048288054635514222e+00 1.377389309540551565e+01
-5.242521463791591785e+00 -9.394486423017274213e-01 1.831570465794905900e+01
-5.688288055100632512e+00 -9.230876256873021823e-01 1.825383315519742311e+01
-5.772219072901869197e+00 4.638375852820955103e+00 1.564425495061432869e+01
-7.746812657912146349e+00 -8.956486711377524834e-01 1.496628256002543722e+01
-5.862812480137827187e+00 -7.282846311338038170e-01 1.817417778953135965e+01
-6.286815275997836849e+00 -7.095349710836074131e-01 1.809873305034236424e+01
-7.561687088333952644e+00 -1.122218283043900033e+00 1.751768106031635952e+01
-7.970932900573455271e+00 -1.017035834780708914e+00 1.674669833869412727e+01
-7.949332955500516107e+00 -1.225192964098998250e+00 1.691215191419659547e+01
-7.994400844656805560e+00 -5.128079745713427506e-01 1.560286847975321578e+01
-2.125435753156737828e+00 1.662665570723650399e+00 1.232800551097958319e+01
-7.569370733711460630e+00 7.287281859387877425e-01 1.466680868939137738e+01
-7.509424113132160628e+00 5.467791281314344776e-01 1.447169245721977759e+01
-4.412512981415156688e+00 7.766950795005256314e-01 1.185901047115507012e+01
-5.032099345635199228e+00 7.572314433231108755e-01 1.201360891807326325e+01
-4.275561184416688754e+00 6.467766970006034732e-01 1.200164455598289592e+01
-4.466092276962993601e+00 5.571673181624958726e-01 1.214671464203248874e+01
-3.835863605437011437e+00 6.391276994686916346e-01 1.193566113118979288e+01
-7.090651032808819032e-01 -8.645769558835230129e-01 1.760085243551137424e+01
-4.245279325135178361e+00 -2.548449693362452084e+00 1.865402137990317399e+01
-6.358042847655114294e-01 -1.240940322127268125e+00 1.736659877340069258e+01
-2.661997544987407149e+00 -1.732947673668178368e+00 1.853879340014951183e+01
-4.058942177432995457e+00 -1.921156265499603055e+00 1.861111881444033500e+01
-4.094215286385685104e+00 -2.134395718402096964e+00 1.863761527554607156e+01
-4.238341610266100901e+00 -1.503785972699214657e+00 1.854193875034357930e+01
-4.474583372457423103e+00 -1.578055478568771264e+00 1.855381923709198944e+01
-4.465358144106287952e+00 -1.317071422705255568e+00 1.848701255416193234e+01
-3.902440301333177430e+00 -2.536900502224380904e+00 1.864749710247866332e+01
-5.268749154265598200e+00 -1.340561925344720517e+00 1.842521900287826853e+01
-5.686239604149470495e+00 -1.098128014397312224e+00 1.830323080380899725e+01
-6.263722248992476871e+00 -1.140007521345867580e+00 1.821646616742983937e+01
-6.613650687425392860e+00 1.765744057886478702e+00 1.298705126927942999e+01
-6.458540952426719883e+00 -1.104936867669020994e+00 1.816059472821351406e+01
-7.977130695211849698e+00 -1.434560361030928100e+00 1.693475830591738074e+01
-8.082683091054166269e+00 -1.626480855075623122e+00 1.672188530222930680e+01
-8.154437689289940394e+00 -1.806625102777848380e+00 1.649208331869843036e+01
-7.400980335254711662e+00 5.724208352712853998e-01 1.423148293845244083e+01
-7.409724754034481720e+00 7.454856297718994718e-01 1.424861024333985782e+01
-5.479510250336339539e+00 5.488034741050376031e-01 1.235456146421593004e+01
-5.260144520342922903e+00 5.171302131890633813e-01 1.234129419694145824e+01
-4.666543201640669380e+00 4.361205272073336303e-01 1.234711816988709288e+01
-8.459239996451133337e-01 1.269078569077031204e+00 1.514421859919240987e+01
-5.353606037318390243e+00 3.968273295241084853e+00 1.454756072840033099e+01
-8.259081951037907654e-01 1.302510303881671661e+00 1.533040673883419558e+01
-7.923430501263080128e-01 1.116777505791364700e+00 1.532425945406098933e+01
-7.443140086691655277e-01 8.907988083768016985e-01 1.531664437477245500e+01
-6.205351343316385382e-01 -1.447648504955020066e+00 1.733296254052094199e+01
-6.627721176727219277e-01 -1.287075556864781145e+00 1.756411402229105434e+01
-2.869429456088506303e+00 -2.127886561903772122e+00 1.859413785938748376e+01
-3.683927042599584034e+00 -2.352010188772137855e+00 1.863785082860264097e+01
-4.479991127195659395e+00 -2.134670264813862683e+00 1.863307995558793451e+01
-4.459854463405755531e+00 -1.726895213977139409e+00 1.857972101269291088e+01
-4.648995575788725354e+00 -1.579869624404695916e+00 1.854327317232892014e+01
-4.639241760320546248e+00 -1.962662188776178152e+00 1.860504678162204684e+01
-2.707301442866259844e+00 2.602805000029878357e+00 1.299725755444913133e+01
-4.822898269591437526e+00 -1.580593023562619770e+00 1.852874781750871946e+01
-4.866200164829792563e+00 -1.732288631778679644e+00 1.854957395190436742e+01
-6.106555155389004952e+00 1.730063410055163065e+00 1.235615004965358921e+01
-5.067923264911819992e+00 -1.530183572593717400e+00 1.849356296662123000e+01
-7.222946730580989794e+00 -1.285968085827828400e+00 1.428121898343077234e+01
-8.151872065162921288e+00 -1.582240924621624689e+00 1.590245556640411806e+01
-4.877618511341069940e+00 3.155034522823949583e-01 1.255722503306249038e+01
-6.993918567658163887e-01 7.196548672060876228e-01 1.550518450627277289e+01
-7.733967216043660997e+00 -7.006470051791464648e-01 1.710822581552308108e+01
-2.888313577277653810e+00 -2.335177963509456500e+00 1.860661283205782368e+01
-6.411408532213213718e+00 3.792326635253236766e+00 1.488661033492217101e+01
-3.276535398713646074e+00 -2.549063456089106783e+00 1.862446514296638256e+01
-3.235206033369442125e+00 -2.761759818324104554e+00 1.862022707736409544e+01
-4.101503932497907456e+00 -2.529194967708371156e+00 1.865429590454036557e+01
-3.866454840077039989e+00 -2.745991218075797047e+00 1.864314971595544179e+01
-4.473676708227661614e+00 -2.577023712489770357e+00 1.865397729323133191e+01
-4.278491378924282884e+00 -2.753643391178383748e+00 1.865549832978676292e+01
-5.728714152260416803e+00 4.059930365272972352e+00 1.481350710905770640e+01
-4.686073029443128313e+00 -2.332067028941385178e+00 1.863259051868077520e+01
-4.833874346260177646e+00 -1.930873591262066480e+00 1.858154374784677643e+01
-5.096730085268811550e+00 -1.746875676132615851e+00 1.852634358798959724e+01
-5.256326213169693062e+00 -1.943033793443738499e+00 1.853172943126252292e+01
-5.671254276715767872e+00 -1.899692360419795722e+00 1.847057675071551941e+01
-5.853496291561402387e+00 -1.934941495510317910e+00 1.844864258968847182e+01
-6.274593939736854864e+00 -1.944893365599716706e+00 1.838225762930050067e+01
-6.453237217528778658e+00 -1.941045207711113552e+00 1.834511421241071005e+01
-6.670749964324754089e+00 -1.916232458057530064e+00 1.828618216342217906e+01
-7.053700545049526482e+00 -1.922253986271926340e+00 1.811190168119612665e+01
-7.229464140895919044e+00 1.211566122521781086e+00 1.378808075996842675e+01
-6.633810498066015082e-01 -1.851642332818109526e+00 1.773642682842055152e+01
-2.465262841716447717e+00 -2.338406171553056634e+00 1.859073731828840081e+01
-2.664917626072887735e+00 -2.558021713553020771e+00 1.859908607582069706e+01
-2.859749107168512605e+00 -2.545364205058751939e+00 1.860847606083541095e+01
-4.921695083151822026e+00 4.341316535708978464e+00 1.499922745241974908e+01
-2.887200449494274235e+00 -2.713208570534492825e+00 1.860762151096372818e+01
-2.457681456585365964e+00 -2.536283810952723261e+00 1.859329807534264845e+01
-3.266364672435584815e+00 -2.952730004218963256e+00 1.861455032340962035e+01
-3.673988855428209632e+00 -2.952972647497190462e+00 1.862932137779938202e+01
-4.078609408161005589e+00 -2.938653079218850106e+00 1.864348829980594857e+01
-3.452139025493168312e+00 -3.172524558661149019e+00 1.860763998257813867e+01
-3.935762051259725780e+00 8.384322960916419376e-01 1.171279067337907165e+01
-5.056403630650033065e+00 -2.549369475980558075e+00 1.860263499405074938e+01
-5.268727825290944189e+00 -2.563239086066448902e+00 1.857623393986949267e+01
-5.238003580149649174e+00 -2.376866704917153239e+00 1.857208178764808437e+01
-6.115203109694098416e-01 -2.041629287953359739e+00 1.751018071915332897e+01
-5.271838098550678531e+00 -2.164499321756924832e+00 1.855215074205315418e+01
-6.256617889535439403e+00 -2.316534807323260114e+00 1.841685960237452591e+01
-6.468224022560332465e+00 -2.314458275197948556e+00 1.837161806182980328e+01
-1.620764680249985545e+00 1.705888247373289257e+00 1.344408872804471500e+01
-6.043525659037841891e+00 -2.528160831422224586e+00 1.845892951447951802e+01
-6.207898900294542166e+00 -2.407273953178206138e+00 1.843213178388990414e+01
-7.080482021132025849e+00 -2.515642162326307218e+00 1.814312228627027324e+01
-6.490258020863810096e+00 -1.318273491229028593e+00 1.411762946778722849e+01
-7.794589189536472063e+00 -2.476504263624967006e+00 1.743874275319896228e+01
-5.076605054730904065e+00 -3.538061527164400477e+00 1.856239219140102037e+01
-7.210614903227332562e+00 3.761190503866205237e-01 1.383506219026203965e+01
-6.712349305861425641e+00 -3.493069194730815674e-01 1.347742475656285066e+01
-2.011942062424449063e+00 2.291463819783456035e+00 1.349545405788667196e+01
-3.316760630839595159e+00 -4.306758105118770885e-01 1.373467759914493413e+01
-3.115349368845368616e+00 -4.732784575592634546e-01 1.373621418501669567e+01
-6.406846898237494869e-01 -2.070188573771361451e+00 1.771112284195037390e+01
-3.032285730944048296e+00 -9.491858412887235197e-01 1.464724121113436794e+01
-2.051483430965561183e+00 -2.526987822839576570e+00 1.857897082441141734e+01
-1.852000655014197417e+00 -2.549104793838055105e+00 1.856545989137168462e+01
-2.222856519580017398e+00 1.246561905967499051e+00 1.781232482701451048e+01
-3.090381528940896239e+00 -3.350786716682367494e+00 1.857639392624836105e+01
-4.040999574558589380e+00 -3.350125288091116094e+00 1.861470591507828587e+01
-4.920059203397073588e+00 -3.336632730424943905e+00 1.860105433834596411e+01
-5.840510999332642506e+00 -2.728123079491480585e+00 1.849622616699315003e+01
-3.667803786879765049e+00 -3.699089433566617569e+00 1.661951938563123932e+01
-6.052174083133923688e+00 -2.766283000101671607e+00 1.846151774000087542e+01
-7.092065411740641423e+00 -2.728853311147212413e+00 1.813716463031024162e+01
-7.280168830370907784e+00 9.730697439131725801e-01 1.391208802719444648e+01
-7.328717845224050009e+00 3.768861086233590285e-01 1.406538869663498659e+01
-7.163125259774435705e+00 -2.325852494217843791e-01 1.382764165763363096e+01
-1.836067148336246291e+00 3.577235247799662510e+00 1.594206004991672998e+01
-7.061853243304453187e+00 -5.768498190624948840e-01 1.385101673728955873e+01
-1.115690079905780063e+00 2.493476148633353873e+00 1.597472595170401277e+01
-4.502640135699265578e+00 -3.234380376618206654e-02 1.330835116411406105e+01
-3.751198947092825087e+00 -2.915547638708737566e-01 1.369433213703048224e+01
-1.081455503073532221e+00 1.143137299722407407e+00 1.725202751672390278e+01
-3.509032995704107982e+00 -5.559166717102250743e-01 1.413137144459789241e+01
-2.880851179117953187e+00 -3.741217334679349360e+00 1.852366261576323225e+01
-3.649070686199856972e+00 -3.723029851764661391e+00 1.856409066973676758e+01
-4.918490456047867276e+00 4.750248707800962755e+00 1.561432066079299474e+01
-5.068802075836914334e+00 -3.339304031817624807e+00 1.858272517648987687e+01
-5.289091798634650843e+00 -3.174535665274939245e+00 1.856499894381009952e+01
-5.498281602823914760e+00 -3.155924353309247810e+00 1.853777607433243801e+01
-5.443126301425118108e+00 -3.324123644736557193e+00 1.853405595569904207e+01
-6.069118475119015699e+00 -3.140427859382265208e+00 1.845093732783534435e+01
-7.413095257619410461e+00 1.615883919977920691e-01 1.422756039846072085e+01
-7.508450625444281101e+00 -8.067711628096363441e-02 1.441496221241738951e+01
-7.445491859007598023e+00 -4.588152032534420499e-02 1.429750186702188230e+01
-7.502221490937234449e+00 -2.797146510626973281e-01 1.440738518486079656e+01
-4.724007892950877974e+00 -2.332923158597375313e-01 1.370761299401177169e+01
-3.917126892727532450e+00 -2.653739253111240259e-01 1.374796895133639296e+01
-3.752183248422966244e+00 -4.618972727226018371e-01 1.409318557402082561e+01
-3.711699859867742646e+00 -5.881367357052806888e-01 1.435667342880714514e+01
-2.958945330054299383e+00 -9.112892133943675255e-01 1.451441174676736878e+01
-2.076691578813236738e+00 -3.531256349220066593e+00 1.850238790688262114e+01
-2.261257376383640771e+00 -3.746849689456594579e+00 1.848596028403271063e+01
-2.674687861694830193e+00 -3.943108517671839675e+00 1.848322086183339863e+01
-3.075227927817805629e+00 -3.952856024595022166e+00 1.850155000696362961e+01
-5.267982826018073439e+00 2.983300999702850564e+00 1.297675881598342684e+01
-4.841622183453619499e+00 -4.162568423908327375e+00 1.847335973708227286e+01
-4.757653404911311945e+00 -9.660874230357974213e-02 1.341403255409756312e+01
-4.934052177878066381e+00 4.660453272451299256e+00 1.545364002225237599e+01
-5.293207762537616823e+00 -3.764208673078972556e+00 1.850884028044746188e+01
-5.458463503905227832e+00 -3.539972909755577657e+00 1.851225676078268023e+01
-6.887506339019403789e+00 2.190715109766007362e+00 1.382195291038956597e+01
-5.676147885305346641e+00 -3.536005787527671362e+00 1.848184931341069515e+01
-5.867783768384594367e+00 -3.721914258543525644e+00 1.842749903231128528e+01
-6.297570018479432541e+00 -3.543543066609210701e+00 1.836624271389804974e+01
-4.481626061319465393e+00 -4.163156473099546062e+00 1.848272597466468525e+01
-4.889894261077167847e+00 2.937671320252204232e+00 1.266539332606255996e+01
-7.138586925280055340e+00 -2.343802371496041648e+00 1.482462222256740958e+01
-5.270885348343613330e+00 -4.340789715480111610e+00 1.837130036068329630e+01
-5.842383099296339033e+00 -3.939073435771585086e+00 1.839908765912520394e+01
-5.874594323777864169e+00 -4.146898133663365016e+00 1.835211971010628318e+01
-2.849597144206944765e+00 2.539128920686700042e+00 1.270380869694990267e+01
-7.655446966312082324e+00 -1.182899900531250825e+00 1.486419508099511333e+01
-6.208048907779304848e+00 -9.319000738655986993e-01 1.388227309297444734e+01
-3.855690497997253274e+00 5.605542478185627786e-01 1.203546699239612749e+01
-6.103083393779997756e+00 -4.151901633415034709e+00 1.829059519623967489e+01
-7.692999208386023469e+00 -1.487708524677004984e+00 1.495686908184606878e+01
-7.575228290602492365e+00 -1.304520221334909191e+00 1.475634712643545399e+01
-5.532436157430180579e+00 -8.541293616791474363e-01 1.424870023443440559e+01
-6.331295277735911053e-01 -3.428711535352373385e+00 1.745682210642559440e+01
-5.965636112004701896e-01 -3.042174737433010367e+00 1.705189571500231338e+01
-3.014235395408955576e+00 -1.747150584230109605e+00 1.562140041042170324e+01
-3.192516408620156732e+00 -1.954742910001252110e+00 1.581188274225324975e+01
-2.655975961983542799e+00 3.593295484589773547e+00 1.475091834177073835e+01
-1.000275379731141445e+00 -2.838353281482857593e+00 1.576154707076282691e+01
-6.859314681827195948e+00 -2.423646388248825279e+00 1.497460853894738264e+01
-6.763953287186907026e+00 -2.225540286099340737e+00 1.479022644896062033e+01
-3.596589611262353436e+00 -1.791205327027016736e+00 1.578221953684379386e+01
-3.375520353388837158e+00 -1.951810151108829938e+00 1.584673207680711826e+01
-2.397771481778089075e+00 -2.087928025193181103e+00 1.562581317513925327e+01
-1.768890521796326443e+00 -2.713454195970185889e+00 1.569222655478339234e+01
-6.247627277563343462e-01 -1.962044718934433885e+00 1.592416176343057899e+01
-6.805814580379070833e+00 -3.898688926602006166e+00 1.653894110611821233e+01
-7.193509837340375412e+00 -2.727029687909442668e+00 1.524525581288628828e+01
-6.270658545228704472e-01 -2.174841822474674391e+00 1.592043700410914298e+01
-4.340039152009137702e+00 3.341385915343612290e+00 1.325508617192584282e+01
-5.844097764618982893e-01 -2.184669890169670392e+00 1.613838521883561938e+01
-2.442605279617473979e+00 -4.540905126763348676e+00 1.769326289250490092e+01
-6.796419644360568668e+00 -4.159962003165299294e+00 1.684324980313116882e+01
-6.603762521267003471e+00 -3.975362314107314443e+00 1.663147626038118787e+01
-6.803188117666871371e+00 -3.783561897154355425e+00 1.642380377040491268e+01
-4.973816721353825798e+00 -1.742127970714919094e+00 1.561277653552621913e+01
-5.205515889685663034e+00 -1.902617340364828546e+00 1.562921287776793022e+01
-4.995048528522064935e+00 -1.969635895298886386e+00 1.574166992721154301e+01
-6.027111865535332846e+00 1.877491941781089579e+00 1.733462961262246083e+01
-1.219697881572639808e+00 -3.545503715562222435e+00 1.625737750089053080e+01
-1.413458079591763727e+00 -3.640687459539289517e+00 1.634759313853075113e+01
-9.909859456210861062e-01 -3.627165209371772558e+00 1.637391664912470546e+01
-2.840111051856027746e+00 6.825511051817638730e-01 1.200808856880226116e+01
-1.184663720432574952e+00 -3.746831043327488953e+00 1.645847135483406376e+01
-2.635080650393712087e+00 -4.494576250909803505e+00 1.752246821425100975e+01
-3.020787758973279225e+00 -4.555322723166790766e+00 1.769026001896254385e+01
-5.850285478055661237e+00 -4.489567268212713458e+00 1.738569400287532929e+01
-4.555444904023258523e+00 3.647732989906949719e+00 1.374042736224195593e+01
-4.997024537328162985e+00 -2.345103814094121386e+00 1.594274258725406312e+01
-5.839227441942248298e+00 -4.398842823256082113e+00 1.724126832057951120e+01
-6.247857182354834116e+00 -3.976926012607903349e+00 1.666501443782970071e+01
-6.432474024322925921e+00 -3.778046054229608597e+00 1.645436357843677300e+01
-6.023917288851591501e+00 -3.866767661168476256e+00 1.658801523831279567e+01
-6.614331066594855812e+00 -3.781890818216282479e+00 1.643736851555848588e+01
-6.804241073353912483e+00 -3.592716881735990686e+00 1.623954987055642007e+01
-5.392128407019506575e+00 -1.941911283541760458e+00 1.558301465210888992e+01
-4.972762992902683088e+00 -2.122701873853093613e+00 1.583149462512670524e+01
-3.585812219385475785e+00 -2.761149644193006569e+00 1.624189078819995657e+01
-3.391408368690894015e+00 -2.780361964299153055e+00 1.624016336281015427e+01
-2.630251140353427441e+00 -3.213403855602968928e+00 1.630025959640258648e+01
-1.227376221890938091e+00 -3.844141447399318512e+00 1.654990627058328911e+01
-1.190642199352386577e+00 -3.945699390882329016e+00 1.664575557016699392e+01
-6.230221773334537083e+00 1.850791034176093364e+00 1.259938972254110823e+01
-2.228510080719640740e+00 -4.429034803691250133e+00 1.731758696348595450e+01
-2.236283084226975415e+00 -4.369850863226981019e+00 1.716916380355009508e+01
-4.625131539118688906e+00 -4.562329321774926782e+00 1.757552505797196929e+01
-4.857827158164359282e+00 -4.480408215730966148e+00 1.742160773433402099e+01
-3.624094299068516101e+00 3.621110441264302260e+00 1.391841386482825627e+01
-5.996009313490064052e+00 -2.764413196705229669e+00 1.585079376148611274e+01
-2.062698754525529754e+00 2.470747775834742477e+00 1.370958735138258433e+01
-5.758426302212335202e+00 -2.637930111454910520e+00 1.586142312160360390e+01
-2.829486124524118296e+00 -4.303545890914348249e+00 1.710152825920507169e+01
-4.797150791033567785e+00 -9.866221309578784293e-01 1.837176143784848747e+01
-3.025306936955684201e+00 -4.280467441202393530e+00 1.707988150869345745e+01
-4.590658048298370986e+00 4.865570453975915477e+00 1.583748427121467373e+01
-5.212949988814664870e+00 -4.325843081498174314e+00 1.717834613729325000e+01
-2.406057503932450548e+00 3.872005888462967782e+00 1.549516997801181972e+01
-4.826095687720337146e+00 -4.020143298939782284e+00 1.687503995644389576e+01
-4.620362154231168361e+00 -4.028345040181195102e+00 1.689211843152756032e+01
-4.604123398268259670e+00 -3.009969375629866217e+00 1.627969576237272165e+01
-3.957993367172861987e+00 -3.312813283439771883e+00 1.642055640666277228e+01
-1.193435731464708383e+00 2.318419536003394565e+00 1.537752941309171106e+01
-3.383936314784934396e+00 -3.952590242174288004e+00 1.677382310770910934e+01
-5.731427921958351934e-01 -3.005172121503119964e+00 1.662816112718737926e+01
-5.737971139134705467e-01 -2.479056213150518939e+00 1.729578966605714285e+01
-2.710557367973563725e+00 2.830192770505526312e+00 1.338023700254280968e+01
-5.669829597986879577e-01 -2.596623534334288497e+00 1.671183538370137356e+01
-5.740054856812311090e-01 -2.423800192633631223e+00 1.652087098997114012e+01
-3.679811174663930373e+00 -3.553772692998011795e+00 1.858529931161809046e+01
-5.873130575459870606e-01 -2.823990168655469812e+00 1.690318655551283555e+01
-6.140900085830474087e-01 -1.853992957113618001e+00 1.730873990967220877e+01
-5.976005411205902451e-01 -2.019107261376922313e+00 1.728999183539677276e+01
-6.356289732028148620e-01 -1.362608156428363859e+00 1.597313192530557657e+01
-6.059361001868921459e-01 -5.832298192538489801e-01 1.661339296624020179e+01
-6.184020061138717494e-01 -9.808802478877711728e-01 1.618365910007220165e+01
-1.571173267142802032e+00 1.574589821202319717e+00 1.338121392256094921e+01
-6.285381839643420232e-01 2.300890898620997493e-01 1.629202774720943481e+01
-6.120562729929597268e-01 1.792075032369266907e-02 1.624691205930207971e+01
-4.648793493537080046e+00 2.119115947949884671e+00 1.741996062078357355e+01
-6.243318729978797332e-01 -1.172506485681159560e-01 1.562574608649551422e+01
-6.927105026528175280e-01 6.955962792034957598e-01 1.568923292113498391e+01
-6.772446374400742375e-01 5.514948293272108337e-01 1.551803325663484046e+01
-6.526219986538055462e-01 4.417489530979361589e-01 1.548079927967495806e+01
-6.390156374074900114e-01 2.645186503824847879e-01 1.565149765136984783e+01
-6.504580454267521183e-01 2.784593666697510184e-01 1.585087183540031575e+01
-7.516500796913881288e+00 -8.915593010761129200e-01 1.457822340346138290e+01
-7.478897206507195250e+00 -4.764499765226815065e-01 1.441145204499430932e+01
-7.481936953596541429e+00 -6.141377261400857712e-01 1.444664987824866031e+01
-7.644236949469510378e+00 -6.528215874840239685e-01 1.473762105522879651e+01
-7.154262876700961726e+00 1.588040445822284763e+00 1.373885396977155082e+01
-5.797501056514273721e-01 -2.433837863200288165e+00 1.690026724847168893e+01
-7.220259834291576695e+00 7.652285191512688822e-01 1.379699613267979075e+01
-6.978886475353466068e+00 1.618791719289298658e+00 1.333855648772365399e+01
-6.960779280317876960e+00 2.401335256345157099e+00 1.420197170939724529e+01
-4.783590398768819973e+00 4.586461212537269461e+00 1.534245598798061749e+01
-6.991306101002670914e+00 2.185175348313596277e+00 1.399167297990941350e+01
-6.939547525829084407e+00 2.029570936295998607e+00 1.374392420325411379e+01
-6.427957961260585940e+00 1.618753771763161708e+00 1.261669420214883175e+01
-1.005068725912143579e+00 1.894818760128552881e+00 1.537000810266928497e+01
-9.840397596129160096e-01 1.526090827783951998e+00 1.493691099603836747e+01
-6.331517266804883803e+00 1.664843877413376250e+00 1.254521189430213113e+01
-6.864937574215479898e+00 2.931434121047379993e+00 1.449812478768784629e+01
-1.373911366618242091e+00 1.205787293642903490e+00 1.351573354383163306e+01
-1.302096430448460129e+00 1.235259226508902630e+00 1.371394275965930731e+01
-1.187796926014088150e+00 2.660239228495296704e+00 1.601529652417088201e+01
-1.225768546820507510e+00 2.649493440027769875e+00 1.585718769267695549e+01
-1.096873493238058828e+00 2.323170455575330084e+00 1.570728571323617828e+01
-6.845640407789320925e+00 -3.084769675628713514e-01 1.350822783875900157e+01
-1.093723734255058755e+00 2.114817982352718673e+00 1.536457979001484730e+01
-5.482625892820372826e+00 1.956862753022086787e+00 1.177973459946992918e+01
-5.611001725789860117e+00 1.887889513884771109e+00 1.186324422404292633e+01
-6.689031522274749619e+00 3.278917051000014737e+00 1.455397084661656137e+01
-6.484277739895047965e+00 2.722137025975354341e+00 1.371990689176035616e+01
-1.721946646015146243e+00 1.456700824709059372e+00 1.290794837563761988e+01
-1.851659836074680321e+00 1.519485430052937680e+00 1.270351857531741402e+01
-5.734399275365884563e+00 2.111638854294903389e+00 1.220133561616448858e+01
-5.282607378712585344e+00 1.977821715252050971e+00 1.161623010630994557e+01
-5.355571645759513721e+00 3.810368852775992465e+00 1.431957418282561534e+01
-6.335589566739623812e+00 3.720632824234585634e+00 1.474617979172085214e+01
-6.382133399628355797e+00 3.524611766971147198e+00 1.452084721109832444e+01
-6.372926224591061839e+00 3.167801220925158923e+00 1.407363954792700511e+01
-6.222316594581644544e+00 3.633835078443801159e+00 1.452968127721070246e+01
-5.715558271409268976e+00 2.335599549595961388e+00 1.240391629069473467e+01
-5.487355017556878600e+00 2.154393793811663738e+00 1.198685705906815357e+01
-4.669813059746674710e+00 2.157345748344959624e+00 1.141943690366740682e+01
-6.204585090172522577e+00 3.429153927561958248e+00 1.423114569435458421e+01
-1.350816270951850750e+00 2.890580831442674636e+00 1.598955130374121225e+01
-1.396637999172537281e+00 2.666016006301265229e+00 1.543864587274053335e+01
-1.365013815013811804e+00 2.335322973426273041e+00 1.498106277846397560e+01
-1.436060971089431870e+00 2.850780271053996007e+00 1.566278542258418938e+01
-1.559238889326737709e+00 2.916389004573498589e+00 1.541057206885031050e+01
-2.184804442823490511e+00 2.179147101560413358e+00 1.300448030174697678e+01
-5.420878221224939786e+00 -4.044380711428246400e+00 1.683516533397084558e+01
-1.517009705974286415e+00 2.715876026896838713e+00 1.517353054741169771e+01
-1.579685112287766202e+00 2.703382797767290846e+00 1.500929691071889138e+01
-1.814267750203684137e+00 3.422899574011426971e+00 1.565560896100806687e+01
-2.808138063274813412e+00 3.292977639179352156e+00 1.403483307769873178e+01
-2.381442822895235345e+00 4.202265210863503242e+00 1.609711170979447203e+01
-2.892351062276813600e+00 4.591052580984045228e+00 1.616703219559957105e+01
-2.265225020007715528e+00 1.693174406718639613e+00 1.214821624605383832e+01
-1.890981059261898967e+00 3.374819289461198579e+00 1.538697098166163002e+01
-1.993576839581065130e+00 3.646586837653526203e+00 1.568251388871079044e+01
-2.187126484463736364e+00 3.690346006665050638e+00 1.546678158115760837e+01
-2.623761371308213519e+00 4.173221579159871908e+00 1.573147040657300622e+01
-2.802534980720303270e+00 4.259111236503182241e+00 1.568869101560180113e+01
-2.552486839185081013e+00 1.837255726826117597e+00 1.192150160028731065e+01
-2.303565347363750071e+00 2.025487073932350945e+00 1.255889935866450102e+01
-2.783053938546006467e+00 4.095215690424701904e+00 1.544716542449717522e+01
-2.440538088473923839e+00 3.627410655547466334e+00 1.509982721019120433e+01
-2.574493509489247156e+00 3.704358336989063361e+00 1.505049769454589992e+01
-2.355129166087513770e+00 2.549023303801001727e+00 1.338369975631220754e+01
-2.372517445138679015e+00 2.723766910687609233e+00 1.365902289657802626e+01
-2.758424033412804288e+00 3.956315592305266193e+00 1.522713514876393859e+01
-2.956083253085478368e+00 4.130839615104992646e+00 1.527870676057328225e+01
-5.382796364256858368e+00 4.849249333580784693e+00 1.581277030146734930e+01
-5.772119243446197423e+00 4.142790651092584930e+00 1.494801707334195484e+01
-5.701447631753944201e+00 2.836246048005953035e+00 1.307510789424121711e+01
-5.745137415337720377e+00 3.568758739083010223e+00 1.415142874929061989e+01
-5.730617509253289832e+00 3.155118128900661567e+00 1.355044762643779777e+01
-5.696640532198384399e+00 2.998371813714937772e+00 1.330453784907320980e+01
-5.286359727875799663e+00 2.516142286710410403e+00 1.227773501082826257e+01
-5.270832075077684920e+00 2.662768933140781780e+00 1.248385733066627168e+01
-4.847354245210681256e+00 2.472860340790230982e+00 1.191048006385338809e+01
-5.546580379243936321e+00 3.766683759971754419e+00 1.433521140447362185e+01
-2.893443315336234001e+00 3.810907623824792978e+00 1.479810597522522286e+01
-5.643488679180422629e+00 3.496462602528109365e+00 1.399543748705270119e+01
-5.389848287745559574e+00 4.260716233313020851e+00 1.496696231215160466e+01
-5.170797447531120916e+00 4.721480882747207453e+00 1.561655291845562843e+01
-5.241594095694193101e+00 4.398496536065948703e+00 1.512380165169899371e+01
-5.678253104859943612e+00 4.414887836014536049e+00 1.527509998854219830e+01
-5.151539959885541364e+00 4.504315845439103683e+00 1.524756524682369374e+01
-5.259272486895821608e+00 2.833768243298913969e+00 1.273526878806638152e+01
-4.726871088692564449e+00 4.446917155873380878e+00 1.512534261629133781e+01
-4.557334207667502746e+00 4.521062767486348832e+00 1.523270049977487517e+01
-5.113259933605714735e+00 3.250253497509038692e+00 1.331522645958307649e+01
-4.645574109459700729e+00 2.355976297351165094e+00 1.163319272389731296e+01
-4.860641385650527724e+00 2.721201872564554147e+00 1.228590453432717666e+01
-4.576091589770337364e+00 4.374063423760002678e+00 1.498767189120956900e+01
-4.756820125569576341e+00 2.958212982192192975e+00 1.262367961247029413e+01
-4.007789126365572052e+00 4.742947112601157755e+00 1.564000511534380067e+01
-4.360370240241451256e+00 4.540708567174735144e+00 1.523919395422139544e+01
-4.540245827374538301e+00 4.161796499268189287e+00 1.462424295309157074e+01
-4.504621665647760231e+00 4.078735308859018360e+00 1.446884064847076345e+01
-2.923086568711903421e+00 1.892022600203884242e+00 1.158167703343854882e+01
-2.695475161093282335e+00 2.091274873273182067e+00 1.215148310044810742e+01
-2.919304518006533122e+00 2.267969048487023187e+00 1.217770299835867220e+01
-2.906208793019158687e+00 2.637620652628425599e+00 1.279909321851050308e+01
-3.160638751182932360e+00 4.289916144203054671e+00 1.529194030027772655e+01
-3.058477687144893764e+00 2.342278202260680953e+00 1.212890189419850273e+01
-3.437434359142855556e+00 2.130650283932321809e+00 1.150061218051436285e+01
-3.109149991754808440e+00 4.118215931444971112e+00 1.504283117315305773e+01
-3.028196899836420819e+00 3.860110863269343717e+00 1.470231611197727162e+01
-3.127839494665782816e+00 2.427104755891637655e+00 1.218307763647823450e+01
-3.058602074338230281e+00 2.706561936658959500e+00 1.271938715369237016e+01
-2.929858436084055384e+00 3.596378555774781383e+00 1.438694049147481380e+01
-3.065947177148586000e+00 3.830115866155666016e+00 1.460194397304743674e+01
-2.923176047500629871e+00 3.377770717724794647e+00 1.402670436469901105e+01
-4.532079776291859652e+00 3.922566677004918567e+00 1.420819232804555909e+01
-4.367246997575002787e+00 4.320840690573803045e+00 1.483690168285952282e+01
-3.404607385432283806e+00 4.435593928320201940e+00 1.530896799736699521e+01
-3.574663937772644573e+00 4.460375621014945224e+00 1.524613451702502331e+01
-3.424922408796531315e+00 2.359789209799966425e+00 1.185527005144353652e+01
-3.673874002816201134e+00 2.573982785185591649e+00 1.208987491594875863e+01
-4.265805078503828618e+00 2.232668432950631221e+00 1.142172370323141806e+01
-3.850842674830949441e+00 2.198042477895690627e+00 1.143320681724755516e+01
-4.454469951758625257e+00 2.550053861572089797e+00 1.187303252906099615e+01
-4.449784524434967636e+00 2.717151643511426684e+00 1.213468740565222603e+01
-5.138984421899980504e+00 3.465978336794350412e+00 1.368423460536341807e+01
-3.903383471341395961e+00 2.522893266281884372e+00 1.192126759189649121e+01
-3.908656106997073110e+00 2.749042967160050477e+00 1.230854538528042852e+01
-4.220545250485058908e+00 2.551277472538536539e+00 1.189595402501391064e+01
-3.967900723596604173e+00 4.651792955133410956e+00 1.545719899115568907e+01
-4.017448676101888161e+00 4.533731745540478641e+00 1.522670570511195720e+01
-3.756480778651854813e+00 4.638480830485583795e+00 1.547458081669064356e+01
-3.946759665817786811e+00 3.605816184919576450e+00 1.378677022114713324e+01
-4.162294855402594251e+00 3.906232605286492632e+00 1.420141357143173266e+01
-2.445897165817765728e+00 4.410086712703988887e+00 1.632001304549354970e+01
-6.384154391651748028e+00 2.498556338139483302e+00 1.337849385941051494e+01
-3.689721615380576303e+00 4.896088493894412252e+00 1.600192013838865179e+01
-5.442874639595899566e+00 4.960615525795320835e+00 1.592874785606622723e+01
-2.981476800730140209e+00 4.276003853893824314e+00 1.676620905486496227e+01
-3.864989775309560116e+00 4.935239298832686750e+00 1.642276598808265575e+01
-1.873488340250576201e+00 3.763492982911833984e+00 1.632625109428009935e+01
-4.944428738541649437e+00 4.738787815304805306e+00 1.636192655269770668e+01
-6.340810952095454311e+00 4.061335235779456987e+00 1.518339290988913248e+01
-6.310961024039714928e+00 2.435723617770834348e+00 1.322466376023553991e+01
-6.342850796023958182e+00 4.257735592046595130e+00 1.544315132057502282e+01
-3.199498142311800741e+00 3.900184195122352371e+00 1.697723888337921849e+01
-3.386657669376305968e+00 3.921008569896726748e+00 1.696340886172286488e+01
-3.419578190156238762e+00 3.624798693232038183e+00 1.708596420057157772e+01
-2.998803731784751569e+00 3.521836280397687702e+00 1.713113134397596227e+01
-3.805822465765813511e+00 3.915767707327604263e+00 1.694159779835764468e+01
-5.840588337756418724e+00 4.291871481389298637e+00 1.626583684038795141e+01
-3.784031348084430313e+00 3.522348026277633437e+00 1.710807585184322122e+01
-4.558213827910736704e+00 3.730838869699264038e+00 1.693648188652370479e+01
-2.839257666649284584e+00 2.908456153782585929e+00 1.730839272347525437e+01
-3.242287859381774773e+00 2.951879139223157367e+00 1.729470017798704973e+01
-4.395669204186695822e+00 3.294124778360017380e+00 1.709961200220654476e+01
-4.224485536043923517e+00 3.139267156742628018e+00 1.716111525811129823e+01
-4.579448042848909495e+00 3.323615926734153625e+00 1.706877085019711515e+01
-4.829041881908251455e+00 3.170538125594148049e+00 1.707561158851349958e+01
-4.439593082760066700e+00 2.988126029958056762e+00 1.717491060082752696e+01
-5.665184087466661467e+00 3.479115592442253657e+00 1.680980603228109871e+01
-6.564193802803173661e+00 2.245748315102421788e+00 1.337812277894164126e+01
-5.969376333089288167e+00 3.553602564337154490e+00 1.664891160250158819e+01
-3.616595685017562900e+00 2.529378809374942083e+00 1.737815049624944308e+01
-4.439923954818972618e+00 2.725364439215080203e+00 1.724861751112301889e+01
-4.713842204885906106e+00 2.660462913780127892e+00 1.723525630667468889e+01
-5.260293810742570741e+00 3.191364168316126460e+00 1.700708993072149511e+01
-5.389659954739804526e+00 3.080188236267320079e+00 1.702204937031648413e+01
-6.044809580580532860e+00 2.978008661712006955e+00 1.687556544966028227e+01
-3.466276076156018071e+00 2.421576221983798849e+00 1.741629026223590770e+01
-3.808279798324827325e+00 2.306747404880957752e+00 1.742910526909912861e+01
-4.056516079723897050e+00 2.360706317130841558e+00 1.738924509913757177e+01
-7.087020617920524401e+00 2.583409585361099658e+00 1.557837618677136859e+01
-1.121604611620925507e+00 1.644814117478297089e+00 1.705456647859544361e+01
-1.336918968656773288e+00 1.805640235170558494e+00 1.721878537454167102e+01
-1.564246377891340245e+00 1.783379434275226050e+00 1.740410852720427570e+01
-4.843933951548116568e+00 1.958806168991799046e+00 1.745997414622823030e+01
-4.812958091533824145e+00 2.226461894894102844e+00 1.736739620070224888e+01
-4.977720150310872782e+00 2.078128972486262160e+00 1.740505725672243287e+01
-1.098152873014937470e+00 1.542434435477363142e+00 1.707690840482409911e+01
-1.326596706437315643e+00 1.316575788434933392e+00 1.744492740125312835e+01
-2.873895344582787725e+00 1.841727843648250706e+00 1.762667029415529996e+01
-2.174763810101530748e+00 2.539536119011800430e+00 1.364144156976875522e+01
-4.367790788632807342e+00 4.180469539568096415e+00 1.460073033325418024e+01
-3.225388250881584540e+00 1.541028836798146617e+00 1.771938316814782510e+01
-4.052009037822822179e+00 1.506457751594260541e+00 1.768596416936745541e+01
-4.393327533742763080e+00 1.683677947203144454e+00 1.759651818138681634e+01
-4.239037449767618426e+00 1.824303357423532557e+00 1.755746220064341045e+01
-4.855329239146892739e+00 1.669852276498378973e+00 1.756609310535089108e+01
-4.601357812306428485e+00 5.002310738586552397e+00 1.594997769605057769e+01
-5.239478471264111370e+00 -2.295349020741384027e+00 1.585366482004767263e+01
-5.256527218759555531e+00 1.758347767269768713e+00 1.749895133639853739e+01
-6.603182005274612187e+00 1.475804830777917909e+00 1.728785643081289081e+01
-6.886481495647709394e+00 1.821292072410479523e+00 1.686496333561342809e+01
-7.290139553744877432e+00 1.989400493462442965e+00 1.542098687849444971e+01
-2.380698908961653260e+00 1.578856374383482031e+00 1.184078152063349521e+01
-6.871367734889317624e-01 7.767891795128973875e-01 1.625528487154707236e+01
-4.251387153235029359e+00 -2.986752312414897137e+00 1.864753429218142955e+01
-2.406052217681092564e+00 1.388020355829739927e+00 1.778286848998224556e+01
-2.897679516533808730e+00 -1.462650948225066028e+00 1.537099897680169747e+01
-3.216056270780070392e+00 1.401864033211674521e+00 1.776904450840858019e+01
-2.944399322691255705e+00 1.403924485995908134e+00 1.778401749802676690e+01
-3.402670145993344164e+00 1.315998719258882232e+00 1.778161494636313122e+01
-3.270892936889501890e+00 9.241800563317048578e-01 1.790538791209907643e+01
-3.624936879572103976e+00 1.104274054687679696e+00 1.783273939453095025e+01
-3.865268833938406701e+00 1.357997569195711574e+00 1.774690010583517719e+01
-3.443740184334898480e+00 8.737821170169859375e-01 1.791107376889040026e+01
-6.000560730008842825e+00 1.483933267865168215e+00 1.750407074897641380e+01
-6.530348354509781572e+00 1.219852507673183428e+00 1.744888355690524051e+01
-7.457871167150983638e+00 1.542079561052185355e+00 1.555034983834657325e+01
-7.465668400026272522e+00 1.527210324214760995e+00 1.542482746757717749e+01
-4.729759503440003954e+00 1.859628920923341422e+00 1.115229891110799443e+01
-6.974999576773077692e-01 7.153492554398077630e-01 1.656044540828134970e+01
-9.044990545754960642e-01 7.185662652465649725e-01 1.721891163562458260e+01
-1.145994598808535603e+00 6.010744818833200220e-01 1.756948723809142976e+01
-1.748241745109096357e+00 1.008698452513987043e+00 1.778852649702475830e+01
-1.936780583908196629e+00 1.111160103697285351e+00 1.780875313740468968e+01
-1.836620972176037814e+00 7.252648923894597921e-01 1.789730843941788052e+01
-3.444875442467762561e+00 6.942542140839325082e-01 1.795983401960705450e+01
-5.121610394165262647e+00 1.222484922469941226e+00 1.769826884608468376e+01
-5.340681668299661844e+00 1.180544226586411227e+00 1.769193464740599708e+01
-5.641210804224574105e+00 1.207897311020326825e+00 1.765544424129462087e+01
-5.638730594268939633e+00 9.409221462885191123e-01 1.773913611228023157e+01
-6.683751793306319300e+00 6.133319042103335672e-01 1.759870839361801487e+01
-4.438484193990297477e+00 3.507144870482260757e+00 1.351543495008366946e+01
-1.249314363072055123e+00 2.086237293403718329e+00 1.486415457027899478e+01
-7.306657666968664699e+00 1.245317506279965514e+00 1.662221885936397925e+01
-7.332168732063740535e+00 8.891149713863149007e-01 1.684601729855340935e+01
-1.879835337767144843e+00 4.872599896328415614e-01 1.796601878525335039e+01
-2.458618259497736158e+00 7.649865374674869045e-02 1.810756132543348329e+01
-2.858844498496297071e+00 2.986162970324302002e-01 1.806933596962651123e+01
-2.629272646836383842e+00 1.165315818890637622e-01 1.810400891796821199e+01
-3.867879296431159020e+00 2.997528311432642312e-01 1.804001492037440002e+01
-4.099468249606981196e+00 7.691414526108026894e-01 1.790187084128718098e+01
-4.611186421111378664e+00 7.104050554383101179e-01 1.788467261747407022e+01
-5.432899556480061953e+00 5.013888615383121916e-01 1.788272349825711771e+01
-5.933625141229364353e+00 5.674634174878310233e-01 1.781710692130623030e+01
-6.079942867022984920e+00 5.412058980197633762e-01 1.780120633544933284e+01
-5.815948377804854630e+00 4.920946161956039067e-01 1.784918451942800388e+01
-6.769397261093143214e+00 4.426984719121467293e-01 1.761764979737459313e+01
-7.514622328955345765e+00 1.176932583175959834e+00 1.609841937358148911e+01
-1.202514634659512804e+00 9.621244908259312112e-01 1.376348431640269254e+01
-9.502288582058133759e-01 1.651084010549621617e-01 1.754989141494293037e+01
-1.839364545986474919e+00 -2.016401122582069938e-01 1.811326781132136077e+01
-1.985447079963214900e+00 -7.367476593438526677e-02 1.810534302686590635e+01
-2.422166339297611604e+00 -4.895885806602762180e-01 1.823021881822505108e+01
-3.033453882688418979e+00 -4.459360777869085801e-01 1.824339597897662557e+01
-5.476390086162238546e+00 3.868956781156994040e+00 1.445220584280771092e+01
-3.436704110980422833e+00 -3.152600283614312993e-01 1.821774159721614339e+01
-3.671204413304819170e+00 -8.804393976080593376e-02 1.815059541294377610e+01
-3.848925615185039284e+00 8.013415559012404543e-02 1.810144746293853402e+01
-4.027669419053694355e+00 -9.735402099950407617e-02 1.814408001515559832e+01
-4.069330419536893118e+00 1.955827635800462261e-01 1.805876877142883430e+01
-3.660342965813285332e+00 -5.290530865092160084e-01 1.827444906564399574e+01
-4.442389478469353392e+00 2.946817216786492555e-01 1.801130170145365028e+01
-4.688914722114621014e+00 3.366120428544490117e-01 1.798578304165237185e+01
-4.656865034440305529e+00 1.751569074937764370e-01 1.803316443553541504e+01
-4.239261645290310021e+00 -1.215437227679054821e-01 1.813978406714264580e+01
-4.576434245980406601e+00 -1.471976961554113394e-01 1.812853628772054648e+01
-5.259803452581415684e+00 -1.185269116631975095e-01 1.807296096008940012e+01
-5.688492283754060352e+00 -5.519451744559678019e-02 1.801503268599421048e+01
-5.630443629079177725e+00 2.698015260713115815e-01 1.792717596740206787e+01
-6.253572491406957923e+00 -3.048572111002219032e-01 1.799670825754361303e+01
-6.504208470093410632e+00 -2.712109532096764752e-01 1.792728026153467979e+01
-7.727093886100004028e+00 1.626717708328468959e-01 1.659173415625098258e+01
-7.865116761402738632e+00 1.121741527586168630e-01 1.533946763296122029e+01
-5.969563250217748696e+00 1.525030319362349562e+00 1.208176895416600516e+01
-3.931981074552103550e+00 1.033612904996487725e+00 1.148975216475866645e+01
-2.691585206873987612e+00 5.455558311616091061e-01 1.224343454395861741e+01
-2.947757036067706338e+00 5.729428973430168437e-01 1.208321467786141667e+01
-2.585085147134733585e+00 -1.968028129762848355e+00 1.562182358259432746e+01
-2.541844163113842647e+00 7.542340989715414779e-01 1.212066643438547331e+01
-9.372899582779046224e-01 -3.324106996034981165e-01 1.774377055842417050e+01
-2.093111251007884643e+00 2.046771472789272739e+00 1.294909140491121136e+01
-1.769729672842662360e+00 -2.331544325113452665e-01 1.811203626072762418e+01
