-4.789320114606620216e+00 1.756306270678380077e+00 1.451546248247887050e+01
-4.706619641154837552e+00 9.760766333916357507e-01 1.352582381840132442e+01
6.255268252717238742e-02 -1.063040267478120970e+00 1.676609474508937225e+01
1.063568740248919120e-01 -1.472405029655928566e+00 1.667987514584517683e+01
2.475095010058803169e-02 -1.194055882575314698e+00 1.573861800799003774e+01
-2.829828733421115405e+00 3.123024246468738552e-01 1.306421458096739130e+01
-4.475595881562943745e-02 -2.581539115982298682e-01 1.685520754731445336e+01
-7.264095810536176145e+00 7.027985599710036002e-01 1.497288409070432280e+01
-7.189931664902807995e+00 8.601632713149616194e-01 1.503782585272377403e+01
-6.429372361161840743e+00 -2.600055918270625099e-01 1.359851077927478613e+01
-7.803641395573157613e-02 -1.401974373938752461e-01 1.676243881618306730e+01
-3.634350866727657170e+00 2.271531484303056736e+00 1.549863965494666829e+01
-1.493868669950948469e-02 -4.509245102347869683e-01 1.660514459034194701e+01
-9.005204494483021183e-02 -1.011557736623657000e+00 1.556028753549800925e+01
3.746041287845391921e-04 -1.002164604362102196e+00 1.594148150173176148e+01
-8.746271029189837121e-01 -1.256543796181470718e+00 1.416033381315913786e+01
-4.603980873674013985e-01 -1.155073274826389884e+00 1.478200836797173068e+01
-1.547540427456410850e-01 1.318332629573903958e-01 1.684639825002487257e+01
-2.228286268093078171e-01 3.173621523911690501e-01 1.684648043654576455e+01
-5.788687182727151326e-01 -1.028333859213441670e+00 1.472852038490393412e+01
-6.038428155525912278e-01 1.082720191030378309e+00 1.715704823447842031e+01
-5.336483162758723253e+00 1.188932249800282781e+00 1.411843575272718354e+01
-1.110295601099007268e+00 -1.048953835395731726e+00 1.398680535715603312e+01
-3.987288254955834610e+00 1.703005257520714411e+00 1.439069083358284828e+01
-1.274183549245725189e+00 -1.002722212855993167e+00 1.378242633050046706e+01
-1.322691315476606899e+00 -8.443518786098840323e-01 1.380847336029072991e+01
-7.151356573770110359e+00 1.207174033682548053e+00 1.530351770201967199e+01
-6.994884921006661926e+00 1.397265404191895044e+00 1.533919132369202387e+01
-1.489418576022854213e+00 -7.934044551031886883e-01 1.360038105165768130e+01
-6.485790976033241506e+00 -3.925261371990274029e-02 1.372469137783678761e+01
-6.848993307612825987e+00 4.684284513706816755e-01 1.439905994059013139e+01
-6.439488817615144356e+00 1.107431276237094142e-01 1.378120149980348330e+01
-6.867305953815829866e+00 9.005979054128205874e-01 1.478824011873635058e+01
-1.007521546155785819e+00 1.656164116885429749e+00 1.745105152906031876e+01
-1.108451256187031442e+00 -7.134875048291209332e-01 1.425530389029254863e+01
-5.395547744511051125e-01 2.442268356528066731e-01 1.621729922960357229e+01
-5.979248985588161425e-01 2.934906873473530631e-02 1.588264096430756567e+01
-7.876743243131253402e-01 -3.169927780107799631e-01 1.519143264797778059e+01
-8.770187174576922207e-01 -3.427726812721494376e-01 1.503107409684429641e+01
-1.907739043992418893e+00 2.341460945310586794e+00 1.724351605567881407e+01
-3.446578858584171901e+00 -3.679965516754972743e+00 1.736881531376770127e+01
-1.364840607860293265e+00 1.721545693613137473e+00 1.704159323435557738e+01
-7.925328984615279682e-01 4.292146034068577976e-02 1.563578252592956019e+01
-9.207719190895123917e-01 8.285927413027951438e-01 1.646175265187927650e+01
-1.107734272392654873e+00 1.071255907976489619e+00 1.653965260462058140e+01
-4.380399631866525034e+00 1.031250765101556111e+00 1.344590708171734050e+01
-1.380386684490054972e+00 -5.890195450823723089e-01 1.396399465869726342e+01
-1.743187286956795479e+00 -7.593046681093731376e-01 1.326572842970299249e+01
-1.102947523888841985e+00 8.532555098196863419e-01 1.627039895546648651e+01
-1.592849109750287262e+00 1.751053361481834436e+00 1.683040803517082296e+01
-1.376879448376540971e+00 1.505630372452610999e+00 1.676882073551839269e+01
-2.112003465042659123e+00 2.373850398358884561e+00 1.706669359993837176e+01
-1.712553425407035590e+00 2.011807109329681431e+00 1.702232346455027923e+01
-1.726300320386668474e+00 1.816722787693085150e+00 1.676544883182777212e+01
-1.385813948803520601e+00 -4.052749311691197232e-01 1.416559582815832030e+01
-1.532531176943541462e+00 -5.057447352286832398e-01 1.382248437893808912e+01
-5.113580662362791074e+00 7.925381737849386266e-01 1.352862823454869456e+01
-1.569769044460263885e+00 1.566580991368700992e+00 1.662411106040910980e+01
-1.931585848999930244e+00 -3.824915838908962140e-01 1.328108042585374093e+01
-6.627028644998906870e+00 2.666698565566554269e-01 1.405777626504071165e+01
-5.514953360932379312e+00 -2.478148621104969695e-01 1.287093645326966040e+01
-5.907032185336289487e+00 -1.692746926506227823e-03 1.328804095643727479e+01
-5.123558090521614261e+00 -2.058912865387301228e-01 1.265101566524286980e+01
-3.201778900812985551e+00 1.093069214930160626e+00 1.394879478265463391e+01
-5.466686780815171787e+00 -3.661841875077564978e-02 1.294894200232165460e+01
-6.813022228948680592e+00 1.063973172970747116e+00 1.488787959958954943e+01
-6.387639052292321651e+00 8.706138924884109231e-01 1.441693488323935313e+01
-6.528085391636674117e+00 2.416537147342206815e+00 1.608961193593268391e+01
-5.017861745949375063e+00 -6.151710497014462042e-02 1.260381059117985458e+01
-6.504784516440880182e+00 2.326961708974742304e+00 1.598688814159826066e+01
-6.570840656769240340e+00 1.044181091668946459e+00 1.470608109998646640e+01
-6.424045303641653604e+00 1.878973406442926208e+00 1.545978833307805544e+01
-6.405472809459556771e+00 1.649578671248176143e+00 1.520976829681588427e+01
-6.414008371083902205e+00 1.267240529239788582e+00 1.482724659231274345e+01
-5.835531830445789936e+00 4.751385549348288162e-01 1.363327770085163237e+01
-5.413832219546925728e-01 -6.690691791165195301e-01 1.513319310400126128e+01
-1.767396858269957516e+00 1.580889349007210232e+00 1.639258261008790996e+01
-1.916058008635812104e+00 1.836474350634508479e+00 1.655081102274683857e+01
-1.522150994779563060e+00 8.587222878812779125e-01 1.572356049204890027e+01
-1.492422111835771448e+00 5.992089065631381883e-01 1.539611542320919924e+01
-1.626247938804048498e+00 8.397080204590661179e-01 1.553585408569341197e+01
-2.021786403012529654e+00 -3.103524365935854679e-01 1.322618517886194311e+01
-1.654546957862776502e+00 4.702799348840074334e-01 1.494777769304448967e+01
-1.736448306481365833e+00 9.335890203606150850e-01 1.549930063884082543e+01
-1.806742975044084432e+00 1.039985520595746671e+00 1.554649624607133873e+01
-2.097466416586403426e+00 2.052915686346563628e+00 1.661321885083914296e+01
-1.712360205348510966e+00 1.008673770767201106e-01 1.430846426663209670e+01
-1.361574857385432269e+00 3.453236761728453175e-01 1.523462446320812447e+01
-1.994738409826974035e+00 1.581092432355525323e+00 1.605960265906279361e+01
-6.000462610171506839e+00 1.015621062449494350e+00 1.430048970653620088e+01
9.079521201720763823e-02 -1.355656928612103407e+00 1.692751004961997907e+01
-5.898557458308539836e+00 7.410832447226587405e-01 1.394700656464073418e+01
-3.155569504762168354e+00 2.615925542718493091e+00 1.632749116428355407e+01
-6.320061538940247914e+00 2.006273249665690095e+00 1.553733328052183893e+01
-6.344735119483672747e+00 1.788880709980675832e+00 1.532226478517743473e+01
-6.176188323469869346e+00 2.584500328170120653e+00 1.612171844006682520e+01
-5.928222908724016804e+00 2.766743773653204563e+00 1.622960213461228207e+01
-6.159862845056263581e+00 2.400442041965897388e+00 1.590155982316987959e+01
-5.963476021591985088e+00 2.361124663239408505e+00 1.575313574271835293e+01
-6.886340901409928605e+00 3.405393876817012222e-01 1.433736367909900267e+01
-1.844396357547527732e+00 5.281305555350558345e-01 1.472370278234900454e+01
-6.089179111838957326e+00 1.947977398061330190e+00 1.535769167503332611e+01
-5.285138313890785255e+00 3.558988879618721901e-01 1.313878624973590448e+01
-4.544856466502869452e+00 2.659642121817426208e+00 1.561171459616812385e+01
-5.645253564177840744e+00 7.218413232013438652e-01 1.376001888852517041e+01
-5.803110613231115877e+00 1.083937524439952504e+00 1.424985331524760213e+01
-4.883506752814199103e+00 2.050071548185727899e-01 1.272666616991795152e+01
-5.266793256875796914e+00 5.585223400533695370e-01 1.334937152283027828e+01
-5.920839227596850662e+00 2.181041907713717087e+00 1.553013046293756716e+01
-5.529687345356478545e+00 3.158880632802878452e+00 1.657406492303672607e+01
-5.341633877840044065e+00 3.163311976512896528e+00 1.651408225279493180e+01
-5.730928300735639525e+00 2.753204140496306351e+00 1.612609927991876546e+01
-5.100798359304988594e+00 3.084354506148586861e+00 1.637848150656446577e+01
-6.137139056247365332e+00 2.320479324550452471e+00 1.579508301504581524e+01
-4.673199385834965192e+00 -1.267202716415708252e+00 1.459583892011066908e+01
-5.571121141277624034e+00 2.416863026176711671e+00 1.567021379660817004e+01
-5.346551567318122977e+00 2.743743504255572674e+00 1.597797544252874857e+01
-5.569163374678959499e+00 2.337298191625601707e+00 1.557626323591165729e+01
-5.468970229747490919e+00 8.722078404663564655e-01 1.382187472770015901e+01
-4.082271646243204266e+00 2.347720240976374662e+00 1.780067423755688694e+01
-5.053960104423984134e+00 5.312248533644156057e-01 1.319111048566103150e+01
-5.231509192482421966e+00 9.397253840349732990e-01 1.376759519342071414e+01
-2.295308522349088332e+00 2.382055023607965172e+00 1.685400494025375551e+01
-2.904544824605653774e-01 4.235368156601720946e-01 1.681472057293870748e+01
-2.187813719774217347e+00 2.176350967714921314e+00 1.667765286891841114e+01
-2.175090132740468363e+00 2.001055492358099208e+00 1.643772176123269091e+01
-1.888234146020512316e+00 1.509154648756279027e-01 1.408728213811653163e+01
-2.064403376028202786e+00 3.545451967266405324e-01 1.411569108286109397e+01
-2.539014990032439911e-01 -3.852521776519224339e-02 1.627272607580674801e+01
-7.752577116835441373e+00 -9.124816980882219930e-01 1.539109977338131685e+01
-5.155112304243111510e+00 2.760965702529069254e+00 1.592204641031847601e+01
-5.197121731609668061e+00 1.220090701829393609e+00 1.407983950377820648e+01
-5.207619300906992876e+00 1.044049947027572589e+00 1.387686481939139682e+01
-5.147033472399879628e+00 1.590595614332497743e+00 1.449457214195493648e+01
-5.146621405841552033e+00 1.956016862696213998e+00 1.493456935485055581e+01
-5.004621735967466734e+00 1.091966664151797994e+00 1.382236314576403302e+01
-4.808546953070056418e+00 5.146520225052290121e-01 1.302858543412146375e+01
-5.182778825153105728e+00 1.678697356228662674e+00 1.461915646107018674e+01
-4.473641074657627392e+00 3.914026611070184902e-01 1.270318978364313622e+01
-4.840819016996272595e+00 1.119431604426988303e+00 1.376784729598232460e+01
-5.146453127589524001e+00 2.408621155014416981e+00 1.548083999117639209e+01
-4.911651486600158378e+00 3.110578226856753226e+00 1.635878111998930606e+01
-4.944506331476059557e+00 2.803744407133319960e+00 1.587903839332983935e+01
-4.096709962053489029e+00 1.721188024812179140e-01 1.231689165105236938e+01
-4.441729173553120802e+00 6.720869860023716003e-01 1.302875204358655381e+01
-4.504394403114943657e+00 5.658026682891841297e-01 1.292551954843719741e+01
-1.969402457551917340e+00 9.195888382957685403e-01 1.511617565983664591e+01
-4.024201858119033304e+00 2.644900605619949552e+00 1.581113534396432740e+01
-2.005427100971046706e+00 5.509295802859545121e-01 1.450482594895623478e+01
-3.198452640398020463e+00 -1.247887915122785518e+00 1.343878614743652733e+01
-2.134580492064418245e+00 1.659266034529107703e+00 1.597623015788956380e+01
-4.950538413612656896e+00 2.362629541836991365e+00 1.533083023828293889e+01
-2.590146420344963119e+00 2.529920767787142033e+00 1.675028530998042342e+01
-2.357682507590406651e+00 2.030308898818359076e+00 1.624687666379850626e+01
-2.349929127060240486e+00 1.706956497470962342e+00 1.579097002456198240e+01
-2.024862557454171430e+00 7.286802884164784722e-01 1.474567645058395371e+01
-2.108267657467181699e+00 -1.812491932115176674e-01 1.326696507461744190e+01
-2.246257840670399020e+00 1.236025578522300883e+00 1.521337056223680051e+01
-2.133170045457265296e+00 8.116036706412992352e-01 1.471574591173978419e+01
-2.234387986852256258e+00 7.686682681343395274e-01 1.451234847949240603e+01
-7.088198551504719447e+00 -1.105676322103370524e-01 1.433907819434165631e+01
-2.998827464950156063e+00 2.774173712313005247e+00 1.674237420774172236e+01
-2.730132155362114066e+00 2.596942805544224520e+00 1.670669210832872054e+01
-2.653713236050999846e+00 2.324927831524091104e+00 1.637388732026486693e+01
-2.540429702580580873e+00 1.878635435912131779e+00 1.582770104189892990e+01
-2.364879127790814106e+00 1.316375946924113860e+00 1.518233191847905417e+01
-2.609864008265931012e+00 -2.769159168878352340e-01 1.257191170655649515e+01
-2.478796766463363888e+00 -1.159407938539498417e-01 1.288529988020271233e+01
-2.631596806159737678e+00 1.477028021237842825e-01 1.305740931073584576e+01
-2.565850800077773108e+00 1.037196528487707159e+00 1.450203137318694857e+01
-2.537459119648616479e+00 1.400746228106875435e+00 1.509433822887178778e+01
-2.603497099728125264e+00 1.671037492527587265e+00 1.543282154090251979e+01
-3.099197174170900571e+00 2.809025661095159609e+00 1.669985791449122914e+01
-2.906766948293459496e+00 2.577464406786298845e+00 1.649820368694944861e+01
-2.728051057225729714e+00 2.282602930535158947e+00 1.623123273850782411e+01
-2.704361799162279034e+00 1.946986208869390556e+00 1.574155701617008063e+01
-7.953004513287115884e+00 -2.639375302099225440e+00 1.739574731198264956e+01
-2.944341328223780696e+00 2.298503973187093763e+00 1.603019444572050034e+01
-2.603078091898526125e+00 8.245504893375006361e-01 1.412747135619819616e+01
-2.695869773182905327e+00 2.406931788769973712e-01 1.311569731809989392e+01
-2.752826924883982063e+00 1.759226658908119578e+00 1.540706693852622422e+01
-2.764897781464975335e+00 6.759932955876317706e-01 1.370103774590167589e+01
-3.290323044094558114e+00 2.900602242681610932e+00 1.668326888170764377e+01
-1.298479783968433665e-01 -3.280976592724961005e+00 1.832305593253238030e+01
-3.132090630292749367e+00 2.695869020729512400e+00 1.647719090519074214e+01
-2.902746065556581101e+00 1.976355339900718544e+00 1.558732117557400088e+01
-2.818498827312068133e+00 1.700320395883705871e+00 1.524825716510953200e+01
-2.783829122160963898e+00 1.521653541628491091e+00 1.500951881252326459e+01
-2.826104946726863076e+00 1.321823853960986783e+00 1.465862472373958880e+01
-4.237065073935526449e+00 1.220642853716741305e+00 1.368192390182635521e+01
-2.887589953612830218e+00 2.633144655044045157e-01 1.292776083304483237e+01
-3.319244193177904645e+00 2.590686829342961239e+00 1.615807095019325246e+01
-3.535822051347953021e+00 2.735556529777683377e+00 1.624380255637769110e+01
-2.428745251373652714e+00 1.038315549715616015e-01 1.324770020718262131e+01
-3.517021572923139328e+00 2.638904131861620428e+00 1.610726163336731886e+01
-4.441087340803954397e+00 3.171072189838084476e+00 1.648026536545251375e+01
-1.281045595409315840e-01 -5.629048382779533455e-02 1.663031511204428980e+01
-7.535485089118605373e+00 -2.472652083336634554e+00 1.576350232050554823e+01
-3.899911142903530692e+00 2.917897385350032735e+00 1.630438335618233126e+01
-3.747091456711719282e+00 2.788976776069496566e+00 1.619238283430881964e+01
-3.552123557188244352e+00 2.498639772923109348e+00 1.588785019450228120e+01
-1.722949141498317793e+00 -2.977357517078812688e+00 1.955795959158431074e+01
-3.352339631412278642e+00 2.128708159478450490e+00 1.546837031834328613e+01
-3.151891450766508118e+00 1.603316918725050444e+00 1.480505639303744303e+01
-2.988160261220984104e+00 1.234799301941803096e+00 1.436059245183311006e+01
-4.098781064872056845e+00 2.972213389693893593e+00 1.628076478486621070e+01
-2.635380056578116914e+00 1.463242681821829372e+00 1.507994727399048074e+01
-3.922133013801929469e+00 2.775277764594285657e+00 1.607874180163929978e+01
-3.737567561808312622e+00 2.564749360419487978e+00 1.587773662453458812e+01
-3.331848386498024617e+00 1.665813996900039839e+00 1.476522295326392609e+01
-3.745857793952221293e+00 2.465738373581457310e+00 1.572254154672527093e+01
-3.055931834055488405e+00 3.461860989939681277e-01 1.289337775412024101e+01
-3.522905347317769831e+00 2.017027203703801508e+00 1.518030587709195700e+01
-3.733583300221263279e+00 2.395265254605923211e+00 1.562306492923798018e+01
-3.063387308155816946e+00 5.080820272525888859e-01 1.312735550378135585e+01
-3.241877533568616965e+00 7.224719041907103900e-01 1.331473229107472989e+01
-3.933263241459063586e+00 2.552331364193897834e+00 1.572914725988102802e+01
-3.754255199526513209e+00 2.187328576635638733e+00 1.528056928078929033e+01
-4.305809984390134737e+00 2.960569915446837896e+00 1.613317937625112464e+01
-4.446206104946655913e+00 7.672459136132983026e-01 1.314779145671723271e+01
-3.882865702724747070e+00 1.727475675528591381e-01 1.228939415316773065e+01
-4.778087858996683757e+00 2.395604209802155715e+00 1.529182084980159928e+01
-4.143451200120988887e+00 2.590972278508354876e+00 1.564326103845741400e+01
-3.418758021927978508e+00 9.293640943109275909e-01 1.351760477278521577e+01
-3.419771658207670928e+00 1.230223124160710890e+00 1.399758373943262413e+01
-3.454531408021746852e+00 8.426955518428113079e-01 1.335533144314977605e+01
-3.620025277246843309e+00 1.576488616965975087e+00 1.440364612013224033e+01
-3.964315718907120978e+00 2.140134057582628646e+00 1.505348758910757212e+01
-3.815270218731237506e+00 1.678609558491156895e+00 1.442962036541502968e+01
-4.347269864373304316e+00 2.862358450990054592e+00 1.595367012631468739e+01
-5.731883824469727884e+00 6.374458988854243557e-01 1.869917400161181931e+01
-3.435038545358287010e+00 4.049120116144365733e-01 1.269102307259513296e+01
-1.018177602175203145e-01 -1.684377238318914838e-01 1.655867197122600842e+01
-4.095287096907054725e+00 3.434869694256801331e-01 1.251170444112866775e+01
-4.920568591739758801e+00 2.881496607377500574e+00 1.596991917891739732e+01
-5.262189634244180958e-01 -3.144006494089981896e+00 1.889015984439481954e+01
-4.702568649847216342e+00 3.167871569449588698e+00 1.637514110431689218e+01
-4.734608346752551711e+00 2.904798955662986071e+00 1.595580322732694967e+01
-5.975188734941745849e+00 1.416022895339300369e+00 1.471613335020488122e+01
-3.497656015363060700e+00 4.742830210035353655e-01 1.275947947395185977e+01
-3.653128083208585064e+00 8.325373709799491762e-01 1.322537519526369110e+01
-4.337832400660994736e+00 2.718121084876795379e+00 1.573762030353999464e+01
-5.551845164296217661e+00 2.789356810720391877e+00 1.610403651459935404e+01
-1.678421412405167068e+00 -2.483372019784693130e-01 1.387622086808452693e+01
-4.727946320161557026e+00 3.213304913691326536e+00 1.645610234072987410e+01
-4.701004865807167477e+00 3.068928459076694981e+00 1.619873762923635852e+01
-4.534365831619320275e+00 2.992093855682012027e+00 1.607994524406845116e+01
-3.802304975297508882e+00 1.264618023720415652e+00 1.380762199398730772e+01
-4.258585351279648989e+00 7.927623855798449082e-01 1.311227164343037899e+01
-3.847250811970365003e+00 5.363109279104795180e-01 1.274443129375241668e+01
-4.034516534536765953e+00 1.125957702601717791e+00 1.355953350125212253e+01
-4.339427094282390485e+00 2.567687732233023823e+00 1.551861021909099136e+01
-7.713935700415280872e-01 -1.012393172394755680e+00 1.447964146608898872e+01
-4.766986077352081352e+00 2.574548805082219616e+00 1.551477640395600233e+01
-2.340198376474059927e+00 2.694154405404607822e+00 1.733566135759671667e+01
-4.529769986163426410e+00 2.750870908393215686e+00 1.573997451092598610e+01
-4.570941744220700542e+00 2.209517797060568611e+00 1.501463923137405843e+01
-4.416288551907992854e+00 1.985071309097905967e+00 1.471542919021281293e+01
-4.215345222333271025e+00 1.610049921300660714e+00 1.422190354160388281e+01
-4.023650429905934800e+00 1.278206212831517918e+00 1.377704306091654374e+01
-4.149150879054761099e+00 1.708756586004569256e+00 1.436599881404376688e+01
-5.396705274622377146e+00 -3.335940624225451234e+00 1.969917706442742045e+01
-3.634143905124951335e+00 -3.800979291857746301e+00 1.962455247342509423e+01
-3.399623170997101873e+00 -3.590853362592583142e+00 1.961546130906780760e+01
-3.194476192009088944e+00 -3.205095632017365137e+00 1.959109156153973075e+01
-6.665482277347436479e+00 1.351268624558707998e+00 1.778066904705906026e+01
-6.058107274414560095e+00 -2.576364940545401883e+00 1.967989078834629524e+01
-5.959585077961651933e+00 -2.522503214365859669e+00 1.966100362957055481e+01
-5.044993508805953653e+00 -3.024852027497566542e+00 1.963038198594228234e+01
-4.167535735734857028e+00 -3.112842208774992958e+00 1.959056596589318744e+01
-3.790254988764013788e+00 -3.216260832646653522e+00 1.959988676780399075e+01
-6.840026565533298353e+00 -3.897677954383093724e+00 1.796703599177518029e+01
-7.129471154043189429e+00 -3.283775250547197988e+00 1.945606538980323208e+01
-5.770429926636010620e+00 -1.942862045537687710e+00 1.953949834317557688e+01
-3.079832526520060121e+00 -7.508428633753139181e-02 1.230007691225396016e+01
-2.426333763904788832e+00 -2.968382242143361882e+00 1.957113909123682660e+01
-7.341419494284401992e+00 -3.282614585602692703e+00 1.928309867489079821e+01
-4.195753402368714191e+00 -2.141907577836229759e+00 1.944027896393162180e+01
-4.054716887148863691e+00 -2.243389694612067053e+00 1.946867142091163672e+01
-3.807874310700883225e+00 -2.115491916062184341e+00 1.945344680190880737e+01
-3.957705395780469981e+00 -1.697820577917315887e+00 1.934593233269292867e+01
-3.947332800262234542e+00 -1.958030075187661367e+00 1.940746634845827501e+01
-2.767096467177597052e+00 -2.222835931510960261e+00 1.947413723824626786e+01
-2.393752524799661163e+00 -2.190527861001417609e+00 1.946849469146748035e+01
-5.039109824264672355e+00 -3.654645483044275611e+00 1.759364339498129581e+01
-7.917613360974865344e+00 -7.305237244235109895e-01 1.609852336011511298e+01
-5.953011893947019573e+00 -8.826863342106943122e-01 1.925046071881915921e+01
-5.822735522733422542e+00 -7.715062570606794345e-01 1.921365276882263018e+01
-4.171737942916598385e+00 -1.643625311005097789e+00 1.932823729930405321e+01
-3.767878396272474006e+00 -1.340118775732986212e+00 1.925722111960056182e+01
-4.688500212503864617e+00 -3.338055044700064311e+00 1.737841131911413939e+01
-5.205205172715885453e+00 -3.268848265553281340e+00 1.740506518352404797e+01
-6.201506290909961194e+00 -7.902839531377856552e-01 1.919392912056764189e+01
-5.132890390299372996e+00 -8.187952875333941449e-01 1.916923325869743522e+01
-4.822862881665754387e+00 -9.703843698454255318e-01 1.917408115506115607e+01
-4.802528485917394008e+00 -1.583158898346070487e+00 1.934001723035616394e+01
-3.920928153159962459e+00 -8.876882866085757939e-01 1.910979795423132899e+01
-4.339317161484394170e+00 -5.876475142506107918e-01 1.900907109478731272e+01
-3.603693133912388102e+00 -8.614908801445486652e-01 1.911515476783283773e+01
-2.343307810965872040e+00 -1.393668245344901635e+00 1.931129305973478338e+01
-2.361988752452034213e+00 -1.191158265255489290e+00 1.926393518730118970e+01
-2.591336146759213754e+00 -1.344316895705449877e+00 1.929503471309898899e+01
-1.899018498841103408e+00 -2.113109872486973018e+00 1.943819637611978024e+01
-3.649714157266573888e+00 -3.698302023350926948e+00 1.737173536676037955e+01
-4.516457272701243753e+00 -2.834337892251766799e+00 1.703732083871914327e+01
-5.451636917522918679e+00 -3.027409198839805970e+00 1.723513575026997913e+01
-2.008068450376557124e+00 2.442118522561186333e-01 1.403417703913084935e+01
-6.074768762899934060e+00 -3.301809398872367129e+00 1.737315384180316968e+01
-7.470206668241042181e+00 -2.135482380385365087e+00 1.893052708050677424e+01
-7.306242831923380976e+00 -1.831494728668844107e+00 1.899160377158044000e+01
-5.595360530351348061e+00 -2.485920932730627531e-01 1.903301298597241598e+01
-1.981825495023212813e-01 -3.719945609115726803e-02 1.641710861188866133e+01
-5.406739404285174189e+00 -3.531633258185282731e-01 1.905340294582249427e+01
-4.547012692032289749e+00 -5.495178217397500564e-01 1.901381991910293934e+01
-4.306589035589814429e+00 -6.516305671484312612e-02 1.882172218438193667e+01
-4.122338947265728137e+00 -1.535237810717333673e-01 1.884554123132258141e+01
-3.375680973007577190e+00 -4.368193688482571169e-01 1.898564069321358616e+01
-3.136882679286347564e+00 -1.113558784781554234e-01 1.889228027716725578e+01
-3.223202408671985264e+00 -8.786176887379983924e-01 1.913758072696810686e+01
-2.548506534781862065e+00 -8.244406848922070097e-01 1.916493003453593857e+01
-2.083375832161377783e+00 -1.299364178650990631e+00 1.928929838685330722e+01
-1.551649661970440075e+00 -1.545795266386362332e+00 1.923984188093842462e+01
-1.473922869817517078e+00 -3.268409441149650707e+00 1.954476006895306384e+01
-2.576815206699206939e+00 2.384490649095117654e+00 1.653171500022722640e+01
-4.495959320768424305e+00 -2.626853717788900422e+00 1.686702351629246621e+01
-6.684325754584188317e+00 -5.238435708683442105e-01 1.888148374632188720e+01
-5.898508894000961789e+00 4.906916006311354828e-01 1.872825313150565663e+01
-5.125907976483075501e+00 1.057192258811288088e-01 1.888280263385663815e+01
-4.731929207534410153e+00 1.450282298022447236e-01 1.881540162221246604e+01
-4.830828728723117749e+00 5.072572880716985644e-02 1.885942742491308977e+01
-3.706990547318689710e+00 4.104726665916940131e-01 1.865081660326908874e+01
-6.081501567313067014e+00 3.767825258695930435e-01 1.372039385941480205e+01
-2.518792776834489988e+00 -7.098553269806060495e-01 1.913566942587155850e+01
-3.970346349279852305e+00 -4.947502211886987133e-01 1.897265248255800785e+01
-1.950398373402847163e+00 -6.816841619921414352e-01 1.913776527503269520e+01
-1.439008981589441571e+00 -1.862279582154492186e+00 1.926597043869058368e+01
-1.345340621738331466e+00 -1.633548264665182881e+00 1.918073550997782561e+01
-1.308860581533453082e+00 -2.569520852466508742e+00 1.935543397753338368e+01
-2.857272512154306554e+00 -3.885479827158220711e+00 1.754115050686615618e+01
-7.925539055780838282e+00 -2.638397865810092391e+00 1.788241959195940822e+01
-7.210025402070584732e+00 -5.608867577944665062e-01 1.841131522600971593e+01
-7.062576069261043088e+00 -6.751025876856227015e-01 1.864029302394996179e+01
-6.546710290473161109e+00 5.924944302392076700e-02 1.866591171351165812e+01
-6.272867272623363633e+00 5.321147344203274177e-01 1.857062453177235639e+01
-5.594520762204293618e+00 1.048474643756250879e+00 1.853031731028352525e+01
-5.319219313084506240e+00 7.735801204787506880e-01 1.867526309769410986e+01
-5.172114487219468870e+00 6.610804531684770780e-01 1.871056533899399099e+01
-3.323405173767309595e+00 9.783864197451055400e-01 1.847008242634176511e+01
-2.822496963906728329e+00 2.017650868291373634e+00 1.572449085731577512e+01
-2.825244671513563510e+00 -2.682162875133595747e-01 1.897831544821514527e+01
-1.521843131516460668e+00 -9.758755095603253160e-01 1.909929329432525336e+01
-1.533684612141104520e+00 -5.713703508799328201e-01 1.899051118088403101e+01
-1.136746064667173872e+00 -2.938515456187988040e+00 1.934615907751236463e+01
-1.120428611607778180e+00 -4.211281351924196059e+00 1.945518222592786017e+01
-5.606573264850844396e+00 -2.591155368641991696e+00 1.686268978143741393e+01
-7.513282208293734499e+00 -8.087938600189574778e-01 1.809607665624136885e+01
-7.244866217822421461e+00 -3.052350664998462193e-01 1.820227724636502487e+01
-6.602301731423372289e+00 6.612507229163357980e-01 1.829249925541283162e+01
-6.626363246125492878e+00 8.806752066682952407e-01 1.814219820778135173e+01
-6.380810327111003488e+00 1.478682033275639851e+00 1.793625090129880917e+01
-2.922405262930901859e+00 7.123778782966661005e-01 1.863349118511515812e+01
-2.193524336721849544e+00 3.529108345326186225e-01 1.883614182187688257e+01
-1.202129002457259732e+00 -8.057162525135126430e-01 1.892694627927624040e+01
-1.844977518305323194e+00 -3.999480565443927826e+00 1.746730088798083713e+01
-7.724460206687551178e+00 -2.707684749230823584e+00 1.633177805369193081e+01
-7.026854017943479747e+00 3.270502275698471406e-01 1.807911377240589346e+01
-6.586192956235807472e+00 1.506289300140561283e+00 1.774678334217466258e+01
-6.484638215828304908e+00 1.567940381409557382e+00 1.779653625583445731e+01
-6.320580175021243363e+00 1.962369265408350216e+00 1.764405238938291021e+01
-5.928564075869248384e+00 1.853922865172118684e+00 1.796846579412066447e+01
-2.328062738620040761e+00 7.692061798021014862e-01 1.866906012491297062e+01
-4.264716388979619133e+00 2.621870352913174607e+00 1.562312516543154217e+01
-1.063990978973740731e+00 -9.130584600438034215e-01 1.888923648642306219e+01
-8.596573914830242247e-01 -2.106225331159453429e+00 1.902755165445892160e+01
-8.773924615015139539e-01 -4.395170859461668300e+00 1.745215208746111912e+01
-6.761210099002845197e+00 1.502988284043806910e+00 1.754272097007100584e+01
-5.989424702153058888e+00 2.550049090205526614e+00 1.743657320012023959e+01
-2.110381020361975501e+00 8.780596764789799780e-01 1.859926293806264042e+01
-1.806645243272445134e+00 -5.361445580471146943e-01 1.332861692513601426e+01
-5.437015286107965695e-01 -3.031229555131096820e+00 1.889766841146620990e+01
-7.712211359847506387e+00 -3.473343169872280534e-01 1.730572218852059407e+01
-7.469554127297731938e+00 2.636018177759971159e-01 1.735097616196498294e+01
-6.582272640819869736e+00 1.971690964747967456e+00 1.735098652475718595e+01
-4.861183826090616833e+00 2.097681759923248457e+00 1.800545938745972663e+01
-4.680938739935630366e+00 2.101549870372731110e+00 1.799551142438115292e+01
-4.431906442455440853e+00 2.079041256477452304e+00 1.798879344246433831e+01
-8.655340642053049871e-01 -1.757792633581758412e-01 1.854297296151378660e+01
-4.744537141753220610e-01 -1.827328115894289784e+00 1.862928408991307450e+01
-5.033805998836515805e-01 -2.318363605944979700e+00 1.875333625098148715e+01
-4.794505391765754854e-01 -2.661441749006612678e+00 1.877935484042000880e+01
-5.036524741821605256e-01 -3.459890822392723830e+00 1.891330043420697038e+01
-1.510090277270341952e+00 -1.256814322010655349e-01 1.433028611358183113e+01
-1.187399449055091427e+00 -3.755701449203316056e+00 1.666392983484881185e+01
-7.938206483745824826e+00 -1.841896494504196902e+00 1.600736373106002119e+01
-7.952964093739288032e+00 -1.950577128578831587e+00 1.613520254446249069e+01
-1.731901281898128087e+00 1.376071620658089856e+00 1.828845753666628227e+01
-7.677422156776666284e+00 -2.143943167686024331e-01 1.726729527972893052e+01
-7.475343880793159812e+00 4.181732055342983756e-01 1.717930977122369640e+01
-1.034732679815326906e+00 5.392254844392009305e-01 1.838122640164825938e+01
-8.409758639536769609e-01 2.966631410139605185e-01 1.834000932606168632e+01
-3.185299436313827059e-01 -1.577874520375608380e+00 1.834573587694382368e+01
-4.461598544302111335e+00 2.787537627719772537e+00 1.753599258228901547e+01
-3.938010990038894654e+00 2.543488005510367245e+00 1.767099891035688941e+01
-1.412596996026581841e+00 2.891077360490555970e-01 1.507692628274572755e+01
-2.317595413701576845e+00 2.415215711446327518e+00 1.775372212949653417e+01
-1.036948447345348301e+00 8.667393615221575809e-01 1.822235712444179612e+01
-3.610143064593581697e-01 -7.695809950516814268e-01 1.818935221874946606e+01
-2.976318525374217483e-01 -1.286954453801243403e+00 1.823771477765419391e+01
-2.906282038823296832e-01 -2.184731246670010840e+00 1.840927100565139440e+01
-3.236666200742038257e-01 -2.560545007903536341e+00 1.853307767622056801e+01
-2.071222884099636730e+00 2.417741473064500823e+00 1.773707303247337919e+01
-7.821850495792381786e-01 8.160692315598754298e-01 1.802528109074227203e+01
-5.037983075629149932e-01 -6.956137079048207994e-02 1.814214868001907277e+01
-2.579746249760981325e-01 -1.131917798450115864e+00 1.812253768125441056e+01
-2.602403637105649148e-01 -9.761554460290557955e-01 1.808710785764101914e+01
-1.253916134385774095e-01 -1.559467895701048157e+00 1.793939305583075239e+01
-9.950431457863084805e-02 -2.388202148604092301e+00 1.803859167977390499e+01
-1.174432976796655481e-01 -2.517362785480527609e+00 1.810355864596623476e+01
-1.186280578909230332e+00 -2.868360708181748375e+00 1.553324925292568182e+01
-4.470950455304285143e+00 -1.283513933909139926e+00 1.460725812792614775e+01
-7.699008080195840265e+00 3.322867198913659337e-01 1.639289926669070141e+01
-3.397606796543932717e+00 2.912282181047348928e+00 1.742442996470936478e+01
4.235616976937617295e-02 -3.863863833953625981e+00 1.753878456090378180e+01
3.912179228471823755e-02 -3.874516643956139372e+00 1.743055548405881794e+01
-1.868136776696923684e-01 -3.312244958984662535e+00 1.610023134264897138e+01
-5.803988307187999407e-01 -3.296098396939643127e+00 1.590297607091448029e+01
-4.525347666300421956e+00 3.237640981320893729e+00 1.657167293747438563e+01
-3.624776352741267971e+00 3.121683590260369900e+00 1.686683649410667485e+01
-2.215183316284323745e-01 2.524403108748831670e-01 1.740396255170359652e+01
-7.525413725623419481e+00 -9.555972704073298907e-01 1.502509229925859202e+01
-7.337441434672372864e+00 -1.216772782390943775e+00 1.480969066114139210e+01
-7.501456065110710725e+00 -7.026864879417942245e-01 1.491557377987925648e+01
-7.718874760516687417e+00 -5.739746946835377894e-01 1.527825938377641890e+01
-7.707255012716087705e+00 3.469760827189743990e-01 1.603475820456836587e+01
-7.701255900254132314e+00 3.475629814504694881e-01 1.581865120109117484e+01
-6.946984113763582158e+00 -9.591996358941017320e-01 1.422555473682868055e+01
-3.857396276873379826e+00 2.605315930689673820e+00 1.586315256848907396e+01
-7.715652191612651478e+00 2.074741120727752186e-01 1.542398811276658321e+01
-7.702465131484762750e+00 3.051879365424936541e-01 1.557936135963177193e+01
-2.457679224090679737e-01 4.582239175674109877e-01 1.707582490747239135e+01
-2.862685846115621047e+00 -1.219144349294919216e+00 1.334201399384322073e+01
-7.543554612801676384e+00 -2.301524131762244796e-01 1.486451615352457267e+01
-5.686785253866231571e+00 -9.985313917363574099e-01 1.371862209424987711e+01
-5.098372802324018238e+00 -5.289796636287595888e-01 1.279685451070318791e+01
-7.345723909657365880e+00 5.927824990947988537e-01 1.492561853651612935e+01
1.229260383106429710e-01 -1.859880323479210951e+00 1.690581180912625214e+01
7.435040122758629355e-02 -1.478042522859953856e+00 1.710733896990872793e+01
-1.227151172021442083e+00 8.767309949937618363e-02 1.508014908709830237e+01
1.226120460223252273e-01 -1.660485133624373777e+00 1.652676141334725557e+01
-5.601713345138363831e-01 -1.375782114108452969e+00 1.441425077178515224e+01
-2.160038033528604018e+00 -6.042563677309404913e-01 1.269954647879103149e+01
-3.718559413600051933e+00 7.567552227172336110e-02 1.219980338240522499e+01
8.627380847002008579e-02 -1.276883515391869839e+00 1.667949498787453777e+01
5.834615595449466063e-02 -1.162694960141303024e+00 1.600677910491492284e+01
2.302256276648140254e-02 -6.539348768849877480e-01 1.678329672211292589e+01
-7.281378509606657445e+00 9.066762506174945724e-01 1.515855140190382500e+01
-6.510861472633285629e+00 -2.316022480003234740e-01 1.368270986867700501e+01
-6.251136792265499231e-02 -2.561553693027911471e-01 1.660672537358484746e+01
-3.218423866282085766e-01 -1.148534229602546919e+00 1.498819309159355484e+01
-7.751627326423994324e-01 -1.329330121892928318e+00 1.422725343201169679e+01
-8.051723635800351886e-01 -1.185144872790072856e+00 1.429539143037102988e+01
-2.170014237252868128e+00 -3.933305020262645169e-01 1.290432997566053430e+01
-3.794962667528916089e-01 -2.436435384958521855e-01 1.584999172035605497e+01
-7.408666010900875065e-01 -1.141447699883767708e+00 1.441120854137764340e+01
-1.128839836139847730e+00 -8.885324968418064628e-01 1.406231740023467225e+01
-1.567637236961951785e+00 -8.493798723257892647e-01 1.344686965249396238e+01
-6.644319216340093703e+00 1.296323234574522809e+00 1.499427377629429614e+01
-6.175420188362384266e+00 -1.316717100486262115e-01 1.341527646234711924e+01
-6.784723534578942505e+00 1.264767783509064492e+00 1.505198004110829757e+01
-4.143886837548623747e-01 -1.120342397987639238e-02 1.607445747076247855e+01
-5.379654376541938010e-01 -1.330967527382231896e-01 1.576741640052171434e+01
-1.076761760979624061e+00 -8.394024326437845573e-01 1.418550763151030836e+01
-1.192229415226589317e+00 -6.348845623938219607e-01 1.420208638725155836e+01
-1.210460732039324805e+00 1.845121329940734523e+00 1.742154671050147030e+01
-1.099770576294555546e+00 1.576303079794662665e+00 1.717224705800524376e+01
-6.244382276466992066e-01 -3.310266705657094466e-01 1.540782383287312385e+01
-1.993220430028505019e+00 2.522789579827034778e+00 1.736571805124281198e+01
-9.224753345246200498e-01 1.014622793154454694e+00 1.668736619125776954e+01
-6.893180461463387365e-01 1.789954625569263325e-01 1.594333120652374802e+01
-9.204305049188858945e-01 6.551977210646963146e-01 1.624513192218686797e+01
-1.555403804542855983e+00 -6.478051564380100658e-01 1.362520196132860306e+01
-1.773218440508108174e+00 1.952070945173395966e+00 1.688506940633482500e+01
-1.789499504555583487e+00 -3.134166847010546597e-01 1.360083435125412521e+01
-6.670769546862604926e+00 5.415289338454800649e-01 1.432448229752361257e+01
-5.819290366059201247e+00 -4.537425432267827574e-02 1.319947390518455066e+01
-6.526426942261956299e+00 4.027823403572015071e-01 1.409320267834320006e+01
-6.658946997436986592e+00 2.308972307795608359e+00 1.604256190889328693e+01
-6.755800089480878512e+00 2.016046339146329913e+00 1.578498743979384145e+01
-4.694753723633316334e+00 -5.241676926317628826e-02 1.238535353271597117e+01
-6.714151397410859090e+00 1.624238938753859607e+00 1.534677591037105415e+01
-6.417661302315831762e+00 1.464961648941538463e+00 1.502813720364144601e+01
-1.256215080965029873e+00 9.644143264923619174e-01 1.622254237867817395e+01
-6.245308760557325201e+00 1.311753547469142633e+00 1.476555552810537719e+01
-6.396334084840217926e+00 1.385162804065187547e+00 1.493460512090390679e+01
-5.742484223739896976e+00 4.180716370712873609e-01 1.350975116904674067e+01
-2.012464475327854885e+00 2.179340181826043388e+00 1.691250436859251849e+01
-1.608323912920238463e+00 1.159026713134186704e+00 1.602379056889845188e+01
-1.542956132848650519e+00 7.237299680822870673e-01 1.549719314191611730e+01
-1.777889955100564245e+00 -1.458567071272391935e-01 1.384269799343095642e+01
-1.590706395694329256e+00 3.403025874107300508e-01 1.486312244667556470e+01
-1.740321002262082750e+00 1.098688617986571803e+00 1.573702652338946351e+01
-1.645857500376322946e+00 1.419192339369725886e-01 1.448132135878892868e+01
-1.751251469275363348e+00 6.219406676724270611e-02 1.418528339132879168e+01
-1.788567030742687303e+00 7.223070046779062059e-01 1.510306171755077642e+01
-1.734275496922353721e+00 7.736973385710257389e-01 1.526628529838236759e+01
-4.851018157990257151e+00 1.175476825673427150e-01 1.261546567483938830e+01
-6.031232899525655000e+00 8.970969947099357578e-01 1.419869280125029221e+01
-6.334169854974703640e+00 2.091083137552543381e+00 1.563471333709640376e+01
-6.183453997240910383e+00 2.672675583477778005e+00 1.622770813186589933e+01
-6.005904885458869913e+00 2.460372323951774298e+00 1.588462383864530736e+01
-6.157198189154842183e+00 2.130130920726393651e+00 1.558961957895401085e+01
-5.840969000412910006e+00 9.592080582739991312e-01 1.413826791346995648e+01
-5.064148485170195002e+00 2.409265498383623694e-01 1.287670646974506994e+01
-5.539951276033841410e+00 6.827025092349296997e-01 1.365150063313052087e+01
-5.495478442290734122e+00 7.852699638295130846e-01 1.373825884949848231e+01
-6.040707339106836216e+00 2.260151989950897278e+00 1.567418360936045829e+01
-5.573068497977699209e+00 1.872397533817622639e+00 1.503761330820358566e+01
-5.965037905933712636e+00 1.799573430905448745e+00 1.512992285184004615e+01
-5.679108793448824244e+00 2.853737777981100621e+00 1.622995347365003127e+01
-5.139678048007102262e+00 3.164908959703871094e+00 1.648065066856251448e+01
-5.471356200143125292e+00 9.744592493090077356e-01 1.394053887600632535e+01
-5.288501525282400806e+00 7.621243255438304720e-01 1.359353240499630644e+01
-4.855159503321663905e+00 3.034853722209416294e-01 1.281534871340919679e+01
-5.076889169647506250e+00 4.232645319997360156e-01 1.308278939194802959e+01
-5.174353861164050272e+00 8.527135763489531728e-01 1.363348704359739472e+01
-4.679052952504720864e+00 2.432714394419057680e-01 1.264482586271862985e+01
-5.423544380760244366e+00 2.448877119861966989e+00 1.565364687875647220e+01
-5.421728103970316681e+00 2.080955645612464711e+00 1.522014509247275882e+01
-1.849834186193642704e+00 9.913847992612667692e-01 1.540647813173939440e+01
-1.902111965675527649e+00 9.694562074521196893e-01 1.529148330863732141e+01
-8.747996538738125327e-01 1.873814101634316831e-01 1.570660005079720989e+01
-1.891633806764853709e+00 3.074084140060808767e-01 1.431577154235672467e+01
-2.033855685829496274e+00 4.166569740363537111e-01 1.425692914391322930e+01
-5.102982833080265124e+00 9.897703892510183454e-01 1.375485992083861575e+01
-4.826177154534436298e+00 6.621560240991903878e-01 1.321219886008255529e+01
-4.334797460132278957e+00 3.421187681252213508e-02 1.224493976132972151e+01
-5.086010303178555958e+00 2.334919902632669242e+00 1.536233071365458969e+01
-4.887128284617945795e+00 3.040674413893761141e+00 1.620804800440246751e+01
-5.081128693493878856e+00 2.850355104351081970e+00 1.600256485603989987e+01
-4.638464693060685207e+00 7.205365595354896735e-01 1.318049428238274245e+01
-4.790740026415917896e+00 1.401623743577554704e+00 1.408469539893571820e+01
-4.937949991538479466e+00 2.707918841443909486e+00 1.574924248580121500e+01
-2.135689610623716206e+00 1.349841590489307963e+00 1.552423896123934455e+01
-2.275281327552848509e+00 1.741177088662184902e+00 1.592334687602962262e+01
-2.213297815164374516e+00 -2.842573992111341319e-01 1.298409283131547554e+01
-2.099593001564001860e+00 6.649349146036263036e-01 1.453958072304051186e+01
-3.100996136526503300e+00 2.883936473103073439e+00 1.682659119723860996e+01
-2.374766604466558295e+00 1.639656366872400906e+00 1.566322981462822028e+01
-2.238521786772526667e+00 2.310675973151348206e-01 1.367964283322262631e+01
-2.698902708919390214e+00 -2.771716546403468762e-01 1.247406815967567084e+01
-2.698458855140578372e+00 -9.193591216780161446e-02 1.267093538348639825e+01
-2.815488353481927053e+00 -2.273591348568424486e-01 1.238872854054664785e+01
-2.574094178491122431e+00 5.099063726957187015e-01 1.367480484730254986e+01
-2.449825250605673688e+00 1.429274368331035605e+00 1.524672741946436716e+01
-2.447727717632683486e+00 1.243465207730942934e+00 1.496416700295711522e+01
-2.477539389785994750e+00 9.033165388447734756e-01 1.440312542642044136e+01
-2.592057276297664359e+00 1.361723265531828542e+00 1.497238511237173597e+01
-2.885058173351823019e+00 2.516708816736527687e+00 1.642018682898812543e+01
-2.355334049242403971e+00 1.006277201407876243e+00 1.471885898247667868e+01
-2.868934631187827211e+00 4.164606012735470042e-01 1.317948993375535238e+01
-2.532824371222495152e-01 -2.249918549344989138e-01 1.605490904638503125e+01
-3.157078749551078811e+00 2.780821729478245352e+00 1.659534502257525546e+01
-2.964983664399257535e+00 2.073614289204976924e+00 1.567465893514938458e+01
-2.998831529740594082e+00 1.529843185072852219e+00 1.481896499526444089e+01
-3.022891023677947597e+00 6.386691680794229775e-01 1.337094786678244063e+01
-3.643322006289310799e+00 2.771563348028131202e+00 1.622297825160230289e+01
-3.713233074854443316e+00 2.936201414870661885e+00 1.643982626205069053e+01
-3.467262421349247337e+00 2.567231047485652784e+00 1.603197846462716925e+01
-3.742227114085622031e+00 2.649120624623083842e+00 1.599818541648311410e+01
-3.171016844003859969e+00 1.748344177326270898e+00 1.501674445475218889e+01
-3.028592276002525008e+00 1.314763316348141142e+00 1.445100690995158388e+01
-3.100388669507009531e+00 8.971608743988124246e-02 1.249749552542141728e+01
-3.128952936064027135e+00 2.966396277357921107e-01 1.275404476714494351e+01
-3.297315728476557073e+00 1.491383097756774356e+00 1.451351673134212561e+01
-3.965746954644668865e+00 2.455110669957741187e+00 1.555263518122469790e+01
-4.700158778123391556e+00 1.140159508427486479e+00 1.372200325707328616e+01
-4.747003783151235723e+00 2.323829516134856110e+00 1.518972282225650261e+01
-3.299775262418954025e+00 4.311782527313907654e-01 1.281140208755955356e+01
-3.640853917664225836e+00 1.770309968437173920e+00 1.469828405419076134e+01
-3.510364861640020706e+00 2.434083349168685295e-01 1.242924901016674610e+01
-3.580014432251961587e+00 1.121083986798568910e+00 1.371027536788816903e+01
-3.658258803240711288e+00 1.344447486227829947e+00 1.400911624733849337e+01
-3.811149644019039329e+00 1.577587110513113622e+00 1.427539125154563138e+01
-4.359898892806733706e+00 2.805891442622770349e+00 1.585974937708557420e+01
-3.965950461402178107e+00 1.837991223623647308e+00 1.459770031154785030e+01
-6.600226169969261036e+00 -6.965341151410453513e-02 1.382026499960555199e+01
-3.874625601952703668e+00 1.182507196759486456e+00 1.366723743111301204e+01
-4.154653842297369337e+00 2.044791260895332918e+00 1.483548118970707108e+01
-4.408548825882694366e+00 1.807156678117776138e+00 1.447885934265729801e+01
-4.147040655280676447e+00 1.878825659239149015e+00 1.460423515658168370e+01
-4.069006863010235620e+00 1.203097260589145012e+00 1.366479752687905247e+01
-4.250698371714459967e+00 2.279397514256999546e+00 1.513826317843050262e+01
-4.687456508914286779e+00 2.826719742379189881e+00 1.584173736388669695e+01
-4.574905309415105314e+00 2.302079089888668051e+00 1.513611152702035767e+01
-4.542674752028985630e+00 2.828206903862726662e+00 1.584563372067561815e+01
-4.414306060586623559e+00 1.897127321667444910e+00 1.459838737704336964e+01
-4.234432247296292751e+00 1.144239189234236953e+00 1.357603139444087148e+01
-5.613406726577409245e+00 1.311444668718066531e+00 1.440295137314555163e+01
-4.158660078318222375e+00 1.538447292734129501e+00 1.412842075461455593e+01
-1.758415175538432518e-01 -5.803348161410182282e-01 1.580572184879464359e+01
-6.227189059751201405e-01 -7.024939072903217951e-01 1.498109601274297020e+01
-5.089188028678213183e-01 7.700179315030372118e-01 1.687345916405735480e+01
-1.234336556905021531e+00 4.160679743711938050e-01 1.551724902945902684e+01
-1.408970180032099284e+00 1.274846958432467314e-01 1.485465379941456021e+01
-1.480238943945990870e+00 8.960365004566805958e-02 1.468455035825612853e+01
-6.017428602756993428e+00 6.991808771043388493e-01 1.398655930713728779e+01
-5.788044354774941169e+00 1.824190294717271899e+00 1.506971818421819265e+01
-2.264220590187407289e+00 5.524816007888795344e-01 1.413978972809761459e+01
-3.735917242068004462e+00 -5.675863306393651442e-01 1.900611271448488182e+01
9.877701793347226644e-02 -1.451060862994831169e+00 1.630730657139120510e+01
8.483859375080449183e-02 -1.279505970911190893e+00 1.633149938088051201e+01
5.281727703413530151e-02 -1.046310084887020597e+00 1.635237467840063985e+01
1.899842512180782705e-03 -6.521511230445138363e-01 1.640143490323678677e+01
-6.997450900906116544e+00 -1.258690202303172079e-01 1.422760907352620663e+01
-6.898161854074590593e+00 -8.722515626452032045e-02 1.414370008372354093e+01
-6.841479844737039073e+00 1.263875759377341979e-01 1.417147315435862609e+01
-4.392189810143054540e-02 -6.261927280119714556e-01 1.618852774179396548e+01
-1.303380906449499443e-01 -3.883514197052444494e-01 1.619052951639014637e+01
-1.344479217072795940e-01 -7.302038074369274767e-01 1.574698787710724091e+01
-1.978095520439849819e-01 -2.042444528091091893e-01 1.620872644533368501e+01
-5.079836880444583702e-01 -7.965607230337594657e-01 1.503583385512958515e+01
-8.157730569203480719e-01 -8.620347534001253642e-01 1.455558899188240574e+01
-6.987945230403157737e+00 2.948484506637587543e-01 1.441665445569586623e+01
-3.336205432577033503e-01 3.643888700300775829e-01 1.665248355200501962e+01
-5.880944139741851595e-01 5.413481764432506171e-01 1.650911820979687050e+01
-9.013283328825767438e-01 1.190803346572471666e+00 1.692554515967684026e+01
-6.097218136875863337e+00 1.586793321622530062e+00 1.497394611356053318e+01
-7.989390322205353057e-01 5.835251548208230110e-01 1.630807858855115811e+01
