-3.980621178196772192e+00 3.649849381007156612e+00 1.854582958118894354e+01
-6.189941917046745345e+00 -9.591282673824010896e-01 1.746788516867910701e+01
-3.089166694670777424e+00 1.166965682827128648e+00 2.228383267221900965e+01
-7.606773167068499930e+00 -1.193894703317125716e-01 2.180494811753660045e+01
-2.457924294503240681e+00 1.083686029421734087e+00 2.237478515129692269e+01
-7.353560779377266599e+00 -1.477473682242784969e+00 1.797605460782466835e+01
-1.825696333181727971e+00 7.889014897530772785e-01 1.635971955467163852e+01
-6.416021209723110630e+00 -1.165378133943766104e+00 2.251516305633586867e+01
-2.655471153352370717e+00 1.044165339063416464e+00 2.236394953145405040e+01
-8.962330027156545365e-01 2.080834194313747165e+00 2.076298594284429910e+01
-3.935455153341429924e+00 3.822061844039217338e-01 1.698048192234346843e+01
-2.872914322487274852e+00 1.111845896320536209e+00 2.231970987886448299e+01
-4.815426336266179774e+00 -1.186174848177610763e-01 2.256766617969801914e+01
-5.947863121837169587e+00 -3.208232503372383082e+00 2.147505061485384559e+01
-5.653113130249076690e+00 5.492219066802164762e-02 2.234237029265105079e+01
-2.211251979289123315e-01 -2.672591454177491777e+00 2.125885994989463867e+01
-7.258356903463260679e+00 1.691221584722294891e+00 2.121789385276721518e+01
-7.671329065757193533e+00 1.306522520853122371e+00 2.108103895064362732e+01
-7.890725419612579117e+00 -1.070056571300822545e+00 1.827515955071891440e+01
-7.807300287101174519e+00 1.402474155317962712e+00 2.085856545710150911e+01
-1.819979814146551966e+00 -1.368888752779827411e-01 2.273379914269743196e+01
-7.919820260776251786e+00 1.101415675090740010e+00 2.089784410963087069e+01
-8.003886354812282278e+00 1.204667874798571070e+00 2.067093253883217940e+01
-9.171864514524401546e-01 -6.323242780475196723e-01 1.792486123280588473e+01
-5.565988681981123065e+00 -1.786318151377326024e-01 1.665827165316754233e+01
-8.084196412457599124e+00 -9.164266205665660969e-01 2.142436487683030677e+01
-1.366371053511735489e+00 1.355459481195646410e+00 1.836315165040493369e+01
-4.762562211842404025e+00 4.133884617661356842e+00 1.928680085494915275e+01
-7.250004453869332011e+00 3.464018931480624897e+00 1.933842231169009196e+01
-2.238762705008046971e+00 -3.569546675479358555e+00 2.210235644569263158e+01
-8.259174848068942865e+00 6.934962390752604788e-01 2.005407988916813267e+01
-7.678777683920490205e-02 -1.630418619659176338e+00 1.988673715422102717e+01
-3.744367493236040900e+00 2.887316082041930354e+00 1.726106932066383237e+01
-4.510215558632703292e+00 2.462435670126941645e+00 1.655742085507855776e+01
-7.907188575234783912e+00 -1.972652859443429385e+00 2.165517963168542437e+01
-7.232620084300869223e+00 3.648440779691615621e+00 1.950104086815163029e+01
-1.471237102840250888e+00 -1.326174262002958848e+00 2.295961403334770878e+01
-8.273748010461078550e+00 4.917954781101375739e-01 1.962872180624137641e+01
-2.067148873621812655e+00 2.042943038508982401e+00 1.774722405288109783e+01
-8.247005484669788444e+00 3.263008116684553706e-01 1.928176736226503252e+01
-6.799855691662859414e+00 -2.167910466365166933e+00 1.917750006232465054e+01
-1.753539516165802725e+00 2.150134589363485560e+00 1.877136001562360335e+01
-1.382310347620898217e+00 1.149703065866690910e+00 1.796368048129385286e+01
-1.019960763815904281e+00 4.906544229719310701e-01 1.775536769783827040e+01
-8.217481435795136235e+00 3.387588616191000712e-01 1.903924522361966254e+01
-1.593560384852875655e-01 -2.117118451101841714e+00 2.169333720729312276e+01
-8.194825066109595824e+00 1.457720567226901132e-01 1.886063022633507913e+01
-4.867893811313310337e+00 2.499953705021635830e+00 1.672299325303778161e+01
-7.028607296647293445e-02 1.070890012089955462e-01 2.187622728644970138e+01
-1.040597440006985286e+00 2.328086863266133566e+00 2.176131012824184197e+01
-1.220692866036070967e+00 1.680544980052390613e+00 2.220412298820287234e+01
-2.159289120839475995e-01 -2.122145790595397319e+00 2.186387977028762819e+01
-7.066301402177328939e+00 4.148574225667108761e-01 1.692880921828817620e+01
-7.459672725079833810e+00 -2.119083357234592846e+00 2.222210268706810510e+01
-1.258301119276154179e+00 1.053535202175120755e+00 2.245232408096711296e+01
-4.204179318319869907e+00 -2.159104079054442682e+00 2.307858335873268274e+01
-1.447221718134590995e+00 8.774725759418915416e-01 2.252286744997447343e+01
-1.459238660720589387e+00 -2.506548762976516631e+00 2.045947174560352622e+01
-4.716933752141963865e+00 2.970290846747067892e+00 1.747133181315984629e+01
-1.848358519880558548e+00 8.921663568894838692e-01 2.249181189379228485e+01
-2.051574537540231002e+00 4.673213794736955640e-01 2.257020816093431037e+01
-2.012496933055686554e+00 -3.123792661824695394e+00 2.145735443911958029e+01
-6.769028893656487966e-01 -1.338076352641603739e+00 2.282600301861488035e+01
-2.447461092212400047e+00 4.937210476196036701e-01 2.252412206949741957e+01
-2.601733189862113882e+00 -2.987845434081916052e-01 2.271761662151883243e+01
-2.800788724248590711e+00 5.981059581042388329e-01 1.618940388154687682e+01
-3.059535630105734594e+00 -3.231561561560232221e-01 2.272920709095157221e+01
-7.555942036718494847e+00 -1.664552558776294378e+00 1.835840241386230431e+01
-5.904748518059740547e+00 4.092812986692534238e+00 2.054065324635403655e+01
-3.620943286977316600e+00 -2.999033453117209147e-01 2.273770936462802084e+01
-4.004054130070983319e+00 -3.533403927644057640e-01 2.273782242409291499e+01
-3.360558867992305743e+00 3.523033364910910681e+00 1.850135287349273838e+01
-1.593360971169341500e+00 -1.878056621328322295e+00 2.299028376858194989e+01
-4.602226987155555449e+00 -4.071545086082078990e-01 2.269966308658353782e+01
-1.619019052447191687e+00 -1.479160803877381802e-01 2.276513449978889625e+01
-5.034345601034232232e+00 -5.289782351139982186e-01 2.264277195373105300e+01
-5.633977879319621351e+00 -3.104256629003935064e+00 2.137866820531339940e+01
-6.151588661110208633e+00 3.554578686530248444e+00 1.864784289298610886e+01
-1.085957146803179008e+00 1.056184352838658080e+00 2.241823928095204010e+01
-2.769667509873802835e+00 2.916510615681364271e+00 1.803468266158229127e+01
-7.854149573914828153e+00 -1.447670155793022939e+00 1.860492472741317371e+01
-3.847239531437582016e+00 -2.079309505663557989e+00 2.086282311935835665e+01
-8.061322449522277722e+00 -1.910637188168933021e+00 2.018987676276682564e+01
-5.437394059977112448e+00 -4.222889966669527428e-01 2.252864185046870560e+01
-5.680387244209828879e+00 -1.492414018200275694e-01 2.240061028794732678e+01
-7.717123811622077056e+00 1.147516005477270840e+00 1.786687222488844284e+01
-1.420528813463823425e+00 -2.798051263535417110e+00 2.296205433841130272e+01
-6.009634958827868800e+00 -1.739998478500583146e-01 2.234591111947463205e+01
-6.365157656052240043e+00 -8.042490942327171766e-01 1.719152746480671468e+01
-7.011630712457877834e+00 -3.548231329877881146e-01 2.214706083290213101e+01
-7.232966818039434642e+00 9.967459821145273346e-02 2.191805742750983299e+01
-4.933172895910539424e+00 3.886937832147435934e+00 1.891753016692613087e+01
-5.141866148433825501e+00 2.629379301384920264e+00 1.702587530145993000e+01
-1.349530667359843950e-01 -2.443573657260674548e+00 2.105160495124077258e+01
-4.491484420576185244e+00 1.932469521908884436e-01 1.725435836839793424e+01
-3.197664072007813552e+00 9.299115345805629707e-01 1.549044070640598036e+01
-7.408417021188244078e+00 2.710481625540709372e-01 2.178054151908816394e+01
-5.211776229489840873e+00 9.934724632110342180e-01 1.555146982375044828e+01
-6.618326506094730277e+00 -1.273245173968570176e-01 1.678546062002441275e+01
-7.506507302995911957e+00 8.826733089125542442e-01 2.146424839032526322e+01
-1.851084406378994962e-01 -2.569796743713377296e+00 2.087010301785613464e+01
-7.305371629178848636e+00 1.045836101128999385e+00 2.151137894590846500e+01
-7.144391570466014585e+00 1.163281493409998646e+00 2.154149238757030460e+01
-5.512480903042936475e+00 4.101481608747834073e+00 1.910217598499518843e+01
-7.484157504522141124e+00 1.257828496853656386e+00 2.128981393048914939e+01
-1.559264477174896468e+00 1.530888433350178213e+00 1.817031425772016817e+01
-7.179418496769883973e+00 3.325970470490439368e+00 1.910456091220713049e+01
-7.660103451218329695e+00 1.031058190796652507e+00 2.125348976122678479e+01
-3.605181575172329289e+00 -7.432368057592029231e-01 2.283273753661311289e+01
-7.846081905917914767e+00 1.083115139614392541e+00 2.101401112467763355e+01
-4.610573195813694625e+00 -1.735475755305708079e+00 2.297456071792495536e+01
-7.891425375013611188e+00 8.787716319627811856e-01 2.106926127524166859e+01
-1.218507083234079857e+00 -3.128154894536440800e+00 2.282732991526413358e+01
-8.188187770060778803e+00 6.119779208209369381e-01 2.060811645640592005e+01
-4.876766651472706826e+00 1.230273042294544039e-01 1.676371331740952186e+01
-8.256458841017519035e+00 4.705245637600015129e-01 2.028732041431905841e+01
-2.381601502041774232e+00 -3.629915100321931654e+00 2.261505009441616565e+01
-4.133383325674565789e+00 -5.422563076451879516e-01 1.970706544105475544e+01
-8.275307081962846922e+00 8.817143222411376324e-02 2.023425198899797905e+01
4.499664696867078373e-02 -1.031681953290609854e+00 2.115374523806304197e+01
-8.260635259878462477e+00 1.032448575968525767e-01 1.943758823519476309e+01
-8.220192677442936358e+00 1.293556848713127982e-01 1.907071303498613801e+01
-1.057834795842862663e+00 -1.166891563255184394e+00 2.295317552015054829e+01
-4.676569198309257658e+00 -2.285494340905731558e+00 2.304148379262419510e+01
-8.189874971918158053e+00 -1.363441672978228658e-01 1.888459517756522033e+01
-1.446746342357970061e+00 1.584575626051819786e+00 1.856126417034829146e+01
-3.573604968974718243e+00 -2.702940812005122151e+00 2.306368435974948383e+01
-1.324629716504206689e+00 2.691159006194440817e+00 2.077973585047478977e+01
-4.681167292620230569e+00 3.280803367679547833e+00 2.116280362478293497e+01
-7.930970313042003283e+00 3.360396370892888562e-01 1.786566330879999853e+01
-3.810558429832712424e+00 -2.539742646147758354e+00 2.307297654210179516e+01
-5.455074436317946862e+00 2.478419899524685110e+00 2.141630839914765616e+01
-7.395901231430086042e+00 8.273142436300049418e-01 2.155989917500232522e+01
-5.609803111281566057e-01 -2.586301805377710483e+00 2.236043760648258072e+01
-8.676454816450358543e-01 1.868819724175795116e+00 2.195558876979741925e+01
-1.369353063804679138e-01 -2.449860196123066824e+00 2.086190070343491598e+01
-2.395524613272866254e+00 -1.002218407826034108e+00 2.285159266597957739e+01
-6.621823789879613287e+00 -1.405424226979141267e+00 2.251699968105432603e+01
-3.824471030003897543e+00 -3.347018245760701394e+00 2.291587013364344827e+01
-8.263626559586866094e+00 -5.633822463072494235e-01 2.044101733091214967e+01
-1.802996319611055220e+00 -1.150906617491843420e+00 1.888074132856918297e+01
-6.309829888100901840e+00 2.887506912022590466e-01 2.211681679932003775e+01
-9.151414360777722079e-01 1.644191347068334474e+00 2.209396715275594048e+01
-1.018642222792897734e+00 1.278386843943330131e+00 2.230960139684777843e+01
-5.670002631896092993e+00 2.708971357106170208e-01 2.226704950873532241e+01
-9.941248670651856578e-01 9.603440865655701320e-01 2.243447384279679468e+01
-1.018894947739835022e+00 6.748469425002935340e-01 2.254478224474139481e+01
-1.590910889619456814e+00 2.600106480003854248e-01 2.267947362411354462e+01
-7.106403782205203967e-01 -1.394390946892732464e+00 1.867210827115103555e+01
-1.827783441157712740e+00 8.107111532484041760e-02 2.268676891416822272e+01
-5.112340072002202973e+00 3.819126611382455572e+00 1.879319964058504766e+01
-7.586270814264155504e+00 -1.172316475095462884e+00 2.211682739534322550e+01
-2.056272858493306099e+00 2.881691774174783838e-01 2.260970896011585651e+01
-7.806194355614541891e+00 6.200049925256576611e-01 1.776590889716501565e+01
-1.824781209801773718e+00 -3.299337582973799199e-01 2.277112971257543350e+01
-2.468643447691679427e+00 -1.765897325104243964e-01 1.795144841889850440e+01
-2.044673898264668388e+00 -3.187746411269615221e-01 2.274082931683890862e+01
-2.235352815115347447e+00 -3.171065089304383466e-01 2.273021118110470340e+01
-7.707383707884440938e+00 -1.482220289201991781e+00 1.835240726491154462e+01
-6.716069981071241202e+00 2.339478007033572560e+00 1.787357887001187962e+01
-3.635467338859522446e+00 -5.649906436910759888e-01 2.279945331658808882e+01
-3.248870826710795079e+00 -5.428326887973098369e-01 2.278467539739708414e+01
-2.055214766518387748e+00 -5.420847709991004626e-01 2.278187611313794392e+01
-3.417550416941644631e+00 -5.349085319185395981e-01 2.278834093370503311e+01
-4.822085948186424886e+00 2.431687331864354373e+00 2.154889721363162991e+01
-9.257614094480119959e-01 1.538165121205820274e+00 1.975729929790561457e+01
-3.996088431372642358e+00 -7.335946675188712574e-01 2.283008565556094638e+01
-5.270196173811791951e+00 -5.527971205137419686e-01 2.259608522174862699e+01
-1.111112166454905958e+00 -2.994084088169759461e+00 2.106453262892809519e+01
-4.247618734285143915e+00 -9.832712198452384644e-01 2.287159016277336221e+01
-6.433584204892540015e+00 -1.921099273848817290e+00 1.917673141276521065e+01
-4.620128028752981564e+00 -9.595623807238957692e-01 2.282813460755447821e+01
-3.662710582827828798e+00 3.625313306256200629e+00 1.856136195720819515e+01
-4.670226779032412345e+00 -7.550900400954992930e-01 2.278106584436437387e+01
-4.856809895906810226e+00 -7.527147596884190550e-01 2.274334778502501919e+01
-5.025393487910411849e+00 -7.714131607769710852e-01 2.270529219635023210e+01
-4.941136943435397555e+00 -3.227880161076893129e-02 1.758969254995810516e+01
-5.223214446653827281e+00 -7.379545151682362913e-01 2.265045808743069600e+01
-3.727736850878292429e+00 1.432914701310468442e-02 1.840754582805648099e+01
-2.422224712835733484e+00 -2.541638171982563144e+00 2.300826852284840029e+01
-6.398766526243527153e+00 -7.289173896080833881e-01 2.241717063338403548e+01
-3.960688210039430501e+00 4.829870609504224532e+00 2.032589040110735468e+01
-7.047444958019685401e+00 -7.500637013938357134e-01 2.226281676196020598e+01
-7.629395480851961509e+00 2.607807363407732004e-01 2.164803695128545158e+01
-6.287792136513923325e+00 -3.226666859350372452e+00 2.142924922198765003e+01
-4.649962459916608282e+00 2.560371547628780275e-01 2.247056159033565947e+01
-7.838111401158455394e+00 2.678833535798800236e-01 2.145208105035577617e+01
-3.949694922217756865e+00 3.717574250416130877e+00 1.866462095493692530e+01
-5.649886873786570618e+00 -1.158074680826241876e+00 2.266180164778015538e+01
-1.671152182321145485e+00 -2.679586633120571548e+00 2.092026671037480057e+01
-7.679661047625435444e+00 4.945720182162264278e-01 2.149661908001894872e+01
-7.624836445742319668e+00 8.146183384097730462e-01 2.140314405912859641e+01
-7.839755632913533390e+00 6.643300180155163881e-01 2.125276543010713581e+01
-3.786774722783544433e+00 -1.702909008079644071e+00 2.302191845173389240e+01
-8.270783012404258727e+00 -1.189225108341235293e-01 2.044094666505082003e+01
1.127670137048686350e-02 -7.029355868841473676e-01 2.012411998313378447e+01
-5.252554934232723127e+00 -2.926126021931414911e+00 2.292251632233937286e+01
-8.275865174285677028e+00 -3.248993958011349159e-01 2.024711882484109893e+01
-1.799416308699536282e+00 -3.545375242725258502e+00 2.204709854794242219e+01
-7.838033682169252003e+00 1.267115249860460535e+00 2.090671479416497291e+01
-6.182305992076942758e+00 2.048122666870560771e+00 1.718009005541172129e+01
-5.261143970405733228e+00 -9.835315827341822859e-02 1.678590664115027309e+01
-8.279527387499825863e+00 -9.564896752743090591e-02 1.985265356054881281e+01
-7.546781575294464472e-01 6.959110239960250022e-01 2.242842002544102442e+01
-4.599445421834515990e-01 1.140549581392392930e+00 2.011914564978525632e+01
-8.177805277876213808e+00 -4.598308356072432490e-01 1.903686120705492968e+01
-2.306550545204770764e+00 -1.261551800869293416e+00 2.014556588454030717e+01
-1.115697450740933849e+00 2.530652542684607376e+00 2.103471443052819367e+01
-3.850013941092069292e+00 -3.291421413980990973e+00 2.154354162262186279e+01
-8.049285253821789610e+00 -3.195881779759719710e-02 1.828125590318819249e+01
-3.439558563728663532e-01 -1.678352054528040815e+00 2.236398937729313374e+01
-8.061519002047427662e+00 1.393681246289578124e-01 1.824858255628745596e+01
-6.232677367890314457e+00 -1.735321633382341799e+00 1.874300091745397268e+01
-7.972339680874915402e+00 1.408941580911306501e-01 1.803610003216869373e+01
-5.076991489701947913e+00 -3.040643284697536863e+00 2.135762305420393758e+01
-7.894290725919960394e+00 1.821356174107031378e-01 1.787926628154597708e+01
-6.299854608020369895e-01 1.777709901869866771e+00 2.182694429377979972e+01
-3.027397588173442511e+00 9.150786175498283326e-01 1.554102233084814699e+01
-7.958196925255711651e-01 1.729565990164500189e+00 2.198032456645259103e+01
-4.271838708635907977e+00 2.236790006828607957e+00 2.174304927291956702e+01
-2.936883015791969864e+00 2.180029613377845732e-01 1.718385441384836909e+01
-8.257035994168962389e+00 -4.747392515480747255e-01 2.061641934675825283e+01
-8.520677403144548689e-01 1.328304638175482610e+00 2.220507839613423684e+01
-3.635573762844958701e+00 -3.098894770943932730e+00 2.137275696422807769e+01
-2.039664218811356733e+00 2.785812603447827218e+00 1.916660822496963945e+01
-4.820392444112235886e-01 9.001981587008653918e-01 2.211125990938102959e+01
-4.579982192274822950e+00 7.261801333491822996e-01 1.553849424934591994e+01
-3.834246018642850640e+00 -3.371586958692263103e+00 2.165313884951586587e+01
-3.935253940240789561e+00 4.232538890908042362e+00 1.955353241206215742e+01
-8.522509318722812921e-01 1.043369099228727892e+00 2.232850158798678919e+01
-3.055299673752395861e+00 2.324831291755860008e+00 2.186732941997326307e+01
-2.830802028219616240e+00 -2.922524529493728984e+00 2.301225321043395056e+01
-4.141734168994410048e+00 3.422018056195319513e+00 1.816849762063804619e+01
-1.174312158090211833e+00 5.618547221800430647e-01 2.261750048500998034e+01
-1.227649008918927365e+00 8.443912624215861584e-02 2.274649582035047857e+01
-6.240420779763471870e+00 -3.308821432479063684e+00 2.155155635287315263e+01
-7.941124042622030643e+00 5.461248896793429175e-01 1.784646974297939792e+01
-4.854482594489684999e+00 -2.919256496609171414e+00 2.128799403263903045e+01
-3.087002796943001393e+00 -2.232458283682816347e-01 1.900548841192917493e+01
-5.341371110236741160e+00 3.491039879191105699e-01 1.598425605714482245e+01
-4.748156057583741152e-02 -1.267466815638605748e+00 1.987019587362677342e+01
-1.639435658168095999e+00 -7.393125827051789667e-01 2.286588249934787953e+01
-2.825628496345235607e+00 -5.446078426753339086e-01 2.277046122142650475e+01
-2.153579279496933729e+00 3.107595980908687050e+00 1.945572487618383306e+01
-2.856414498250416933e+00 -3.134014343476765774e+00 2.148947486155890019e+01
-5.731312978709002692e+00 3.482601982225513648e+00 1.835475118430779773e+01
-1.819234847569835223e+00 -5.104654739711272926e-01 2.280465683798550103e+01
-4.274416264809432597e+00 3.538909698444366730e-02 2.259952107522703457e+01
-1.040477646168874948e+00 -2.153165232239866000e+00 2.295521353621234439e+01
-2.810473532604210956e+00 2.511507339688292539e+00 1.725711314828660292e+01
-3.116075329930254045e-01 -2.877677730403627177e+00 2.147855435645178446e+01
-2.003659015230641938e+00 -6.879209044644644111e-01 2.281353501270466566e+01
-2.220960828191725689e+00 -9.426041085616341242e-01 2.284418899695650040e+01
-4.354539028605957540e+00 2.756402938132763936e+00 1.703110538279513619e+01
-5.392397596759584744e+00 2.228529529182027846e-01 1.615211501239338432e+01
-4.840859981558541136e+00 -9.695034008855800689e-01 2.278858487516628273e+01
-1.362462544672677689e+00 -3.999774442009269571e-01 1.756277580749950928e+01
-3.615088038528761594e+00 -1.923556500935766245e+00 2.303990855872145360e+01
-5.005132981480215904e+00 -1.104533240121676085e+00 2.277679834501445200e+01
7.369391000397051972e-02 5.253933498831940829e-01 2.134488774423845214e+01
-6.396923627723094086e+00 -9.340225921520348695e-01 2.246619389282006196e+01
-7.903227766968811352e+00 6.458779870274033996e-02 2.145489125554584220e+01
-1.536522738776642250e+00 1.945440378372506496e+00 1.896776631323117002e+01
-1.616906032943184579e+00 7.537484648537189358e-01 1.677939599319171649e+01
-8.135671830177354735e+00 1.293813152401214472e-01 2.101535232292416921e+01
-2.443787108142280839e+00 -7.324650186726364698e-01 1.965302170209011834e+01
-5.743602173877023986e+00 2.549861909450385156e+00 1.727515200457839128e+01
-8.269470368461634635e+00 -5.164943401302343196e-01 2.002231339124709208e+01
-8.175167018876214442e+00 -8.835190750622746725e-01 1.940891439653736583e+01
-3.696908319342836480e-01 8.824252915152731580e-01 2.199767680512221446e+01
-2.501182932084107691e+00 -2.493697139461228951e-02 1.754364691193161363e+01
-8.223731335743680759e+00 8.700577255380040897e-01 1.921571070002378079e+01
-6.434527219490426830e+00 -4.186375141228689811e-01 2.231949216678870229e+01
-5.274548086865330276e+00 2.870634811508223194e+00 2.125773722983567282e+01
-7.957098583906669020e+00 -2.244060818448774697e+00 2.133705932596576460e+01
-8.156076914821195345e+00 -8.573139699854246398e-01 1.926327417310854528e+01
-1.509470792787829252e-01 -1.615104150273079853e+00 1.951800456194773759e+01
-1.013957748403034209e+00 3.294268885077021869e-01 1.757605562249670683e+01
-2.037240014383038478e+00 -3.364939179172859784e+00 2.283808241316685539e+01
-8.143264219294602313e+00 -7.063955155988551615e-01 1.902321461975467898e+01
-7.944935780782131474e+00 -4.909405221503447825e-01 1.823534199593197158e+01
-4.510686076349260887e+00 3.313794818664493325e-01 1.659689387404329963e+01
-1.590217634267946600e+00 -2.922374602075019201e+00 2.295055544780580092e+01
-4.466685653688966973e+00 -1.650341868382355193e+00 2.060576788929170888e+01
-8.028596424308558355e+00 -2.571351368919050362e-01 1.829795034282330235e+01
-3.518748579457757764e+00 1.710361216467957690e-01 1.774847912752654722e+01
-4.378439666556514176e+00 1.196831696374889953e+00 1.497706420209728506e+01
-4.529544409502340940e+00 1.078997935927018981e+00 1.504182553048785209e+01
-5.231893012826606792e+00 -3.464782404188213594e+00 2.175206549958243230e+01
-7.223997693279640586e+00 -1.161620292716337433e-01 1.733656774397531919e+01
-3.994900635301315450e+00 1.260916007147444340e+00 1.483676220803776502e+01
-2.679036933883593097e+00 -1.983097321991997397e+00 2.081778432408640001e+01
-6.345257956982234049e+00 -1.795771511639694840e+00 1.847647420129343843e+01
-3.492719001157060799e+00 1.720953701645627332e+00 2.206188874570454672e+01
-5.063187764461495988e+00 -1.831594854064177769e+00 2.063351411911955680e+01
-3.464112026161559221e+00 -3.394308846703397720e-01 1.931330486224272747e+01
-7.490974343150352155e+00 -1.903628383362623300e+00 1.860789313215070351e+01
-7.205347326272745434e+00 -1.529394639131605116e+00 2.236614317383582673e+01
-7.985726123722022507e+00 -1.700013471495029072e-01 2.142712270442003231e+01
-1.218015384169726989e+00 -1.977637274149115054e+00 1.927513300078129177e+01
-3.792828092955957242e+00 1.369843760407770672e+00 1.486401553390065189e+01
-4.162928768620437481e+00 1.243437847514396344e+00 1.487497235146538443e+01
-2.374913671292054662e+00 4.726820062269024847e-01 1.640272881024798224e+01
-4.208183250979308454e+00 1.450104443241895469e+00 1.496768925158121633e+01
-6.665425730185202013e+00 3.153386191689210527e+00 2.078206308183818507e+01
-3.782294757140376440e+00 1.465686499234186257e+00 1.493781787126153304e+01
-3.986177698414268722e+00 1.706712670699008783e+00 1.515213948954621159e+01
-3.211618639859565860e-01 1.163193326914944814e+00 2.051196152158686559e+01
-3.361643301160266439e+00 1.430830701455113596e+00 1.496668503408954010e+01
-8.739654430499333992e-01 6.156230122986644515e-01 1.831494733341969194e+01
-7.143184567252184536e+00 2.354317406924442579e+00 1.827118692412472356e+01
-7.076030310451085770e-01 8.397426152741170879e-01 2.233016310166600604e+01
-6.805370278889782965e-01 4.580259897080337650e-01 2.246893585905337076e+01
-8.149523947535016744e-01 3.106914177263309096e-01 2.260355982877812764e+01
-1.119804787409265812e+00 1.930716820096639808e+00 1.996538036418521855e+01
-2.149367446671010651e+00 -7.807623322405499167e-02 1.728788850948515332e+01
-8.128096250444254434e-01 -2.153452671448082167e+00 2.284776125613746345e+01
-1.044227769503863090e+00 2.868143066943716346e-01 2.268385604516740628e+01
-3.030369723253961478e+00 -1.735428551464066604e+00 2.297040906827129803e+01
-9.857388949986271021e-01 7.078129802963195605e-02 2.273737149398269608e+01
-5.131771981965226104e+00 4.442733278945681263e+00 1.954225840216221499e+01
-1.071896208934795869e+00 -3.200468734282578831e-01 2.284461573708273008e+01
-6.261107415083641214e+00 6.717808492685356514e-03 2.222654058033712587e+01
-1.231109859461347433e+00 -1.099664819809474059e+00 2.295451246357361086e+01
-1.640634636356509635e+00 -1.192456813562641882e+00 2.293591965556092660e+01
-9.928935258750049009e-03 -1.266457535696664527e+00 2.028919419874972974e+01
-6.939006350050355820e+00 -2.655413441508651662e+00 2.046661091653333742e+01
-4.230278980874311312e-01 4.247086750199333682e-01 1.907943307201953687e+01
-5.367420885496759553e+00 -1.987052171964672986e+00 2.066551642980501313e+01
-5.555478185958893533e+00 5.978561391953398640e-01 1.580723909534547644e+01
-1.869421770836401375e+00 -1.104247547536836738e+00 2.289453453823182727e+01
-1.857735019640511354e+00 -9.106729482320387037e-01 2.287058071370615053e+01
-3.951823751856953226e+00 -1.739503325078050333e-01 1.900728262194796159e+01
-5.315863710136278897e+00 3.587143679887919046e+00 1.845500910528567218e+01
-1.994978605536369853e+00 -1.339820325545991953e+00 2.291289908172511858e+01
-1.759451474837838703e+00 1.951169698403920849e+00 1.839475602532548137e+01
-2.609607987106787874e+00 -1.518156032188760607e+00 2.292876690978559040e+01
-6.512122379768058522e+00 4.443507998031901884e+00 1.977531816930955344e+01
-4.053869295767645653e+00 -1.710009869241381208e+00 2.302740564273197421e+01
-2.212304096073883120e+00 1.922204746276777954e+00 1.721706661206910738e+01
-5.138297060609438915e+00 4.108990294011271693e+00 2.069631527137088156e+01
-5.026507105592937563e+00 -1.759372460750692202e+00 2.290750274446597601e+01
-5.027195281293746376e+00 -1.936687420969243068e+00 2.293768816085623641e+01
-6.030401984404466731e+00 -1.763648188900350577e+00 2.271113792524478114e+01
-3.548720676320187284e+00 6.861920159360893612e-01 1.605376424696358484e+01
-4.824634532508200735e+00 -1.141838228673373479e+00 2.282014393725877355e+01
-7.992490376316148115e+00 -1.583740801764450978e+00 2.160412392421356387e+01
-6.626129925575304114e+00 -1.558673890548879726e+00 2.254383198156293489e+01
-3.450420786291155562e+00 -1.546808177293608200e-01 1.890344209462265113e+01
-7.907474204804429974e+00 -5.659780225844524004e-01 2.165409453829053277e+01
-7.210658922295028361e+00 5.844510244896853335e-01 2.174545727995496591e+01
-1.232510388890574404e+00 -3.339456920607744017e+00 2.165534651424073687e+01
-7.996352217805922535e+00 2.739724653177298963e-01 2.123909350821380926e+01
-6.719937899701459827e+00 -2.236661749520495235e+00 1.999504759403544440e+01
-5.686361519826188538e-02 -8.532683306211503727e-01 1.968857867722978128e+01
-4.303303922369689616e+00 2.286379755446456830e-01 1.738646433886049536e+01
-1.833769089614687653e+00 2.595578733472759136e+00 1.936441323530818792e+01
-8.119427846296849438e+00 -3.280071569832303524e-01 2.124873053680196122e+01
-4.861688920097653743e-01 -1.474264818761873652e+00 1.885949437945957996e+01
-5.905544650867815548e+00 4.255083826648456302e+00 1.935601462937386330e+01
-8.236556749822362633e+00 -7.674341015718457726e-01 2.084608800367329096e+01
-3.978690495795323301e+00 2.564764792234937474e+00 1.661681944465783900e+01
-8.256092179773400375e+00 -7.254242648879700717e-01 2.002424325817495898e+01
2.390614744447794315e-02 -6.569673379039324690e-01 2.044246394207408102e+01
-5.258178021430106597e+00 1.675669346771821111e+00 2.182123358089023313e+01
-1.382955746915835338e+00 2.518488994346250454e-02 1.713954293173648935e+01
-5.769658931403897739e+00 2.836367758737413869e+00 1.759575551021255180e+01
-4.679835569235178738e+00 4.275634114420059362e+00 2.070939514508738810e+01
-8.190463590111123793e+00 -1.106425500406658546e+00 2.002503613639391844e+01
-8.170518573877023627e+00 -1.094792516040612451e+00 1.959328857661449419e+01
-8.142080523924132507e+00 -1.068702534920215719e+00 1.941893839608168193e+01
-4.652629766288788105e+00 -5.379867512926350681e-01 2.272878387874111539e+01
-8.080411878129709180e+00 -1.147629404406588893e+00 1.920615270876343672e+01
-8.117481353204768268e+00 -8.861269664534560109e-01 1.903490925147263013e+01
-4.454291083423135289e-01 7.058626762197415250e-01 2.215394783822042868e+01
-8.065331122535940978e+00 -6.852749423523357697e-01 1.842959530336446861e+01
-7.913773790394595053e+00 -6.632949176556565130e-01 1.823821645895587906e+01
-4.582381986958006692e+00 9.888547909385858592e-01 1.515721667132534733e+01
-4.754706240967335518e+00 1.008842712658632124e+00 1.521621128006547607e+01
-1.595636256246921736e+00 -2.772464254804824169e+00 2.297575588801202784e+01
-3.364959825635103208e+00 1.053974997543586367e+00 1.520313957269008753e+01
-6.306789259113775969e+00 -1.111760162267330765e+00 1.758027448270983584e+01
-5.656060781539988369e+00 -2.132527332096955330e+00 2.069302155204215055e+01
-3.081546767680761190e-01 1.505622691366543586e+00 2.137023765328831004e+01
-6.064552919876149417e+00 -1.476380689473108410e+00 1.880039824899173695e+01
-3.259326681258064795e+00 -9.706328776220893850e-01 2.286527043127430758e+01
-2.976304137913189929e-01 1.268462908228259467e+00 2.173116385480046020e+01
-6.114401160201723417e-01 6.934952859160928851e-01 2.231561682897701004e+01
-1.103427080025491946e+00 -2.044247843917130769e+00 1.930592521360235381e+01
-8.009432354346316174e+00 1.805411991636727276e+00 2.005799533202605645e+01
-5.072899899266468893e+00 4.518679079771995788e+00 2.049567238647224698e+01
-5.749369995210774631e-01 4.949367708328219484e-01 2.237104318368216482e+01
-6.215603386246657536e-01 2.820182095771017750e-01 2.249317366878380753e+01
-6.169792270301508452e+00 -7.807024654286911503e-01 1.724215705006784205e+01
-8.088005442684957913e+00 -1.293795874898294285e+00 1.945042476593687653e+01
-2.434964501348108712e+00 -2.271970916169951948e+00 2.095217341095827024e+01
-6.135934004982335210e+00 -4.136781710690186076e-01 1.679474971635687908e+01
-4.370990567150480288e+00 7.410386831042915512e-01 1.559528925492402962e+01
-6.538548145902449704e-01 9.938991613374142942e-02 2.258253002606575777e+01
-8.355282794962659576e-01 -1.340122702505257557e-01 2.275238240337877826e+01
-1.036942294526146835e+00 -9.272318757217818952e-01 2.293585429061035441e+01
-5.749554386320832933e+00 -8.252229449389265614e-01 1.800343189593369075e+01
-1.691321442190694357e+00 1.393081653960396071e+00 1.756354472992999760e+01
-3.419288682564284976e+00 -1.743638635165533746e+00 2.300756822948082814e+01
-3.572979257561031741e+00 2.536563834119864858e+00 1.667843174797125627e+01
-6.669779385687379047e+00 2.228663542649267360e+00 2.123713323784651763e+01
-3.616299588420480937e+00 -1.721065633547179896e+00 2.301627996906846008e+01
-4.834080396366848831e+00 -2.120084245867125183e+00 2.299694897403795224e+01
-1.231919901427193764e+00 -1.268683463727167116e-01 2.279749166859698661e+01
-5.312607956553273780e+00 4.692873203168261398e+00 1.988544608654772006e+01
-5.673786871763676132e+00 -2.271661862999354131e+00 2.285209501770512830e+01
-1.811149727899125983e+00 2.070318469175583598e+00 1.847323832059105442e+01
-5.995357074771774819e+00 -2.139827803687754049e+00 2.277430716069875061e+01
-1.586790586835816974e+00 -1.792340399413594465e+00 1.937991078056613858e+01
-6.581871071664343376e+00 -1.948667639185981404e+00 2.261494061518189724e+01
-7.351740070076667521e+00 -1.731149809312187537e+00 2.230739109335210557e+01
-2.126110858921749447e+00 -1.095038380746983508e-02 1.715618822709170743e+01
-7.429914035787740900e+00 -1.556313733478852379e+00 2.225283602077437095e+01
-7.704391689322015679e+00 -1.304505290383816574e+00 2.202793324259219432e+01
-1.907749428291081739e-01 1.327166283537679625e+00 2.155358273310929107e+01
-6.088867102323062497e+00 -1.480679088778443786e+00 1.898788758672761290e+01
-2.570975623749233385e+00 -2.853898887664547246e+00 2.300950205679876959e+01
-7.741872302374966708e+00 -8.848695240055844957e-01 2.191131678836501706e+01
-3.997827461412841288e+00 -5.340442447357645062e-01 2.278298143107035756e+01
-8.044246611664537028e+00 -5.060791376998772240e-01 2.144072273412068697e+01
-3.668127562417244913e+00 2.936873011610799722e+00 2.149660689114154977e+01
7.737421033698488326e-02 -2.842110581343012532e-01 2.130285991594571371e+01
-8.013453813238456291e+00 -3.529177429676170208e-01 2.144940698224541009e+01
-6.536041493970921934e+00 -2.033516219484989840e+00 1.977629213837061783e+01
-8.192544554795684775e+00 -1.131469880403747297e+00 2.105714003008461432e+01
-6.941605611058621506e+00 -1.096817222358560162e+00 1.750760225003812920e+01
-8.217248756055326453e+00 -9.625202302432371848e-01 2.082662692583300768e+01
-6.378023863601985255e+00 1.015124417826336556e+00 1.659027984861047500e+01
-1.052312879073515672e+00 -1.567240666796278381e+00 2.297196732011096643e+01
-8.145847999786733240e+00 -1.295656005618777806e+00 1.980058264247661626e+01
-5.630124669665860893e+00 -3.393775755444479181e-01 2.246621150266571831e+01
-7.138853965440643989e+00 -4.544769070482519435e-01 1.737254443217647193e+01
-5.240617744611428819e+00 1.863754183553740118e+00 1.614503461429880460e+01
-5.940384166810098066e+00 2.156591383204843115e+00 1.706446482979977830e+01
-8.028238567942157289e+00 -1.308790041614787736e+00 1.922574226623351379e+01
-3.921091756306361642e+00 3.284029146274601629e+00 1.791739620955985757e+01
-8.069215127473329474e+00 -1.081779136590384160e+00 1.903772148058277836e+01
-5.194111897287307045e+00 4.672529504282364465e-01 1.583657626244938754e+01
-4.101909230744885670e-01 -5.315131218524731249e-01 2.251687415826687655e+01
-7.669641435122022344e+00 -8.623654223248157225e-01 1.801742470475943136e+01
-1.843069265662402145e+00 3.526180349070232811e+00 2.123851672169950788e+01
-5.210989192600262498e+00 6.533382308132351657e-01 1.557658549271187454e+01
-3.959849466807352503e+00 8.176643658500979406e-01 1.559198520879295202e+01
-3.748598875000826780e+00 9.491652160013736017e-01 1.533713838640694505e+01
-6.326565793278552619e+00 -1.839057342349174062e+00 1.896094091048417241e+01
-2.584535430066508432e+00 1.070579405627575253e+00 1.541811116675387083e+01
-4.641768645705690588e+00 -1.314391023446022544e+00 2.288652942074480379e+01
-2.535083068677434159e+00 1.241036849073536397e+00 1.555150834165894835e+01
-3.899280198837586919e+00 -4.870616432388599204e-01 1.958177015665958365e+01
-3.110299165290478118e+00 2.230628781139079919e+00 1.637810517284659895e+01
-2.147588628150847612e+00 -5.383998055047722886e-01 1.832348008685791640e+01
-7.092663666273004708e+00 8.990446543992006712e-01 1.712066368814371131e+01
-4.115908794635167567e+00 3.153561067952919128e+00 2.132635332063351186e+01
-6.156241733033537500e+00 -4.309992206896956501e-02 1.642401430858543065e+01
-2.615431107864104820e+00 1.216827194861940908e+00 1.539492126242729952e+01
-2.127696379290812345e+00 2.361441502823965699e+00 1.818728288076863109e+01
-2.048518378609879287e-01 -1.954106916717432973e+00 1.962540880209088456e+01
-2.386685540491886748e+00 1.233291069816249586e+00 1.575959601340172256e+01
-7.493166825060915137e-02 6.825032778690791613e-01 2.171730472173409865e+01
-1.473868169876655809e+00 1.758249367128677632e+00 1.879763586524630270e+01
-7.409627598957051475e+00 -2.515605648336421751e+00 2.216419480307151346e+01
-1.976978300496090579e-01 5.257082486568609436e-01 2.194638095590303450e+01
-9.104978808905183074e-01 2.285886214745008971e+00 2.136879064350225477e+01
-4.819974182057806811e-01 7.793564100611141687e-02 2.244391347717928298e+01
-6.288649844716770687e+00 -1.268721458706503213e+00 1.778699568446190327e+01
-5.790096390712250463e-01 -1.203069933890739407e-01 2.259546937197388061e+01
-2.453473648139021357e+00 2.283246304121663961e+00 2.197235188352364688e+01
-6.016114471662044494e+00 -3.580466836391301477e+00 2.235071537435101519e+01
-8.640029492529079924e-01 -1.133063985142275021e+00 2.291877919352876702e+01
-1.228330674882135876e+00 -1.717955618453597788e+00 2.298643012949846209e+01
-3.546768325142851452e+00 -1.043591379634785377e-01 1.876824132126447253e+01
-1.820834822988049995e+00 -1.919517980163461424e+00 2.298353175121134839e+01
-2.114078749505767352e+00 -1.951521501281147319e+00 2.062328213767226615e+01
-6.521348790594213796e+00 -8.340072054679599223e-01 1.722627342448233279e+01
-1.431416193919778923e+00 2.925509086462401598e+00 2.095620615971042966e+01
-3.824303946624090234e-01 -3.801522136429609233e-01 1.834462228277859097e+01
-6.156126964168349147e+00 -5.995737166087375947e-01 1.701259048628768866e+01
-2.171678360552743214e+00 -2.132541930949963582e+00 2.298844875899191109e+01
-3.620477234794692856e-01 9.088234613558354713e-01 1.994693572085969535e+01
-2.221385075366815620e+00 -2.769905497240741976e+00 2.299993275803783277e+01
-3.404566191287658583e+00 -2.942850082144432999e+00 2.302459695135219775e+01
-3.582780470611787393e+00 -2.551408934117582294e+00 2.306948395537691354e+01
-4.852214639510398442e+00 -2.720053707554135336e+00 2.300955765023198651e+01
-6.416200895203616472e-01 -2.305712313603752506e+00 2.262053826444485694e+01
-6.535073253596065612e+00 2.933305915117406126e+00 1.828482021885911379e+01
-8.039876760643355880e+00 1.442161080348093538e+00 1.852981699454090503e+01
-5.067062436332529174e+00 -3.391268790136535038e+00 2.166741090993736307e+01
-5.179606741384814583e+00 -2.733783100612396044e+00 2.295812523484589107e+01
-5.065320397306821931e+00 2.761354263854435054e+00 2.134711463630981498e+01
-5.404488032831006095e+00 -2.727771644197261480e+00 2.292537694415979743e+01
-3.300573208905318356e+00 3.896052073288144152e-02 1.813988973535655091e+01
-5.602833259082450112e+00 -2.544289613712453324e+00 2.288791425304104976e+01
-1.649719539524350909e+00 2.204528651141378415e+00 1.913825718491954930e+01
-3.837329817705181334e+00 1.890138093914533135e+00 2.196334563145861907e+01
-1.173819042466843765e-01 -6.170345857990684468e-01 1.932032221076164191e+01
-5.832649041260681955e+00 -2.375002476191232059e+00 2.282652928918880875e+01
-5.872683586624614094e+00 3.254667962493997369e+00 1.813620599433092551e+01
-3.193276619296745000e+00 -3.419299894799469719e+00 2.176089826556792772e+01
-6.233732290688820399e+00 -2.325850386931345604e+00 2.272506503086343699e+01
-1.902859647381763608e+00 9.728200605452771432e-01 1.636699552017435977e+01
-2.244904334808900614e+00 -5.728397687855033560e-01 1.914976068816427457e+01
-6.406232500273794983e+00 -2.143473159755926449e+00 2.267683120489114046e+01
-4.664832527897839753e+00 -1.272481356243547745e+00 2.032495663092656102e+01
-6.539656826158356751e+00 3.540259100806400383e+00 1.887850967693638538e+01
-6.826507835959851889e+00 -1.949523433485190083e+00 2.254518085699310248e+01
-6.318228219494349318e+00 1.062914558615046801e+00 2.184711836503007376e+01
-7.103729368803294975e+00 -2.147229036642795297e+00 2.245016430784786721e+01
-8.140405968070380638e+00 -9.459329128631854822e-01 2.129756528949970473e+01
1.301236498073077286e-02 1.048424400795062023e-01 2.170081298995026131e+01
-8.095807624785170020e+00 -1.124212700400747611e+00 2.141940189248872528e+01
-4.375877958317433425e+00 8.350365068357413767e-01 1.539687911655746078e+01
8.912418834522328748e-02 9.898370446133854250e-02 2.128836151783214703e+01
-4.494315549558111300e+00 1.132938380597590111e-01 1.779617009686032603e+01
-4.706890372941151535e-01 -1.126567212429762932e-01 2.249017759517468207e+01
-5.069503239385488413e+00 3.468133565669362373e+00 2.100916254889562751e+01
-8.148610001745748121e+00 -1.317708963667889588e+00 2.125033478481438820e+01
-3.005945306924891369e+00 1.331854615209456361e+00 1.505766124340057743e+01
-3.100188510341661985e+00 3.621753550431780155e+00 1.881764439827604107e+01
-8.134822158348212540e+00 -1.513975522582901245e+00 2.120758918328846576e+01
-5.352250121347275069e+00 -3.962072906173585984e-01 1.878854868162619951e+01
-8.183207378262251197e+00 -1.322894852179352432e+00 2.103490899300976835e+01
-8.200439241438100879e+00 -1.147217044014539944e+00 2.086432274833266476e+01
-4.996565568427229209e+00 1.647988130944551877e+00 1.572933240209576056e+01
-5.312892987601427919e+00 -5.202159317618231249e-01 1.917457565208316694e+01
-8.186484841318396377e+00 -1.306352753776734321e+00 2.062051505680593877e+01
-5.661714262368587214e+00 -1.470192869419973070e+00 2.021473915636467567e+01
-8.130099749052151381e+00 -1.525362295891172115e+00 2.021572708857910428e+01
-5.770605527416961422e+00 4.181551592846752818e-01 1.597719922769770662e+01
-4.951386710342241315e+00 5.500249110999824165e-01 1.576462077579527588e+01
-6.887221479639707766e+00 2.688039871509062539e+00 2.090666689294392100e+01
-4.301185750339305613e+00 3.847503318208832290e+00 1.890584290914268095e+01
-2.199839794526536885e+00 1.065529871551355173e-01 2.263777416882948401e+01
-4.601359877087479511e+00 6.714857926612206596e-01 1.563718072696994810e+01
-3.771496727132976901e+00 7.810926480574641451e-01 1.577123305637931239e+01
-8.066634063190639026e+00 -1.926577434017491708e+00 2.119276771437067097e+01
-4.850355250852305122e-01 -2.521292743205250986e+00 2.226129648171353281e+01
-1.413831503265689848e+00 5.481008838810771389e-01 1.696570835320586568e+01
-3.726961149369858450e+00 -8.326484812291412574e-02 1.873572925476662121e+01
-3.565623469415943880e+00 7.290811293234895629e-01 1.594816896935238404e+01
-3.708448955461349339e+00 1.380815736761137613e-01 1.796560295263438078e+01
-3.155527061812920753e+00 8.044462333745557858e-01 1.576870739921508502e+01
-2.119105040466713330e+00 8.481407291325507858e-01 1.593897555648834796e+01
-2.503882384496701974e+00 4.150972108719641618e+00 2.081359024376301292e+01
-8.195423263490051013e+00 -1.314376686429939545e+00 2.081434268763175410e+01
-3.343051075416260787e+00 3.718860802893538153e+00 1.883995933042875848e+01
-8.176337855717402903e+00 -1.275147153392850008e+00 2.044190721924970333e+01
-1.933175067858122764e-01 3.430387628333406713e-01 2.199608537420667531e+01
-4.626584719900467824e-01 -3.040262399243055524e-01 2.253474069876784469e+01
-1.023677431490998879e+00 -1.928358344123488610e+00 2.295612433747964687e+01
-5.510215862914920493e+00 -3.223389254175051288e+00 2.281296147125682339e+01
-1.819422364966378991e+00 -2.219911884821351933e+00 2.299784896315962968e+01
-6.925425247442991150e+00 3.519277101665343466e+00 1.907024091064890214e+01
-4.694810671786068923e+00 -6.105361524744962187e-02 1.837192575669297767e+01
-1.802047442769582730e+00 -2.744869117369778788e+00 2.298990460138686487e+01
-2.639323131459843097e+00 -3.181662170256094324e+00 2.294896728035387312e+01
-3.600947215753712793e+00 -3.151506336252281049e+00 2.297847831919308348e+01
-9.286109470787807796e-01 5.729746176721161044e-01 1.811261001376533031e+01
-4.017148390342467401e+00 -2.931426244326983177e+00 2.303442298782077202e+01
-1.877693750588327326e+00 -8.203340784809394215e-01 1.833215867680401701e+01
-4.274092547977543788e+00 -1.533655342523557286e+00 2.054337100682804973e+01
-4.611336472292525634e+00 -2.973294457543160796e+00 2.300720575606983331e+01
-4.166356581064178499e+00 5.563297875808889126e-01 1.619959288049782131e+01
-2.223520587482701316e+00 -3.468361486817273853e+00 2.279946286668872446e+01
-6.579598558076188652e+00 -1.245031723183016581e+00 2.249684962073137839e+01
-3.567106539768155837e+00 2.183290574560763364e+00 1.602728826933740081e+01
-6.111785789896478249e+00 1.519974254852823226e+00 2.172245304481053196e+01
-5.007722601635144599e+00 -2.921131327984185067e+00 2.296259520671709353e+01
-5.862355346011646873e+00 -2.729525644863151079e+00 2.281699730684841754e+01
-5.425028009456192013e-01 1.684269815383565794e+00 2.094526745663266709e+01
-5.992351042683189632e+00 -2.530522195901627747e+00 2.278938087660338496e+01
-4.071872440620006861e-01 2.290607516633706153e-01 1.883864363550826582e+01
-6.344211595392398095e+00 -2.584488200195909968e+00 2.268617343837841460e+01
-4.739506432479334563e+00 1.396845496454259816e-01 1.699161042262604937e+01
-3.251860953312502467e+00 -3.600613017345803968e+00 2.208361864236616512e+01
-6.433598748014636826e+00 -2.339943461461984509e+00 2.267761113270116269e+01
-1.786347967518756574e-01 -1.217298771879508967e+00 1.913641159132811609e+01
-5.639519089128002705e+00 -1.726634648664865823e+00 2.042074562156691897e+01
-6.651444044512953013e+00 -2.164311421404746305e+00 2.261276394082142005e+01
-2.317013448928766373e+00 1.271560194139194300e+00 1.593763658620034462e+01
-6.955356423403223687e+00 -2.343291679172204933e+00 2.250386359508278744e+01
-4.779493112841498359e+00 2.809499730637496917e+00 1.721570081530859753e+01
-3.889627569101291815e+00 -9.367489228287677605e-01 2.011415958725350706e+01
-6.368076639107096426e+00 2.150200458788470215e+00 1.743108746952373522e+01
-2.400733461334159102e+00 2.112810720670590392e+00 1.721805688933489975e+01
-7.677531073526759897e+00 -1.945246330844905280e+00 2.203284159800524478e+01
-5.360877324784074638e-01 -2.181232177980874543e+00 2.252044800697745686e+01
-7.896736843233211900e+00 -1.326454176148361475e+00 2.180094094454999620e+01
-7.995867854799699970e+00 -1.370264273214961026e+00 2.162765701650438999e+01
-7.149072358302811736e+00 3.503322931192372813e+00 2.014727834069936918e+01
-2.952462542751844499e+00 5.415817484920225633e-01 1.633901349573741513e+01
-8.138940486207079772e+00 -1.712003878165898385e+00 2.101108474447535102e+01
-2.828851216988825357e+00 -1.033286401545862043e+00 2.017434446558450745e+01
-1.880784300101894901e+00 1.201592772971043166e+00 1.673881754317227788e+01
-8.179891490284727951e+00 -1.481719250853058778e+00 2.095606455088493547e+01
-8.176522435734060679e+00 -1.499381655683239778e+00 2.066082250493832007e+01
-6.164503112308009847e+00 4.592443921947960028e+00 1.982354427898169646e+01
-8.118691837867780592e+00 -1.717340275062644084e+00 2.040233258789080040e+01
-7.953038072980371354e+00 -1.744688704416313296e+00 1.956285906116248796e+01
-7.951336829554144003e+00 -1.259323835181883844e+00 1.864271594265618504e+01
-1.673708594472247402e+00 -9.911937703500055541e-01 1.835085669018985399e+01
-3.116065218535287062e+00 -4.778105120743436629e-02 1.836202727585004268e+01
-7.607244252744800761e+00 2.167170781449891503e+00 1.858324777115763382e+01
-3.787192195964340868e+00 1.759754045553398871e+00 1.523400284468785415e+01
-5.373192997483668520e+00 4.385259470234399437e-01 1.586665983134807689e+01
-7.164571146799843859e+00 1.750150243214342538e+00 1.783726261130199120e+01
-4.903983126763753475e+00 -1.423604337214927851e+00 2.039044476353458535e+01
-4.370126251832322950e+00 1.405236947345870790e+00 1.503671312199075416e+01
-4.960051852184802712e+00 4.040474461413047225e-01 1.599980750260554530e+01
-4.371679021833871914e+00 5.692593920590773848e-01 1.600497706413056775e+01
-3.132605910515207981e+00 5.445108321547106334e-01 1.637597803341009595e+01
-1.493383567030581283e+00 1.627952165730383927e+00 2.226678687874642648e+01
-5.844067953908623991e+00 -2.523714671301238166e+00 2.091572564990036298e+01
-2.946631204478336041e+00 7.374291178576607431e-01 1.591349497975704352e+01
-1.746404211412991403e+00 -1.031793853760964108e+00 1.852064335959000729e+01
-2.551987256215087374e+00 6.163385900462595712e-01 1.614110648339392284e+01
-2.023055585433863324e-01 8.733213668298905885e-02 2.208656055642013527e+01
-4.095577379022723008e+00 -2.310595015320901224e-01 1.917226078260960165e+01
-2.742268238679688719e-01 -3.422695860328670570e-01 2.230868936465472885e+01
-4.433992549712082010e+00 4.566614246474106631e-01 1.627405927152339515e+01
-7.510076287671534345e+00 -2.155781456350042424e-01 1.764746370945387710e+01
-4.164720839184810508e+00 5.064961679020519858e-01 1.636448745067376009e+01
-5.859574546383302662e-01 -1.688960844282314522e+00 2.271941853685265400e+01
