-6.120451725380563701e+00 -1.584882211258839657e+00 1.639262187557196881e+01
-7.473298445210388330e+00 -4.029469817027679923e+00 1.939554704352875092e+01
-4.309808043275595857e+00 3.043763344174836849e+00 1.682233216665846243e+01
-3.274879639379009610e+00 -2.222060330537964479e+00 2.067921125364084389e+01
-7.779824532438268214e+00 -3.940856134971217006e+00 1.903527412327934343e+01
-8.041621813964560772e+00 -3.744272574953349864e+00 1.832252142265923567e+01
-7.067576025646421733e+00 7.783390863298178530e-02 1.496350232895574095e+01
-6.317568068212254140e+00 -4.219300884033914123e-01 1.532057979351323240e+01
-6.553985821460192263e+00 -4.104313894532647389e-01 1.525541922502931413e+01
-1.670045469476633571e+00 1.424789760151734974e+00 1.545959926432286835e+01
-1.516712032787304931e+00 -3.081381219504444324e-01 1.533873198709893160e+01
-5.887703264784176049e+00 -8.037751398907455602e-01 1.581218371241272536e+01
-2.182543045150004080e+00 1.357073735602539521e+00 1.998264279734934235e+01
-3.675778374799925530e+00 -1.776853551262817188e+00 2.065296364277181596e+01
-5.157857190557562532e+00 -8.649928028399926916e-01 1.617529055911007418e+01
-5.718801646066260069e+00 1.312134848616296923e+00 1.995209254096197782e+01
-4.561118486680858730e+00 -9.202056565374552299e-01 1.610712753891479565e+01
-4.385376861698439654e+00 -9.313676300555724374e-01 1.606256422199356138e+01
-3.103660169093251930e-01 -2.512116620717286253e-02 1.744713398479746758e+01
-3.494013055935353940e+00 -7.452106688975081994e-01 1.560936156735127867e+01
-5.457895224091940278e+00 -1.999660016378549621e+00 2.050807845771729632e+01
-2.751463869715314203e+00 2.826254566285997250e-01 2.032912406917232317e+01
-3.101877594285753048e+00 -8.203996084379387987e-01 1.556459897367383149e+01
-2.724011071791160532e+00 -8.290988693148477751e-01 1.550706256456616217e+01
-3.039352491748687157e+00 -9.294998294788996418e-01 1.566791606253735125e+01
-2.294874218402255472e+00 -5.425779504574572698e-01 1.523337291610311439e+01
-6.315957823482989397e-01 -3.803769749123385946e+00 1.979015329097310882e+01
-6.112872881360234878e+00 2.397427706083456123e+00 1.505137964661236083e+01
-1.052093025328971532e+00 -4.282242440823255336e+00 1.991497981889443736e+01
-1.514336806290152548e+00 -4.323429674103062226e+00 1.945081181380968616e+01
-2.415105922126365545e+00 2.094538762489582595e+00 1.525319553955674223e+01
-6.967196964307027507e+00 -4.261556379377791082e-01 1.995294700587894710e+01
-1.936152534169511608e+00 -4.293767891078468679e+00 1.933495012550452685e+01
-7.275768262440792888e+00 2.447603438883965143e+00 1.686864929036372018e+01
-2.112661945403977892e+00 -4.291071162125280836e+00 1.932298570200844523e+01
-5.088211042197117173e+00 -4.245338623907011666e+00 1.881804908272835775e+01
-5.716603533771308143e+00 2.940957263376172470e+00 1.643527717387758003e+01
-5.479972782885175420e+00 -4.233229473956416911e+00 1.881192302085069201e+01
-7.093539956381454736e+00 -4.155606700533342135e+00 1.916452647368444673e+01
-1.573661060149403212e+00 1.289362563509797166e-01 2.006690899148195228e+01
-7.794349340804187953e+00 -3.937232741738247999e+00 1.856573932759007306e+01
-8.451424931934898410e+00 -2.589811827711969716e+00 1.746975358985071125e+01
-7.642785507240417608e+00 6.095520215287286714e-01 1.522095238773955117e+01
-3.549476563536490659e+00 2.853278595687395836e+00 1.649538080474842161e+01
-6.921433546234243117e+00 -3.698902607473466553e-01 1.518148396136386680e+01
-1.519182182522280211e+00 2.331871850612866393e+00 1.848788391862854041e+01
-7.068488493125467009e+00 2.399299687862770369e+00 1.645008351835714677e+01
-6.496489927618319449e+00 -6.813848872030447978e-01 1.550856121221302431e+01
-5.905360814125485192e+00 -1.151025423527596736e+00 1.610391925415643044e+01
-5.548629301439921946e+00 -8.468104647780925198e-01 1.596483713881492150e+01
-2.805314387611019811e+00 2.294120286493800176e+00 1.501286742372049332e+01
-3.803759549728160216e+00 -1.472704916038537704e+00 2.062764197038121949e+01
-5.728125424313168956e+00 -1.078720204453454290e+00 1.610331196014536914e+01
-5.537562679285932710e+00 -9.676739111252405934e-01 1.609698062993910384e+01
-3.747144575295109803e+00 -1.033160038519906010e+00 1.595826135113336619e+01
-2.492732444668663394e+00 -1.418776872403722855e+00 1.611721825864526636e+01
-4.710682468507335408e+00 -4.242500430423971736e+00 1.887945631751117048e+01
-4.887863637138710970e+00 -4.186560857923835144e+00 1.869872300273735988e+01
-7.942207844230593672e+00 -3.645800573294708524e+00 1.777329899459015650e+01
-7.611626745340417166e+00 4.076428404484235823e-01 1.521192438770529520e+01
-1.909269993936317800e+00 1.801101371821340891e+00 1.567712234176300257e+01
-6.198839659406359281e+00 -1.723983652813308787e+00 1.648246609813492825e+01
-7.607970484677509582e+00 1.548382217269095307e-02 1.539469192188543900e+01
-2.928055378967459710e+00 2.176768588475522126e+00 1.419859066490433008e+01
-7.082819026557838349e+00 -4.684140570687285177e-01 1.528670444363703496e+01
-4.529700271908660092e+00 1.391591433504661968e+00 1.309182106229800979e+01
-7.164570911478516102e+00 -5.895596173837236442e-01 1.537198570130701114e+01
-6.530569125783380890e+00 -1.153842591205670676e+00 1.591295551704043731e+01
-6.395436082609625927e+00 -1.293848419653569781e+00 1.607184061734928093e+01
-5.154689999441714576e+00 -1.272157416821992459e+00 1.656896242676252484e+01
-7.983773175758879681e+00 -9.434685265660078812e-01 1.914505391375632826e+01
-5.332361656927907312e+00 -1.534588760389614670e+00 1.667552407712449991e+01
-5.481466940678467736e+00 3.821100335638771828e+00 1.925240940475632101e+01
-5.031542287900824917e+00 -1.469785466102896621e+00 1.675879948728615432e+01
-6.133225246061401847e+00 3.012357439785586788e-01 2.007414705944586331e+01
-4.617645740586001857e+00 -1.394698957668391692e+00 1.660484036818726850e+01
-4.352795019434826607e+00 -1.139980142438921540e+00 1.626236769380010116e+01
-3.906180646544010315e+00 -1.225906788914526757e+00 1.617592763579246906e+01
-7.433972201477511810e+00 -7.149373001639727221e-01 1.975768333640516516e+01
-4.123432816193944639e+00 -1.300936366958501456e+00 1.631139426962145222e+01
-3.519893392524806153e+00 -1.170619255673872150e+00 1.601849089474303156e+01
-3.298685755421977284e+00 -1.393479435781587839e+00 1.615429478912177785e+01
-6.586281139840148846e+00 9.491663645275940642e-01 1.980349080724032262e+01
-2.903916262253599889e+00 -1.440548812164107684e+00 1.615338176688165817e+01
-2.254845248260048063e+00 -1.513136791684224658e+00 1.621391102029051012e+01
-1.919447450794641075e+00 -1.313064639414974533e+00 1.603951348213599459e+01
-1.046515886416524044e+00 -3.388872279790589026e-01 1.583063430497168866e+01
-6.141148178520110079e+00 1.069079104890584997e+00 1.992552400258121992e+01
-9.623719054311621335e-01 6.712047415012636353e-01 1.615644070943886845e+01
-1.108803955979733136e+00 -4.292692888788621985e+00 1.946780926848240512e+01
-4.675844612844930026e+00 -1.636719765375421076e+00 2.056068028061870478e+01
-9.378563639191193069e-01 -4.194912622748116604e+00 1.924319278035423508e+01
-8.907688575739349801e-01 -4.112725742247487659e+00 1.905684967521388984e+01
-3.714329013708718819e+00 -4.086093092465404197e+00 1.869603709137965808e+01
-1.703158538635293429e+00 -4.036695927620179702e+00 1.878610518761317394e+01
-1.287902389362536759e+00 -3.927424950124414504e+00 1.865595375102927989e+01
-3.218531163149104479e+00 1.895258724244905268e+00 1.999439433389426313e+01
-2.252338168723741152e+00 -3.962197752421741104e+00 1.860187771378974730e+01
-1.194454660816989922e+00 1.954775095580956856e+00 1.826212737582824275e+01
-2.496362912638809384e+00 -3.950723570477820967e+00 1.854474947950728136e+01
-1.342727727736072740e+00 2.113479871541766197e+00 1.828529895288434659e+01
-4.331293395172245653e+00 -4.142363852539419966e+00 1.870350066849159276e+01
-2.218555820993029393e+00 1.959954185175089014e+00 1.984311517358312926e+01
-2.821760948088574139e+00 2.989537375804293795e+00 1.810843983088906128e+01
-4.117138511475784135e+00 -4.029795243814476180e+00 1.849615033667232922e+01
-5.957201483591609836e+00 -1.025174251771578504e+00 2.035447650994056090e+01
-6.520273559605295866e+00 -4.105174733730860837e+00 1.864820131160134054e+01
-7.322410983859453104e+00 -3.885547597443752554e+00 1.803014230115397254e+01
-7.379981837038067205e+00 1.171724149877068744e+00 1.916993712624819324e+01
-5.590537360690215785e+00 1.747321975539477545e+00 1.987777353066059050e+01
-7.736477573968694621e+00 4.082236038077722284e-01 1.545579537360099209e+01
-7.655284303450668126e+00 -1.541391567987790978e-01 1.551755303295181676e+01
-7.381302996309725195e+00 -4.133119887773295531e-01 1.541063232161756957e+01
-7.317470974231821579e+00 -5.784480626228867273e-01 1.543909948955490563e+01
-7.090926446916069104e+00 -8.695116218127818541e-01 1.553037665446682070e+01
-4.216339633161208411e+00 -2.628837574763881246e+00 2.064079095782807372e+01
-5.426322541043685277e+00 2.713387879832964256e+00 1.554204369354140880e+01
-6.753290457121184254e+00 -1.066881944480305489e+00 1.578402475449352949e+01
-6.666084369246710217e+00 -1.144126280773804183e+00 1.587478455736059146e+01
-6.707620698744949372e+00 -1.340303410234180426e+00 1.603308776695251936e+01
-5.905516433099530005e+00 -1.570253562164260597e+00 1.643770488134122587e+01
-5.604674366804618835e+00 -3.645858790431257379e+00 2.041146470866539175e+01
-5.751421600963097625e+00 -1.415286529216900124e+00 1.636127112386854776e+01
-1.552316444558655917e+00 1.109127707866251811e+00 1.517779300121379293e+01
-5.363774420562082312e+00 -1.105238458237938204e+00 1.631745987485162885e+01
-5.095675145298650399e+00 -1.704325036881080724e+00 1.693376445415765374e+01
-3.900693367686508317e+00 -1.430287122012247725e+00 1.633580381873129284e+01
-1.518076118113258932e+00 1.350124053778002375e+00 1.571437551433306368e+01
-3.215796780183548975e+00 3.004784016125769064e+00 1.753265748679999092e+01
-3.185028218329378547e+00 -1.536244411585773850e+00 1.624694872424088032e+01
-3.314499827998959702e+00 -1.538952206489923924e+00 1.627100475139687319e+01
-4.728424544941521646e+00 6.659662640355143992e-01 1.399792676786608325e+01
-2.504618403444868413e+00 -1.808987568089320597e+00 1.651286757928466642e+01
-2.078319759530611321e+00 -1.637905469279424597e+00 1.634452712830645993e+01
-1.865812040779109449e+00 -1.617780970386154316e+00 1.633936268900976785e+01
-1.657587674769136932e+00 -1.615596267908250283e+00 1.636669275272463864e+01
-1.680597301412671829e+00 -1.703249624498174963e+00 1.644475348624782640e+01
-3.890343719132411948e+00 -1.792474571700769292e+00 2.063852450200592159e+01
-1.681724736418871213e+00 -1.481134435993829435e+00 1.624334397672677710e+01
-1.750868979861760710e+00 -1.384988393540850016e+00 1.613899853802844575e+01
-1.448571841423794027e+00 -1.035138553480180690e+00 1.589716262392273194e+01
-3.921084489503698478e+00 2.856452562511150539e+00 1.626505983720586812e+01
-1.032705029623414816e+00 -8.183259244252565345e-01 1.604626541181977473e+01
-8.266709535657909669e+00 -1.921781456820734757e+00 1.710681859169330465e+01
-8.631008590629840604e-01 -2.904096478355078226e-01 1.606368381745098617e+01
-7.780999339639529389e-01 -4.555758029564396239e-01 1.618061194947654258e+01
-1.712118411816990093e+00 2.146142300815589543e+00 1.728933494404353155e+01
-7.092515628915982973e-01 -4.036629041107568483e+00 1.895052427866088607e+01
-9.100374477183712507e-01 -3.911696719716500237e+00 1.866811973653573631e+01
-4.622436219921044476e+00 2.674181422707618161e+00 1.977865560752911023e+01
-8.127113201587210511e+00 -3.925954474191253318e-01 1.866848066614981150e+01
-1.508479684412856958e+00 -3.669109198849586750e+00 1.828241472684986491e+01
-2.558940595719736422e-01 -1.641996791475970330e+00 1.748256190686472422e+01
-3.316069097170630364e+00 -3.933732482649988871e+00 1.841336612685655894e+01
-3.507454849272959585e+00 -3.933806674366982836e+00 1.840091193737504227e+01
-3.696950850962271495e+00 -3.954007891432325561e+00 1.840424672876474688e+01
-3.565210727435979443e+00 -3.877709478183671177e+00 1.827817252893908062e+01
-5.011348675089995375e+00 2.047538051172030915e+00 1.987763176306000901e+01
-5.530506363474544607e+00 3.480384341735658360e+00 1.949281455528264217e+01
-3.897466000957814813e+00 -3.920833680552314515e+00 1.830521046081969416e+01
-1.574084548099669245e+00 1.215626161037565378e+00 1.976166359398610695e+01
-4.279801163997482227e+00 -3.984063187609708567e+00 1.837804881400662538e+01
-2.292049144799150895e-01 -2.867820449322635579e+00 1.877658798927736683e+01
-4.111963736699228988e+00 -3.914492599721925092e+00 1.826206407113357955e+01
-4.788963412812845544e-01 -3.797847230060789059e-01 1.670103484376875258e+01
-4.651730119822875764e+00 -3.869467560475850387e+00 1.816797158965017189e+01
-5.138777926182365619e+00 -3.980346693103537614e+00 1.839023317262349622e+01
-5.960882045796549455e+00 -2.552934779825563272e+00 1.717574276996082716e+01
-5.468654171084827098e+00 -3.860356648678111124e+00 1.830276154232963393e+01
-6.507222456448405801e+00 -4.024095369044012216e+00 1.847482377084156013e+01
-6.930442808086328732e+00 -4.090207831607379774e+00 1.855139933749951098e+01
-7.101058186135683847e+00 -4.076658469667817641e+00 1.861173489412998805e+01
-7.113819376680182494e+00 -3.878489880716027738e+00 1.801044961702586278e+01
-6.179069146029668502e+00 7.268402338445074662e-01 1.998236796510547464e+01
-7.732934832405743641e+00 -3.619295194614881250e+00 1.757194661095554267e+01
-7.651127643699452641e+00 -3.248565785720018972e-01 1.567258538361866016e+01
-1.357756213068768147e+00 1.522832318445907163e+00 1.658449436600559324e+01
-5.338240568133574726e+00 9.851009726000135025e-01 1.355998148212994892e+01
-7.446792516460338796e+00 -7.689083942583621045e-01 1.564179752778665033e+01
-7.100439544471558229e+00 -1.514810593464962274e+00 1.608026829102363564e+01
-6.660837273094965205e+00 -1.661646204551185058e+00 1.629853844716602396e+01
-6.074980775869723182e+00 -1.775280641283769612e+00 1.655154908764164645e+01
-6.629209328730218509e+00 1.975275818953888818e+00 1.462169920846010740e+01
-8.072653795869374704e+00 -2.124619539544193803e+00 1.934097625656644936e+01
-5.658008819141342904e+00 -1.593683479787692203e+00 1.653545004176451272e+01
-4.666221458342025841e+00 3.255623700238450713e+00 1.963298846673195186e+01
-5.586873008298527843e+00 -1.765344809432467077e+00 1.668376234375298139e+01
-4.696923334946566442e+00 -1.787649308885398192e+00 1.691704173839723069e+01
-7.212089718698760699e+00 -2.342471892344303530e+00 1.662535180848303185e+01
-6.579009255906954401e+00 2.586650125637262487e+00 1.942816422574485102e+01
-4.488382154271675084e+00 -1.668718024228783570e+00 1.675237573738939290e+01
-3.747364951659266197e+00 -1.711478386311814148e+00 1.649219348600105661e+01
-1.884254018816434506e+00 -1.838623464556992104e+00 1.654449845923096518e+01
-1.484957312907102533e+00 -1.800904887721845871e+00 1.657000599128060969e+01
-1.665058562005389042e+00 -1.924402377353107152e+00 1.665530245488455563e+01
-1.154672069375919818e+00 -9.313039046891118389e-01 1.600756770402503548e+01
-1.798976339762489829e+00 2.471145719123959861e+00 1.807107963998766564e+01
-9.935532815106467019e-01 -1.081288711665273183e+00 1.624382238544097135e+01
-6.148359147314394590e+00 5.004707803920294129e-01 2.003085038075699487e+01
-7.217546527139391266e-01 -7.218012319048017211e-01 1.630724580522660716e+01
-7.279091047492443067e-01 9.743015145618372230e-02 1.632120387645061044e+01
-1.872155156490580286e-01 -3.424851319255572069e+00 1.862158276234783472e+01
-6.697662753294513216e+00 2.579016996828547459e+00 1.628228883448947073e+01
-7.980693135460512622e-01 -3.519690205498025914e+00 1.820060177747108554e+01
-6.119574124206921262e-01 -3.513635118776635924e+00 1.821975826330311321e+01
-2.070627655556697810e+00 -3.505303071859306119e+00 1.807607093063572279e+01
-3.116968800371479276e+00 -3.742044023064909464e+00 1.813962720437394438e+01
-5.586392535589363995e+00 1.994148269992920053e+00 1.982697734430423964e+01
-3.912297072203481996e+00 -3.830400713146433933e+00 1.815645136561153805e+01
-4.573683912577603650e+00 -3.737730769719371349e+00 1.803771656371041132e+01
-4.354250103599616395e+00 2.371407908323957869e+00 1.392575178308428718e+01
-5.020425802991422159e+00 2.518278236845871376e+00 1.462599507152383183e+01
-4.685703624570741077e+00 -3.752026847118555164e+00 1.807737617396487906e+01
-7.623535643600882317e+00 1.402404895357648229e+00 1.575300274675276313e+01
-4.683471268269300047e+00 -3.644118599163783667e+00 1.798139877481860793e+01
-4.995240091317132425e+00 -3.815660783508689757e+00 1.819342121872065832e+01
-4.701983120808287175e+00 9.181294131953576798e-01 1.364707187173249991e+01
-4.287022382324304104e+00 -1.382387808561527986e+00 2.057343328830194906e+01
-5.074102218201381742e-01 -1.422010622252036782e-01 1.667041108213953748e+01
-6.254048134222004229e+00 -3.870677762453173631e+00 1.827613760515176722e+01
-6.318403089133504125e+00 -3.802131759202766137e+00 1.815893107228900760e+01
-7.677518968331868088e+00 -3.387068660172884993e+00 1.733870000675313605e+01
-1.547842931739479067e+00 -1.114634232446183759e+00 2.036465672664782289e+01
-7.657218616667294420e+00 -8.143178083899433872e-01 1.585017248965908010e+01
-7.285738214983177308e+00 -1.384104957312460638e+00 1.593548657188984663e+01
-2.106483475510909198e+00 -4.939657670482566765e-01 2.040422576523907594e+01
-2.517134024847224705e+00 2.522942014164955005e+00 1.687431365944974004e+01
-3.857598941981336793e+00 2.730117321120621110e+00 1.580286720463779915e+01
-4.908819046225628924e+00 -2.073290716924089505e+00 1.716276394818632411e+01
-3.087129302097936012e+00 -1.951426856965827739e+00 1.661573296102262276e+01
-3.866610719359592885e+00 1.626721766526685098e+00 1.298169797955794280e+01
-3.870384096831275045e+00 3.563072358270773066e+00 1.929907657735162729e+01
-2.531203201616102128e+00 -2.124923339022312785e+00 1.683427185325131603e+01
-2.277036680471736130e+00 -2.191362817868034885e+00 1.690045457031182963e+01
-2.307784999518519342e+00 -2.304550298820230214e+00 1.701267873502411732e+01
-1.318341730942573786e+00 -4.058100978933577352e+00 1.887362326849665095e+01
-1.304313271256378304e+00 -1.948618138905839015e+00 1.676804144167231669e+01
-7.480813074638561488e-01 -1.119107340647807369e+00 1.649243066907914823e+01
-2.088827877011145695e+00 -3.181532525194720851e+00 1.780409338216345816e+01
-2.843896385307107977e+00 -3.393669019374186302e+00 1.779273236665508051e+01
-1.401417893982667806e+00 2.067354348263004571e+00 1.792422379668016674e+01
-3.753366235943880191e+00 -2.127723998732474531e+00 1.677041009267266247e+01
-3.113316813464497734e+00 -3.494437655685870059e+00 1.784482179369456389e+01
-6.080943785302337368e+00 3.222525299938498122e+00 1.942467704411849638e+01
-4.223900794564994676e+00 -3.647552576429335058e+00 1.790223445052725282e+01
-4.394675174541427864e+00 -3.738593849264355118e+00 1.798437841246020952e+01
-2.067562119103921514e+00 1.640538249098967505e+00 1.482666920761742801e+01
-5.268278437571717099e+00 -3.561750257093802663e+00 1.803330957278363655e+01
-2.799432150902607663e-01 -2.544863263526781605e+00 1.933228827724408916e+01
-5.111496012888397722e+00 -3.401001144722428204e+00 1.790989605562626252e+01
-3.105699266937974379e+00 2.793237794854767309e+00 1.683391601240598590e+01
-5.302613659528044643e+00 6.156228045383049796e-02 1.485203325090275683e+01
-6.063446065751459280e+00 -3.476814184033905075e+00 1.788146111430292251e+01
-2.886389722434715921e+00 -2.559606029811820616e+00 2.068005269679716207e+01
-6.686160870296510517e+00 -3.497489654886187349e+00 1.770789434867310774e+01
-2.652222147713289679e+00 -2.558418709132195712e+00 2.068843880304105909e+01
-7.855481759130369390e+00 -5.765561183788898703e-01 1.609056624611402952e+01
-2.421516840707506724e+00 1.933303996278526116e+00 1.989548968269988194e+01
-7.665324400074603695e+00 -1.204321654290744004e+00 1.596326424402508337e+01
-4.990797887489006435e+00 8.144243140406759451e-01 2.013683244648725434e+01
-7.493927962150155331e+00 -1.536086661711366652e+00 1.602101914837954411e+01
-2.367446472576617555e-01 -1.045040941838553561e+00 1.788794221808916518e+01
-6.537343431149813533e+00 -9.002327501732101389e-01 2.020570874469233047e+01
-2.114231400297167163e+00 -1.429409692843252699e+00 1.614276951469723542e+01
-7.324148509051744860e+00 -1.792963589253029788e+00 1.623698445985378669e+01
-5.044831575758837339e+00 3.690856325323586429e+00 1.884910692122553399e+01
-3.305883834478666294e+00 2.547482831743987042e+00 1.527861504464106446e+01
-6.496047012053811187e+00 -2.112870049469599554e+00 1.667148908051158429e+01
-7.056367580017524510e+00 2.229736532857402587e+00 1.603594035779159555e+01
-4.912847067941480184e+00 -2.201855734291934485e+00 1.723790379221973978e+01
-4.378098288242760816e+00 -2.404195401673141053e+00 1.715817761946782127e+01
-2.072228936601975047e+00 -2.323249088040685084e+00 1.703048961044284937e+01
-4.629590213958665323e+00 3.555950544792051637e+00 1.844789767022020044e+01
-1.919296964779974690e+00 -2.427334494909385132e+00 1.713749159178932757e+01
-2.188829093390630920e+00 2.114650579164101707e+00 1.602841523137082902e+01
-1.146850582241464078e+00 -1.953387550957097929e+00 1.684697911666349057e+01
-5.143680106612096736e+00 -2.673400213322679075e+00 1.750778327818101587e+01
-9.261547264578418037e-01 -1.542168843093656871e+00 1.664908395445653611e+01
-9.006476005001826657e-01 -1.758678492188630926e+00 1.682393344113312850e+01
-8.054824135755254133e-01 -1.263046803905559123e+00 1.652832312842613760e+01
-4.774506806961309469e-01 -5.472874386800494761e-01 1.668675745636469543e+01
-4.104885007824405907e-01 5.821105518199898299e-02 1.699074969557451453e+01
-1.373313627658413694e+00 -2.940917473000085547e+00 1.762955855845925868e+01
-6.289681436571498807e+00 -2.089804926169055665e+00 2.041300715539482979e+01
-2.274866321221346688e+00 -3.049897268356096536e+00 1.769541714843006730e+01
-3.443907881977576579e+00 -3.199401593918203890e+00 1.755015310188097288e+01
-4.470857100461105738e+00 -3.298223831509426329e+00 1.768571608126553230e+01
-3.153278768123446874e+00 1.646199986293812145e+00 1.323273661101852383e+01
-5.255342218885560079e+00 -3.315405014829996500e+00 1.785638817596097994e+01
-8.622353944516158997e-01 1.394515362896667332e+00 1.783328614259770717e+01
-1.094137130704198047e+00 1.883956757531322967e+00 1.849666077245278473e+01
-3.204331620973099426e+00 1.466725653632295012e+00 2.009693822985453693e+01
-7.193955823166118257e+00 1.642316595595213702e+00 1.521279422765733358e+01
-5.479073430848433013e+00 -3.357618490224989483e+00 1.786594979437004582e+01
-5.699470470884407725e+00 -3.338096489907565800e+00 1.782310441067514972e+01
-7.268012917641638815e+00 -3.296078486522412643e+00 1.730426071115542186e+01
-7.269382484130129107e+00 -3.170187959571902692e+00 1.720341669756482617e+01
-7.734185733011277541e+00 -2.626803270955563097e+00 1.674150910589688124e+01
-7.859181152112824087e+00 -1.092686101953485700e+00 1.619065055878534309e+01
-7.599870452825363110e+00 -1.765819479299662209e+00 1.618825393818304548e+01
-7.485979367349041347e+00 -1.991881737577970046e+00 1.634888889146348845e+01
-7.231009483758048084e+00 -2.009426532854293956e+00 1.639912640615465733e+01
-6.733987988859833074e+00 -2.605242762970554349e+00 1.692646891818877464e+01
-4.464825620093780145e+00 -2.599634049700000116e+00 1.729935632118560562e+01
-4.735945644080016059e+00 -2.607875896135405380e+00 1.740545194816137808e+01
-1.734410431532150021e+00 5.921439833835344668e-01 2.002125665679198363e+01
-4.074489798306395905e+00 -3.639868228056981625e+00 1.790966919702088944e+01
-7.869759338264002757e+00 -1.446608121149732806e+00 1.634235010545512523e+01
-4.067692549205440322e+00 -2.583045598864654568e+00 1.715776762761870344e+01
-7.187527603643993679e+00 1.467428063412153483e+00 1.499984795591768716e+01
-4.213035337811962044e+00 -2.716071841153136379e+00 1.727850255619744502e+01
-7.932277385538157866e+00 3.807724706193742481e-01 1.868376094453559233e+01
-3.923228497415453653e+00 -2.376188464528615096e+00 1.698483141841527555e+01
-3.495961988218145855e+00 -2.521462962353062220e+00 1.701308635189074181e+01
-2.693605720992192865e+00 -2.546075071722615046e+00 1.719979778408583826e+01
-5.886773112950973719e-01 8.058814798535909318e-01 1.741590853642013315e+01
-2.502112596215944063e+00 -2.522961066281720566e+00 1.721619794131061099e+01
-1.945105899411232908e+00 -2.621629697215730470e+00 1.732938264860676725e+01
-2.272371096672757496e+00 -2.629699746086955781e+00 1.732009834694856210e+01
-1.370463119261156493e+00 2.092715633534521835e+00 1.808379861097768782e+01
-3.684825128919677617e+00 2.877107376242085124e+00 1.644350952132837307e+01
-9.821744545057722320e-01 -2.109549062039373535e+00 1.703895842550399919e+01
-2.299770647790794875e+00 -9.257064481862919969e-01 1.560742768782215961e+01
-6.895327302013374293e-01 -1.708892628338377406e+00 1.691100654567003403e+01
-6.258370408482503144e-01 -1.251008832571747664e+00 1.670245186137285032e+01
-3.596323160451211365e-01 4.693590348490217501e-02 1.718091792704662879e+01
-4.532856181622730851e-01 -4.336620313351913225e-02 1.681936185606640066e+01
-2.360579048079702869e-01 -3.071438946465414599e+00 1.834906985463157980e+01
-3.946989651272017063e-01 -2.964184998261727433e+00 1.797665387606868137e+01
-5.268217172468081522e+00 2.901999636461900067e+00 1.967605594082436937e+01
-9.314508723017969061e-01 -2.988355040194246914e+00 1.771958900177853735e+01
-1.074062763676097099e+00 -2.806055422617365291e+00 1.755693305349314670e+01
-1.509397175733476537e+00 -2.741396579310574122e+00 1.745832509433339652e+01
-5.232644093192712731e+00 3.586100422582944702e+00 1.840458114243093490e+01
-4.249934550671078171e+00 2.032833631292610299e+00 1.994962378470807352e+01
-1.293348903816225803e+00 -2.701951620581952707e+00 1.744123234787639376e+01
-5.473750682791871824e+00 -1.274379204360327922e+00 2.043842917684928295e+01
-1.904934690794973573e+00 -2.934464076499668561e+00 1.760511867005844522e+01
-2.498272168796169090e+00 -3.166264541776467656e+00 1.775998408481422075e+01
-2.631529909457636762e+00 -3.214057901937027228e+00 1.774645794329059356e+01
-2.088248093698910957e+00 -6.922677011607016873e-01 2.044840031438726413e+01
-2.919689905448966449e+00 -3.049033542646471862e+00 1.749351607444361889e+01
-1.930072750514890689e+00 7.819169704026691647e-01 2.004775186399053410e+01
-3.100500659925893743e+00 -2.963700576761092886e+00 1.738050613135775535e+01
-2.432409987806526175e+00 -3.116764058738677345e+00 2.066397957643856387e+01
-2.745539354541730148e+00 -1.306704682205044321e-01 2.042779312231119349e+01
-3.545741709503213990e+00 -3.084581982245649723e+00 1.745171331064530307e+01
-3.882227774774656304e+00 -2.965340025202402696e+00 1.738291961168642530e+01
-6.490709437840711082e+00 3.565415136348394576e+00 1.865784533292802649e+01
-4.257814543158270126e+00 3.047398547369777333e+00 1.971244994825660513e+01
-4.110705788918624926e+00 -3.200040476998709860e+00 1.755971225137507474e+01
-5.325413858297340930e+00 -3.066796091821753389e+00 1.769780203200265589e+01
-6.582262466378774768e+00 -3.250114383280305663e+00 1.756541483254979852e+01
-1.854839991633788987e+00 2.737037036032349935e+00 1.911314336142166326e+01
-7.076692127055721038e+00 -3.139177556573729877e+00 1.721636965613329551e+01
-2.763715282297155795e+00 2.511538952721879436e+00 1.614461911833807761e+01
-6.711448366827604595e+00 -3.032628327189226258e+00 1.731791359803565911e+01
-7.120194716559848480e+00 -2.934764865231535236e+00 1.704100015868076667e+01
-6.730674749130282741e+00 -2.834382471268348969e+00 1.711716380144671490e+01
-7.091284498058139540e+00 -2.809244809862754710e+00 1.694848761154027272e+01
-7.562683281523429280e+00 -2.602599629438105300e+00 1.674954560289359762e+01
-2.837791508566501975e+00 2.085449824001205155e+00 1.406162422087727037e+01
-7.940407572612497411e+00 -2.300673413109195931e+00 1.665337533647666390e+01
-8.358118896494076466e+00 -2.366894877060723434e+00 1.724123966733280611e+01
-7.716176510752462470e+00 -1.712104266399271602e+00 1.629864655722707312e+01
-7.830535145377582218e+00 -2.375436390618599791e+00 1.657353885072591737e+01
-1.867440317417551565e+00 1.706886022487788201e+00 1.977398006477524461e+01
-8.018515117829998928e+00 -2.143413188312808249e+00 1.671137314982453859e+01
-7.846579403000109032e+00 -2.069694987360187977e+00 1.654190902855638257e+01
-8.006835648581951403e+00 -1.960328646502715433e+00 1.670728458894595292e+01
-4.878324185394886214e+00 3.245622680811567129e+00 1.963060376761726644e+01
-5.972103168675585216e+00 -2.786374478807546407e+00 1.742403837585300153e+01
-5.496276511464036396e+00 -2.687032979932966636e+00 1.747427984834754255e+01
-4.305090416828183386e+00 -2.186118415437793505e+00 1.700248907508023422e+01
-5.344112660019733063e+00 -2.577784695791554004e+00 1.743600450793788781e+01
-3.500676921849157353e+00 -2.756091980228445149e+00 1.719118668597806021e+01
-3.678595568537792460e+00 -2.864865612540215434e+00 1.728902333265014590e+01
-5.654525038311004614e+00 -2.729658487830638247e+00 1.746295288067516793e+01
-8.921447936988737837e-01 1.360888811140913202e+00 1.765720320649767672e+01
-7.140433210082584026e-01 -2.169586356612188904e+00 1.720378432962251480e+01
-7.790623044258988550e+00 -1.917003760298432002e+00 1.968438144541610058e+01
-6.418807139964464170e-01 -2.022125814237963670e+00 1.713525016526332934e+01
-5.350864183502959115e-01 -1.763517232423005510e+00 1.705813730598077882e+01
-3.178833404288594622e-01 -1.703653892287144700e-01 1.730821304435819030e+01
-8.143966546594491263e+00 -6.776523159276925945e-01 1.679837396185074994e+01
-3.570686077587506002e-01 2.397932345337323579e-01 1.739351137206693210e+01
-3.431364353663326483e-01 2.674515206809604528e-01 1.759632940009667834e+01
-2.375983011642208709e-01 -2.885934888644220653e+00 1.850298232351796912e+01
-5.852278487256769246e+00 1.966831941298002429e+00 1.979812320988516916e+01
-2.925803353039286847e-01 -2.820823472260164611e+00 1.819315468098398014e+01
-3.937501123254962820e-01 -2.797881791084316117e+00 1.781759374893891135e+01
-6.698836273047857226e+00 1.077085700922991940e+00 1.972271356233645889e+01
-5.068759438621821545e+00 -1.921082037926041153e+00 2.054760379921675906e+01
-4.310069854468820516e+00 3.626241682751642159e+00 1.941249986485360779e+01
-5.302875330104308560e-01 -2.958575578396018368e+00 1.779668094459189120e+01
-5.556010509510693751e-01 -2.725591143638560698e+00 1.763245872599067354e+01
-5.329379751127725662e+00 3.135489275065898251e+00 1.705542710761255876e+01
-5.569182503975533827e-01 -2.368260615062659280e+00 1.742882351095543214e+01
-4.721763922179620376e-01 -1.826769757956771212e+00 1.716066183982175630e+01
-3.561242725449647040e-01 -1.579031178536411950e+00 1.722086381612142958e+01
-3.013314566152709428e-01 -1.160728249215766006e+00 1.727252750087308186e+01
-2.759363828193690527e-01 -1.051311158346939667e+00 1.743786067738037104e+01
-5.310493072329338204e+00 2.402728790398787062e-01 1.459008248584638068e+01
-2.946794573730850963e-01 -8.091810675690855881e-01 1.731363717550566861e+01
-2.912277912669358759e-01 -4.312902913987746167e-01 1.739302806048826966e+01
-1.506728398925047507e+00 -3.574530331890926060e+00 1.817687181811618302e+01
-2.921066874003011016e-01 -1.729502219168987942e-01 1.759897644766513025e+01
-1.474577022204091037e+00 1.826798402094856666e+00 1.705121081064080357e+01
-2.075380956288044310e-01 -1.404291712525690627e+00 1.788857516401600378e+01
-2.104819999442577583e-01 -1.600665697588055547e+00 1.784366753386919413e+01
-7.757179889625976266e+00 8.044604230872056672e-01 1.546546742876395086e+01
-7.776612776798253357e+00 1.740685605612608544e-01 1.567086789210988940e+01
-7.817214255833481396e+00 -4.310808756390382968e-02 1.582110960345620043e+01
-1.044516472006268515e+00 1.817521158187138663e+00 1.850122637550541782e+01
-3.929815294167767981e+00 2.168495538627912556e+00 1.314941052678301503e+01
-3.742762647920148567e+00 2.170900962888976160e+00 1.318836446500142046e+01
-6.074150184572307154e+00 -1.466518577123962608e+00 2.039120559515481546e+01
-7.378888022491181253e+00 1.710051647585835610e+00 1.568229893959784960e+01
-4.453108139771197571e+00 3.426296930704827659e+00 1.957515436951211996e+01
-4.473665622131319353e+00 3.703588953715165388e+00 1.929587374208268358e+01
-3.277334395915938003e+00 2.910931403486770819e+00 1.972135009751731616e+01
-6.916214874160080406e+00 1.814280384696781212e+00 1.484395007357068863e+01
-3.680664800316720608e+00 2.704002848829227368e+00 1.980462425808797633e+01
-4.827993185813006072e+00 3.043278858877644488e+00 1.968385372153110069e+01
-3.846445524098164093e+00 2.359283969363692446e+00 1.989380539279623150e+01
-5.158088751968766594e+00 2.332832773942311366e+00 1.375250001995590310e+01
-5.414043446707714757e+00 2.811367112408665658e+00 1.968277339337976173e+01
-7.876474513827848689e+00 7.424765270094797476e-01 1.584726130143501877e+01
-3.835673316267186550e+00 1.883030155094196578e+00 2.001235512232893399e+01
-5.215362687773380301e+00 2.020746637331311657e+00 1.986385496596133038e+01
-8.036477036973195709e+00 -1.052593049318208074e+00 1.653031737227074416e+01
-4.292541077896475876e+00 3.751209831751878276e-01 1.436173457195133807e+01
-2.451975215426218657e+00 1.732956601063804891e+00 1.995197068753056868e+01
-3.370637632790270288e+00 1.073532725210687211e+00 2.019258669587233612e+01
-3.567817703578710642e+00 1.053762884027098501e-02 2.040486122438876038e+01
-4.155594308884011490e+00 6.394207786626540102e-01 2.025475311572076720e+01
-2.324336329408832391e+00 -1.117073821347274176e+00 2.058457039092381535e+01
-4.468159319367064342e+00 9.255779438155766758e-01 2.018215538884240345e+01
-1.490503860340674613e+00 1.951986544648446564e+00 1.942622258974316907e+01
-5.400987062354009716e+00 9.818869014933324646e-01 2.006378098800667686e+01
-8.740343409841728750e-01 1.566389596904570469e+00 1.825603904101932073e+01
-2.335823017874304686e+00 1.190846690910304151e+00 2.005912375666243719e+01
-2.333879133148361262e+00 3.294890575522106957e-01 2.025794443015610824e+01
-6.000698162755839782e+00 1.161439965024018584e+00 1.993853696917166474e+01
-7.438913311488088986e+00 8.432137065281088972e-01 1.922571381802760015e+01
-2.008366675975830073e+00 1.092758218787548419e-01 2.024066888945220200e+01
-2.113674963537766516e+00 -2.631342352213636993e-01 2.034590886263826093e+01
-5.285620023168045911e+00 -1.268260435547290399e-01 1.512562731044276632e+01
-3.153722930583595208e+00 -4.155609420751860128e-01 1.516261530534915636e+01
-3.567367222101956337e+00 -4.177823157852538216e-01 2.049743406095677045e+01
-3.761831666600887303e+00 -9.598218611199333949e-01 2.057684516470592939e+01
-4.110786134377220513e+00 1.816424990149097862e+00 1.281190106876196211e+01
-2.553284809861742666e+00 -8.920259379277242218e-01 2.057232265107848690e+01
-3.895395833302444544e+00 -1.388988970254002364e+00 2.061316993234399320e+01
-4.839088508059066207e+00 -2.450861310295230577e+00 2.060658031229451126e+01
-7.135193081940173876e+00 1.135863489108326352e-01 1.972862493491930991e+01
-8.029582316387610774e+00 -2.177132753294213074e-01 1.880148481543309913e+01
-4.049052857325648347e+00 3.119082494903139935e+00 1.969722501403662562e+01
-3.893771662001406675e+00 1.410539588645775222e+00 1.315270796062015535e+01
-3.348321255495304349e+00 2.133623305224446209e+00 1.338696090186019205e+01
-3.774618312888047278e+00 2.322451624621922228e+00 1.397094704915117802e+01
-2.888815409365746767e+00 -2.129662283493223729e+00 2.070167360016243663e+01
-3.866257546336593798e+00 -3.161421642827657141e+00 2.060749665811759712e+01
-4.444061029696479537e+00 -3.192043192577358024e+00 2.059392385379329227e+01
-4.826898420585449934e+00 -3.435210880723230442e+00 2.054373297959860167e+01
-4.688056804477231054e+00 1.388631442607928257e+00 1.308444940733807726e+01
-3.168888085954390199e+00 -3.346169143464326812e+00 2.059106456454697565e+01
-3.634453902451583396e+00 -2.972381890124130788e+00 2.062772153176077694e+01
-4.676640667965702214e+00 5.558088087056973770e-01 1.414702507282824939e+01
-5.588159256949478682e+00 -3.456797608231111152e+00 2.045727024944383743e+01
-6.621849266835472925e+00 -2.883663149830370198e+00 2.035060590711788109e+01
-9.519391354230410940e-01 -2.352098445069381594e+00 1.724230818351711747e+01
-8.155500447900990935e+00 -1.947485219507358423e+00 1.915254699764665247e+01
-5.081535787157023698e+00 8.001823383124708755e-01 1.381012128028439179e+01
-7.667461737776961606e+00 5.086046950431593050e-01 1.907346910443219912e+01
-5.280189695633217717e+00 3.642421414926865886e+00 1.863900326682409769e+01
-7.188658858612325453e+00 -3.119874775598083350e+00 2.011977326200421601e+01
-8.172403564170714674e+00 -1.113532878724159403e-01 1.683459875267182326e+01
-5.094852674816642946e+00 5.507685915095041906e-01 1.416353491915420904e+01
-4.898909990674847670e+00 3.904556601754607392e-01 1.438317446117537202e+01
-5.130496244297654940e+00 2.034596711334124564e+00 1.292866234751862464e+01
-4.471699553339305133e+00 3.807676930420549333e-01 1.436830143105747482e+01
-4.101108996793833228e+00 1.996197164733430895e-01 1.458234393264305595e+01
-4.429703458815187567e+00 2.573757768935104107e+00 1.495361511709215563e+01
-4.452495100066650835e+00 -1.220447970024745032e-01 1.507436681125194866e+01
-1.306035061366435990e+00 -4.121968793816378707e+00 1.899795034979020869e+01
-7.883196455129305669e+00 -2.509687050457074520e-01 1.605081197465150922e+01
-8.264471048945690512e+00 -1.761411861005803381e+00 1.710670174174580183e+01
-3.205599504362401042e+00 2.106855141467330661e+00 1.344735453785967394e+01
-2.439300047178221131e-01 -2.461273401688689244e+00 1.860789493622498014e+01
-8.002938852042799311e+00 -8.921125859644973843e-02 1.640092762343820709e+01
-7.410747782867653122e+00 1.435309117899692399e+00 1.537259613081256759e+01
-2.947143040105522083e-01 -2.136030448741047305e+00 1.902130107859871089e+01
-7.055491598146471866e+00 2.509842854714518623e+00 1.668250584176158213e+01
-7.027112373384020394e+00 2.413268127176437794e+00 1.907031566895494734e+01
-7.286389699768958117e-01 1.159676733655981229e+00 1.763356833679394953e+01
-1.047206721000441654e+00 1.567636880027128976e+00 1.765819334611620661e+01
-1.822945379197276061e+00 -3.103825336609954189e+00 2.066665500562665869e+01
-7.335435246192148817e+00 2.167068939872609512e+00 1.641259287429911495e+01
-1.432057156398237829e+00 1.462658248485400492e+00 1.620281692297552212e+01
-6.729816451680993517e+00 -8.321617564868608596e-01 2.013253282406984113e+01
-1.849023031730246736e+00 1.454831282080329746e+00 1.502941882928702455e+01
-2.231390095419082176e+00 1.678877736235071971e+00 1.447428658569335624e+01
-7.673133830128324284e+00 1.530781993167957822e+00 1.850089778125910556e+01
-4.073840577996953094e+00 3.603516025773275011e+00 1.908223300102093134e+01
-7.323903685224144589e+00 2.498512023804321469e+00 1.704482645605677504e+01
-5.377369147584706077e+00 2.308433284032730626e+00 1.390364884164078063e+01
-4.100868922511228476e+00 1.599706449073686976e+00 1.295163977877174943e+01
-4.511151065484469314e+00 2.975769537933120823e+00 1.656210875347222355e+01
-1.822773658499165617e+00 1.895156223225815451e+00 1.622522176653198045e+01
-7.104810459241341469e+00 2.563905433586461946e+00 1.688307045371991677e+01
-8.255445637664951875e+00 -1.181099131324985674e+00 1.709266427542805644e+01
-6.948486121636729074e+00 2.855077177183200199e+00 1.733322660681660921e+01
-6.985528472837251535e+00 2.139190729558502202e+00 1.568967345570576555e+01
-6.888396583157976316e+00 2.375532952039168144e+00 1.607429875401404473e+01
-3.909294751514862831e+00 3.066020725483858733e+00 1.703928470003490503e+01
-6.929866632515998326e+00 2.688942267454234702e+00 1.691026206082683103e+01
-6.768252891220511991e+00 2.947656890475454983e+00 1.730982165114708238e+01
-6.618090353254628688e+00 3.264711725140300835e+00 1.790876022600964745e+01
-4.144973911158952973e+00 -3.759374633904579710e-01 2.044747658743932561e+01
-1.305999281359107478e+00 1.965028860045091808e+00 1.786782574369897247e+01
-1.505833997988115236e+00 2.358156017558109330e+00 1.861873604123019277e+01
-1.578666999101776547e+00 2.294227437827017546e+00 1.813840937513729301e+01
-1.410069980664915068e+00 1.662964029034412761e+00 1.680200461777128851e+01
-5.332502559995668356e+00 2.049758817851708326e+00 1.310324332997836905e+01
-1.599621986583390498e+00 1.670146535375874874e+00 1.624529130818392986e+01
-7.902947387723220807e+00 1.634719180273065398e-01 1.885084269754521813e+01
-1.757818786212649531e+00 1.524109596054893379e+00 1.540728138068979547e+01
-2.078399104773236861e+00 2.792899752932803015e+00 1.860347431140242946e+01
-1.509095937448827307e+00 1.798760656268433733e+00 1.687329140532209237e+01
-6.133252196444374249e+00 -1.929410932224909114e+00 2.042165837524063932e+01
-1.556997821343199195e+00 2.133975067410842197e+00 1.766755312256718469e+01
-6.369992267781914741e+00 1.806909851047445947e+00 1.383084105038177825e+01
-6.963939816037133745e+00 2.455629488069510646e+00 1.639808541217868054e+01
-1.812344266064479736e+00 1.835234895392449550e+00 1.607290119195522493e+01
-2.339725007842420546e+00 1.761180871172875584e+00 1.436827591144096061e+01
-2.118264934773808950e+00 1.766010620774666418e+00 1.496526260132058894e+01
-1.927660634325822464e+00 1.743273567981692862e+00 1.545329541941641338e+01
-8.154676683065272158e+00 6.182560405661827740e-01 1.730676770933639830e+01
-2.018235652193458129e+00 1.881025837362837239e+00 1.563025989234834867e+01
-5.976961818046132358e+00 1.880495228959260912e+00 1.342874950123706412e+01
-6.337587720176817818e+00 1.941161468885130192e+00 1.404734541496218014e+01
-6.553334508415740167e+00 2.043134740857359688e+00 1.467292762886952318e+01
-6.252464387958386105e+00 2.053578124866376697e+00 1.422430815346975663e+01
-6.448283492669292905e+00 2.331674907944992547e+00 1.528534970984128449e+01
-6.586365341242617966e+00 3.120060358667103628e+00 1.753277779378664292e+01
-4.084522271595258047e+00 2.688134642218842352e-02 1.481065845000708237e+01
-6.194259198573946357e+00 3.353496858339358067e+00 1.795361820046063883e+01
-6.860306292081275181e+00 2.848337339902860865e+00 1.719928697052755240e+01
-6.358940145045575143e+00 3.008890774999727569e+00 1.712753321632661851e+01
-4.273424559019662006e+00 1.008355814970840925e+00 1.355712792248935017e+01
-4.384073327359210737e+00 1.043280515748422843e+00 2.015970654914676885e+01
-3.997669250710814914e+00 -3.384916058368638847e+00 2.057398337490621287e+01
-5.585245541179056694e+00 2.282792556163606434e+00 1.407362168439091477e+01
-5.137839155765018262e+00 2.276942884188904781e+00 1.352227613137554840e+01
-6.082086748508097607e+00 2.559954331573484509e+00 1.551172912122433445e+01
-6.010760757597665815e+00 3.230073248030882915e+00 1.754943516297504402e+01
-6.093662075860560634e+00 2.761081408840128315e+00 1.615501790089259515e+01
-6.012659468753597913e+00 2.602278629934550391e+00 1.556428087317646458e+01
-5.736301215421700128e+00 2.463043134540759738e+00 1.480654884089177159e+01
-7.969399890492112171e+00 -1.877660525788598989e+00 1.946042157272638917e+01
-6.109677818524240855e+00 2.813507191631114068e+00 1.633771852407696201e+01
-5.967652422382115240e+00 3.044202598548136240e+00 1.692932032265369457e+01
-5.621206658007167789e+00 3.560513370084709805e+00 1.839504983861331056e+01
-5.886120291215895861e+00 2.635243190943872715e+00 1.552349346555320153e+01
-5.896629153770601484e+00 3.097697127004057194e+00 1.703715730932450612e+01
-7.142245585074916470e+00 2.821986385948165754e+00 1.749732188355019247e+01
-5.382127529849314307e+00 3.366379638387321460e+00 1.777360970178751387e+01
-1.944435689437162829e+00 2.681730522401474470e+00 1.849739229043954225e+01
-1.989204451279500407e+00 2.662822132705316314e+00 1.831060371566957912e+01
-2.817440165037194966e+00 3.217160067307222704e+00 1.890401617942620049e+01
-4.950951939554355974e+00 5.984911190308161988e-01 2.018338458810388403e+01
-2.000757657941812262e+00 2.460110553914832909e+00 1.771375910077030369e+01
-2.618133849320225082e+00 3.011050002830723216e+00 1.849876179522968300e+01
-1.915174447302484317e+00 1.987944879957706412e+00 1.627893370108674276e+01
-2.118122784767018540e+00 2.336663842986976380e+00 1.706454523103653287e+01
-2.779404605554844032e+00 3.015864399891531988e+00 1.828547119939746324e+01
-2.017562733059743429e+00 4.482582309255287445e-01 1.463788323051851847e+01
-3.724134738288395141e+00 -1.176106308192218730e+00 2.060254189042290562e+01
-2.166655877797010632e+00 1.945748333691955878e+00 1.542560268993939587e+01
-1.462600238706778466e+00 1.425786204945876712e+00 1.603204136658911239e+01
-9.102753407412733644e-01 1.534621460148410277e+00 1.806321635576186679e+01
-2.259923067240664274e+00 2.023103216256605830e+00 1.543643294989983161e+01
-2.431868549700423099e+00 2.281812180549098734e+00 1.603375000936934214e+01
-2.706962643591133144e+00 2.797382864469512675e+00 1.758338510193909343e+01
-2.967422163323253592e+00 3.100644588589967832e+00 1.825666777693047038e+01
-3.274323473976742171e+00 3.339342246253750091e+00 1.872707819718742428e+01
-4.115657843283582196e+00 -1.736936202113060101e+00 1.663711299042275016e+01
-2.987618413768074355e+00 3.026930352181454786e+00 1.789408549398943649e+01
-7.599387378906576451e+00 2.161495048793934615e+00 1.694628327208516083e+01
-4.749494498719919022e+00 2.308495947157008121e+00 1.356339863883990660e+01
-5.303561174360055475e+00 2.765560648695140955e+00 1.572892396110243141e+01
-5.220611132869302118e+00 2.578755471943320998e+00 1.494479276430842418e+01
-4.822038147330824920e+00 2.462967102856200352e+00 1.434938989175794433e+01
-2.632728652225647004e+00 2.150326504877304590e+00 1.482942820792441552e+01
-4.702001892423051999e+00 2.839398307181117520e+00 1.602413426254348394e+01
-2.797878591833914186e+00 2.105766068231999633e+00 1.422562528534635362e+01
-2.905896494008436193e+00 2.733618384897600784e+00 1.685548750452925759e+01
-3.126989965714433772e+00 3.022288976207223588e+00 1.767252913895296729e+01
-3.678845130566875454e+00 3.501309757615215901e+00 1.888322326404562546e+01
-5.483480096923604385e+00 2.883393950181291743e+00 1.617479034328495402e+01
-3.670909317997433696e+00 3.457612078679126011e+00 1.866193276167165038e+01
-6.683279323266007488e+00 -2.943506946405427538e+00 1.724239310620470889e+01
-3.583796655564695399e+00 3.258530169507592333e+00 1.809668713570020770e+01
-4.255012521650002988e+00 3.561915092313277853e+00 1.866666473838083817e+01
-3.474100299973736483e+00 2.817216993494910504e+00 1.642905637515427486e+01
-4.227924411640852753e+00 3.334290458554085568e+00 1.790027914360336325e+01
-4.617867947848919741e+00 3.505485896351956399e+00 1.824095330486876065e+01
-3.014478862644977220e+00 2.237827973525844616e+00 1.426224198094833184e+01
-4.171563317542773319e+00 3.265657208769573661e+00 1.765085621036770647e+01
-4.184608011998300903e+00 2.516828436676425085e+00 1.474602502074552746e+01
-4.251134364477032079e+00 3.642152928571074089e+00 1.910995688519977875e+01
-3.119742731990878148e+00 2.212308972142603025e+00 1.397330150794495296e+01
-3.562995618316758595e+00 2.339507738858833008e+00 1.417941589041249273e+01
-4.119608803296311628e+00 2.922345774567882692e+00 1.644920936176431780e+01
-4.438772564422681643e-01 -1.755189205013318432e+00 1.963432321202741093e+01
-4.184263998734702561e+00 2.405318200991119593e+00 1.415954995349208190e+01
-2.187481348391111968e+00 1.549845010305454185e+00 1.439683954796009857e+01
-3.043200507709505231e+00 3.102614050643307309e+00 1.962586973573323945e+01
-3.670246381175083172e+00 3.090077378770160088e+00 1.969832457222645417e+01
-4.446933597019207873e+00 3.256038310550287473e+00 1.964192795133777736e+01
-2.885458168573909354e+00 2.745762887406595354e+00 1.972948416329665378e+01
-3.663110854398314409e+00 2.482931232439425262e+00 1.986088393185951873e+01
-3.234044266021616210e+00 2.280061116265102772e+00 1.989378237142911132e+01
-3.460417048792542971e+00 2.706236551796425971e+00 1.589084165258321235e+01
-6.316183111789562155e+00 8.586254939123707519e-01 1.991712246862642388e+01
-3.628816190511721551e+00 2.253740919940115273e+00 1.991908845670064210e+01
