-6.801735359974049322e-01 1.027626489925070441e+00 1.576727610065414709e+01
-3.563296801270817493e+00 1.318177367787422227e+00 1.712128614249734326e+01
-6.904036315848662397e+00 8.289244215180152642e-01 1.254893559785363166e+01
-5.289243138022597712e+00 1.228651637438554545e+00 1.683627046622167356e+01
-7.675503893550422063e+00 7.832211853280958147e-01 1.336152636235009439e+01
-7.833290756841502223e+00 1.174228731325660746e+00 1.553106504651946196e+01
-2.966052643044851944e+00 2.985123723580297428e-01 1.762000006606310265e+01
-8.911662886887694590e-01 3.157461884479331182e-01 1.360865784472103357e+01
-6.764013366570649666e+00 7.284247458550737742e-01 1.667366111922201455e+01
-7.976994350693991542e+00 7.827581208521093847e-01 1.408791601261754423e+01
-7.908642611733149863e+00 8.002490850930893407e-01 1.387084512384860702e+01
-8.194777381626661139e+00 1.780378406823185378e-01 1.465664885634165771e+01
-3.144065305090484319e+00 -1.102186736424678681e+00 1.806078301520634355e+01
-3.359133233462531010e+00 -1.096951331538208008e+00 1.803524119787238433e+01
-5.440222651702418588e+00 -1.005917064378607506e+00 1.773706623034673058e+01
-5.333462528166365013e-01 2.472544252741387671e-02 1.387737608655097077e+01
-5.528747531581077013e+00 -1.125534057006486455e+00 1.776275840832733977e+01
-5.473236210480202368e-01 1.814906028587642828e-01 1.567943689672108931e+01
-5.640301454448071183e-01 3.527118413402874353e-01 1.567827518293811195e+01
-8.076144840732139230e+00 -1.228656436983015743e+00 1.439886705775289855e+01
-6.380603781297453647e-01 -2.300551755731964132e+00 1.694615576252326505e+01
-5.980760322413321006e-01 -2.250808051157389578e+00 1.660812364127579954e+01
-6.438477863239374654e-01 -1.901170198852872861e+00 1.682174969473242143e+01
-6.062790526923889090e-01 -2.035934006103549798e+00 1.641536799524659429e+01
-6.619482647781931295e-01 -1.247496434395731990e+00 1.686084957664943929e+01
-6.179675835721640809e-01 -1.625467912346299393e+00 1.641775053807193174e+01
-6.312892225147052061e-01 -1.606947215713038446e+00 1.659575938294629438e+01
-6.348169089342661220e-01 -6.303066331200413153e-01 1.664882725087753457e+01
-6.106868189596605934e-01 -4.376388581787256093e-01 1.645678182235910114e+01
-5.732826668477390974e-01 -1.053173979122359549e+00 1.609793396263384224e+01
-5.061792872707356894e-01 -1.000237859526305284e+00 1.542388987139274192e+01
-5.452161871013121441e-01 -1.199715578376299385e+00 1.579751556177275873e+01
-5.416127633782765738e-01 -8.072818286493799178e-01 1.585636308069446798e+01
-5.804616641402908783e-01 -4.044197059115284265e-02 1.610619662087263393e+01
-5.954547053233009146e-01 -2.083728895869892683e-01 1.629613549869523226e+01
-1.084407660806280926e+00 3.417648573475121632e-01 1.339542138395254867e+01
-4.404704532554006291e-01 -5.443431088180989974e-01 1.506060738564227464e+01
-4.594973794900245045e-01 -6.604240213040423191e-01 1.507402246059817585e+01
-5.458410467771314112e-01 -2.119743854782131787e-01 1.587565107818344856e+01
-6.051098213326135955e-01 5.852851361394569851e-01 1.571897959583549564e+01
-6.498318813001158212e+00 3.725733440777146965e-01 1.193361400720390009e+01
-7.576851347350986643e+00 1.002359431816571167e+00 1.328887410067271091e+01
-3.762986071117506159e-01 -1.633559168830831798e-01 1.465665240829073568e+01
-3.887954394243239298e-01 -7.304110915485440003e-03 1.467102348454308824e+01
-5.916368119875896614e-01 9.655974622816015929e-01 1.529320651143020982e+01
-3.917783689857836094e-01 4.456895466557214691e-02 1.430306523144481545e+01
-3.768333019243645388e-01 2.664120126669083932e-02 1.446936847394027481e+01
-4.750830383331386964e-01 4.412418342319940345e-01 1.490052557882352957e+01
-6.369817622019415815e-01 1.204996310485483946e+00 1.530060550684078535e+01
-8.080973499050189801e+00 -6.095211617758071743e-01 1.426662800709675949e+01
-8.044587943523895390e+00 -5.725596842731854874e-01 1.414976873417719005e+01
-7.768743985748516323e+00 -4.361200455586795033e-01 1.347593225975379383e+01
-7.944064586589711041e+00 -2.400966194172231005e-01 1.387079909609552075e+01
-5.898306043386817521e+00 2.381714556242001013e+00 1.281876571540717080e+01
-2.595640687067799934e+00 3.040457432001565152e+00 1.430071442450136132e+01
-7.612410719813500037e+00 -1.786469762151797203e-01 1.305329145190828299e+01
-7.783530647360715093e+00 2.090205152535224986e-01 1.347390715791246762e+01
-7.873013264969114466e+00 7.831494498586055730e-03 1.367152983845916125e+01
-7.501021400932494920e+00 2.232624703099621577e-01 1.286957235261787602e+01
-7.759796365810521124e+00 6.227239855672600521e-01 1.346160517810163881e+01
-7.670370668815466253e+00 2.323309041176641054e-01 1.321797756680410529e+01
-1.249081447903285236e+00 1.160186714728996815e+00 1.397719870989664415e+01
-7.483705168095651672e+00 4.092903958045738255e-01 1.293683474988178617e+01
-6.570712384719313626e+00 7.566913242444139875e-02 1.185655790836111834e+01
-6.885929758258999556e+00 4.020205898131412603e-02 1.212522627456438684e+01
-5.301378134585857937e-01 8.241297991897719166e-01 1.489662671513916692e+01
-4.943966070858960560e-01 6.189649108297546887e-01 1.451243188602467526e+01
-2.283166490415216465e+00 9.245653557509961873e-01 1.244170575840088944e+01
-7.828526177175033629e-01 1.572977812083406590e+00 1.513050670570242673e+01
-5.621880012769120416e-01 9.793421198860426946e-01 1.491521406728700683e+01
-5.981353790282996741e+00 4.016762883354015656e+00 1.412998769543967725e+01
-7.587780434099782312e+00 1.626274098778560884e+00 1.369484218701260048e+01
-6.761321682981162873e+00 2.458818073225331746e-01 1.208284074142312292e+01
-7.121639554634749736e+00 4.395741696658554964e-01 1.249548292079928657e+01
-5.800219486815312298e-01 2.162658892440014746e-01 1.390372237691920887e+01
-7.021170914440038047e+00 1.106190947136293179e+00 1.281630593320446465e+01
-7.495681960940007826e+00 2.182802095030153655e+00 1.398062341598580005e+01
-6.799004662489553930e+00 4.776756571217046776e-01 1.224371866213013860e+01
-7.354869375579699664e+00 1.419745576828059797e+00 1.329942825938327289e+01
-6.645204882882493891e+00 2.701195528512761790e+00 1.347699483993041625e+01
-2.085849096569450278e+00 1.344884259000315385e+00 1.308393668650849762e+01
-7.138495238493824502e+00 7.886159901687607165e-01 1.272078253888203037e+01
-7.102736935369320825e+00 3.309899338928599111e+00 1.423970798589188647e+01
-7.212227526883259188e+00 3.005927486240726143e+00 1.415262225735088109e+01
-7.270728878561941499e+00 2.758148795106104778e+00 1.403630293499321269e+01
-7.300015585152737962e+00 2.365905924802538696e+00 1.381194530178553848e+01
-7.208986419090376074e+00 1.250989820160123500e+00 1.306634072429790550e+01
-7.266585111390954310e+00 1.327838927297621652e+00 1.316411562026868509e+01
-6.557872038875673937e+00 4.902492606340127512e-01 1.205494417184729272e+01
-5.991695935146792884e+00 1.013506930521003158e-01 1.140876927957634734e+01
-7.229994650716470517e+00 1.878509540829986335e+00 1.345875565665322782e+01
-7.155002510924993508e+00 1.422994350158242494e+00 1.312178861252571593e+01
-7.019359850331330364e+00 3.003555485724575203e+00 1.392293203983558314e+01
-6.792709254072414105e+00 8.370019388398924898e-01 1.246102478765851274e+01
-5.137213656223631020e+00 1.662054514876087463e+00 1.187450977551868192e+01
-5.963182247146384007e+00 2.846444850291763862e-01 1.145274491094880531e+01
-6.405021850636950731e+00 6.513039637921395064e-01 1.202093431546358104e+01
-6.719350239310018402e+00 1.003317126574706286e+00 1.249872766568178761e+01
-3.260028457993517925e+00 4.377000682037902379e+00 1.508571754907778129e+01
-5.927266934223784034e+00 4.892787959210742610e-01 1.151033761999559601e+01
-6.952618929588866514e+00 2.020806603175098637e+00 1.329075646816383838e+01
-5.543716560804536897e+00 4.693707395516878655e+00 1.495910350206500894e+01
-6.820671134633280452e+00 1.459220271943393321e+00 1.285182239190302411e+01
-1.232300948446350741e+00 1.942601387953445613e+00 1.479978714097283543e+01
-6.732210823267215538e+00 1.429870577350575100e+00 1.275711094609512131e+01
-5.389404018277899944e+00 3.112765514854273219e-01 1.100423457091729773e+01
-6.388357535315837943e+00 1.080852782723305427e+00 1.225504601507402569e+01
-7.718692759903236222e-01 6.016583372876493918e-02 1.349471627529768014e+01
-7.501515681187739260e-01 4.373544192340858006e-01 1.389689009623921478e+01
-9.538816011217069457e-01 2.565159849937069803e-01 1.347282806081724615e+01
-5.815977466923984984e-01 6.273165357591045099e-01 1.430872421520038884e+01
-7.694253369939190179e-01 1.034139073651841656e+00 1.450810559218270512e+01
-1.038485001036432376e+00 2.149771150031035472e+00 1.537131710435580700e+01
-8.144664881067309459e-01 1.350912154679215327e+00 1.477325132456249079e+01
-8.850547406279550833e-01 5.071106318806447577e-01 1.381261125327953820e+01
-4.231640455651316302e+00 2.663999608714973100e+00 1.284298437389125169e+01
-1.219957815921477451e+00 2.274111224885466687e-01 1.312218221045578659e+01
-1.011074085298954373e+00 5.789997934409572000e-01 1.372739570969358525e+01
-8.738490150299507153e-01 1.104535935726109752e+00 1.444155794417746463e+01
-9.456749383136675569e-01 1.036679456394126841e+00 1.427592267777877666e+01
-1.108361541724381949e+00 2.197299357974379141e+00 1.529767690314555395e+01
-1.014653266820720434e+00 1.956674397015798927e+00 1.515098197701743388e+01
-9.951603961138647536e-01 1.775428235737377403e+00 1.496635184201462110e+01
-1.352379600484479472e+00 1.244729019832293559e-01 1.285332584865010475e+01
-9.902925928369543662e-01 1.578830230711974369e+00 1.476213321614849505e+01
-1.196651418168974024e+00 1.039844041562443255e+00 1.392751440897282933e+01
-1.022732136447199736e+00 1.204197246673456512e+00 1.433844773878532308e+01
-1.782987894804814566e+00 2.671496952458793928e-01 1.230726586079633122e+01
-1.531684796092674494e+00 2.809626137715286465e-01 1.268450940519170800e+01
-1.848461951124420910e+00 3.143176373846672256e+00 1.519913220034810664e+01
-1.945780354226457343e+00 2.672113556373174603e-01 1.207712930055894063e+01
-5.236610569936892556e-01 -2.060289716204203314e-01 1.568442992269615743e+01
-1.123978731669009523e+00 8.621235731094941679e-01 1.385120188950802245e+01
-1.370845332323608723e+00 6.556893687319086395e-01 1.329103512834138812e+01
-1.188309518440303636e+00 1.224272280884858510e+00 1.412704692404615159e+01
-1.112795812187654221e+00 1.656068432331007756e+00 1.467052869710688512e+01
-1.191215863471915881e+00 2.200726863396811783e+00 1.516316551911220145e+01
-1.782088131944270959e+00 3.188113434260453793e+00 1.538501193520935217e+01
-1.448239412623765654e+00 2.733998620974529281e+00 1.540896954763710980e+01
-1.434972266694923393e+00 2.571987553626512213e+00 1.519541953024883796e+01
-1.213837339635896573e+00 1.532770142187638296e+00 1.440726358488927517e+01
-1.166403638352739636e+00 1.791807732945344345e+00 1.473553320337841299e+01
-1.383129524151000878e+00 2.045034287857004252e+00 1.469539284335408169e+01
-1.509839844081988680e+00 2.660759675051665329e+00 1.517306349985025449e+01
-1.356490252954367204e+00 1.427023136649713919e+00 1.410063985099961670e+01
-1.347843334729137865e+00 8.593135171370954728e-01 1.353148719037737990e+01
-1.714035223342438519e+00 4.977095665705617566e-01 1.264503311990619139e+01
-2.406055977030697512e+00 2.897766830579661113e-01 1.151946147662577502e+01
-1.541705279978104581e+00 1.272257044907677326e+00 1.368027888564283856e+01
-1.898060259855252729e+00 5.586283470196444778e-01 1.245545027778495140e+01
-5.732210944378626216e+00 1.034138205391634813e+00 1.681037078511966243e+01
-1.716282231707665140e+00 9.062245710972868240e-01 1.306277362681895582e+01
-1.528693349223874121e+00 2.063223363442752589e+00 1.450633311647822765e+01
-1.555491714881576781e+00 1.691186355814430442e+00 1.408824067213001641e+01
-1.614019380954529126e+00 1.230510530289195437e+00 1.353591794416647431e+01
-4.198620590957111709e+00 4.864218349028996968e+00 1.499390338350893970e+01
-6.957932261908199578e+00 3.174004320607065832e+00 1.398351250474486918e+01
-6.728251004911145472e+00 3.764644825395770056e+00 1.425503744063617617e+01
-6.859435067472428038e+00 3.446218166226002744e+00 1.410705725391115450e+01
-6.820196297914354666e+00 3.193176581873057973e+00 1.390717587954048540e+01
-4.031835186624483036e+00 2.187642422234107986e+00 1.242833218438141429e+01
-4.384264563176665241e+00 3.648160206387024651e+00 1.380451636881100441e+01
-6.799146436626815060e+00 2.230000231459444482e+00 1.327689179641656025e+01
-6.750386411278965326e+00 3.394530269668361466e+00 1.400273876786235761e+01
-6.469836098872508323e+00 2.158757660532653500e+00 1.299624394434419017e+01
-1.702552505869707522e+00 2.506416801857094256e+00 1.470763356880331330e+01
-1.958414067870196007e+00 3.401733134061748043e+00 1.535748059220189177e+01
-3.797635024861348629e+00 3.606072855234795593e+00 1.402186032936608839e+01
-1.743873659404222565e+00 2.614347423951751459e+00 1.475882677199087212e+01
-1.831724394235090481e+00 2.765084085414435400e+00 1.479213082417744474e+01
-1.597591953029620537e+00 1.820854497472879086e+00 1.416020640377561435e+01
-1.709588853275037623e+00 1.684386115995581523e+00 1.386667641937429707e+01
-2.322357709448342966e+00 3.245548462495503550e+00 1.472751177790980748e+01
-4.196544579710705491e+00 2.124802111833710150e+00 1.230840075193956196e+01
-1.712681538798526804e+00 1.309837343819467925e+00 1.348154865206408815e+01
-1.893251687516103621e+00 9.406666709367615953e-01 1.286427546054222759e+01
-6.602924021092941409e+00 1.862509835663201052e+00 1.289732180627410330e+01
-6.512675915196241228e+00 1.807828297508082827e+00 1.279188334051950804e+01
-6.583123537699702155e+00 2.234302787502925547e+00 1.312216236858552421e+01
-5.964114388864704352e+00 1.085565346950407850e+00 1.190371546061684072e+01
-6.409825110683155636e+00 3.232686060366491088e+00 1.372952997771841055e+01
-5.638159528333469339e+00 7.410206102912711978e-01 1.142382349351524340e+01
-5.905502248961090217e+00 1.228930294943407109e+00 1.195264121575391414e+01
-2.157564421836767998e+00 6.843164893710759200e-01 1.228261567294780932e+01
-2.109678207795782967e+00 3.455973062199551915e+00 1.517931297389978695e+01
-6.174456629886838854e+00 4.245217252760735249e+00 1.437191424075480128e+01
-3.353172540044665251e+00 2.545781245784951574e-01 1.072590420070558892e+01
-2.541722540990985824e+00 3.667230532260385978e-01 1.147402092053484068e+01
-2.757058271133110416e+00 3.464860272630954086e-01 1.127717319799460682e+01
-2.939386426254214868e+00 2.325106075946262507e+00 1.330367518421416761e+01
-2.498001464160774621e+00 5.763156948898252585e-01 1.183149143797963276e+01
-1.946270395873767267e+00 1.057960328757002966e+00 1.293292400842445389e+01
-1.788034278413643374e+00 1.442136085001708867e+00 1.352094085548951696e+01
-1.931127459780582978e+00 1.238582743182384593e+00 1.314175034106677131e+01
-1.920233007615584464e+00 2.642331425300597392e+00 1.454096463281769402e+01
-2.967170039115599955e+00 3.158815811359775294e-01 1.107635514649240704e+01
-2.767004760374191186e+00 4.849094935669419071e-01 1.149127376524063493e+01
-2.545266124615556347e+00 6.761794512927034040e-01 1.192021144609699945e+01
-1.936648834598108104e+00 1.431451792540788581e+00 1.333451695643263335e+01
-2.167465547965720329e+00 1.272796873291260678e+00 1.292871271715889137e+01
-1.965929978777218423e+00 2.057562421958200716e+00 1.391996374256059354e+01
-2.714638671442709317e+00 5.669553856027067518e-01 1.164447768622506274e+01
-2.766916373645960103e+00 6.510735696658999094e-01 1.171239619345060134e+01
-3.945537041104490328e+00 3.301536200953227862e-01 1.063627610984619309e+01
-2.093721740754074467e+00 1.724854024075430203e+00 1.345730575485209002e+01
-2.976898166066614060e+00 6.519612331951553097e-01 1.155052740849394510e+01
-2.592351576818239689e+00 8.671083315746058728e-01 1.210771463478608112e+01
-2.372657622474997119e+00 1.066986887275076956e+00 1.251906653673492897e+01
-2.220630309045254602e+00 3.578959501833839152e+00 1.519380004421175201e+01
-2.030032979380005820e+00 2.400817521468233462e+00 1.418363939207287316e+01
-2.106089591010011919e+00 3.050055147761443486e+00 1.473810044670198849e+01
-3.410088202735563012e+00 4.179282585147140239e+00 1.478560173223983654e+01
-6.552566939712177962e+00 2.835684410614002893e+00 1.351721573355623107e+01
-6.353636672147291442e+00 1.847356334870874583e+00 1.270204508291780954e+01
-6.509537270565182610e+00 2.400416468888614041e+00 1.318636099205633272e+01
-6.366591931858367026e+00 3.613322957082310438e+00 1.397514622044746702e+01
-4.534760114869410330e+00 1.439972669648223125e+00 1.157114172638716809e+01
-6.362208739453608430e+00 2.449476008186246112e+00 1.313893003747518762e+01
-4.428674283733020078e-01 1.025573540888452539e-02 1.504082981470696367e+01
-6.402115011976345471e+00 3.023718416276097276e+00 1.357638558455771616e+01
-6.133649589209801967e+00 1.608499307947978352e+00 1.238291373171132292e+01
-6.321002540556100335e+00 2.000833391713541687e+00 1.278741197516468375e+01
-2.531840403869133560e+00 3.842759909797644369e+00 1.515976102658718006e+01
-5.109277404242847709e+00 4.934913897679922279e-01 1.089565638847746243e+01
-8.267287043858178031e-01 -1.573227526826714295e-01 1.336340479444478646e+01
-4.600435871767566631e+00 3.474620196658256832e-01 1.062020349939118447e+01
-6.413473382925384492e+00 3.839022006919734942e+00 1.415350214828302811e+01
-5.454614084714186184e+00 2.903575309283736861e+00 1.309124071083877183e+01
-5.798047984758444073e+00 4.412045728434267566e+00 1.441730883546476960e+01
-5.374566554955995556e+00 4.023714705973032046e+00 1.402758930576860408e+01
-6.185086345082963177e+00 3.792624886564643916e+00 1.404220983633514308e+01
-6.433400301616123862e+00 2.879115549644585492e+00 1.348581302906080381e+01
-4.167243379064894171e+00 4.222693678974159148e+00 1.441934515591611543e+01
-6.142316126419296474e+00 1.826752349976523693e+00 1.254547537765885679e+01
-5.207698198742407136e+00 5.722377274972670902e-01 1.099784848031708506e+01
-5.810372473988749675e+00 1.154862571020436768e+00 1.183093907717125504e+01
-5.947471300732476429e+00 1.436797891184296905e+00 1.213030569361542277e+01
-6.010053528664153433e+00 1.548131815837486602e+00 1.225338387006630470e+01
-5.142088452773504237e+00 7.165945302782373849e-01 1.104173855031696405e+01
-6.158777521322322812e+00 3.405355964727990958e+00 1.375372702640384048e+01
-6.200695849938843374e+00 3.043053892916421699e+00 1.349999843664549459e+01
-6.320063858234719945e+00 2.584825275094004393e+00 1.321603872469140484e+01
-6.173179483364492626e+00 2.840931026017357475e+00 1.333084173080213120e+01
-5.896921138604664492e+00 3.973409720426674063e+00 1.407292459117848793e+01
-5.981997630391004961e+00 3.465419001075389804e+00 1.371948479287989997e+01
-5.942838289041808331e+00 2.029430361820076190e+00 1.257078528636295189e+01
-5.944247111206889755e+00 2.248447041036461425e+00 1.274181284274856907e+01
-5.957392669757702208e+00 2.459857882909882498e+00 1.291470828416074212e+01
-5.832430032388899122e+00 1.722006950285696281e+00 1.226372001172070370e+01
-5.615180739987249758e+00 1.350761728374532566e+00 1.183312424959022380e+01
-5.781113578533132014e+00 1.856220093716031361e+00 1.233431868637328321e+01
-5.307631119963159172e+00 1.027925066108625884e+00 1.137283326969898312e+01
-5.554415885598998237e+00 1.278066279406774974e+00 1.173566844719194791e+01
-5.143189955876932729e+00 8.673645495630456503e-01 1.113428865979075155e+01
-5.779681398019287819e+00 3.959963983146558952e+00 1.402655129515425969e+01
-5.815817714504741609e+00 2.283019352542864144e+00 1.269194606210687581e+01
-5.687128746018532688e+00 1.780037021625024529e+00 1.221373570467466507e+01
-5.371142552065624187e+00 1.477525978567969744e+00 1.177080941787215451e+01
-5.553759743677619376e+00 1.821783276457349832e+00 1.215759321591538722e+01
-2.381397085548021320e+00 1.479006813862882463e+00 1.293685451012985865e+01
-2.493425491813281436e+00 1.113467412781009358e+00 1.246065431886774988e+01
-3.142210754733196332e+00 7.116115169328972589e-01 1.149331034561402731e+01
-2.219107168838361233e+00 1.578038648759613860e+00 1.318751885409767155e+01
-2.130871987024423042e+00 2.261626716203438914e+00 1.394326334061220862e+01
-2.234808507306056846e+00 1.841090401267477361e+00 1.342898344285131529e+01
-1.465735570559119294e+00 1.132248933474352626e+00 1.364459088160302613e+01
-2.574161547997421806e+00 1.059459913742934134e+00 1.233401533604347478e+01
-2.157445179600346208e+00 1.652189574984732179e+00 1.332204570164836710e+01
-2.942061571297485578e+00 9.135611314870358823e-01 1.187343221853783248e+01
-2.792642537580779738e+00 1.028118640189005006e+00 1.211674065869342698e+01
-2.392869534839937806e+00 3.600097088275534318e+00 1.502713528676641985e+01
-2.384753775541918142e+00 3.384842890594175646e+00 1.481098662639596952e+01
-4.511663840984133422e+00 5.219034931829917845e-01 1.067197655379165866e+01
-3.170393555817683229e+00 4.406998723013947128e+00 1.519135354642708435e+01
-2.820526863113640204e+00 3.970198665929972393e+00 1.502752577355106567e+01
-2.243907777449687835e+00 3.114312028223825912e+00 1.466665492055721742e+01
-2.510593755249936443e+00 3.387419903999698612e+00 1.470775045979907603e+01
-3.045700249422953476e+00 4.199634133501288780e+00 1.507407189844838413e+01
-3.357397105127258197e+00 4.387311398501497983e+00 1.502528275332605645e+01
-2.366059722826930223e+00 2.863243073843938280e+00 1.431581889151032883e+01
-2.577656567466756421e+00 3.144387882231359121e+00 1.441688879626572017e+01
-2.780371065046869816e+00 3.433180174952621844e+00 1.453899573779061072e+01
-2.564383441120187790e+00 2.849811306072770112e+00 1.413782158044375947e+01
-3.327543727394751460e+00 4.261813173907356145e+00 1.492931671067432475e+01
-3.269682013049940661e+00 4.135978136532712846e+00 1.485168959954762258e+01
-2.447461926243360786e+00 2.220919465138256665e+00 1.361245416822805865e+01
-2.424885893803984338e+00 2.594973422633028548e+00 1.399973870885052563e+01
-2.494643371615728800e+00 1.505255041548239081e+00 1.285974313321532136e+01
-2.952600947059339731e+00 3.611243102755478773e+00 1.457885067547218583e+01
-3.192894088791662366e+00 4.006096517181659600e+00 1.478037608525699298e+01
-3.193650379951554097e+00 3.813243191482733607e+00 1.458952101743202334e+01
-2.566218166916096166e+00 2.066617725228302671e+00 1.335692377359575644e+01
-2.638566688301513974e+00 2.572989646403335051e+00 1.380112402338028588e+01
-2.782758473168051694e+00 2.645242831558520802e+00 1.375431067931307538e+01
-3.398125619423665977e+00 3.983909269756995997e+00 1.460470116725160139e+01
-8.246361620574338858e+00 -2.588402808957360079e+00 1.621748032007181806e+01
-2.780443089346985364e+00 2.229616035736314394e+00 1.333868820684952183e+01
-2.824586966715093350e+00 2.954847349801284384e+00 1.403009436640153140e+01
-3.116767505675058114e+00 3.462266850078934421e+00 1.430175150147265484e+01
-2.930487506357257299e+00 1.292295660663602686e+00 1.227231935809897223e+01
-2.742893065325414437e+00 1.520548676566357393e+00 1.265920265426845148e+01
-2.920733839211581806e+00 2.718944280386711210e+00 1.371490782782552387e+01
-3.056587354029110859e+00 3.179807097332723043e+00 1.406736948683051125e+01
-3.401898958701806919e+00 6.156675126757362726e-01 1.118573908085176427e+01
-3.354250459741698887e+00 6.963579491584553915e-01 1.131144447253799612e+01
-3.012052094826103144e+00 2.245924682846968778e+00 1.316574946420408665e+01
-3.363800359646432536e+00 8.892261930645081192e-01 1.150721523640943644e+01
-3.156058972119936801e+00 1.299563662549165777e+00 1.209407070316558119e+01
-3.017738178870556176e+00 1.651668264107863937e+00 1.256223775610457594e+01
-3.149322260160502207e+00 1.504563423639605713e+00 1.230729445537796707e+01
-3.557319123183894760e+00 8.867747758892191579e-01 1.135329606389839796e+01
-3.764044492219495552e+00 6.462821749122321657e-01 1.096575540269143545e+01
-3.362567071531874063e+00 3.672822296367092676e+00 1.433440170538779412e+01
-3.196845892771555953e+00 3.211369450464323982e+00 1.399740307136851314e+01
-3.182384829191163611e+00 2.800437594061889968e+00 1.359969924849169232e+01
-3.141049254847217309e+00 2.882926034967418616e+00 1.370947538850867531e+01
-3.587889918342162865e+00 4.268116169808373606e+00 1.474487091089335067e+01
-4.198258223483109397e+00 4.765740065894195077e+00 1.489023362945168216e+01
-3.787268275593985489e+00 4.422281951250958798e+00 1.477618041381870384e+01
-3.715364734265458768e+00 4.087780068636909903e+00 1.451936577932385219e+01
-3.607852816431500909e+00 3.732805928447810118e+00 1.425444237501511324e+01
-3.130422815299399364e+00 2.281104442759111617e+00 1.311177107164191469e+01
-2.085483374576258875e+00 2.326590161777236876e+00 1.405159531908855897e+01
-3.126457128289974463e+00 2.480923226346138488e+00 1.331635620249951657e+01
-3.177761105084486282e+00 2.006941053835760602e+00 1.279679710959808503e+01
-3.156990120880817319e+00 1.694901173251890381e+00 1.249447087859468652e+01
-2.493829678566314989e+00 2.115740210093073337e+00 1.346818086287882821e+01
-3.181455539534971955e+00 2.198945377289813319e+00 1.299049018626941532e+01
-3.286153537820409198e+00 1.761259057459516608e+00 1.246200071545161947e+01
-4.006876671559282954e+00 4.175238322950370673e+00 1.445979526694554451e+01
-7.096155944521679970e+00 5.698358993223878732e-01 1.254474581399247413e+01
-3.355485807953961341e+00 2.668221464134090670e+00 1.334815173118784415e+01
-3.593910165962712178e+00 3.209630687652322845e+00 1.374641037772424923e+01
-3.352278107672567842e+00 1.889051294715239582e+00 1.254483414009012776e+01
-3.411435944012419785e+00 1.800576748384730141e+00 1.241030538433696151e+01
-3.787097261811764870e+00 3.198119380802245448e+00 1.361090391144105993e+01
-5.552394164818496236e+00 1.493363981988517164e+00 1.189987410550972768e+01
-3.591491533488210486e+00 2.261124477311062808e+00 1.276314940000616716e+01
-3.416719465620109641e+00 1.584327009583737844e+00 1.218174489537033267e+01
-3.945707967969481977e+00 7.020105216937356785e-01 1.089619810430540525e+01
-3.590945346789264470e+00 1.086428398517592431e+00 1.153429223879413357e+01
-3.973325034247411569e+00 3.626171618381805573e+00 1.393845857762012130e+01
-4.372409556748525716e+00 4.258130099178454309e+00 1.436597516445611333e+01
-2.994400364507845413e+00 1.048960597493563185e+00 1.197172806921475186e+01
-3.597252228620321901e+00 2.641270368920975997e+00 1.315661688140369634e+01
-3.765496459044411104e+00 1.525375875589078056e+00 1.186951659438978623e+01
-4.765988835432501958e+00 4.773638472577733660e-01 1.072376702758055345e+01
-4.762925152256857864e+00 7.375156942110033809e-01 1.088452337172953577e+01
-5.172168408711608656e+00 1.089533698250303217e+00 1.133340570706970141e+01
-3.814939183153691182e+00 1.085019730700050644e+00 1.136546500521050618e+01
-3.870937318357725587e+00 1.187300814507433966e+00 1.143479065172518361e+01
-3.756619376892766926e+00 2.798881028256882786e+00 1.321925898710428626e+01
-4.943711900589781827e+00 2.005281937620721600e+00 1.218584016111331536e+01
-3.779790189481378349e+00 2.495371142412956544e+00 1.289020122176604488e+01
-3.795223805528526118e+00 2.992237652427435890e+00 1.339473484479561094e+01
-5.163459057592733714e+00 4.646083613403471091e+00 1.458539307502467963e+01
-4.610962198451010963e+00 4.716146828114776035e+00 1.470829288017891301e+01
-4.542446321797944719e+00 4.488903578984462683e+00 1.451878871472366583e+01
-4.619299015253576890e+00 4.398746455026556035e+00 1.441794641014181977e+01
-5.141009958734765739e+00 4.526677664036756532e+00 1.447656458215714892e+01
-4.540470386482914122e+00 4.273796914461578389e+00 1.433209071877057639e+01
-4.766527428110462594e+00 4.509792666028626051e+00 1.447360945380961894e+01
-4.585679910370111578e+00 4.186107692955975068e+00 1.424322948398375033e+01
-4.172150210838811546e+00 3.288789561958119556e+00 1.352569401416046091e+01
-4.550785132936379540e+00 3.977179033133373842e+00 1.406605046323359787e+01
-3.785053764310610802e+00 1.822785846881673333e+00 1.217560140116232148e+01
-2.310828666242773721e+00 1.727075456523450736e+00 1.324712542528250125e+01
-3.785264053573052401e+00 1.647490545642781079e+00 1.198783002952513499e+01
-3.799174771308420961e+00 2.022162820488025758e+00 1.237868547312193712e+01
-3.957120049329423850e+00 2.663180447928383376e+00 1.297344498346364006e+01
-3.975592991329949921e+00 2.262793692100252496e+00 1.253829646211799442e+01
-4.185321841387297681e+00 3.192914274111054773e+00 1.342306076597962416e+01
-4.148959276081042091e+00 2.911969589091820687e+00 1.314575958005742606e+01
-3.979324897211149015e+00 1.498625389161749588e+00 1.170551560268113178e+01
-4.031881719903736894e+00 8.282923599801638170e-01 1.096107275558863492e+01
-4.004270571912609711e+00 1.225327511514711532e+00 1.138968763562271391e+01
-5.373684496611796924e+00 4.421812134430609831e+00 1.435249126944108511e+01
-5.003371266187758515e+00 4.245594193059756272e+00 1.421161656089484282e+01
-4.789677018475093639e+00 3.578417356368842839e+00 1.365706699146256753e+01
-3.948985688799479199e+00 2.069980948334317006e+00 1.234541725789058475e+01
-4.321712489504671240e+00 1.898514509617821311e+00 1.206923946955263816e+01
-4.313504169246703768e+00 1.730573894661827872e+00 1.188817664021204834e+01
-5.583867639620461176e+00 1.931940969093974836e+00 1.226472756575534717e+01
-6.231614009281489786e+00 3.856908853513844271e+00 1.525989390036832205e+01
-5.749505552706938083e+00 3.816068542890040938e+00 1.391508598688228560e+01
-5.827353356860808020e+00 4.079733478554029347e+00 1.412323381105131759e+01
-5.407309229633094461e+00 4.331686716430381168e+00 1.425635038911324060e+01
-4.944043165997835665e+00 1.113652842083952432e+00 1.129173175688096364e+01
-5.382966720521555892e+00 2.722028616258212796e+00 1.291653287873220179e+01
-5.388668975559384400e+00 2.466138309829577935e+00 1.267897808907157398e+01
-5.123920339933381918e+00 1.289970055466571175e+00 1.151179742933224404e+01
-4.921663475438518454e+00 1.316490266464976244e+00 1.148796500418052347e+01
-4.770050814016781437e+00 1.822766058329213568e+00 1.199695106276053025e+01
-4.771463031408844202e+00 3.244194028472892732e+00 1.335728072077874984e+01
-4.548249151892540532e+00 3.018751722763971745e+00 1.314926494395458079e+01
-4.395288691625433231e+00 2.820514182720991414e+00 1.296206930554221159e+01
-4.170594736095550203e+00 2.015656955002085304e+00 1.220018560900136961e+01
-4.549246096804598238e+00 2.633041467760453447e+00 1.277242702002067531e+01
-4.770027363765682260e+00 3.017652971233119708e+00 1.314096831905937890e+01
-4.556254082723888210e+00 1.550596919112575911e+00 1.169007614226252301e+01
-4.727340156202310517e+00 1.338162717158097426e+00 1.148671914701225916e+01
-4.593351947827888360e+00 9.291869304103707039e-01 1.102389801938783975e+01
-4.321798783737566652e+00 4.404467398161018288e-01 1.056981556016744150e+01
-4.569010679234647654e+00 1.721722841580086261e+00 1.187361292610556518e+01
-4.755526721839320459e+00 2.323722938798866711e+00 1.249135943614014721e+01
-1.632463532830830788e+00 2.142086216446081881e+00 1.443739009111142124e+01
-5.149657177673942599e+00 2.261647425723908533e+00 1.245969934716694993e+01
-5.160136629919413132e+00 2.498818222602906314e+00 1.267782979452060843e+01
-4.951286376906266717e+00 2.085798800113095819e+00 1.226442361811978898e+01
-4.925506258146604033e+00 2.510750641039414699e+00 1.266776356850155238e+01
-4.055277449539801182e+00 4.900188087160298522e+00 1.509214684270943607e+01
-2.846675691416685972e+00 4.313749521493194017e+00 1.539354761457846266e+01
-5.026373388875198245e+00 4.622284187316557436e+00 1.526246199575785667e+01
-3.193872465089575119e+00 4.032623622720097778e+00 1.587289211285076007e+01
-4.020859765625909077e+00 4.515971043098649496e+00 1.554223103912515214e+01
-5.460327009726854364e+00 7.034349613024987180e-02 1.096030669363080179e+01
-2.148150809853731413e+00 3.623570055786343502e+00 1.534472708111629302e+01
-5.078925107114334203e+00 4.016901323838347082e+00 1.565821965355506862e+01
-5.243248613826811066e+00 3.865738460273328236e+00 1.569283265514310344e+01
-2.627918824664300601e+00 -9.338675336602264565e-03 1.114547972645812735e+01
-4.798433677882487203e+00 4.079999542134363111e+00 1.570897217760315456e+01
-6.459059078418460942e+00 3.615646145808521617e+00 1.527761960016115594e+01
-3.847575179476705909e+00 3.654415668458086408e+00 1.607239017662098135e+01
-4.199573577287390336e+00 3.517449314584683684e+00 1.611289566291032216e+01
-4.401998293627517711e+00 3.494491548613440468e+00 1.610600049497727682e+01
-6.385578668027608096e+00 2.070249538007179702e+00 1.287882260260277079e+01
-4.528237455593795424e+00 3.467863195973175383e+00 1.610790395986456858e+01
-5.582393582886875372e+00 3.299051638107723061e+00 1.590483359163726718e+01
-4.351763894346357020e+00 3.220165922805162229e+00 1.624379475556296981e+01
-7.047616947474917737e+00 3.467955171943151615e+00 1.430735914859826252e+01
-1.819827602054191473e+00 -9.068770660304054099e-02 1.211783732860018503e+01
-3.376276714517390420e+00 2.528535679161449501e+00 1.667960234792999685e+01
-6.065173463656981845e+00 2.741937129024828668e+00 1.603839515649722713e+01
-4.373728647288259275e+00 2.685637487709573890e+00 1.646199612557203906e+01
-3.613801038219404127e+00 2.024107982345128676e+00 1.683117286645546429e+01
-8.799309500347676227e-01 1.547532138918445099e+00 1.601756830969749146e+01
-1.237514183764678144e+00 1.737757590905280480e+00 1.648424733647670948e+01
-3.294300634326941424e+00 1.635337922418596879e+00 1.704126190619831860e+01
-3.583687695227594894e+00 1.569356249986125551e+00 1.701368560450140066e+01
-5.570200204630334717e+00 2.899686983172948818e+00 1.310724859882236970e+01
-6.978492055130458560e+00 7.480367452120112448e-02 1.222079681222198744e+01
-4.376031288779038242e+00 1.780607414977288361e+00 1.681479797075351357e+01
-7.674004542416286156e+00 1.920892397196504842e+00 1.415777417888997647e+01
-5.554901357687160868e+00 1.077235096503581957e+00 1.683289313643451024e+01
-2.724507027576589469e+00 4.619791689718265593e-01 1.760840694901524373e+01
-2.886592925362001960e+00 4.288185062625361477e-01 1.758940168613836263e+01
-3.168819983690722708e+00 2.441096931516244517e-01 1.759971824718167355e+01
-6.646419359462990784e+00 5.905441069982528823e-01 1.677633967122941172e+01
-6.570988560931956268e-01 -4.005931194671332740e-01 1.676614688847650925e+01
-3.815204946990467416e+00 -4.044019069698355784e-01 1.775648455344418508e+01
-5.206150439816256359e+00 -8.649581176041674091e-01 1.773810033831581379e+01
-5.547489036470982349e+00 -1.009241853506849473e+00 1.771687441175044953e+01
-3.909680651652790662e+00 -2.112099635896580896e+00 1.553426565147827532e+01
-4.141548091023527611e+00 -2.120083275570316506e+00 1.552807448823814340e+01
-8.249371241549301459e+00 -2.643713678262005651e+00 1.637425679047565907e+01
-6.654167425198081354e+00 -3.479697483604139663e+00 1.786097287348615836e+01
-6.343066435114337320e-01 -1.841054994214896823e+00 1.666888365607563927e+01
-6.449505614700978828e-01 -1.637560879330588470e+00 1.674855695399477540e+01
-6.531067375187552537e-01 -6.786006886841818853e-01 1.676870525765381714e+01
-5.988483798180095352e-01 -6.429920191052084233e-01 1.640296679555703818e+01
-5.728385291439233029e-01 -1.230474710276167727e+00 1.604270491214233729e+01
-5.304422944112585636e-01 -1.208136255523384772e+00 1.564413589727517362e+01
-5.615137193536627880e-01 -7.762272931140355992e-01 1.606118780084998221e+01
-5.648090734454567219e-01 -4.085162443636213836e-01 1.606686653275324161e+01
-4.340117307149732317e-01 -3.832660316840358905e-01 1.505292233579260497e+01
-4.727414231434662328e-01 -3.370211335426449573e-01 1.533292311556940390e+01
-5.297215696424626419e-01 -1.157809498391149106e-02 1.568117157785444604e+01
-5.722056577543543909e-01 6.258692619912159527e-01 1.549324754026954665e+01
-6.354588511706734666e-01 8.173261816585993822e-01 1.569695204383184617e+01
-6.498419076387021986e-01 7.334072229439062562e-01 1.585691716717906630e+01
-4.421672682362038920e-01 2.136085166953541892e-01 1.490482082093935290e+01
-4.491286181099633512e-01 3.492498709277808144e-01 1.469770429792540156e+01
-4.297173547978934138e+00 4.845124237183942029e+00 1.493865713532776240e+01
-6.834605433809481934e-01 1.390441068838198735e+00 1.531729272802408914e+01
-7.835234315182639797e+00 -1.013526020567226293e+00 1.376358841634963781e+01
-7.997413862363193182e+00 -6.358791914086003860e-01 1.406098022999806929e+01
-8.017224015782648650e+00 -1.003531319626583151e+00 1.418607202261789624e+01
-7.793362671323879276e+00 -7.981112142820403488e-01 1.359859761943736700e+01
-8.009163746146217733e+00 -4.098669041434875870e-01 1.403325072246023453e+01
-7.675856567223435789e+00 -3.440265429202559178e-01 1.323271425865325668e+01
-7.786730912391326420e+00 4.745889993147195396e-02 1.347052861264957713e+01
-7.845472770700958165e+00 4.243512544967023015e-01 1.362874225758077174e+01
-7.521079317843773815e+00 4.144952004798158063e-02 1.285189397190077543e+01
-7.739948932099676604e+00 8.284876671856143959e-01 1.348097020786842748e+01
-7.260843636002674906e+00 2.256917698034051067e-01 1.255259897085752030e+01
-6.691256620212152839e+00 1.986955930338546450e-02 1.195056777651216251e+01
-7.539752641944043710e+00 2.002371566744356457e+00 1.391826799735283160e+01
-7.649017147749030521e+00 1.895357767397084725e+00 1.405700068240694023e+01
-7.377941563110923084e+00 6.416578867292698218e-01 1.286311481637071452e+01
-6.862195777538623531e+00 2.193946579974764832e-01 1.216143603092199399e+01
-7.300377115010237006e+00 9.692768857963470763e-01 1.297327328808390590e+01
-7.306309520436559346e+00 1.941474211603502642e+00 1.356633906897407016e+01
-7.067925253817075593e+00 9.704437623278511227e-01 1.277394317790119871e+01
-7.104317234675154857e+00 1.217971961756674215e+00 1.295500202019968228e+01
-6.322486031497548176e+00 2.774839959162987979e-01 1.173991097143156992e+01
-6.369839261816427012e+00 4.767959632705882633e-01 1.188901257948834811e+01
-5.645178263381540162e+00 -2.567198687731592210e-02 1.113476106733877202e+01
-6.973380448176285107e+00 1.289617274215460352e+00 1.288493941018630906e+01
-7.038422970722597150e+00 1.407425150104250733e+00 1.301067550785226601e+01
-7.087738128382317981e+00 2.412905425580090579e+00 1.363701879099935965e+01
-6.666403137331373685e+00 8.838808131351488795e-01 1.238316363342939397e+01
-6.700368183492360075e+00 1.182346819868151488e+00 1.258665809624841003e+01
-6.871081296015091766e+00 1.611563474710053789e+00 1.298387999262193304e+01
-6.644882366070705260e+00 1.319996358600018738e+00 1.261708345531528508e+01
-3.551160079225530453e+00 1.729640088276927390e+00 1.223432989129698356e+01
-5.701625684774695557e+00 5.005111679621360166e-01 1.132442629436903658e+01
-3.244353144917166532e+00 4.541863230513736305e+00 1.528041074031823499e+01
-1.083559431839415499e+00 -1.199021617456503264e-01 1.303230193522227509e+01
-8.395384905947199661e-01 1.942816936122080396e-01 1.353080621087125834e+01
-9.953275918754201923e-01 1.882974840373750069e-01 1.336482154759540109e+01
-7.080152196241311646e-01 6.982823473875684472e-01 1.423265196652957698e+01
-7.260648114684029597e-01 9.118055978421167884e-01 1.443691425670549577e+01
-1.084122797924315762e+00 2.277911013709630783e+00 1.546150569377279638e+01
-8.767878538762576834e-01 1.677030886348733318e+00 1.505836725812931221e+01
-8.423925094683528680e-01 5.556973151916946296e-01 1.391648833175208821e+01
-1.478341003482305238e+00 8.662717144378379031e-02 1.264517612169368377e+01
-2.239207507131569130e+00 -1.928276133300516060e-02 1.153964807163655948e+01
-1.188870820485621094e+00 4.038760855575108666e-01 1.331067287377939934e+01
-1.423454076661298418e+00 5.767100398143623075e-01 1.313522553548529359e+01
-1.380940334898443922e+00 2.598309129527021089e+00 1.534897191756747148e+01
-1.614194570033364862e+00 2.961570659941055617e+00 1.539262096840234406e+01
-1.474998492358095881e+00 2.813163071336232335e+00 1.546910882792521491e+01
-1.297061735839135199e+00 1.891080039159449111e+00 1.465850733124108629e+01
-1.429964624835932119e+00 2.194708842210981725e+00 1.478268548503086421e+01
-1.253491859598373281e+00 1.383115913077122894e+00 1.419928424960668778e+01
-1.463238588827580511e+00 7.371657531268435148e-01 1.324369356418166532e+01
-1.551074914511052061e+00 1.080784304913455784e+00 1.347141977523502376e+01
-2.185877098462864154e+00 2.620730493895401247e-01 1.174518780957271247e+01
-1.684500983907024851e+00 2.259361748756484545e+00 1.448168321811149539e+01
-2.053918098806495784e+00 3.616458408390453849e-01 1.203428047721950733e+01
-1.469140763480333289e+00 1.514798205261338904e+00 1.403087049115672258e+01
-1.888146959241604694e+00 7.145587942755936561e-01 1.263018876269878277e+01
-6.858382153076386878e+00 2.111454795594863931e+00 1.325849661239555033e+01
-3.102611176714208163e+00 3.293493246041558020e+00 1.414631955160524868e+01
-6.805987958489145839e+00 2.888381130578004274e+00 1.369632169027573454e+01
-1.690629020874790944e+00 2.694247955934846228e+00 1.492057491070265129e+01
-1.656430201585372020e+00 2.357199012857610132e+00 1.462213546161555300e+01
-1.768820237017754593e+00 1.237416108753884192e+00 1.333479469519751959e+01
-2.024626903870666794e+00 6.064182157936381934e-01 1.234200001715685957e+01
-5.913489609821636073e+00 6.169680751375788974e-01 1.157464610087082590e+01
-6.230319174111099478e+00 9.076214667579668438e-01 1.201706191073122554e+01
-6.019821396416565662e+00 9.035514872108593165e-01 1.183689217339832211e+01
-6.367499876553432081e+00 1.485544061549719075e+00 1.247616482913442937e+01
-6.073937608714826020e+00 1.083633360628092568e+00 1.198952494998423646e+01
-5.682770642505639458e+00 8.802016548275749530e-01 1.154810368462637626e+01
-2.063353851400015149e+00 7.599552221344297864e-01 1.246589205286163704e+01
-1.866386213443077535e+00 1.650866532829218691e+00 1.363339654446751936e+01
-1.934146993323711872e+00 2.422243012693793940e+00 1.431005263711141495e+01
-2.288515875706481850e+00 7.739081981929892828e-01 1.226277880157378419e+01
-2.115473370461209868e+00 1.124670521550561908e+00 1.282385564612026840e+01
-2.218133125125413052e+00 9.910345787446551702e-01 1.257507006746268630e+01
-5.556056440398863039e+00 3.021213859211296704e+00 1.321379231782614383e+01
-2.019027252137406414e+00 1.786499521557514569e+00 1.359638517527499246e+01
-2.021718856549076460e+00 2.011557690947666455e+00 1.381317120844145663e+01
-2.019078834851005588e+00 2.186596077105502633e+00 1.398667853442063702e+01
-2.239373675205770020e+00 1.222873895097840169e+00 1.280752947368883454e+01
-2.044055409521150501e+00 1.557743102148291037e+00 1.334277869549586981e+01
-2.074456367618955355e+00 3.318639174888148080e+00 1.505826301860319560e+01
-6.689652216638672044e+00 2.531095779582434258e+00 1.338877819788040924e+01
-6.498009137140805080e+00 3.355561479566701255e+00 1.385145791862130338e+01
-6.494168579447181067e+00 2.753255701924789189e+00 1.342730077732537453e+01
-6.208821767866512076e+00 3.891969188826606363e+00 1.411725815479116264e+01
-6.180586415065061345e+00 3.551166994732550375e+00 1.386999838017443309e+01
-5.085996338523530724e+00 6.497563272439422777e-01 1.096595901901159920e+01
-6.218457614654661292e+00 3.308183843250604106e+00 1.370601018889833611e+01
-6.202315539364099628e+00 2.496043844025707337e+00 1.308393516775997156e+01
-5.721123774468381384e+00 1.208627856705510872e+00 1.180242874104791895e+01
-5.793218394056769860e+00 1.626646097173570560e+00 1.216413315654925853e+01
-5.954750785875589258e+00 3.614201415987805976e+00 1.382315162448182022e+01
-6.089194328347476315e+00 2.788814135145145645e+00 1.324532538579748220e+01
-3.345870927926087646e+00 4.479097702631199773e+00 1.512064261141824417e+01
-5.933300049607133531e+00 3.347605812502214562e+00 1.360352916565084413e+01
-5.608133133725291763e+00 1.689020388836325548e+00 1.208972179427637528e+01
-5.482792555638778431e+00 1.390138941386409144e+00 1.177214091553041797e+01
-3.091282223729908463e+00 6.000729639622194300e-01 1.140275971296721735e+01
-5.973246124678717628e+00 4.375561094844544918e+00 1.443283056416892052e+01
-2.287254463642689473e+00 1.508609481700637467e+00 1.305228034753347899e+01
-3.217338466428586230e+00 6.336956423269627381e-01 1.134830458630650440e+01
-2.428820788322725743e+00 1.396047744864381990e+00 1.280916593375501478e+01
-2.751596023272789626e+00 1.133159069735095947e+00 1.225944876086179747e+01
-4.599286041241088974e+00 2.111660555778528625e+00 1.227369084724337611e+01
-2.864670229624357134e+00 9.831350182476347177e-01 1.200964899645727613e+01
-2.561111966588243583e+00 3.772368766906318172e+00 1.504822174195658491e+01
-2.322770010994590795e+00 3.477923977349004048e+00 1.496602909063239295e+01
-3.019239106639719061e+00 4.321881862700117871e+00 1.522883752978977512e+01
-2.820981000257746896e+00 3.782923148856164097e+00 1.484561093173711654e+01
-2.401526075729507603e+00 2.994459928266247850e+00 1.441420979382013101e+01
-2.414335026328519707e+00 2.759597595795256098e+00 1.417214088314566922e+01
-2.811420153155394619e+00 3.552208277961957261e+00 1.463079327593674250e+01
-3.097346300236901939e+00 4.077526272404672802e+00 1.491795069080501790e+01
-3.031460639036035243e+00 3.756174512146354338e+00 1.465932540853474464e+01
-2.620631358775012298e+00 1.982880534364764635e+00 1.322651441124449789e+01
-2.612898127690312489e+00 2.190730016511959644e+00 1.344111253875619028e+01
-2.696157498105102412e+00 2.688920168059070637e+00 1.386940852307030170e+01
-2.905796419189704771e+00 3.303012476819636944e+00 1.431149236813147141e+01
-2.734766928459500424e+00 2.523760567467951521e+00 1.367234934265367130e+01
-2.892401975769380851e+00 3.065152573779698297e+00 1.408550379586984391e+01
-3.187300499804610165e+00 3.709359683784435369e+00 1.449161236602874325e+01
-2.837733202528712972e+00 2.574104615343256519e+00 1.363743090382193301e+01
-3.314787392860259363e+00 7.853778313942826328e-01 1.143917706698804793e+01
-3.298850360605741550e+00 9.388739751221780727e-01 1.161065108137912461e+01
-3.507691129352423776e+00 7.640783990269900405e-01 1.126302865811342713e+01
-3.389065322533148628e+00 3.785201216125156698e+00 1.442282942910356169e+01
-3.822948917700922156e+00 4.111649597477122775e+00 1.448908552974842578e+01
-3.401616667768786684e+00 3.367573492055584872e+00 1.402191976325449119e+01
-3.164924560164114276e+00 2.577262431797501030e+00 1.338687622699265845e+01
-3.182975794422699511e+00 1.810533110062714446e+00 1.259176662802864044e+01
-3.351113000902549821e+00 1.667519162321291937e+00 1.231745807982630581e+01
-3.489694753272955197e+00 3.484403626929815090e+00 1.408405344462716258e+01
-3.312745115800871165e+00 2.151242002388050079e+00 1.284338737951724951e+01
-3.388944572549465128e+00 2.176695331405465339e+00 1.281624418889014905e+01
-3.446980744249532602e+00 2.417272300960335851e+00 1.302546527753979078e+01
-4.269037585453176575e+00 4.361754452911459801e+00 1.449703107737527930e+01
-3.477599172045352738e+00 2.678282475871998969e+00 1.327578549715660117e+01
-3.756976294017404960e+00 3.294995219519219365e+00 1.372926180121460860e+01
-3.752739992969795768e+00 3.088767086154798669e+00 1.352082409194232682e+01
-3.801808004870796065e+00 8.634796085526886822e-01 1.114224690168481757e+01
-4.404267239139530332e+00 4.158468657331472862e+00 1.426978680393352406e+01
-3.659689252478821153e+00 2.963752447567371551e+00 1.345037614016310457e+01
-4.822613931835115331e+00 5.834842047313519853e-01 1.078762484511636188e+01
-4.667936794943019940e+00 6.442863659695631240e-01 1.078165177971978039e+01
-5.456576470378271537e+00 1.565293831919170042e+00 1.189024456877288216e+01
-3.767714989248473589e+00 2.301874419557063511e+00 1.269321471471025475e+01
-3.803359307828549252e+00 2.413504167309930004e+00 1.278982591433497262e+01
-4.935774021015971513e+00 4.529049160345999248e+00 1.448840067019082412e+01
-4.128198263585909800e+00 3.687814895667242077e+00 1.392911379022460139e+01
-4.683788059810970239e+00 4.305539015577087625e+00 1.432024362608182955e+01
-4.578462992219052730e+00 4.071126502888657406e+00 1.414421240424715265e+01
-4.966707367795069050e-01 2.069020077359695620e-01 1.528699305426662747e+01
-4.207760996256863173e+00 3.392933135309425641e+00 1.361608894046637985e+01
