-8.068562934128351571e+00 -2.709292111805414738e+00 1.777687680748785226e+01
-7.524483451154235780e+00 -1.638100390473137491e+00 1.460914448385504016e+01
-7.604856536072624351e+00 5.316994537160477652e-01 1.724693520112503364e+01
-7.496746496755667621e+00 -1.757230570199596720e+00 1.461239148257055831e+01
-7.281248479477678615e+00 -5.577129408300266489e-01 1.406733435619480588e+01
-6.390573733609895335e+00 -1.674129132542907072e+00 1.414822780263963864e+01
-4.622921945457594717e+00 -4.112259027990872617e+00 1.809099394475062184e+01
-5.197665749126688439e+00 -1.447720725587239521e+00 1.477639849837758135e+01
-1.539153264543148047e+00 1.989489601611405867e+00 1.485933092923303889e+01
-5.037392685924878322e+00 -1.242506011653186526e+00 1.463159755794261940e+01
-3.715362888913365857e+00 3.585430033381888926e+00 1.569986915726443044e+01
-8.247667808267523881e+00 -1.272168285456775294e+00 1.576600694068569197e+01
-4.890657747163835722e+00 -1.135943977171440356e+00 1.469265434525868130e+01
-1.459398423488017738e+00 2.634486123978232452e+00 1.648516115940172000e+01
-4.680300548258076176e+00 -9.992455557971708924e-01 1.489652363832706072e+01
-3.004971416567401743e+00 -3.024485063233581794e+00 1.765056622182223833e+01
-4.637580347252361790e+00 -1.016877546286987455e+00 1.511606092751141972e+01
-3.272209623249674237e+00 -2.325491885050766094e-01 1.502370943400233472e+01
-1.738341395393728561e+00 -5.375799773357434752e-01 1.600626215254218465e+01
-1.011542390824965887e+00 -8.483096697501717465e-01 1.616202943667261138e+01
-1.702279355792822635e+00 1.393775875794611263e+00 1.201761272958952986e+01
-8.659470478286590556e-01 -1.071298487791253251e+00 1.634481111304990719e+01
-6.557301560205217594e-01 -1.326028562537540534e+00 1.649598119323879786e+01
-9.062834955247067725e-03 -1.594188410531558464e+00 1.660407788834387333e+01
-6.527075420981715226e+00 -1.400520571639568779e+00 1.404861514973334380e+01
7.123724748027775444e-01 -2.411605109279564729e+00 1.909440556361109742e+01
5.563603195412856195e-01 -2.523700589972093677e+00 1.935377787543442452e+01
1.683811455828879700e-01 -1.418529323684639021e+00 1.986256415671362419e+01
-6.763545991930075552e-02 -1.208792058525193447e+00 2.008351865762644195e+01
6.710897188840758698e-02 -1.530911474330504785e+00 1.998960151407755603e+01
-2.638916522445369228e-01 -1.731320580313402857e+00 2.028134880185293554e+01
-2.266481352011764372e+00 -3.322770392599438960e+00 1.978556759019812716e+01
-3.207402141598330481e+00 -3.610825658735317578e+00 1.962299527324336168e+01
-3.841333801523027169e+00 -3.615438479848181785e+00 1.957200670728879999e+01
-1.049567408169773897e+00 2.428171676112416133e+00 1.683385995049341943e+01
-4.634117650277755018e+00 -3.207520928429186124e+00 1.946630207349785024e+01
-4.863457946916024177e+00 -3.420989514424856992e+00 1.934444332993380300e+01
-5.723653858839251818e+00 2.658648790875076884e+00 1.751804096708579550e+01
-4.710283600987633434e+00 -3.493674234628152409e+00 1.938317478561569374e+01
-6.103633258372678227e+00 1.144482429458410611e+00 1.405276902571630160e+01
-5.431933341101490065e+00 -3.402012559029821137e+00 1.911377572605251629e+01
-2.702604225802649474e-01 8.530323886309006953e-01 1.580938645561573708e+01
-5.649806182826348611e+00 -3.632734163729792076e+00 1.897899134231979446e+01
-7.945310630943833274e+00 -3.504879650019739223e+00 1.761848652793259618e+01
-8.109881995292703039e+00 -2.913464980187798758e+00 1.763590621363120192e+01
-1.901458160583165746e+00 3.554268767061075529e+00 1.749395723118657742e+01
-8.272748456448224985e+00 -2.299015968818114430e+00 1.733900116454321960e+01
-8.317138746330869026e+00 -2.480848401092113242e+00 1.693641250083904026e+01
-3.734492569012778596e+00 -2.908536830653842831e-01 1.937717129154964368e+01
-8.353776237396903781e+00 -2.275335882372626628e+00 1.656420235135257712e+01
-7.743920628331391498e+00 -2.170052572726996143e+00 1.502766547438426414e+01
-7.296884401880845417e-01 1.810615230297551115e+00 1.643654264921576669e+01
-7.265806261973711599e+00 -1.100664377674438699e+00 1.427292639946380604e+01
-2.701882715896894993e+00 3.609653284706289877e+00 1.686381059200262911e+01
-5.332561802751407676e+00 9.867756805417177146e-01 1.843482644950387339e+01
-6.144990756441625734e+00 -1.903145641188151327e+00 1.427600227100096930e+01
-5.677568233092040728e+00 -1.850157519261850236e+00 1.463100144342433140e+01
-9.219920476754122074e-01 2.708750816279160922e+00 1.829368145650030186e+01
-1.537896706528056878e+00 3.468645885649718874e+00 1.828830852389376105e+01
-5.618860497709033730e+00 -1.868116350054434882e+00 1.474613897571267529e+01
-5.489110669991725366e+00 -1.870195003662906252e+00 1.496485375682681962e+01
-3.155442744663642607e+00 3.366580283939735629e+00 1.593243705402986166e+01
-4.477759179267920331e+00 -9.783629900777071065e-01 1.532195585898458035e+01
-4.059623347655022307e+00 -6.484756352886782427e-01 1.524060060175285258e+01
-3.778559709742840944e+00 -4.818965512585433042e-01 1.519159062865046650e+01
4.212188119175095391e-01 -2.036442866409378993e+00 1.712895706851372779e+01
-3.191934277170928702e+00 -2.527904478701326063e-01 1.523996402701499875e+01
-1.210437130015628249e+00 -8.800847302978285214e-01 1.630069114612040693e+01
-5.659995882510687082e+00 3.455069125118687356e+00 1.713262719208651674e+01
-1.214434762353110653e+00 -1.099900991735524247e+00 1.653996412858933951e+01
-9.768899831127619837e-01 -1.249192914671192867e+00 1.656009371712762146e+01
-8.979997172590414856e-02 -1.711705190273101085e+00 1.667609105596487495e+01
7.211419213221883506e-01 -2.700766540739679478e+00 1.907633189052000233e+01
5.727041630160860652e-01 -2.728118814680761339e+00 1.930159160390613948e+01
5.760227338203138814e-03 3.451982388701431703e-01 1.582332535004717045e+01
3.149233521048622197e-02 1.299359597764963237e+00 1.843212099047114094e+01
4.100169285864098123e-01 -2.910120755872606768e+00 1.951311072654615941e+01
-3.698519184330948839e+00 2.178098736586249196e+00 1.860049951671248181e+01
3.295912986825463298e-01 -2.690018695379184699e+00 1.965690598124314192e+01
-6.340438536877908149e+00 1.538901406875757161e+00 1.447241310680235671e+01
3.439734037110359077e-01 -2.207204605617658189e+00 1.967339180882055416e+01
-3.075045909842303526e+00 3.488149423351687428e+00 1.624862096585948734e+01
3.455844712706839239e-01 -1.683733736519124058e+00 1.965334253848522650e+01
-6.869592527524432946e-01 2.154287048963359652e+00 1.762829939349318664e+01
-4.767475006201815635e-02 -1.942920739039397660e+00 2.012862892157384209e+01
-4.222205246796112199e+00 1.431137455514452039e+00 1.275831975541457552e+01
-1.148021278439068649e-01 -2.136183787218307373e+00 2.018515505547090783e+01
-6.956484495674905233e+00 9.417713493580489592e-01 1.460111688542122721e+01
-9.969556599768165661e-01 -2.367977892826364172e+00 2.032487400775870867e+01
-2.934231827628329015e+00 1.360878343555350423e+00 1.162272871481567904e+01
-5.277709709136091831e+00 -3.133803816955531119e+00 1.679117254341095133e+01
-1.059022742538470396e+00 -2.847969798923973173e+00 2.022938203276848412e+01
-1.041044811978020679e+00 -3.016342955087722544e+00 2.019486935288324503e+01
-1.552535495116774467e+00 4.993026032357258392e-01 1.981894619578480388e+01
-4.198309678375109044e+00 -3.672694414725195866e+00 1.949294916570117664e+01
-4.594492595338950380e+00 -3.651537385496751220e+00 1.938594906634754977e+01
-7.214966532078680217e+00 -4.085478115990042625e+00 1.803995710193468227e+01
-7.363438489558014055e+00 -3.991997973463295768e+00 1.801898478152735095e+01
-2.225897724152305912e+00 -3.031781902952706886e+00 1.790162192927071771e+01
-7.883034443284358872e+00 -3.716647768120486361e+00 1.752288165877608606e+01
-1.114825188024274993e+00 2.912648551252083440e+00 1.805847925512679808e+01
-8.323593224156240922e+00 -2.245001607440109570e+00 1.611292026911514341e+01
-8.071224690026427950e+00 -2.236553636757285801e+00 1.549069385875086624e+01
-7.766593874742527603e+00 -2.446631832346920277e+00 1.516348000388757811e+01
-1.593450133886581188e+00 1.595075051978787073e+00 1.348988889743488784e+01
-5.897846375028184873e+00 -2.112446421730194590e+00 1.467439385907505311e+01
-2.744558216187037658e+00 -3.951450304359052090e+00 1.937638431990078658e+01
-4.870548679523063917e+00 -1.262531693856371984e+00 1.522230153707447897e+01
-4.801985640865614968e+00 -1.281886928577294693e+00 1.538027286568935637e+01
-4.414530989109448633e+00 -1.096832758763240268e+00 1.559555575212938550e+01
-3.592356252781702786e+00 -4.421802897168280455e-01 1.535774943849333596e+01
-4.320308334050372068e+00 -9.733884970535778836e-01 1.553440831789674803e+01
-4.110821502847437969e+00 -8.190395400225343181e-01 1.554348408817887162e+01
-2.594270888764150129e+00 -6.694531838135493740e-02 1.525871485804716343e+01
-2.801453214262055624e+00 -2.884141884095629549e-01 1.563086727733398362e+01
-6.085323998391475975e+00 2.443352711058680793e+00 1.741397420355983883e+01
-4.050410181448158120e+00 9.211664327678085185e-01 1.893229414655797882e+01
-2.764791128174050261e+00 -3.589523685734328229e-01 1.577324758033146423e+01
-2.758594100139810656e+00 -5.025928360065156086e-01 1.600189298043878239e+01
-2.177218401851946261e+00 -7.856697980500245704e-01 1.637203671984107700e+01
-4.186577778889584600e+00 1.759726435264520550e+00 1.298646004408598031e+01
-4.089399668260242926e+00 3.437449595885575970e+00 1.489875138644698183e+01
-5.138008001396697999e+00 3.263681311774033311e+00 1.753167136785177149e+01
-1.373612875774780751e+00 -1.145633407259090575e+00 1.664201892584711828e+01
-9.964361198638196360e-01 -1.550763029794873571e+00 1.682003548587867670e+01
-4.944795795202860056e+00 5.722126495044832506e-01 1.279420930589299843e+01
-5.602653149450755876e-01 -1.788502830632362262e+00 1.681147220901925010e+01
-1.377988897262270029e-01 -1.848800947519955606e+00 1.676382452336438433e+01
-1.976422723621795718e-01 -2.056978046544089000e+00 1.691606549088943012e+01
2.159032043184329064e-01 -1.920379988344371736e+00 1.688047855823232624e+01
-1.963787640347229857e-01 1.476116783054759907e+00 1.785383955734383932e+01
5.192705804985408014e-01 -1.808757860511640114e+00 1.699399717593060899e+01
6.389008915154663626e-01 -2.950931156055803140e+00 1.913397396632782943e+01
4.702350121466959965e-01 -3.027693013134480804e+00 1.940080386710164362e+01
1.901704176872518470e-01 -2.396681226694684419e+00 1.985159358771691984e+01
-5.572747487131911370e+00 -3.840332689435704605e+00 1.722598219347153048e+01
1.413239952406492028e-01 -2.728993874607894554e+00 1.987644071415052593e+01
8.887024172222968144e-02 -2.377572957095515527e+00 1.997321982299961718e+01
-4.075445789929391438e+00 1.488001746896132627e+00 1.267430593060950628e+01
-3.803472973079739639e+00 -3.999984452289129244e+00 1.939826844259505378e+01
3.761206426324773533e-01 -2.235685024888686812e+00 1.719078412385137256e+01
-6.872369685631120717e+00 4.022926948437133277e-01 1.792841913625598949e+01
-5.520983254349641101e+00 -3.896302509250436863e+00 1.894781720453955387e+01
-6.466527469820508855e+00 -4.259199809407530957e+00 1.834913032646152686e+01
-4.653289332015008384e+00 -3.564127353184131763e+00 1.736033044090644495e+01
-8.305908493323125086e+00 -2.714312917902077960e+00 1.648653256875071804e+01
-8.323833048085077735e+00 -2.482862748376839512e+00 1.633192956687021535e+01
-7.938667417164950280e+00 -2.454681500210627476e+00 1.537689738580264276e+01
-7.746706514206348260e+00 -2.582650777294779321e+00 1.519433854939548922e+01
-7.224893086935276543e+00 -2.481978590553108432e+00 1.472467098129811092e+01
-7.016168144850744248e+00 -1.979450847366628352e+00 1.440563420828985386e+01
-2.303147356453933536e+00 3.371055198537169062e+00 1.685936172338603711e+01
-6.447692175680036719e+00 -1.930735429457604013e+00 1.425710403058128151e+01
-5.444161277357266293e+00 -2.058716937331109609e+00 1.532678557394118002e+01
-5.282263503250209880e+00 -1.953740222612579736e+00 1.557233485831861941e+01
-5.092934399830340020e+00 -1.767880475446808042e+00 1.565711084183863022e+01
-5.707559849835890375e+00 3.236035165644309597e+00 1.536311829804829898e+01
-6.630200172237940670e+00 -3.875408370231663735e+00 1.691795461028204528e+01
-4.598611848766446464e+00 -1.543209393757625669e+00 1.596197213600481035e+01
-3.376676046616893245e+00 -4.272525167287269388e-01 1.553470879240726532e+01
-5.142490829927206519e+00 1.503650174050919830e+00 1.831210038984075084e+01
-2.935724985621721128e+00 -6.396126812143978491e-01 1.611432456638288357e+01
-2.023719470379632401e+00 -1.007185927667286762e+00 1.657451688739706697e+01
-1.581407153687464096e+00 -1.349803447256573197e+00 1.685454654105171102e+01
-9.656656244674595158e-01 -1.813028544454330593e+00 1.700812504966285843e+01
-4.945249268566547229e+00 1.756060641245959619e+00 1.359339460347315054e+01
-5.961890964682823313e-01 -2.029318074498262625e+00 1.699772542712322121e+01
-3.552876921314990888e+00 1.132665578228565284e+00 1.900706298944163564e+01
1.903537932043356529e-01 -2.142136896422481396e+00 1.703673411384815495e+01
5.265239255682574449e-01 -2.050919777901749175e+00 1.718587951538078329e+01
3.036724919679301138e-02 -2.738457519762845571e+00 1.998244260644493409e+01
-1.635975665709169746e+00 -3.762297362925303812e+00 1.976446876677632503e+01
-2.678119629440953275e+00 -3.986180494253101614e+00 1.928422880699274344e+01
-5.840776402310210003e+00 -4.342776506061543529e+00 1.845481871642753191e+01
-6.186903334579326064e+00 -4.314750439517011316e+00 1.840926191036125914e+01
-7.696668726669130933e+00 -3.990628494582376007e+00 1.755589947613453461e+01
-8.092701976514968365e+00 -3.497899424322907347e+00 1.688221341018954291e+01
-3.625422614572003432e+00 2.326917055795523215e+00 1.857409194525393303e+01
-7.991281795496648854e+00 -2.671204451223746279e+00 1.554879552939780751e+01
-7.844043689118331386e+00 -2.916495270623838731e+00 1.546476885683578928e+01
-6.191126697532019385e+00 1.571674170911004254e+00 1.436904351239819988e+01
-7.494289766203369396e+00 -2.755287608088004436e+00 1.502721072039615535e+01
-6.584803971827967395e+00 -2.204254305870477548e+00 1.441839413194318098e+01
-5.240625146484333641e+00 1.649791498011037305e+00 1.370745223882724417e+01
-6.286027070579845777e+00 -2.388171036840108119e+00 1.461636077698837255e+01
-5.757341345651989073e+00 -2.341107567980476478e+00 1.507779969926746588e+01
-5.472437629993866182e+00 -2.246367577679074135e+00 1.561567333645606226e+01
-5.349136669646616937e+00 -2.136358910164867009e+00 1.573846415412638322e+01
-5.494800748402689727e+00 -2.352860047568116730e+00 1.576362371348443503e+01
-7.814982853199909485e+00 -3.524493632451676906e+00 1.610930523641526690e+01
-1.715941715959410363e-01 5.870008734847762533e-01 1.560779986504027761e+01
-4.087254994934332863e+00 4.209835266905585627e+00 1.670812933969763492e+01
-4.453059211641314796e+00 -1.666914395007100147e+00 1.620015364770772948e+01
-3.963807353024956015e+00 -1.083101219995517450e+00 1.602124014841811572e+01
-2.754672594909284289e+00 -1.012426751633192179e+00 1.651358807082034019e+01
-1.744000744238882739e+00 -1.222354819040743390e+00 1.675231794826982679e+01
-9.926712002659694445e-01 -1.903790681149373665e+00 1.710040993770886786e+01
3.653084479261603512e-02 -3.376999067719494985e+00 1.975617085166140896e+01
-1.561224271844072753e-01 -3.201213996232491699e+00 1.997720368628497312e+01
-6.689799148917354721e-01 -3.484793089183848114e+00 2.002710604946794604e+01
-4.603983841525937315e+00 -2.768654469178180921e+00 1.691125334076592424e+01
-1.035874471612083347e+00 -3.885044234270250030e+00 1.969194360837431645e+01
-7.230599053835065959e+00 -4.222878762415088971e+00 1.764974979248029285e+01
-7.606617677712145920e+00 -3.231950362773828633e+00 1.551900290610892341e+01
-7.286057287651390268e+00 -2.926727476242923842e+00 1.502680055006138105e+01
-3.124215319537527513e+00 3.179302778146821051e+00 1.551344704407696184e+01
-6.011341944150832894e+00 -2.618370807958023683e+00 1.512973279124317827e+01
-5.654054907275484432e+00 -2.522804884095160904e+00 1.573165909511075711e+01
-5.440093431279626301e+00 -2.489240841036641783e+00 1.614445911461372418e+01
-2.841347479282405608e-01 1.726953777444202309e+00 1.825567487781771803e+01
-6.190463049955958752e+00 1.697114190206280071e+00 1.771933054912619809e+01
-7.106305088698823269e+00 5.386488690862559769e-01 1.444386685958020422e+01
-4.626936829325437373e+00 -1.970179031628207955e+00 1.633961553557283253e+01
-4.424700171790751035e+00 -2.004342847927577775e+00 1.650260703023850084e+01
-4.541855812915211565e+00 -8.576133965791208347e-01 1.930408888111600874e+01
-3.631469223106722488e+00 -8.727061121008236055e-01 1.602497969161337465e+01
-3.274555701129648888e+00 -1.087801399568935068e+00 1.641222911094078540e+01
-2.162094761240133334e+00 -1.693467675143223605e+00 1.707977035234678453e+01
-1.734473275910415779e+00 -1.897654454107941646e+00 1.727483450952151856e+01
-1.962086117397572771e+00 -1.820589421300604638e+00 1.719282672654673405e+01
-9.848077029409723071e-01 -2.300216753493486976e+00 1.745885708390374447e+01
-6.321100706121618451e-01 -2.317508203787135290e+00 1.726464945680075402e+01
6.532028533310696439e-01 -2.303078240905282126e+00 1.771112613505050604e+01
-7.900901398299945200e+00 -3.796441820290503699e+00 1.683153634313881497e+01
-6.445987264472556433e+00 -2.601969065117021085e+00 1.474248649231878261e+01
5.223175600651395190e-01 -6.448477705593738118e-01 1.678848683357531257e+01
-5.004022497466995567e+00 -2.523598737596760788e+00 1.652803713980868849e+01
-4.755635000655356492e+00 -2.225152561843705357e+00 1.646484881514303567e+01
-6.724985953323060706e+00 -2.922863450234966631e+00 1.504371926252541414e+01
-4.408934667495463700e+00 -2.332911928020057424e+00 1.674461515272327006e+01
-3.742348673976065854e+00 -1.454509038272830512e+00 1.647854519815485475e+01
-3.628650770511560708e+00 -1.342219002626472424e+00 1.645135084749438903e+01
-7.579650163875221835e+00 7.353389379450953056e-01 1.497521221777426348e+01
-3.405902233060340123e+00 -1.365307403751548243e+00 1.657049742092412714e+01
-2.786969672720231994e+00 -1.564025076435101358e+00 1.691624587710169436e+01
-1.064429130062407136e+00 -2.509598420585364309e+00 1.769018849974010266e+01
-5.162739051727506912e+00 2.520071992631133906e+00 1.442639598210967478e+01
-1.087318651899249478e-02 -2.648335248457170721e+00 1.756690032240246069e+01
1.677696463454175779e-01 -2.618318349166620873e+00 1.756930282979691782e+01
1.950414570347015486e-01 -3.520667801266912367e+00 1.890569061795691397e+01
-2.988661230489046972e-01 -3.631676827337568358e+00 1.980229338803540884e+01
-4.349543948952931949e-01 -3.878564021441624377e+00 1.961627784236925720e+01
-1.460149731189111844e+00 -3.968724505603929753e+00 1.928323260626292068e+01
-2.631621600087536095e+00 -3.967207996679890325e+00 1.875232385300958526e+01
-5.890219590615414447e+00 -4.299129783479939348e+00 1.790731484297381115e+01
-6.350512010198489321e+00 -2.769658655049954898e+00 1.507578464272704366e+01
-6.592153910991544130e+00 -2.897346045683291571e+00 1.510794343010452678e+01
-6.232837851938286100e+00 -2.833136438137828339e+00 1.535498354645035590e+01
-6.404340150292873624e+00 -2.908106333229401930e+00 1.533077373301132695e+01
-5.428018083497561541e+00 -2.912947227700175112e+00 1.655690520138687560e+01
-5.127934912168432113e+00 -2.772924226742280229e+00 1.664122829709541662e+01
-5.360418329714332408e+00 -2.998435617604028103e+00 1.666299796443657755e+01
-4.973887329480588981e+00 -2.760226928050606432e+00 1.671335412822730149e+01
-4.904234114323627658e+00 3.404999445666533342e-01 1.265992989275469682e+01
-4.018128358482442763e+00 -2.346933103670491683e+00 1.693837431101353275e+01
-2.371805420959187671e+00 1.411156526554409041e+00 1.928313020455068738e+01
-2.591558835153549456e+00 -2.078481063621657743e+00 1.727807212126666059e+01
-2.193475941422551756e+00 -2.780256829825440867e+00 1.779735033812887224e+01
-1.835613859595915720e+00 -3.082895917163539057e+00 1.802911066458836586e+01
-1.004579074739147204e+00 -2.833899214298425395e+00 1.795246510248050242e+01
-5.687795021215440450e-01 1.571844805250323329e+00 1.649779482444883172e+01
-4.290276936796004748e-01 -2.821089764238491338e+00 1.776448542305186606e+01
-4.509279450914235987e+00 3.198142894453609664e+00 1.459087949769686787e+01
-6.834690607238547155e-02 -2.805366924747064505e+00 1.778495848020651948e+01
-6.046297987059452872e+00 2.835964891637063889e+00 1.514962511279129842e+01
-4.632153175519896138e+00 2.803320671142228715e+00 1.799693039816991558e+01
3.846116018265577363e-01 -2.864651220583344315e+00 1.800709056860140578e+01
3.996758841043862587e-01 -2.938685845053822909e+00 1.815805780406719805e+01
-2.453705329691900694e+00 -2.536673207809987840e+00 1.759794763376014259e+01
1.998608812826285774e-01 -2.841405879133164891e+00 1.792274942524066716e+01
-1.602563217277843677e-01 -3.813841154575232650e+00 1.953183374889062662e+01
-2.105624967409672532e+00 -3.793334540156670709e+00 1.876886766872345902e+01
-2.731287196842555609e+00 -3.933962953301236798e+00 1.860714668818162210e+01
-4.944408344292920532e+00 7.927614753097914635e-01 1.866122396343217815e+01
-3.303392165725210106e+00 -4.168093601403382031e+00 1.870298438695868981e+01
-7.649524570022846248e+00 -3.858863716227088236e+00 1.672227133176270542e+01
-3.894122433799007688e+00 1.371527755992927311e+00 1.242917255385678743e+01
-2.063744901715264479e+00 -4.999441568733752339e-01 1.602122144427620754e+01
-7.612998746132108252e+00 -3.748961739703140505e+00 1.647406456482258363e+01
-6.215130047462061214e+00 -3.073453377582231916e+00 1.589683457648647646e+01
-4.659129679471654129e+00 4.247426583642387676e+00 1.648961645563250045e+01
-6.085517261003441369e+00 -3.028394519784514571e+00 1.596887581396277511e+01
-4.377135922804640700e+00 -1.336408254167468002e+00 1.593541283266802111e+01
-5.532537864488651813e+00 1.411389201617828437e+00 1.818449195391367823e+01
-4.395943934474028758e+00 -2.856637062323052145e+00 1.704571023473458524e+01
-3.143629412538493817e+00 -2.677583075647191446e+00 1.744519684867401565e+01
-8.743007514219718335e-01 -2.957201305544276515e+00 1.802659167429175824e+01
-1.833356381177881911e-01 -3.060131683504291544e+00 1.811773204971227358e+01
-5.632967225550020274e+00 3.461074016590948155e+00 1.555854779471072646e+01
-3.752985450810474077e+00 1.967176627319155102e+00 1.280292005975008607e+01
3.575018415463759869e-01 -3.229903434067052714e+00 1.857603635400364794e+01
-1.991360803737056262e+00 2.166018184852359418e+00 1.453122259737900634e+01
-3.392632978966591217e+00 -2.061456995337420217e+00 1.970253617928374723e+01
-2.076248969319449689e-01 -3.779514268061239246e+00 1.905699220612244460e+01
-4.633446568984294522e+00 -4.179112065882011784e+00 1.828041863400149936e+01
-6.036527672799973487e+00 -4.120009299057492136e+00 1.748560913621422941e+01
-7.219643387882340946e+00 -3.472379334951853469e+00 1.593446941198344291e+01
-6.933830486216463918e+00 -3.348505433230559714e+00 1.581647613622589432e+01
-6.777920943438282997e+00 -3.325017715536576546e+00 1.588527976981502832e+01
-6.197365914946056265e+00 -3.393845601581154448e+00 1.641143806310451225e+01
-5.456615492688016822e+00 6.788430404918175398e-01 1.325640397088255185e+01
-5.530134674436745001e+00 -3.416708553974964868e+00 1.683287374917615153e+01
4.868739297668512322e-01 -2.810784153199033408e+00 1.941032138759980086e+01
-5.044008625035210969e+00 -3.503739665589050478e+00 1.710948104549582638e+01
-4.437352026343948097e+00 -3.174421817080576691e+00 1.718919384088581381e+01
-4.303998310154137918e+00 -3.088840120690426794e+00 1.718630193943320705e+01
-4.009794354517751458e+00 -3.007939091155168665e+00 1.725567198337378017e+01
-2.611766075690353794e+00 -3.051784328880867925e+00 1.780827076706557932e+01
-1.070570402292273293e+00 -3.421847137749673085e+00 1.838849419898090076e+01
-8.360029820844840920e-01 -3.393820171691513732e+00 1.839373206272752981e+01
-2.620584334926809866e-01 -3.426685394957233566e+00 1.855518832164886334e+01
-8.088423624260026035e-01 -3.838145933260764142e+00 1.895949378891535986e+01
-1.511350689961557858e+00 1.309901663243222991e+00 1.242830240214902915e+01
-3.898365416489546931e+00 3.298487803698993304e+00 1.468493267271534819e+01
-4.768799912313745892e+00 -4.085301617303227495e+00 1.804385093372373206e+01
-4.480237691524924237e+00 3.202149524838932226e+00 1.788022227691626398e+01
-5.608223552377193499e+00 -4.091771643263964364e+00 1.756761002025233864e+01
-5.873227266905279187e+00 -3.965396620610300626e+00 1.729311363127289525e+01
-6.233310621124841688e+00 -3.912394958716526983e+00 1.709739539841368128e+01
-6.688643818895002369e+00 -3.442713730497179991e+00 1.618305880837228727e+01
-2.037222677330531972e+00 3.968649422188218479e-01 1.969797405361346421e+01
-5.274068102464571695e+00 -3.696956183510328398e+00 1.716493011285796655e+01
-4.512701977498176475e+00 -3.495855325072796838e+00 1.735284197655920480e+01
-7.096360622867491585e+00 1.510105484634827189e+00 1.507411259530356773e+01
-4.209263296052601078e+00 -3.373801846760433598e+00 1.735781918636042320e+01
-3.841563370353425100e+00 -3.210777272512343128e+00 1.739572593222877828e+01
-2.543352177381144941e+00 3.140382586236959206e+00 1.612982263243042524e+01
-3.631533466091121376e+00 -2.969583318330530464e+00 1.738043048062839802e+01
-3.287142524661470055e+00 -3.166994724011781948e+00 1.759025502417289033e+01
-3.928566461539938715e+00 3.780715996343152252e+00 1.592297997392660847e+01
-3.402205115048556827e+00 -2.239213077734955260e+00 1.711708067171871761e+01
-2.932760851971409899e+00 -3.316948068390304538e+00 1.781820208578420051e+01
-2.443764064613326514e+00 -3.349010187094860758e+00 1.799694520046303126e+01
-5.991875172972465080e-01 -3.568809387217026785e+00 1.864275276889195254e+01
-5.921391859253690715e-01 -3.762495728163187447e+00 1.891069530007322896e+01
-9.572424129615575428e-01 -3.769212835638050318e+00 1.880877276360858019e+01
-1.444974012160145094e+00 -3.787940440608267956e+00 1.875475073576178175e+01
-1.627004781184529847e+00 -3.740806694641779284e+00 1.866244156172622581e+01
-2.658925752935955344e+00 -3.694641148555898091e+00 1.824642985135010775e+01
-4.657862328374173799e+00 3.842239283892913360e+00 1.751782611610016005e+01
-2.500536669380862165e+00 -3.576808342404566687e+00 1.816397615936404009e+01
-3.586273092905008397e+00 -4.108109279629104549e+00 1.824179198772099397e+01
-4.007835333774457887e+00 -4.073923401710025871e+00 1.803550206936641587e+01
-4.422226527314728095e+00 -4.083250312119870884e+00 1.802092718720108167e+01
-5.446901585208128616e+00 -3.718050385000632563e+00 1.712502377001302989e+01
-5.996007324432937935e+00 -3.809939086298500310e+00 1.703569436028595874e+01
-6.237440399365675958e+00 -3.759891614840993324e+00 1.687903046481383029e+01
-6.081398107406124076e+00 -3.646744829285990530e+00 1.678676962134120743e+01
-6.647302806661423702e+00 -3.724170668429842124e+00 1.667346635143763223e+01
-2.900089544167902655e+00 -3.541057131000346470e+00 1.798742113553785771e+01
-4.507282378556441316e+00 9.677755273793599011e-01 1.875967155894154104e+01
-3.359972029541527405e+00 -3.716396802747830908e+00 1.785372573875553570e+01
-3.725096462998191527e+00 -3.962356002029363555e+00 1.797180244335056898e+01
-4.175071831569968417e+00 -4.089819412313624447e+00 1.801000246031249930e+01
-1.755978194932811931e+00 -2.876567370653132727e+00 2.002000364173704838e+01
-3.857189469982094110e+00 -3.673171749838866962e+00 1.762462205838053819e+01
-6.203191351462059799e+00 -1.195110450302843130e+00 1.383171666303645253e+01
-7.464998783875714139e+00 4.907292102197239325e-01 1.467993762028835647e+01
2.353321376281168886e-01 5.521461906538046582e-01 1.723803974818552120e+01
-7.465406682350222312e+00 1.518671997803819895e+00 1.546067687785163969e+01
-6.698216876378291218e-01 1.246272191498174919e+00 1.501068972079210084e+01
-6.471835002817204696e+00 3.282990826764032644e+00 1.574239609733808720e+01
-6.682696669699882186e+00 3.107968597212015016e+00 1.573933359418694522e+01
-6.917421148542020504e+00 2.736681277011681956e+00 1.568179488573253622e+01
-4.279474461533405716e+00 3.952435496862836573e+00 1.762485836990855859e+01
-4.465485784322273943e+00 3.617065691137559824e+00 1.769436105115292435e+01
-1.016319887401859079e+00 -4.829244017075056128e-01 1.557408152096406440e+01
-4.953123700819281439e+00 2.978663977762077142e+00 1.777098647072696025e+01
-7.290993901851448911e+00 2.085891223465466737e+00 1.568288662647155718e+01
-3.521816213308923693e+00 2.799624971269637719e+00 1.842404974969053200e+01
-4.704876513985268183e+00 2.616514952754922962e+00 1.804576663457817176e+01
-2.788204257954769894e+00 2.621782135858833129e+00 1.416539657049948175e+01
-5.325881621460582416e+00 2.446049589102548882e+00 1.783476860928194441e+01
-6.328723108173551992e+00 1.144039894835236382e+00 1.423578486401599008e+01
-5.318404067155448445e+00 2.808268626914935062e+00 1.766352073443164983e+01
-4.296992653532579531e+00 2.393699940626887734e+00 1.829933856401964221e+01
-5.107576470375851052e+00 1.781953947362522772e+00 1.821400244367031007e+01
-5.741899175763252039e+00 2.254490105295938296e+00 1.771783322757203649e+01
-6.127015613045053932e+00 2.664688529264972683e+00 1.724667291689579685e+01
-2.897772262303134116e+00 2.124511765516168271e+00 1.889439538204769065e+01
-5.338448701744012759e+00 1.414688035519996667e+00 1.826768306562363620e+01
-2.583034711329062816e+00 1.548370253595318324e+00 1.917554146153430850e+01
-8.060338358764218558e-01 1.881477228594461870e+00 1.628135132162343979e+01
-4.331204660249458271e+00 1.364663516948235067e+00 1.867854181441584416e+01
-2.094135375550654654e+00 1.146662990754224953e+00 1.945082868746959548e+01
-6.435819465151568330e+00 3.071175757767800718e+00 1.555510822002052151e+01
-2.564353758231703750e+00 2.229126201817309028e+00 1.304213109061282694e+01
-3.254115589035757594e+00 -1.359125131080604731e+00 1.663201739908591748e+01
-2.567485629548974302e+00 9.350524780601344732e-01 1.936853714981244678e+01
-2.365829502618390201e+00 3.003654923605850180e-01 1.960921003785722405e+01
-3.725886849721961269e+00 1.560308891430272293e+00 1.881241243612007707e+01
-1.448493125892803768e+00 1.375802488924049882e+00 1.298913397775747569e+01
-3.989525570977236590e+00 1.023007943036925660e+00 1.891705884211612698e+01
-5.141999874346671717e+00 1.888503898376866497e-01 1.880750188561522407e+01
-3.311018412279489453e+00 3.076218724403860350e+00 1.466898991546570130e+01
-5.745170991609222177e+00 4.131595278896663670e-01 1.848997729249632016e+01
-5.990742723548025062e+00 6.638599970908375392e-01 1.828471301528337278e+01
-6.927770747922692429e+00 1.264325408055220201e+00 1.741856604322518365e+01
-1.931641241794841424e+00 1.711497967312386681e+00 1.265996520307620443e+01
-2.134407026204881763e+00 7.234519776410593961e-01 1.957073521571460617e+01
-3.523984533735092128e+00 9.668657998976147860e-01 1.907162622310534772e+01
-4.599904743159101805e+00 -4.686585793921131671e-02 1.907109372775994416e+01
-6.593445439943808495e+00 8.495381041721958848e-01 1.787781460413530965e+01
-1.690047832798054817e+00 2.087810696802613109e+00 1.483435994275318137e+01
-2.882379380556712167e-01 4.485405560814728076e-01 1.479093148345636166e+01
-1.919540758020538362e+00 2.950473979559171123e-01 1.976851224282066966e+01
-4.271815171137890665e+00 -5.154283718890306787e-01 1.930086080575648566e+01
-4.763266297506835834e+00 -6.326764465369976165e-01 1.917745854198965816e+01
-7.231225503449575598e+00 3.569422359635643915e-01 1.770560373069109517e+01
-7.713912060979359886e-01 1.751614140123895602e+00 1.605586977209452471e+01
-6.233565742193528436e+00 -7.457862351214511465e-01 1.864265091309131606e+01
-2.068030947656951390e-02 -1.247330830432487325e-02 1.520006613645474403e+01
-1.935466992728066771e+00 -3.106060540299274697e-01 1.992450271460101163e+01
-3.969121067723159868e+00 -1.069560275211896894e+00 1.949174053237663884e+01
-4.144311064837399528e+00 2.427466742127678767e+00 1.834396769775340630e+01
-5.579683376500583769e+00 -1.015934241334310206e+00 1.897567399111301256e+01
-1.687228344332436958e+00 1.542115616038575165e+00 1.282674913795808180e+01
-5.979818302173064204e+00 -1.151644682739404235e+00 1.884300352230597042e+01
-6.372051060756604102e+00 -1.368423739095453229e+00 1.871616400014182346e+01
-3.409169125806394085e+00 -1.253462680614084501e+00 1.962999712503983574e+01
-6.767324902354566518e+00 -1.756084509020567896e+00 1.861232464260977792e+01
-4.966660085213768561e+00 -1.455827526326772148e+00 1.927264481561307008e+01
-5.768066605450698603e+00 -1.607954327574239617e+00 1.899670601499832401e+01
-5.813589408329625563e+00 -2.005739234650790959e+00 1.901569159190822234e+01
-6.768678197426406307e+00 -2.201411204661346765e+00 1.866944533349477098e+01
-6.458558701522733259e+00 -2.564176071144104174e+00 1.881078155755098180e+01
-6.776462220897535360e+00 -2.560600126024100476e+00 1.867684930657683395e+01
4.933021580754364810e-01 -4.666609342170741082e-01 1.660231012115379912e+01
-6.092387634908947192e+00 2.926637722092837901e+00 1.524446576801641839e+01
-4.600088512728283341e+00 -2.440833814534758339e+00 1.950250091128533114e+01
-6.759597604085457512e+00 -2.981057266797523475e+00 1.865174176276798335e+01
-1.394155227153082599e+00 -2.249375726949954135e+00 1.755638740460958047e+01
-1.980805288549314813e+00 -2.240061403580332122e+00 1.749815040223754181e+01
-1.592392812599854768e+00 -2.425641863917586072e+00 1.767890946276556008e+01
-3.388816839116951307e+00 -1.586618840475439107e+00 1.673893503008141437e+01
-3.121117901921083515e+00 1.134115580842525173e+00 1.163896880800071898e+01
-3.180623181567587388e+00 -2.205397731015128482e+00 1.718114518761785092e+01
-6.142630954882482897e+00 1.741872481894709779e+00 1.442753030500875866e+01
-6.430694947628379232e+00 -4.072052353650009060e+00 1.730413263333052498e+01
-2.274119240200296321e+00 3.244144607732134311e+00 1.666854809345256427e+01
-4.003698634370440601e+00 -2.605758940412417068e+00 1.707990849430422742e+01
-4.219755363632154754e+00 8.356079279774115687e-01 1.235352323849645728e+01
-3.408349090270278658e+00 -2.487283254522550724e+00 1.724777783389807695e+01
-6.557909580246249703e+00 -2.544860137932468125e-01 1.361349249668052153e+01
-5.939167288540268430e+00 -2.035165648397884997e-01 1.320137063067011951e+01
2.069943487733204579e-01 8.669061006458086416e-01 1.804635015178453727e+01
2.970628045119567684e-01 1.598356935468490669e-01 1.661102618724482483e+01
-3.567695875906477632e+00 -8.569540147834558974e-01 1.954337827242417802e+01
-2.154904596640525583e+00 4.986824864817258618e-01 1.962743586440625876e+01
-6.891922910906278510e-02 1.330077606274201241e+00 1.803186372921660308e+01
-1.192210559904211653e+00 3.040933798848751035e+00 1.814774521863389367e+01
-5.968914848469061063e+00 2.702985733700553617e+00 1.733238363970922791e+01
-6.743443056069836850e+00 -3.956174902977284413e-02 1.381973133065088888e+01
-6.264438362436941965e+00 1.697800875483742811e+00 1.450121473906466463e+01
-7.282843322831345390e+00 9.298715929281585746e-01 1.484762292351710045e+01
-5.784924471594565354e+00 -2.319523610685773896e-02 1.314763396140320850e+01
-3.726150904213556991e+00 9.562718501721022557e-01 1.204189141381910133e+01
-6.867623834487725176e+00 1.529641996150487238e+00 1.489745544400664556e+01
-6.875303957274427447e+00 2.123135507274504619e+00 1.525604999617490876e+01
-5.551833141693125029e+00 3.709089432783299056e-01 1.317110438753035595e+01
2.786417198603086121e-02 2.065649647184625293e-01 1.561332916850498265e+01
-7.598914146076105602e-01 2.370986543260063861e+00 1.789616325474004555e+01
-3.392559065537150254e+00 9.542491848324038406e-01 1.178175876790389509e+01
-3.363630274435567280e-01 1.539786886817970490e+00 1.745945533204597666e+01
-5.367900837979711071e-01 1.923945093506405524e+00 1.764052802208834692e+01
-1.141306569242133140e-01 3.847093800514997941e-01 1.540664089433153805e+01
-2.434429707700294099e-01 5.068812814228197405e-01 1.507731537515740428e+01
-1.912857237792100484e-01 7.903839581218694565e-01 1.602282269566757833e+01
-3.506370579335196247e-01 1.338547431500156648e+00 1.684272456412363539e+01
-3.033921825497734037e-01 7.772477750487342130e-01 1.541074161795165764e+01
-5.853546832311486092e+00 8.904425585903675833e-01 1.370251132229993374e+01
-8.883125257491959470e-01 2.552076607177476752e+00 1.786107300126418096e+01
-6.046097112174664279e-01 1.894120650071571710e+00 1.727184306412926418e+01
-4.611330625488230250e-01 1.430609525304698426e+00 1.659636028580494127e+01
-9.498857073481223878e-01 2.520572746941488695e+00 1.750978566420419469e+01
-6.910012580257358650e-01 1.961051062323480476e+00 1.707565174260517438e+01
-2.934839085671381298e-01 9.691441233887460038e-01 1.603812112893086805e+01
-4.791184154449721344e-01 1.201511869402108079e+00 1.580240541271058419e+01
-4.541458941083633682e+00 5.244847440927482563e-01 1.245426248264707425e+01
-6.693483561333204435e+00 2.319209638535085105e+00 1.522003965844435669e+01
-4.783924978316405507e+00 7.629253089411626165e-01 1.275962341201869066e+01
-5.318199532417541064e+00 9.016055588213244265e-01 1.327261212662052259e+01
-2.522438788047474567e+00 3.928224777008697544e+00 1.748623069426317755e+01
-6.095674926427011364e+00 1.531982133176120975e+00 1.426843116005905898e+01
-6.483836590083847717e+00 1.931961470275041837e+00 1.481518693950937404e+01
-6.659310746917827650e+00 2.732571943289138439e+00 1.546042968608362855e+01
-5.736107579042777793e+00 1.333673980577483764e+00 1.386195913646020728e+01
-7.113872029738116609e+00 4.178643895924571972e-01 1.776118151748035245e+01
-6.436413258496512135e+00 2.236426479648979893e+00 1.495106952927370969e+01
-4.714517822174514095e+00 2.302996347766746776e+00 1.817024111206443848e+01
-6.533576683308212729e+00 2.536123872603397000e+00 1.522861769934719689e+01
-6.124326430336482829e+00 2.118367789182042493e+00 1.463377023352532547e+01
-2.877568601910645896e+00 3.621257133563622332e+00 1.670515501546643122e+01
-5.889594108094239999e+00 1.513205718337558459e+00 1.409026064599031258e+01
-6.157902938390395597e+00 -6.510476333701782359e-01 1.341611433001604325e+01
-4.949108832232963273e+00 9.262134571262060634e-01 1.298850638429674831e+01
-1.092487185506887393e+00 2.721772113191466058e+00 1.747744027855935656e+01
-7.809432981291233311e-01 2.106100444562869267e+00 1.708348788821088959e+01
-4.300614951234081218e+00 3.049960396166488508e+00 1.432520832405343469e+01
-1.331851908245738958e+00 3.121971786607189880e+00 1.770710583263245042e+01
-9.859817146805771593e-01 2.520134272700649269e+00 1.734492985144503763e+01
-7.599978835549179301e-01 1.992508279376616898e+00 1.684238264719048317e+01
-6.126490801946259168e+00 3.138567009178612199e+00 1.543408318758284281e+01
-7.464636100625972048e-01 1.784054985568927165e+00 1.627439730196447698e+01
-6.075816289402276027e-01 1.160913968747812941e+00 1.505451434587141080e+01
-6.656854992821985562e-01 1.452135286056961849e+00 1.565650959677851262e+01
-8.697210796888559248e-01 2.170928518349720893e+00 1.685158240497104032e+01
-9.023374766183926976e-01 2.005207953813199939e+00 1.625521442300859576e+01
-2.119006354754216392e+00 2.077063754240703997e+00 1.384572540456353806e+01
-9.669573035653797888e-01 2.331994974411179200e+00 1.687374183234489067e+01
-8.116767182920154866e-01 2.402142292180767136e+00 1.776982932502539825e+01
-1.139741477446658102e+00 2.733784213024963883e+00 1.725830142737857642e+01
-3.306055269170135702e+00 3.974067521248945134e+00 1.690263607305285376e+01
-4.751881702383905726e+00 9.108690990214244332e-01 1.282029265754083980e+01
-6.003164526677161383e+00 2.160460972269918845e+00 1.458296964366557802e+01
-5.506382082133096212e+00 1.306387636512899686e+00 1.366056529897462468e+01
-6.296920242942139367e+00 2.306882800680015944e+00 1.488556440824810778e+01
-6.063412164194205367e+00 -1.334115069121002861e+00 1.883924805899324184e+01
-5.943189578850141430e+00 2.088365533837979182e+00 1.449622064916101749e+01
-6.091569967203382951e+00 2.516261708580271428e+00 1.490837302569418910e+01
-6.276478894471284598e+00 3.444431728539954829e+00 1.576489248123989029e+01
-4.947903733397002846e+00 1.168087190909298023e+00 1.851923967912053826e+01
-3.067749015010649671e+00 4.225906696377570881e+00 1.751859973918806190e+01
-5.902525217667856872e+00 3.503059311850756696e+00 1.566247295640025072e+01
-5.748983039461805333e+00 1.918340689298037027e+00 1.425077823544702227e+01
-5.316812961616463440e+00 1.524111620365588227e+00 1.366470870440640084e+01
-6.422316600425562960e+00 2.835944204387779610e+00 1.536375509347936941e+01
-5.536456437965250998e+00 2.117137443429150778e+00 1.428587101103449442e+01
-5.628305366202613236e+00 2.077081335506696824e+00 1.430454424700578642e+01
-7.737255823424906254e+00 -3.596995378250579467e+00 1.619165655687803707e+01
-4.978217640399792643e+00 1.166771392823698239e+00 1.316102775080838683e+01
-4.376297305455341125e+00 9.908455496518687733e-01 1.257303740853173224e+01
-6.554615594401178580e-01 7.233842700429348183e-01 1.376929931993681322e+01
-5.152996483463733846e+00 1.032254446996082375e+00 1.848903590047088130e+01
-4.891435892432038912e+00 1.353536092537515056e+00 1.322714108107457065e+01
-4.109535471361894565e+00 2.961028306295247492e-01 1.911186258802614901e+01
-4.321473418816352385e+00 1.148608560164130488e+00 1.263741071222398915e+01
-5.701034145366432604e+00 2.693483977687198383e+00 1.487505081567245213e+01
-5.089767195147606671e+00 1.735909631426098443e+00 1.367658786752046041e+01
-2.481796198187959046e+00 3.972866121152674346e+00 1.769379163402612676e+01
-7.049488426353929249e-01 1.441084084308713820e+00 1.543437469213807844e+01
-3.869367580306969145e+00 3.372146767882810980e+00 1.482232798339546065e+01
-7.325563245670376755e-01 1.206476555908105652e+00 1.464605985905618724e+01
-7.334896661151296016e+00 9.401225208893768115e-02 1.426806975370686104e+01
-1.501476931091571654e+00 1.689207080274974349e+00 1.402488634278902424e+01
-7.306628611778902549e-01 1.046455393377764054e+00 1.423922838323539963e+01
-6.199946651641263351e+00 2.075851801788175965e+00 1.753140411440940483e+01
-1.133222002579547194e+00 2.548322895935723142e+00 1.686740486385320992e+01
-9.382246544370103081e-01 1.969373713303709472e+00 1.603666032460198920e+01
-8.024176122802666455e-01 1.362009308794793760e+00 1.484822526307959123e+01
-5.119156438330001446e-01 1.198205291493756874e+00 1.563142259216227359e+01
-5.451256254287298653e+00 1.465530301013151515e-02 1.292167084127006405e+01
-5.814865786431607120e+00 3.410679442475830658e+00 1.555346479588198605e+01
-5.684580960178460707e+00 3.854253675576875704e+00 1.594179413258234490e+01
-5.481155482735279527e+00 3.697276922061034199e+00 1.574109005506252856e+01
-5.699776441296709351e+00 3.122563256737295401e+00 1.525753924282422958e+01
-4.985171463556061333e+00 2.169927611171662551e+00 1.398671603623553494e+01
-5.373725357022348881e+00 2.205328776275822023e+00 1.426630635519205015e+01
-3.947047521870166165e+00 9.432338295032197673e-01 1.220854835498636959e+01
-5.328338884452925583e+00 1.420652873474867461e-01 1.875499199051066768e+01
-5.478596748137184669e+00 3.463356862647187562e+00 1.550165962707872325e+01
-5.504401700527111529e+00 9.475936945596482586e-01 1.345041505119986880e+01
-5.299013902200546688e+00 3.897594486801075675e+00 1.589412854622576532e+01
-5.296098894826108960e+00 2.301077374568244682e+00 1.430613458935846438e+01
-4.262076123928206783e+00 2.178067423120680246e+00 1.839426007765304405e+01
-5.339639007120165815e+00 2.899948177674715133e+00 1.488833761126083743e+01
-1.771375869019634841e+00 -2.725931317862872127e+00 2.003275475863048882e+01
-5.307446487428841841e+00 3.305152839211749516e+00 1.525738404772230439e+01
-4.579076595083034107e+00 1.361433442950819472e+00 1.299897260270869737e+01
-4.962078986892089816e+00 1.954106593538521341e+00 1.377748116984260207e+01
-6.616258603083343459e+00 -2.779290953017678589e+00 1.873023751222646638e+01
-5.302008570897166706e+00 2.691979940169919150e+00 1.467117793509113000e+01
-5.814870275742705985e+00 -4.029870004986349841e+00 1.740442424282322520e+01
-3.525925686637353174e+00 9.289482545526445145e-01 1.187244675965242635e+01
-3.852603671348286962e-01 7.916034510167720972e-01 1.504926760179498757e+01
-3.934038809925875846e+00 1.519959346472231854e+00 1.257616700396682319e+01
-4.920759503699979831e+00 2.533121086437051694e+00 1.426314301766765169e+01
-4.708499757145850673e+00 2.301164491277633228e+00 1.388713243281581100e+01
-5.081171867972054557e+00 3.081271950972396034e+00 1.489572883457145736e+01
-1.382227515797144424e+00 1.245515477516389691e+00 1.265763938335777539e+01
-5.138932731700912804e+00 3.561182651511149544e+00 1.540303730032130147e+01
-4.869324374760744867e+00 2.640754191526871075e+00 1.432290970668524466e+01
-4.872922984728995210e+00 3.053843037583122033e+00 1.471790995834108884e+01
-3.962688440593255201e+00 1.782130208417787465e+00 1.281659542894420412e+01
-4.265897567727537698e+00 2.060289261829911567e+00 1.331298337256265540e+01
-1.868918834137206275e+00 3.614213858716496031e+00 1.768418567193582902e+01
-1.697790039002837315e+00 3.151339132969699364e+00 1.710572356807288230e+01
-1.081886294796812198e+00 2.031598315352452833e+00 1.584708313697090176e+01
-9.798678524292190328e-01 1.766274103485942160e+00 1.544794380321292238e+01
-4.069053531735828955e-01 1.114418904397850074e+00 1.590158677602223491e+01
-2.873980781436468401e+00 4.135141717525163685e+00 1.753094171166655713e+01
-3.159735551194210679e+00 1.194755214703938861e+00 1.910540452930941058e+01
-1.693809917939687271e+00 3.008601259237783321e+00 1.687820999945848399e+01
-3.285944605494810489e+00 4.228216515431691747e+00 1.732439435245341031e+01
-2.315756516994802006e+00 3.527061264674311580e+00 1.709505970384769569e+01
-1.347996729807317884e+00 2.340789861157491103e+00 1.607027495934507755e+01
-2.262423144426705779e+00 3.788329365207652177e+00 1.752218600692101802e+01
-2.463462272838693234e+00 3.522386884105862315e+00 1.695396839188011739e+01
-1.849914241124841485e+00 2.866360898116878442e+00 1.645229160144069169e+01
-3.472665917844119043e+00 4.203489854199823128e+00 1.714505200959420250e+01
-2.909820869283533895e+00 3.759243630339139663e+00 1.691251477379958601e+01
-4.857521758937554779e+00 4.254689055141148479e+00 1.635672460909287196e+01
-9.676990054676579689e-01 1.381971628572712163e+00 1.445965931684112604e+01
-8.793352341064870625e-01 1.064004857388548331e+00 1.379412987562543691e+01
-1.084896507963659662e+00 1.473235857547826377e+00 1.441050941396886742e+01
-6.923165536269252129e+00 2.451230653977110041e-01 1.797434394727594764e+01
-3.083657038233635461e+00 3.834131360510104169e+00 1.686974232226850035e+01
-3.468108898526319983e+00 4.053699490745709788e+00 1.688998668210863485e+01
-2.681057157287992432e+00 3.394954823549826362e+00 1.649567349953137807e+01
-2.136837509208804331e+00 2.053326186821530008e+00 1.364750447977953485e+01
-3.072870620409672071e+00 3.759191251349244922e+00 1.674771928228070550e+01
-2.227572187004493554e+00 2.886812591082747570e+00 1.600594149407506706e+01
-9.285510729055124202e-01 1.070217160668472722e+00 1.363431596391042433e+01
-6.364177230791511874e+00 -8.038419211790839292e-01 1.859994182783044181e+01
-1.136960258490119280e+00 1.470414642182614529e+00 1.424301115648184179e+01
-1.326322514372370698e+00 1.634489269889586982e+00 1.425116242112743947e+01
-3.074175507509683936e+00 3.631796808628963813e+00 1.650360650774771187e+01
-2.505384481437843647e+00 3.185301426275872760e+00 1.628191638049106871e+01
6.581530943105127207e-01 -8.805082855979328160e-01 1.757039169634771980e+01
-2.138441477085883946e+00 2.781824826325223654e+00 1.589097723744848878e+01
-7.076708209344366729e+00 -1.544744702481019250e+00 1.844220446691107895e+01
-2.482215328855837289e+00 3.075254715350247192e+00 1.607062761997312350e+01
-3.664742713555820153e+00 4.039213149848150053e+00 1.668944251376839816e+01
-4.086110546388349363e+00 4.090004492134812430e+00 1.649651919881364392e+01
5.258772117370835719e-01 -7.536611371666069870e-01 1.904196112534354057e+01
-4.921332392005499656e+00 5.736339572215714000e-01 1.875000348154771501e+01
-3.498243717055373736e+00 3.839866701364728296e+00 1.649179050627867582e+01
