-2.311477278095193100e-01 1.081998610157052787e-01 2.052593613910780945e+01
-9.450087014998520552e-01 1.257711059566342104e+00 1.547155709187147821e+01
-1.996300206049889781e+00 1.740578654614704845e+00 2.182786505114008335e+01
-1.388013550194374002e+00 4.448785879154515399e+00 2.020945292678307581e+01
-1.631529560109799881e+00 4.613567341802838229e+00 2.009719580642425640e+01
-3.560421286767211146e+00 1.652032141939972831e+00 1.264719158600003013e+01
-5.123076598397607206e+00 6.704645713216217384e-01 1.586326261244411739e+01
-7.604546116384786281e+00 8.972506109380384842e-02 2.064281402869518800e+01
-3.383714501845231037e+00 1.072159455285357055e+00 1.646381873726110356e+01
-5.154471846871714114e+00 4.433747981632833124e+00 1.878408257500322165e+01
-2.168137787678625195e+00 4.615183611597634794e+00 2.006935315392537333e+01
-5.350679138506967192e+00 3.415402321652061257e-01 1.471996106851849717e+01
-8.915704850240363299e+00 7.842092298408680495e-01 1.687878188321553452e+01
4.654008218185584633e-02 2.422456631651913606e-01 1.949986771249834661e+01
-5.366004405844113201e+00 5.091201872837189946e-01 1.429502687023961371e+01
-4.528312197897913727e+00 7.950831250472283340e-01 1.466754982174827049e+01
3.159722315613872068e-02 8.342619266841646564e-01 1.969792140999782859e+01
-8.841590563836461136e-01 2.408215489594575320e+00 1.658617281240788444e+01
-2.996668120167579996e+00 4.721557624976588485e+00 1.964691417330832124e+01
-8.758261378738658731e-01 1.779153492656208702e+00 1.544048467378332745e+01
-3.010169567152061632e+00 3.250609958945744893e-01 2.176640187428503381e+01
-2.189710565195054137e+00 3.130716711475860947e+00 2.107682195827510085e+01
-3.575040256288914975e+00 1.119744601476161172e+00 1.528466072307595880e+01
-3.184193425708645719e+00 4.673100689298382626e+00 1.955187161913258009e+01
-2.001206092824418636e+00 -1.568516796182095163e+00 2.135819228443525120e+01
-3.448610576538605477e-01 6.850299369330150601e-01 2.070221829452207984e+01
-3.024172871780530070e+00 -7.576303494990014320e-01 2.003035227677052532e+01
-2.509341609025554032e+00 3.601147488630612958e+00 2.059132126793701545e+01
-9.692622042727092602e-01 3.740433664165854211e-01 1.753529913056773992e+01
-2.766782243929266638e+00 5.116322866752100573e+00 1.890650316721158575e+01
-7.394874057123772992e+00 -2.664460794194568050e-01 1.568826595942337221e+01
-2.369539033081139667e+00 2.678601912351820324e+00 1.402798589340430979e+01
-2.213516826178955288e+00 -1.323537052311785089e+00 2.225580893258723947e+01
-3.809510842595982716e+00 4.408413964798971740e+00 1.930486136002202713e+01
-4.169581960456871350e+00 3.089608325027074720e+00 1.520676819453106177e+01
-1.600951678587857918e+00 2.179764925422954747e+00 2.172211848131243883e+01
-4.299913894822428695e+00 -8.824839791936792688e-01 2.180485050301338745e+01
-4.189655251269100766e+00 4.423751250529029733e+00 1.912455737407405465e+01
-3.588911565474680820e+00 1.919648951248273061e+00 2.091068697466091564e+01
-3.372867533549513963e-01 2.594086332889359081e+00 1.842562797271262198e+01
-5.633730214041364981e+00 2.075822675613252510e-01 1.644968640005275162e+01
-1.459402057420347010e-01 2.647028746583637293e+00 2.000712334612304133e+01
-8.725205226619937804e+00 1.212045825632508400e+00 1.903946895194627231e+01
-4.452155628596075054e+00 4.464993275020081143e+00 1.899493351536246522e+01
-5.174217466356037853e+00 -7.411016160310845979e-02 2.145991323363762504e+01
-5.925337312618043306e+00 -2.825613418384054221e-02 1.515083873242659962e+01
-3.225997561729130325e+00 2.864775035403169579e+00 2.047657605219799493e+01
-7.659008147148584911e-01 3.281594294644912591e+00 2.082577740275875655e+01
-2.103123570387156249e+00 2.284457732550964071e+00 1.362039359932740368e+01
-4.850683296520311494e+00 3.866949703445001774e+00 1.926629325792059788e+01
-4.779611689253191464e+00 4.394881356383430138e+00 1.892462971132308880e+01
-5.376027499640180451e+00 4.227161176765700468e+00 1.888601504791150276e+01
-5.735068448224341253e+00 3.834221826525286758e+00 1.901251386943863864e+01
-2.962725319166525484e+00 1.785799262358890083e+00 1.249936817342899076e+01
-5.760935700086297295e+00 3.618160476143200022e+00 1.913773521987858928e+01
-2.190059074636193870e+00 3.252969832729492250e+00 2.099736961564253690e+01
-5.196203611230712838e+00 -1.697780220191682732e+00 2.156464751347761322e+01
-6.411748926871442933e+00 3.458238562041517472e+00 1.902308198491722990e+01
-1.455984712426902306e+00 3.694529276399022955e+00 1.765355266047680871e+01
-4.758526097026876123e+00 -5.759260114784124918e-01 1.931240291619277727e+01
-6.995356908467177171e+00 3.262114460341887234e+00 1.904442107546880791e+01
-9.228235038292305070e-01 -3.180112958320654437e-01 1.857760165939783903e+01
-4.851872662734573183e-01 5.338396884029988909e-01 2.105238522345682028e+01
-7.725411602637894948e-01 -8.260738982060008562e-01 1.930890946723534185e+01
-2.449751337665386774e-01 1.491240162506591416e+00 1.651300893153475258e+01
-7.052560071475435510e-01 2.227957353400142004e+00 1.665790058342777868e+01
-8.815850492520404202e+00 5.550539878851015185e-01 1.770950353037282454e+01
-2.395793611842322424e+00 5.095315937260019190e+00 1.914787043786702370e+01
-1.134856448921060412e+00 1.367312288291716360e+00 2.194382489870246289e+01
-1.771344220245126166e+00 3.255858243670961105e+00 2.114223519472222890e+01
-1.565468610538036431e+00 1.102221978558143523e+00 1.549639064257272381e+01
-7.198511409422085450e+00 3.051350463846203009e+00 1.916160726871231290e+01
-1.704275452535505941e+00 4.281241647114597981e+00 1.816856550367907275e+01
-7.721610150345324719e+00 2.790349226935815441e+00 1.914362529580229122e+01
-8.431199049250304167e-02 2.101379726178193241e+00 2.016888476228231397e+01
-2.333238392755960788e-01 1.476015928998433591e+00 2.047171939604703184e+01
-3.972189726839200574e+00 1.429823356478844731e+00 1.280138887062202713e+01
-6.200414589913376240e+00 1.652107494662050868e+00 2.024604915716558295e+01
-7.335905514334459809e+00 2.412603043150813420e+00 1.956281256116936262e+01
-7.595919445700267225e+00 1.073215248910060371e+00 2.023709179676626846e+01
-6.081609422959479261e+00 1.962822005718197538e+00 2.013259977619259544e+01
-3.629526473224750305e+00 3.389980320982567186e+00 1.533261464208681346e+01
-1.153091780613920259e+00 5.290443977844755397e-01 1.729842188843167960e+01
-1.769928335238165396e+00 1.445853423758204581e+00 1.406882850129586160e+01
-8.913486838402409518e+00 7.766964640314817370e-01 1.703297288668916210e+01
-4.371210316340568447e+00 8.972568816456401031e-01 2.122408740122657989e+01
-7.964301425525113665e+00 -1.230798074693638222e+00 1.772680206863360652e+01
-6.620708423823359112e+00 1.789578428176274549e+00 1.560795611933579252e+01
-2.172508631680563962e+00 1.221099872085147364e+00 1.445844033229267822e+01
-6.204005016311802123e-01 3.677182782931147642e+00 2.022944294648975117e+01
-3.816548049346583760e+00 3.360680113600140739e-01 1.844081732483408231e+01
-4.905718938082185510e+00 6.139093718621023710e-01 1.461529970389478805e+01
-8.715277323318492364e+00 1.778358996368349931e+00 1.857382989162849540e+01
-8.264388170918309129e+00 -1.417956420428046149e+00 1.910147472478311315e+01
-7.937680633930273011e-01 3.849669351299357167e+00 2.037609516349890626e+01
-1.293008247317496417e-01 1.743172585186223422e+00 1.708917602935239088e+01
-7.789459827757696964e+00 1.658253929961796214e+00 1.989498355411281594e+01
-2.172500158798919667e+00 9.497810123840668695e-01 1.729820220805172326e+01
-1.977711003982478566e+00 3.324231415949419510e+00 2.105403967876081239e+01
-7.421930806924571300e+00 -1.893628220941120821e+00 1.957214048372167881e+01
-9.557186573846261357e-01 3.909161875784459284e+00 2.045027428996382568e+01
-1.186359280926734927e+00 4.091524437833188088e+00 2.042759984329472545e+01
-8.246189889889198099e+00 -9.031330485610608028e-01 1.765630363598777208e+01
-6.240497388129712775e+00 4.695658938978176877e+00 1.811975287794389899e+01
-3.159760224200085066e+00 1.118713549595498291e+00 1.486931552383887123e+01
-5.956836780494151995e+00 1.903114335282811709e+00 2.020424412856539576e+01
-4.648417405773264122e-02 -3.554946399129204071e-01 1.956919884182773828e+01
-4.559645064482372723e-01 3.260420334046636448e+00 2.038009184686925934e+01
-5.766090626486467308e+00 2.048051769707888159e+00 2.017591800876374108e+01
-8.914639218645586283e+00 9.927359149509937808e-01 1.843729828459598608e+01
-3.793747466643541344e+00 2.302117511175055586e+00 2.069582022197655746e+01
-3.758939938931832536e+00 -9.437518605539159111e-01 1.992233385547669755e+01
-4.111647904128161279e+00 1.043848490393489481e+00 1.365101684326645426e+01
-1.367479956143280218e+00 4.282638602123832072e+00 2.034608242973054715e+01
-1.594312154351368971e+00 2.991991795371438556e+00 2.130522748819624113e+01
-7.540151910152613546e+00 -9.887629006233760176e-01 1.656931703732391625e+01
-1.967776999312095043e+00 4.397028313669433253e+00 2.028629057095905708e+01
-2.250125129803697721e+00 3.361385948769383791e+00 2.089821512354872013e+01
-1.581958820932851006e+00 8.368667085462344613e-01 2.218377585746918257e+01
-1.646358790770623859e+00 4.354268919247914482e+00 1.843639668288003364e+01
-4.826656596444680147e+00 -1.842527294713481867e+00 2.078215284826775999e+01
-1.967358371649380100e+00 3.486135874223682762e+00 2.095393183363318101e+01
-3.356425176713253578e+00 -1.608867575900992941e+00 2.170572906844520489e+01
-3.937302210040805939e+00 1.068755310368495692e+00 1.641979816156139904e+01
-8.177966168162438265e+00 -1.527792328800163579e+00 1.917589814199814313e+01
-4.620895665654226825e+00 -1.286916690130779806e+00 2.175103043587362706e+01
-7.826731729866913234e+00 8.127460120460844317e-02 1.581182716203843341e+01
-2.011770218999626270e+00 4.510214650635119504e+00 2.018793690020429565e+01
-1.377229666341399206e+00 3.783332030743294716e+00 1.800351416752438283e+01
-5.818853892572874109e+00 -1.842308159240501286e+00 2.043665593390344171e+01
-3.555690203286237860e+00 1.131881125363203511e+00 1.547492303473674369e+01
-3.086964516154460991e+00 4.564849099663333298e+00 1.965979202247647706e+01
-2.169488090335538022e+00 9.999503501506907810e-01 1.671554465755276553e+01
-8.740725820250688116e+00 2.294101531186061305e-01 1.765839470112220155e+01
-7.957615303602760370e+00 8.860139488264415775e-01 1.587007038554781957e+01
-8.863910502395022206e+00 5.129714500775401920e-01 1.800133235860764458e+01
-1.005307502110668549e+00 2.630599700891167902e+00 2.134533302294140711e+01
-3.255486520614114809e-01 2.862314197080900957e+00 2.023273869479579545e+01
-3.639131297060600900e+00 4.304017951915425577e+00 1.944658318352933790e+01
-8.334061905924762925e+00 -4.026178653707561117e-01 1.676388465755484347e+01
-7.502038101633765610e-01 -6.264552065134212366e-01 1.896823979329925791e+01
-8.288152324750438282e+00 -9.309821838430409890e-01 1.999213974157055773e+01
-1.787538453501734903e+00 3.482508483272070077e+00 2.098389152474841879e+01
-3.354154631069389492e+00 1.120462347347622067e+00 1.425156007264667579e+01
-3.907558640348201884e+00 1.138011088479226718e+00 1.341243544349966044e+01
-7.103869293332647494e-01 3.233786713281414205e+00 1.864319016915301219e+01
-5.735579828637734856e+00 1.100981935218561247e-01 1.670303107346973448e+01
-2.074026114040484980e+00 2.101925632545354361e+00 1.337963563594815497e+01
-3.785055624331512547e+00 4.248520166703598555e+00 1.941655049154062951e+01
-3.001910261688732984e+00 -1.317422642486141271e+00 2.195406756739793863e+01
-5.004154607747728356e+00 3.491504276268692752e+00 1.944667144521750757e+01
-3.814251915385154845e+00 -1.316329790431945701e-01 1.911882678677411818e+01
-2.159251750275168913e+00 1.326332394611745125e+00 1.407858245443910761e+01
-1.232377486813365897e+00 1.630289547077188983e+00 1.448139998105139625e+01
-7.427205797297681045e+00 2.037779393522469729e+00 1.653915686731826540e+01
-4.153091566471762697e+00 -1.803062672983258174e+00 2.118957663926611801e+01
-4.378985225086186261e+00 4.388716114025647208e+00 1.907731787486978803e+01
-8.959059879061065601e+00 1.246176700183957431e+00 1.803403510224203998e+01
-7.223369928428007292e+00 -1.342712665123532156e+00 1.775712746279361554e+01
-4.567114080264005338e+00 4.232378661555209476e+00 1.912309119814765879e+01
-2.526411866634088010e+00 1.317296039560296173e+00 1.383642283669490070e+01
-1.765192943789185342e+00 8.049071986756692887e-01 1.751063603598567298e+01
-2.988077486999107801e+00 9.071384867408212038e-01 2.152787244410749778e+01
-8.258173023325870332e+00 -1.223247161705036667e+00 1.851080682888006024e+01
-8.894654671889117736e+00 1.593478562634814910e+00 1.761127961899878969e+01
-5.957445649705461754e+00 3.830624560382440258e+00 1.895060429547350012e+01
-1.431813659584962872e+00 -1.241590969633679986e+00 2.058698750393389432e+01
-4.452962566423844137e+00 4.653694494093206790e-01 1.797464365566125721e+01
-4.716725012996467292e+00 4.241258625521892256e+00 1.906581703124740201e+01
-3.002589725474863691e+00 2.682470761669820458e+00 2.067230128830700764e+01
4.666976918554832654e-03 2.932584517454339679e-02 1.914612315979304569e+01
-8.898984671263782786e+00 6.497982097311425509e-01 1.823975483240818463e+01
-4.928535368063827526e+00 4.379957864175676896e+00 1.888789690216185235e+01
-6.201786178659900450e+00 -1.969042311709342075e+00 2.075470142450331323e+01
-7.343673549486489094e-01 1.155687153712020354e+00 1.585700081109992610e+01
-8.767788632904341739e+00 2.168980576392612880e-01 1.788117525338343583e+01
-1.168289756948906133e+00 1.078458891090147365e+00 1.569300135492068193e+01
-2.741570827135686450e-01 2.518319540514350585e+00 1.852918844198108062e+01
-4.977858590630188651e+00 4.169629904483562299e+00 1.695404523065493052e+01
-5.177785395571858906e+00 4.227432345989529772e+00 1.893334857024715845e+01
-2.943132821350955552e-01 2.259573310421745251e+00 2.048457325170045706e+01
-5.380890331183783459e+00 4.042052659300270356e+00 1.899507915587111384e+01
-4.174536136141057119e-01 1.690150623792928908e+00 2.087942027167592940e+01
-5.436146862703907345e+00 3.922578543040264876e+00 1.904720344984470515e+01
-1.165463026937784141e+00 1.508458098579986695e+00 1.466371755694716583e+01
-2.863957210362565453e-01 1.499394240181250337e+00 2.060131832497635784e+01
-5.563048521672188329e+00 3.780324531790978604e+00 1.909351641837909952e+01
-5.586324649532508957e+00 3.688685060791836001e+00 1.914347316682868794e+01
-1.530948525593004428e-01 -5.829168371071221655e-01 1.955263488426531993e+01
-4.373214832053959888e+00 2.633038616386901509e+00 2.034048486811142809e+01
-4.331615918082573069e-01 3.072538521801024380e+00 2.043113513985352014e+01
-2.128333307181144995e+00 4.387646071180708596e+00 2.027564858833893524e+01
-7.783591130322702334e+00 2.731947369473082254e-01 2.049430825596801853e+01
-8.572185252242569220e+00 1.068270280790747595e+00 1.943791943972651737e+01
-5.821035996742184082e+00 2.364740696584418878e+00 1.557860284021981201e+01
-5.395303903439778281e+00 3.642675478873045769e+00 1.922822980010825589e+01
-7.387510365217477393e+00 2.886007045120988934e+00 1.922837390109772926e+01
-6.137543314277266404e+00 2.690757919670089482e+00 1.620263949802538761e+01
-1.793975789955734701e+00 -1.046587003186552067e+00 2.231507832630074617e+01
-1.397459961323614275e+00 8.003434190133662529e-01 1.653667770441598250e+01
-8.938050443264700107e+00 1.362920865619138500e+00 1.765210480965972906e+01
-8.432431605660742235e+00 2.817469314536843683e+00 1.797557096372254293e+01
-4.265187607838677231e+00 2.800843431654854054e+00 1.486670874543434806e+01
-1.881189303449116501e+00 1.869898222189855019e+00 1.337342168815034782e+01
-4.197947662989590434e+00 1.223255313114694376e+00 1.304490461573824334e+01
-4.620741753796210993e+00 -1.751855093233563032e+00 2.056555766584832057e+01
-4.659527537772697459e-01 -9.275798232530014786e-01 2.073640457298992956e+01
-5.977651868094009835e+00 1.252543944571221868e+00 1.443230709539916745e+01
-8.932966484223516801e+00 1.390546778845898279e+00 1.744673341357198737e+01
-8.862455204768842520e+00 8.038857368149747717e-01 1.731018204758830947e+01
-4.779843765731338401e+00 2.651655066711504194e+00 2.013749161882692462e+01
-9.584958905195828383e-02 2.254924616702427720e+00 1.886584645222369616e+01
-3.948774471163262412e+00 7.121149228216756555e-01 1.764828255244070121e+01
-7.514265763784925056e+00 2.106328180117129634e-01 2.064282329256282011e+01
-1.770127955129189523e+00 1.691518625149864619e+00 1.347751911808887471e+01
-3.172656721904410393e+00 -7.481765715574748565e-01 1.996774465924879038e+01
-5.682691415565705562e+00 3.143979606109875702e-02 1.526174529747921937e+01
-3.611880587073295068e+00 3.498265272001874759e+00 2.002636882546688568e+01
-1.179270848596323917e+00 3.881918244657433625e+00 2.057195248470923943e+01
-4.149601118588502890e-01 3.271987930524489219e+00 2.003700446922256972e+01
-4.376753688292651212e+00 -1.768137812500743200e+00 2.077930281488778874e+01
-1.594325035487830666e+00 4.277520621974447046e+00 2.038001875608813052e+01
-5.188495944078973743e+00 2.649917864391184263e+00 2.000065138703008571e+01
-3.350907143429510793e+00 1.116948833587952494e+00 1.588449362058827319e+01
-3.040266817436587221e+00 3.834616560901833004e+00 2.006406982966860753e+01
-2.413078639722748164e+00 4.315489851812607469e+00 2.022945641877724299e+01
-7.591972405889606534e+00 -4.877036908682298444e-01 2.079011875721463909e+01
-5.157313642277898680e+00 3.591506519021171684e+00 1.932267573246065595e+01
-3.704946996154579786e+00 4.157095443032474691e+00 1.950800457994229120e+01
-4.302612095594160468e-01 9.909889051658287151e-01 1.653211426117902150e+01
-3.212826902572144760e+00 2.492891980727305334e+00 2.068222234704084528e+01
-3.298195512809674934e+00 1.057250355808681208e+00 2.138302145597073789e+01
-3.375260682079681551e+00 4.038700901887755101e+00 1.974412625611177319e+01
-5.374667358567033482e+00 2.697118880147736597e+00 1.561051826933826803e+01
-4.183109783393325287e+00 4.200357777311550578e+00 1.928752002037784408e+01
-5.816957098794086178e+00 3.472195547465076526e+00 1.921148910368674123e+01
-6.343032614760168109e+00 -6.437504476755784300e-01 1.772612238437964649e+01
-4.777938569614765818e+00 5.013557085331792340e-01 2.129416381512789869e+01
-3.714307002614879671e+00 1.220363166382871123e+00 1.324330546827578914e+01
-1.961749257392695345e+00 1.354670235867951211e+00 1.414050239297674949e+01
-1.975976288610472142e+00 4.148776573725929673e+00 1.737257619919014573e+01
-6.182994451196022645e+00 4.026648215680069143e+00 1.876669932887275039e+01
-4.370785056810768232e+00 4.257703671368943787e+00 1.917527423167315348e+01
-6.405178714811200713e+00 2.055827591713115243e+00 1.997357761014710675e+01
-4.796819469527308755e+00 4.272090902492739595e+00 1.901838863018929615e+01
-7.621115225612300925e+00 -1.046972715313961633e+00 1.673157372084031991e+01
-5.206358275028516225e+00 4.028504312216099947e+00 1.904662848966138355e+01
-6.776396388444102747e+00 1.074492870835705993e-01 1.492992312071724825e+01
-3.934287469697445694e+00 9.747627833843846012e-01 1.425337159714318958e+01
-3.828044910617386387e-01 -9.088902211450904378e-01 1.997552116216400364e+01
-5.388164947817064565e+00 3.435902919015501045e+00 1.937057702027302142e+01
-5.581457963617744156e+00 2.713437037754392378e+00 1.579889807193998053e+01
-1.974102504959116544e+00 4.827725542294971639e+00 1.875664188761126283e+01
-8.186057870950335769e+00 -1.509436589794833417e+00 1.973775396900211021e+01
-6.772737243625021053e-02 2.434679106014637551e+00 1.982068110691629315e+01
-4.178766387154023931e+00 4.954934261762701908e+00 1.817304173498854070e+01
-5.756746542420525081e+00 3.296615693068184250e+00 1.934697237897487199e+01
-3.140692565817757131e+00 3.964096566802969512e+00 1.992685489932542353e+01
-3.410850237075090163e+00 1.139526798717807043e+00 2.134679925064528661e+01
-1.606308233210224978e+00 6.247114832684059760e-01 1.771866489837333702e+01
-4.373074163826582428e+00 2.955532087770042615e+00 1.517612020756159197e+01
-4.595039911949162281e+00 1.140224137590967191e-02 1.869223750832416542e+01
-7.941226928499401261e+00 2.022713158841323189e+00 1.960156623429908862e+01
-8.486766798350822150e-01 -8.697371329017313801e-01 2.150825443369877732e+01
-6.767063785320597269e+00 -5.395675887836417495e-01 1.573500709759336758e+01
-1.037197775633907915e+00 1.171942422285277008e-01 2.192087638844483521e+01
-7.926857548386485597e+00 8.594182938821752771e-01 2.019316243312968950e+01
-8.963400052753652147e+00 1.195227194654105984e+00 1.765941991549543744e+01
-5.383614238019410969e+00 -1.642608412307482446e+00 2.152414295609970551e+01
-1.433987457887126560e+00 2.682573645059890932e+00 1.582873171448687089e+01
-8.919162377589749724e+00 1.018111015448665890e+00 1.722551543282501640e+01
-4.967073722973061045e+00 3.048936067668086558e+00 1.980286630683013627e+01
-6.352734269349998186e+00 1.490462926867743843e+00 1.503642879622810113e+01
-4.572796214008437943e+00 1.087755808090283161e+00 1.326524897000748737e+01
-1.612505177221223107e+00 1.231638062363630826e-01 1.864116617095170980e+01
-2.845830221020700712e+00 3.703604325454646906e-01 2.179384091453939121e+01
-3.887405258314449163e+00 1.006046297865890171e+00 1.529186807895160172e+01
-4.407557456198834878e+00 3.655818582164866548e+00 1.962978747988453065e+01
-2.795138484468858486e+00 2.139812195398871797e+00 2.109644256190076206e+01
-6.167598274596759467e+00 -5.926157346325093833e-01 1.850462319665288291e+01
-3.937496138620848463e+00 9.344573111447118663e-01 1.470007503823489969e+01
-4.360505663640829255e+00 1.216659265356654140e+00 1.305539671475552410e+01
-6.193936233180639128e+00 4.209927539606927560e+00 1.749606299995124559e+01
-6.383118706153015687e+00 4.185910236411507057e+00 1.756063672035464762e+01
-1.561119843579192423e+00 1.662873406306450086e+00 1.387446089337002775e+01
-3.378850710250782985e+00 3.641543953733079153e+00 2.000478243029067116e+01
-3.995668936402796412e+00 -1.457393624131606558e+00 2.024791360704793775e+01
-4.200288782411682575e+00 7.399414835031068449e-01 1.748557804311170472e+01
-1.010688655934536939e+00 3.837925917195852854e+00 2.054230224573116104e+01
-2.782136858700411164e+00 4.064868223195827746e+00 2.013841629390548960e+01
-2.977190716236408630e+00 4.048783844052909586e+00 1.999988544288798309e+01
-7.367492604793824285e+00 -2.053502948299911424e+00 2.012446306056469680e+01
-1.568912045104110975e+00 3.121669399529673150e+00 2.122486202538741296e+01
-1.600988271488946735e+00 4.061511824826239625e+00 2.053843636541067852e+01
-6.780009607353992607e+00 2.647508701991532654e+00 1.947494177894742862e+01
-2.615333863382977242e+00 2.914003385431705340e+00 2.088514653728912762e+01
-3.770387039296315024e+00 1.913185742567282244e+00 2.087620484527878872e+01
-7.424558116306644528e+00 -1.559834079320778555e+00 1.876274627341987511e+01
-1.509062095363840506e+00 2.555016389068212490e+00 1.542410327153881866e+01
-3.653406608102343966e+00 -3.092865968232331730e-01 2.183542567070243123e+01
-2.953417674358663092e+00 4.232861630152683574e+00 1.992055406641314264e+01
-7.930951368395384726e+00 8.929639160935498587e-02 2.045747034011701615e+01
-7.362914164741948930e+00 -1.360196397319228367e+00 1.760210265070034907e+01
-3.385511097640805822e+00 2.884540919856535268e+00 2.042206394398091973e+01
-1.699232343634721198e-01 -3.942338247001376805e-01 1.914736533064062129e+01
-6.618916935027121973e+00 -8.068640899286780854e-01 1.618603265989370854e+01
-3.172924314344692132e+00 4.233905430570880313e+00 1.975916380593786315e+01
-4.014963390096865758e+00 4.008818663691839923e+00 1.949052286386715238e+01
-8.721411134133173704e+00 8.678325155848709560e-01 1.920478105520692580e+01
-2.006257324070301440e+00 4.273248891125427384e+00 2.037401176780455003e+01
-4.193035654675193236e+00 4.024662059874455800e+00 1.941704978810456694e+01
-3.557685773526335637e+00 1.110495834960095740e+00 1.609930031231087000e+01
-1.169395645346033241e+00 -1.327306943611691104e+00 2.080004986738820705e+01
-6.740199845549057933e+00 -1.407187597721052397e+00 1.915099970103372939e+01
-5.625038457856587293e+00 2.911182754205034584e+00 1.965125985843333822e+01
-4.366699138308955952e+00 4.033548106167930136e+00 1.934577725132704629e+01
-8.179429663715037435e+00 1.319373157114588135e+00 1.646164758682785489e+01
-6.082797703809507794e+00 -2.746407138834069395e-01 1.754716321701175374e+01
-2.597189304480459260e+00 -9.091970986147362987e-02 2.206419300585849541e+01
-5.802866635815510321e+00 2.491475204161992085e+00 1.986451226852926411e+01
-8.312562893130515107e+00 1.430639760383275672e+00 1.963150748279585756e+01
-7.752271639345758025e+00 -1.879218929784777670e+00 1.956064331357228170e+01
-4.583117854200347452e+00 4.005368698928375437e+00 1.928281372057054099e+01
-8.361494743424579212e+00 1.166902810782580735e+00 1.647300943428357201e+01
-5.915429101234283671e+00 3.971244685006708686e+00 1.888530736613232008e+01
-6.639647661981459947e+00 -2.042341640461970975e+00 2.036100382476010751e+01
-5.004770485947137360e+00 4.055887679829200287e+00 1.908898547704695758e+01
-4.592678119917279922e+00 1.701045737463342977e+00 1.359734783127082380e+01
-5.023593283275989307e+00 -1.981613631732603853e+00 2.118059300317567661e+01
-5.176635853423302791e+00 3.833417997745069528e+00 1.916383584508151117e+01
-1.731128278244157492e+00 2.918559025529109174e+00 1.560574739449938519e+01
-2.553008028984545597e+00 8.520712439954343242e-01 1.768303949411928144e+01
-5.388190647502574926e+00 3.064852182940598357e+00 1.963227578780196225e+01
-7.145676970569494912e+00 2.199551636539962551e+00 1.973673618276724895e+01
-7.385679011955392781e+00 -2.037694061004802215e+00 1.997567885142291644e+01
-2.531253703707857294e+00 3.596722065084651643e+00 1.592227966271649819e+01
-3.011927773893688709e+00 -1.439595878646227955e+00 2.078361368344498672e+01
-5.799642920824376269e+00 2.718734376976565503e+00 1.597579606422410947e+01
-1.254650310385385659e+00 4.387935174787513048e+00 1.959278724399760208e+01
-8.529517543509467004e+00 2.029081036698223262e+00 1.881807395336793221e+01
-7.792936755244038061e+00 1.860135284158856983e+00 1.978135435604490411e+01
-3.978401785597206697e+00 2.265565642721058204e+00 2.067239679383691353e+01
-8.940397359286862411e+00 1.188793223588764159e+00 1.822498976939842308e+01
-6.770738062143281333e+00 4.374461278155046706e+00 1.794703275279579557e+01
-8.925247216459752053e+00 1.159221550735899831e+00 1.723673208273575952e+01
-2.508059133061367074e+00 1.038786531177078087e+00 1.529569391217129848e+01
-6.619738075246415221e+00 1.968624989156033234e+00 1.581313974233439623e+01
-1.195946809561582169e+00 8.189770219402341400e-01 1.633259419661434819e+01
-6.355631408453510822e+00 2.399825958541468740e+00 1.974150516320704796e+01
-8.797166747713710322e+00 1.437556900704312524e+00 1.861544915035349490e+01
-4.360229140590950792e+00 4.719341271202583954e+00 1.779809990857986080e+01
-4.769261424329721777e+00 2.097332269958531281e+00 1.423741672427782490e+01
-1.346271689322856790e+00 4.239778521581293091e+00 1.896584198478729277e+01
-3.412094369844001385e+00 1.045115922855126778e+00 1.659648958807755648e+01
-5.513770616551910031e+00 3.875623579160948573e+00 1.683762018156966533e+01
-7.566285611432661540e-01 1.695084888345455898e+00 2.148581741635979725e+01
-1.520665453572906722e+00 8.642136264589445060e-02 1.853291328823465633e+01
-4.200918819512218683e+00 4.641548909295198921e-01 1.811511507365285567e+01
-2.337984763269405075e+00 1.415441332321690338e+00 1.366199029215717076e+01
-8.923603497199451340e+00 9.674861209537104489e-01 1.702103020686859125e+01
-2.918482058139948432e+00 2.644492429525950428e+00 2.075281108076974945e+01
4.789652343345418561e-02 4.685690344166532073e-02 1.974665434928519048e+01
-8.892212938104840703e+00 8.069668354602415050e-01 1.674297643712668204e+01
-3.809724263953135903e+00 1.477389132079268919e+00 2.113473851478610399e+01
-7.472043032702735399e-01 1.057809833277681300e+00 1.601363140739705671e+01
-6.440152393988365365e-01 1.690470820368646709e+00 1.584332825579927828e+01
-3.608844733075857736e+00 3.670798919254260717e+00 1.992841492892945965e+01
-6.582954179295387398e+00 2.250846287018656966e+00 1.978929949804755850e+01
-1.665838087317387028e+00 -6.069961613419485591e-01 1.969815492356391573e+01
-2.763485870831699831e+00 1.232475654592780856e+00 1.404024197396910623e+01
-8.795910168263496587e+00 5.808339304225170752e-01 1.664733046034337960e+01
-6.750252414783489918e+00 4.794031080908875975e-01 1.486282906273915216e+01
-8.732053822576791191e+00 2.032202158759278676e-01 1.709190018882555862e+01
-1.420335765379528326e+00 1.538640662955363059e+00 1.427626873697110810e+01
-3.348097456296473595e+00 4.173369771272292361e+00 1.968164336819403459e+01
-6.317558772858919092e+00 1.380008900078244283e+00 2.035012102213817897e+01
-5.154341652464408341e+00 7.381945645659127031e-01 1.393999135604700257e+01
-7.396891123376536648e-01 3.504655870573269105e+00 2.065705094627567107e+01
-3.765098634699991287e+00 4.642038213236320487e+00 1.771658816710403173e+01
-8.011042775444361386e-01 3.654663128594342503e+00 2.059230700044053108e+01
-4.368039337018878143e+00 2.093267460729986151e+00 2.060862821051926019e+01
-5.960778601764996409e+00 4.431874357687606292e+00 1.857165478208604625e+01
-2.776113929197573604e+00 9.963802251158224710e-01 1.667490357602597228e+01
-8.462053693678750932e+00 -8.547555200472444215e-01 1.846624432608114219e+01
-3.937537627009525920e+00 1.832040722198980731e+00 1.307032109435196432e+01
-2.963453759289191858e+00 3.836352817227040468e+00 2.011788369984161662e+01
-2.375153124371990998e+00 3.102077533185805702e+00 2.096820332246653962e+01
-3.956666019202863538e+00 3.881849530729584608e+00 1.961952564888461481e+01
-4.419938879126463327e+00 3.884790268776362687e+00 1.944198817028410886e+01
-4.184613174873129005e+00 3.081281835765020682e-01 2.151819549806491594e+01
-8.389042077186041890e-01 3.492592588682347898e+00 2.073985717784626459e+01
-7.944325484178656360e+00 -1.494676722882020803e+00 1.859669212578230102e+01
-4.587537039944267647e+00 3.835445847939372044e+00 1.940790361569124300e+01
-6.948303095894960535e+00 1.949307443813494523e+00 1.990272260526527859e+01
-5.592607753160817596e-01 8.993064119882836494e-01 1.650222561756692485e+01
-5.549207168024249626e+00 4.950465385229775306e-01 2.108672386001353161e+01
-5.017893472269215671e+00 3.864276691107927597e+00 1.919490418019561773e+01
-2.359836589527372741e+00 4.042954485732657588e+00 1.689919013580573548e+01
-4.964028840562584755e+00 3.616268968142239526e+00 1.937506752549039035e+01
-3.517552998186742386e+00 1.337083172272341747e+00 1.300787770568096846e+01
-7.553314607679241455e+00 1.468067834911052971e+00 2.006303477951819403e+01
-4.788100686540518458e-01 2.101064215247984368e+00 2.086511618221096498e+01
-5.384927988080265848e+00 2.154502908963765728e-01 1.769682644699446072e+01
-5.834796004505222733e+00 2.624138635556722221e+00 1.976568005096953229e+01
-2.854416508145782849e+00 1.563925443000845794e+00 2.129213154322880897e+01
-6.996858109134730164e+00 2.209757039778682763e+00 1.975142657952516245e+01
-3.819230020581103613e-01 9.314124283081697264e-01 1.670488163406162485e+01
-1.370733421424056964e+00 1.285316689590968675e+00 1.506120337899631068e+01
-8.910260898993730194e+00 9.772882274498384536e-01 1.746775081091047710e+01
-7.756791160996484358e+00 2.973689902096723348e+00 1.740518833928313214e+01
-1.628601837836763710e+00 1.686171934824497676e+00 1.372766699624508036e+01
-7.778539098098247173e+00 -1.910903614717190058e+00 1.978534987290257519e+01
-5.871858285508715802e+00 -1.638126089698328791e-01 1.659952402691728324e+01
-1.343714570343550685e+00 -1.042201005562388705e+00 2.201109217903760040e+01
-7.168342036145659790e+00 2.053242053934782430e+00 1.981282804921279350e+01
-3.541287750693024039e-01 -4.366662767637440323e-01 1.890225814982241204e+01
-1.727943272038728217e+00 -1.365041987907181231e-01 1.919969341326297396e+01
-8.943355668206468323e+00 1.025833805275969235e+00 1.828179403096948263e+01
-4.943188549947962862e+00 3.774843517385909841e+00 1.928604195966946477e+01
-3.106160350168472917e+00 6.394519878767482846e-01 2.161548754594500465e+01
-8.043694770910565506e-01 -1.285426448361426610e+00 2.093422530145306482e+01
-4.580823818463782615e+00 -1.788807972885407160e+00 2.072667177870347288e+01
-9.836140908999464472e-01 3.392277567111607439e+00 1.820244373613511257e+01
-8.972204892396369758e+00 1.018627732232501915e+00 1.803370410648501476e+01
-4.395280208984088333e+00 5.298407483497479253e-01 2.136184870080349540e+01
-7.859852270438470789e+00 -1.611191591263469725e-01 1.601831737435117020e+01
-3.589444892896986428e+00 7.866698046389766219e-01 1.746823577068171218e+01
-2.571864228075768644e+00 -8.284351491253070243e-01 2.026603342987736411e+01
-3.585742728687299596e+00 1.124388815813572196e+00 2.135035023381913177e+01
-8.965576559796108569e+00 1.007797582594668340e+00 1.781861750376377174e+01
-8.899645772488234741e+00 5.426610758538282786e-01 1.682900492793190850e+01
-1.489731183419427119e-01 8.298887800561409733e-01 2.027188448695904199e+01
-6.137732270198225315e+00 -4.999673647467108850e-01 1.613759072695999208e+01
-5.143553291368813341e+00 -7.590267907133588787e-01 1.937173736809726776e+01
-7.551283696259973865e+00 2.631711552537082444e+00 1.935075640821665033e+01
-6.760582272210058363e-01 3.608734017721335174e+00 2.053516842915064089e+01
-8.736982495661575143e+00 1.991178164695013297e+00 1.820837060868062807e+01
-5.896395499074677637e+00 -9.945491498882613746e-02 1.695949319194005867e+01
-3.055222914490900887e+00 2.576644414298572272e+00 2.069603152338767060e+01
-3.987584190150129437e+00 5.171359192179752817e+00 1.875914259028014541e+01
-4.805732875848398145e+00 9.180967959273134138e-01 1.366855044004720199e+01
-1.437220415172853150e+00 3.960041603658697618e+00 1.819227087257258191e+01
-1.185846564063846698e+00 3.338068942719489840e+00 1.762159978673405547e+01
-6.194573755054658015e+00 4.246500220589799923e+00 1.861520853312499568e+01
-6.358402238880230151e+00 4.234854214398525052e+00 1.856115257199353508e+01
-3.340763397744524354e+00 3.818901118270790818e+00 1.991013850401231267e+01
-1.008549551358029150e+00 4.045179984102798443e+00 1.956481466746707909e+01
-5.198850905689908153e+00 2.200042677188838169e-01 1.789863073149499328e+01
-4.009713919493609779e+00 3.327382074492804431e+00 1.540512742786566136e+01
-3.098523588140926766e-01 8.748902556790347784e-01 2.057836216847828226e+01
-2.973307586482123011e+00 1.068901839272444976e+00 1.587889416419130129e+01
-8.609844381874442121e+00 -2.593086517809691793e-01 1.768600228228037352e+01
-6.785009081589811863e+00 2.434616162107595017e+00 1.962039512495311655e+01
-6.613173169947136110e+00 1.710175585939589737e+00 2.010220965322463726e+01
-3.823666246961164639e+00 9.676387531813988030e-01 1.470967032631884663e+01
-3.569795582671919210e+00 3.729160551054013339e+00 1.597875917380772393e+01
-3.352968020692520756e+00 1.113718513763672258e+00 1.468224744864098241e+01
-3.434827137904981065e-01 4.858342734192339085e-01 2.072275864488350194e+01
1.642979676672096101e-02 7.998224161739413418e-01 1.791827295670080744e+01
-2.154385743528955732e+00 1.624173773976352653e+00 1.325154710689710669e+01
-3.005699447400900670e+00 1.136152259508096396e+00 1.462008532501187119e+01
-1.373542639116910546e+00 2.720740656546185576e+00 1.603604912769446145e+01
-2.353735385932601343e+00 6.521588948204724012e-01 1.812427966807100788e+01
-6.910874947630414766e+00 2.885361699307178895e+00 1.687377813490676814e+01
-6.152184189111413737e+00 1.412376239334472983e+00 2.037101485950046609e+01
-5.806990054582735539e+00 -4.668608479815662404e-01 2.139874216304718502e+01
-5.716621679428634195e+00 1.180393315315918290e+00 1.412714639652879356e+01
-4.813274550364076809e+00 3.204568759362862007e+00 1.578178934117083543e+01
-5.543886478414716823e-01 1.915225429696858050e+00 2.105396765427086692e+01
-4.351974151788390310e-01 3.263696827023962577e+00 2.021512099551313568e+01
-7.324993988508634146e+00 3.781515813858924879e+00 1.851127588375577560e+01
-9.589305681953252947e-01 1.471694384000416855e+00 1.507653542541855884e+01
-1.362598127370080014e+00 2.087689580595269323e+00 1.487528225791157865e+01
-1.943351449329858927e+00 4.049996816546442169e+00 2.054786481676765320e+01
-4.780184669850482848e+00 2.744606353405735000e+00 1.518042689718112115e+01
-8.760030530564183238e+00 3.633246480806011647e-01 1.665600791093702426e+01
-8.307134940735881656e+00 1.580405085983578095e+00 1.954846986546094101e+01
-5.676014090847892879e-01 3.292285483015673808e+00 2.060717195210728292e+01
-1.866100035604035146e+00 -4.205250201598076387e-02 1.926781352690374050e+01
-4.587717887865209399e+00 -1.042680543659957770e+00 2.177050821218164955e+01
-5.759084167238023078e+00 8.630834950976928877e-01 2.080785335120064516e+01
-5.441757611331009770e+00 4.055713842099663013e-01 1.610491924716702172e+01
-6.338903552517882733e-01 3.414351732585367838e+00 2.061792632176737428e+01
-8.403736383343552774e+00 4.464552349667478826e-01 1.987523437842434859e+01
-4.832538403013065142e+00 6.433549740263119210e-01 1.714381171127476122e+01
-2.793507005429486600e+00 4.347059154426119676e+00 1.735268979673334755e+01
-5.911174880024615774e+00 -9.120853939286905909e-01 2.144946481986464093e+01
-2.016300472254339393e+00 4.808686869576280110e+00 1.988920258730489721e+01
-2.802792869061493164e+00 -1.506952154463536253e+00 2.117726185110620563e+01
-1.592897281817570176e-01 1.060268140285461458e+00 2.027708258575144740e+01
-1.161300908600620740e+00 3.544545493713999740e+00 2.083533371202885220e+01
-2.321819295970615205e-01 -6.975843540508412932e-01 1.957391715528097009e+01
-3.552312776086210544e+00 3.372270818087842237e+00 2.010729984801669801e+01
-5.705514346054336716e-01 -1.105495075653159853e+00 2.076182549964992674e+01
-7.416521736931606767e+00 -9.170871245234720748e-01 2.095544899134455008e+01
-2.602512191677878839e+00 3.089084055773291926e+00 2.080747811704251760e+01
-2.971731699857291353e+00 3.671655433882409447e+00 2.019814847379906197e+01
-4.781167955473131670e+00 -1.907358318161811894e+00 2.097796759349650486e+01
-3.163233904412090070e+00 3.839200499148050838e+00 1.998344594146751163e+01
-7.227399798033470546e+00 -1.324576308737071439e+00 1.813385264621168247e+01
-8.780801786850219059e+00 1.465660664305813432e-01 1.846501546721107090e+01
-2.578603357808882279e+00 9.678504703617842875e-01 1.707525054801954312e+01
6.202043930812972672e-02 1.015581118108576542e+00 1.870049969007564883e+01
-1.180793775761602271e+00 1.337350557609381596e+00 1.509576608620121974e+01
-5.782613485936009212e+00 -6.911145554143935943e-01 2.146502994599081759e+01
-3.580104687686039622e+00 3.848042537241369132e+00 1.979702344952343296e+01
-8.026526282184388350e+00 1.795770911355152322e+00 1.674044717558135531e+01
-4.222775499586068904e+00 3.733725810759668917e+00 1.964669705933607347e+01
-6.980514556750920363e+00 3.051435471490551166e+00 1.918699221934939558e+01
-8.114886021480401723e+00 -1.665675093833906439e+00 1.952560526022425691e+01
-7.271816333306562186e+00 1.328236193616458838e+00 1.569482163916794448e+01
-1.990149375155333189e+00 2.323109635251420002e+00 2.157460673126042749e+01
-2.178825028673756048e+00 1.937926895905813129e+00 2.165920593466379884e+01
-7.174186239382878139e-01 3.046942812122680255e+00 1.817818857959649748e+01
-1.608527635624882546e+00 9.691660787117895026e-01 2.215309408463986429e+01
-4.360812450313649613e+00 3.808059831569523546e+00 1.952349311539650856e+01
-4.794058054104931799e+00 3.647270303997625085e+00 1.943312859955764438e+01
-5.154069199609123686e+00 5.022211394065893009e-01 1.708482450596136815e+01
-4.774685141881375827e+00 3.509849653916109702e+00 1.955559865941632935e+01
-6.913848722478815878e-02 2.268473214001001548e+00 2.005326433298738564e+01
-2.136211349856201203e+00 2.229717321223603221e+00 2.155119173424418832e+01
-4.978067536444109820e+00 3.252983014154769759e+00 1.965179966227595187e+01
-6.168694692691502723e+00 -4.903147279538215275e-01 2.126350165787894397e+01
-7.006891793935576374e+00 1.122361210124109832e+00 2.032350531753846568e+01
-8.111079525983459604e+00 2.784214384145426546e+00 1.877949201332839024e+01
-3.388060574156920080e+00 1.116607354474153713e+00 1.488008178406645854e+01
-2.581478587935787328e+00 -6.738691525966196139e-01 2.217285197373879768e+01
-2.369385429406910326e+00 4.879777803334151898e+00 1.977071385615281329e+01
-2.975486732794867528e+00 -4.358324824400732767e-01 2.200456639978139961e+01
-2.897332533496446150e+00 3.261309623908487776e+00 2.050571396112036027e+01
-4.462880486759077669e-01 9.197516966569476704e-01 2.104127353278166979e+01
-4.109945781763401307e+00 -1.088331035930768298e+00 2.185814550571373260e+01
-3.990318592209313842e+00 9.510313339635723118e-02 1.876258848991778549e+01
-5.159858268853119156e+00 3.026128247163913709e+00 1.974146068791519681e+01
-4.382509865663993809e-01 6.278178798036472275e-01 1.715578489560362740e+01
-1.435067014716850942e+00 -8.570614056002409109e-01 2.215760105780502798e+01
-7.781007949685339931e+00 -7.036265641771441981e-01 2.071108322337474661e+01
-5.329226472413219007e+00 4.927200885675805386e-01 1.692274185591584157e+01
-1.462139800699415737e-01 4.932160391125306464e-01 2.033143741010544758e+01
-5.398289896822088263e-01 3.267676740904787991e+00 1.941758151111492836e+01
-8.448888836415001435e+00 -8.264347059938934592e-01 1.830117727640422842e+01
-1.789015709335969984e+00 3.662151529746683343e-01 1.850590363035540875e+01
-3.147915113386241082e+00 1.967176156663938968e+00 1.282587746158517916e+01
-7.736802830750007409e+00 3.371830272496576519e+00 1.765252047365413191e+01
-1.388148234575251383e+00 -1.384266785121539556e+00 2.092250173724658779e+01
-5.980651339285831369e+00 2.454001403026385475e+00 1.982614018401638489e+01
-4.834215119624960089e+00 2.980657399903625659e+00 1.554636179567965470e+01
-3.186742242728508590e+00 4.413911262526090118e-01 1.848682459065691219e+01
-6.608608722339796238e+00 2.694381521915211408e+00 1.946970647418977407e+01
-9.776442362158306310e-01 -1.117959517156181359e+00 2.158806155948210304e+01
-6.780535342027827816e+00 1.878605142687746810e+00 1.997807039568320064e+01
-6.484276336113230954e+00 -8.779601137146377798e-01 1.854769868903069963e+01
-7.756479894735803349e+00 1.458926097772532016e+00 2.001213507586583162e+01
-7.400567129636111297e+00 -1.439140493480543181e+00 1.832209964534103719e+01
-1.953626373513998704e+00 2.839828650110320929e+00 2.134684072200116489e+01
-3.816806350128548075e+00 2.979262879868946889e+00 2.031431740262538810e+01
-8.864435043343132037e+00 7.323731116480618475e-01 1.766232696981630212e+01
-7.513414259292013675e+00 3.005013056147932904e+00 1.909145590575692708e+01
-2.028385815815363369e+00 2.348445847039763557e+00 1.390219199966302099e+01
-8.069336285687882082e+00 1.724272802265122806e+00 1.969596816466597389e+01
-8.852357301676715196e+00 7.856364667224859932e-01 1.745909752923033054e+01
-2.420525656990927477e+00 3.095623979474946275e-01 2.204010436908447801e+01
-8.613295349023900371e+00 -4.646430453868283239e-02 1.687290137163634896e+01
-6.619965472317246302e+00 -1.956124163385857484e+00 2.016351394455243806e+01
-2.334652512146609293e+00 4.237991429303531454e+00 1.730905066900728784e+01
-6.549298718840372402e+00 -1.397702687289239520e+00 1.931541086056266110e+01
-5.145658724079784641e+00 1.083337333833346072e+00 2.090151835402122416e+01
-8.821014880982026796e+00 6.179845280860448709e-01 1.728911885784250657e+01
-2.770100367339187297e+00 1.168331857139413898e+00 1.442686326697125310e+01
-6.584190217772516007e+00 -1.848628138486033912e+00 2.110502312186826757e+01
-8.854150320570248311e+00 5.331800568734212931e-01 1.704937483179333313e+01
-7.964181269833654930e+00 -1.781284756462627294e+00 1.977587589749296271e+01
-2.574030202129994338e-01 1.042040567049164590e+00 2.044274882937949300e+01
-1.255997421298025607e+00 -4.346809098052255016e-01 1.890128759990591689e+01
-6.130330562810988759e+00 -4.437319475671261393e-01 1.825964578774764036e+01
-8.884791254937791649e+00 6.098511310689445075e-01 1.700954860558304560e+01
-3.796804934566654133e+00 1.117008141557755962e+00 2.133647406283855830e+01
-2.139348853133965278e+00 1.041996001743512590e+00 1.586381636776892634e+01
-3.761941950847122129e+00 9.973327588271070354e-01 1.485826346894496197e+01
-2.325241808295497314e+00 4.994200763950826349e+00 1.967647290294157258e+01
-1.032495116219953601e+00 1.501043884217809321e+00 1.491691369546275681e+01
-7.262281892994404409e+00 -1.758299126512845589e+00 2.082187925613574819e+01
-4.768948403397647029e-01 3.118535180442454813e+00 2.056204290609161589e+01
-4.192080387048647161e+00 6.708546998683578844e-02 1.874526338633106448e+01
-3.769441239400101118e+00 1.106910246358622674e+00 1.569561627093141709e+01
-5.170529184317421700e-01 3.126721473136411689e+00 2.064822965234754903e+01
-7.986558777643522511e+00 -1.504903372947080209e+00 1.875655991145906754e+01
-1.804107751229091061e+00 1.759064805867482928e-02 1.911229386980226863e+01
-6.358331652265700740e-01 3.253951667537952730e+00 2.073190192166743273e+01
-1.533250596102421204e+00 1.481823595312901976e+00 1.427988295888358650e+01
-1.976296452762790423e+00 1.207154633442398817e+00 1.471837833554670993e+01
-9.909826172461497773e-01 3.493615870271163715e+00 2.081880749332460212e+01
-1.669660068299986477e+00 4.790207397391323951e+00 1.988379125925609614e+01
-2.442725667579817905e+00 2.262832504713494508e+00 2.133302325583472125e+01
-5.340545661709685810e+00 2.894673943637620539e+00 1.582251104113436213e+01
-6.370866570386188421e+00 -6.323679693845805083e-01 1.793045470839763667e+01
-1.160038312969448260e+00 3.312094716938038363e+00 2.098665672606160015e+01
-3.605641073253633255e+00 5.308731312747690945e-01 2.154834548044783915e+01
-1.350557233121451262e+00 3.316175045380599151e+00 2.104155584838092707e+01
-1.038117067437297036e+00 3.136857624559049373e+00 1.759210927602553554e+01
-2.161176475984277090e+00 8.426768032929294883e-01 1.767135887810963268e+01
-7.776123400470180691e+00 -1.797296445232039019e+00 1.937452993462175854e+01
-4.775279758053048162e+00 7.973083151482496245e-01 1.628520296570129844e+01
-6.550285849556885864e+00 -7.096327595706020119e-01 1.607398601332948473e+01
-3.350907285434398641e+00 1.289673737394318564e+00 1.327187329460752707e+01
-7.870362291238818919e+00 -1.467309689079245416e+00 1.824916557076057089e+01
-2.402735788097385861e+00 7.278901831841897430e-01 2.191770340155371244e+01
-2.810436060490178356e+00 3.252939954606439699e+00 2.057189828332872494e+01
-6.595938646957643314e+00 2.545030554427251790e+00 1.639638628305269563e+01
-2.827546596896059583e+00 3.463126367008778850e+00 2.043955561272099786e+01
-2.865590892173711435e+00 8.682122366335947028e-01 1.756746144105467167e+01
-7.180440412715770826e+00 -1.443670727652353047e+00 1.870298234956746697e+01
-5.402707408616270968e+00 3.810529532374826722e+00 1.671848585355262529e+01
-3.209897701530036063e+00 3.686325751853967603e+00 2.004340510327898883e+01
-1.033979785108690708e+00 3.125238982569140234e+00 2.105734620605233332e+01
-5.070477550201424322e-02 4.067555726768450342e-01 1.814835678145010078e+01
-5.200906089322838710e+00 2.432636189703464069e+00 2.014918786734362399e+01
-4.177487090005225667e+00 3.641666892633257380e+00 1.974403345122634690e+01
-6.538527316655979860e-01 1.708749441697239302e+00 2.129741318875229084e+01
-2.370579495540224180e+00 4.059861511308515247e+00 2.040798661821954241e+01
-6.208425926659212557e+00 -1.101107714203325427e+00 2.135673887491995870e+01
-4.560350840638038861e+00 3.640056154383504605e+00 1.956353082180396186e+01
-2.595268577073477356e+00 2.280164901615464146e+00 2.120479906397143921e+01
-5.076834373307615778e+00 2.920532016861927094e+00 1.985702959762805264e+01
-8.183595398544841970e+00 -8.110921566156650275e-01 1.729403211986805999e+01
-2.972035594986130569e+00 2.086681023726691286e+00 2.100461622663072703e+01
-6.765984991781608393e+00 1.686570671897485330e+00 2.007599025505131252e+01
-4.635715007654438446e-01 2.861004369043965934e+00 2.058751655963600413e+01
-5.135229900113902346e+00 2.784415469760805895e+00 1.992962871729304553e+01
-5.376639593848598686e+00 2.466596393023187783e+00 2.005197127501356036e+01
