-3.525813726333842713e+00 -2.314113594638622651e+00 2.031311454796930960e+01
-6.890838698233197057e+00 1.643814054069304920e+00 1.288707303469756837e+01
-9.964051739641887062e-01 2.531640175086924405e+00 1.855719485632264210e+01
-1.185652717953316948e+00 2.725672422314155963e+00 1.857946663929257980e+01
-2.841816823768991362e+00 1.440165585651667080e+00 1.257747968789889015e+01
-1.209096601504787039e+00 3.123618422908914116e+00 1.838243184676347752e+01
-3.040658465142072053e+00 5.505802181024439079e+00 1.736920127380196632e+01
-2.596276117949899653e+00 5.534815885090258014e+00 1.726221931826189504e+01
-2.407409037518275507e+00 5.420565382014579825e+00 1.731018942141328765e+01
-2.996945500043135535e+00 2.276308537019408718e+00 1.928375998778221501e+01
-7.367083727862474340e+00 2.952434211864572333e+00 1.425215642948878880e+01
-8.115614737760601827e+00 3.059507706127678084e+00 1.837386242455587748e+01
-4.610354078413678280e+00 5.534199205278543587e+00 1.764381717660708304e+01
-1.178778298382253453e+00 1.522918282047932781e+00 1.915568027656902572e+01
-4.558888118861111671e+00 2.657751560642579447e-01 2.037347491950000844e+01
-5.437512215023467821e-01 1.749336670803974592e+00 1.858773673384845537e+01
-5.171243434155962326e+00 4.801418286084577214e-01 2.040845950697781674e+01
-1.680474881733395043e-01 1.336689406059805574e+00 1.832745695769628114e+01
-3.526389319526116228e+00 -1.440075056622538874e+00 1.750345952534545191e+01
-4.931714640845957787e-02 7.381839669354403055e-01 1.848340679624147853e+01
-1.404703328166140519e+00 -9.576060932257172142e-01 1.452854410584768274e+01
-8.608649938395737777e+00 1.889326688253406772e+00 1.855740001890617563e+01
-8.525777932000385917e+00 2.255702977153400290e+00 1.837656973803936111e+01
-5.176961498725568767e+00 5.145055056169262064e-02 2.051491644624082156e+01
-2.390189283803008991e+00 4.752206899568323095e+00 1.781438891576528860e+01
-3.374041043399547135e+00 -3.537230764988305243e+00 1.940697993568666035e+01
-4.037188086347775595e+00 4.064498916100249382e+00 1.856812669452872555e+01
-3.517836107539922263e+00 -3.500137507076866328e+00 1.965153330840297130e+01
-8.593812386814482451e+00 2.323556677548582527e+00 1.598469667548527795e+01
-6.288950885631797050e+00 1.438037001452452168e+00 1.210798541772573955e+01
-5.148753403420628372e-01 2.363930722040267440e+00 1.816957311009987208e+01
-4.337903233078368448e-01 2.311367679282989140e+00 1.809326157715403482e+01
-8.170530871553964847e-01 2.701125717333279219e+00 1.830640300553782041e+01
-8.316701364971146759e+00 4.385148683556649996e-01 1.992297266483611295e+01
-4.155412336693048658e+00 -3.442274100851393737e+00 1.962893969110174552e+01
-1.559974483843010518e+00 -9.077618063295308515e-01 1.969557502796970638e+01
-1.982482450030828014e+00 -1.060007172679707788e-01 1.967372046870450575e+01
-6.358742040585903865e+00 6.554988443000950848e-01 2.050658615073211521e+01
-1.946410399785187373e+00 -7.125397340411186997e-01 1.974936041933385056e+01
-4.997323721037558286e+00 6.733724000741802662e+00 1.595402163868212497e+01
-1.761757496209285678e+00 -7.072509188748273834e-01 1.970591270394693950e+01
-8.315995719562728539e+00 2.872096121085890186e+00 1.819949601988574628e+01
-2.055115322229338126e+00 3.609984464952866290e+00 1.480604894775738600e+01
-8.468734410666593604e+00 2.351250657485406403e+00 1.842783977069090540e+01
-6.797515811995960000e+00 2.806054837852712147e+00 1.340531378313214006e+01
-8.160596506584958831e+00 2.824573953214457145e+00 1.855271219327982735e+01
-8.926271006965993848e+00 4.695719691966208642e-01 1.837092953585068145e+01
-7.551113190254725716e+00 2.935182360185447870e+00 1.446048431968184289e+01
-6.225216192847003782e+00 -1.832165014548703397e-01 1.634822782353112913e+01
-3.932434596560172135e+00 -3.477416401795607737e+00 1.940633446013284313e+01
-5.187469229497550849e+00 1.191384724429010555e+00 1.165678235828103126e+01
-5.002166366886895865e+00 1.036548638837231362e+00 1.193291583526201194e+01
-4.814300792592354661e+00 1.077640867763635102e+00 1.171225099383091717e+01
-5.224247576592762066e+00 1.254050529814937143e+00 1.152659810220393055e+01
-6.360447348369052456e+00 5.625615201805380217e+00 1.738967878196686101e+01
-7.133416082525947388e-01 2.992558346234924560e+00 1.802490821657886144e+01
-6.969249863501143949e+00 1.050514301422739383e+00 2.038891137107206575e+01
-7.178492351269005312e+00 1.226685370311475509e+00 2.030160590769437690e+01
-3.122648036638107527e+00 -2.943113366344681570e+00 2.003427352284289142e+01
-7.599326547759799766e+00 2.288317490678602795e+00 1.959661031338415071e+01
-3.292376393399881085e+00 6.118111678694726940e+00 1.695972463949562936e+01
-4.220130944264402828e+00 5.409011572415615809e+00 1.445914516449514409e+01
-3.147400107412636761e+00 -1.419530500974177212e+00 1.733653194195631286e+01
-1.925995522139454241e+00 3.322634827129328228e-01 1.957605524465937563e+01
-6.652453343553271559e+00 5.200103848512198645e+00 1.519586835401645075e+01
-1.786937126274293242e+00 5.013762469936224875e-01 1.950797019541113642e+01
-2.787580770379641137e+00 -3.056176738160213402e-01 1.995923092400069621e+01
-3.034668442405309641e+00 1.461790070476949754e+00 1.236016484515898739e+01
-6.599445251217638031e+00 3.506656817752372035e+00 1.906001159057570860e+01
-2.799991145613775156e+00 -6.840730815137489040e-01 2.002335533297796033e+01
-3.162988893664309131e+00 -5.316363871488635207e-01 2.012498235815431613e+01
-1.467409189349350607e+00 7.885211382488694909e-01 1.417069347662565448e+01
-4.182625804554708893e+00 4.806332795300655714e-01 1.311892149252028261e+01
-4.002234568451887853e+00 3.741627303936375659e-01 1.332231877489107674e+01
-4.217595827134029918e+00 5.945459948471913947e-01 1.272738937266357695e+01
-8.299639999174766913e+00 2.220239360087322034e+00 1.893998847494968274e+01
-3.822200315758837341e+00 5.963214241922952796e-01 1.248616737392642406e+01
-1.646494578933640929e+00 5.145013796017884111e+00 1.715707658439592009e+01
-1.753068207315830795e+00 2.240957178108740955e+00 1.448925092035748818e+01
-7.979250068531376527e+00 3.948415784607054224e+00 1.580646418842890810e+01
-4.112026253819058286e-01 2.978624005096443206e+00 1.737504725547553264e+01
-7.595214837476562231e+00 8.159178294499158657e-01 1.376520091498477782e+01
-5.576611768299261085e-02 -1.956388285362939961e+00 1.817709934094937907e+01
-8.186678589168606024e+00 -6.242439623093487544e-02 1.551727515505981003e+01
-4.339288358306919946e+00 -1.419610696622297663e+00 1.774655539377543434e+01
-3.969366652072158885e+00 -1.263333097094049506e+00 1.751350017467690989e+01
-3.624551167921981509e+00 -2.161207882319685414e+00 2.035925472299586758e+01
-4.768572242786815352e+00 -1.104559356937366399e+00 1.762229922876577959e+01
-4.378182481363301015e+00 -1.063858271677041500e+00 1.747836950542462731e+01
-1.574291020142365438e+00 2.140975083265037604e+00 1.901757259874223749e+01
-5.025786208137739131e+00 3.296549178268715963e+00 1.917982716696370815e+01
-7.544501308372914217e+00 3.559768890300056388e+00 1.486209143925867338e+01
-9.514963387769932446e-01 -1.567492144547579791e+00 1.509456715684448724e+01
-3.891489772078148501e+00 -2.988689470205038834e+00 2.012722820328821527e+01
-4.565038480040116475e+00 -2.548121041251449892e+00 2.038868870239256736e+01
-4.126786014294299143e+00 -2.733912287690315246e+00 2.026938624982799908e+01
-6.024260525579810732e+00 5.398661809665546762e+00 1.771994392564572607e+01
-6.234943791149567538e+00 5.137873629530930408e+00 1.788101507052222061e+01
-6.396906875166491702e+00 4.797760134217837091e+00 1.811786178326189045e+01
-6.022202348532949223e+00 5.055518038355741872e+00 1.801218861388226955e+01
-6.189990363676010965e+00 5.043859954261090017e+00 1.797702337133724981e+01
-1.399427184658909473e+00 4.965778765458832567e+00 1.661474647286344108e+01
-8.851217102780220003e+00 1.347654788765766609e+00 1.657436476719807317e+01
-7.207218944742482591e+00 3.697998210229824778e+00 1.866349658460460503e+01
-5.940846801450492265e+00 2.583965946325445184e+00 1.224225489863789917e+01
-7.044950237698039075e+00 3.759069022171328989e+00 1.870570291726442136e+01
-3.081137543567891601e+00 -1.043901787855370245e+00 2.017167162754862275e+01
7.625495251498165539e-02 9.374181522457261106e-01 1.790375435664190107e+01
-4.969095046750862110e+00 3.436359022680054442e-01 1.551885522143397722e+01
-2.880371772087672699e+00 3.233751463502381629e+00 1.360583546570549984e+01
-3.607471700163411565e+00 -1.528775192419228546e+00 1.759838974083479357e+01
-4.635329046647203022e+00 6.402967505391325531e+00 1.563442251510714343e+01
-5.604197898212217588e+00 1.032130303559442908e+00 1.234025351464861942e+01
-5.405690110416712990e+00 1.220770037445734424e+00 1.172507311719718714e+01
-5.980425306198335900e-01 6.221455422991538642e-01 1.512201255021762236e+01
-5.402881084919413546e+00 1.058455769225447263e+00 1.214133649849823726e+01
-7.360946657329487053e+00 1.443610095547591676e+00 2.017310569161000799e+01
-2.895800450891024003e+00 1.629764815677015477e+00 1.261112647010125798e+01
-8.521785651574031561e+00 1.334667877542510706e+00 1.520102303825970935e+01
-8.627504351307944575e+00 1.344766103630322895e+00 1.540083725947168958e+01
-3.039053097961977201e+00 5.000673761162024888e+00 1.463266383720674568e+01
-5.960369039568161220e+00 2.690708081360661197e+00 1.957120403087309413e+01
-5.998381554905503954e+00 2.247670552760852480e+00 1.980188434408320930e+01
-5.535982658968960024e+00 1.870984286266882179e+00 1.993094683023927516e+01
-2.202132866756949525e+00 5.398442160507165077e+00 1.727199893738540837e+01
-5.769917581684602226e+00 1.877547918074141453e+00 1.995545325133372572e+01
-5.761725999347794946e+00 2.253683954677563328e+00 1.978016705909394446e+01
-4.047292654064872153e+00 6.009697161153994216e+00 1.504619073458160372e+01
-5.612953676902788125e+00 3.928398449028020156e+00 1.885278828783883753e+01
-5.369093388154263735e+00 4.099253168753103083e+00 1.874372854657550036e+01
-4.936596003406015676e+00 -1.527679869674994695e+00 2.062763322968884339e+01
-4.741251162924062790e+00 -1.736779123412971249e+00 2.058876868783635317e+01
-5.722606075373926515e+00 -1.179132089061906363e+00 2.072193744305176111e+01
-4.544065838659208545e+00 -1.922885918252835058e+00 2.054346528242260561e+01
-4.935360534236146179e+00 -1.778412548112029423e+00 2.061047361533004008e+01
-3.599819868087748564e-01 2.329316272760471040e+00 1.795390501862704369e+01
-4.997525992090219304e+00 5.006574746622566963e+00 1.811121107989502477e+01
-8.784699530849568561e+00 4.834941365831090243e-01 1.917344607035982662e+01
-2.811390585347040449e+00 2.678051319060416602e-01 1.313144822744139972e+01
-4.041491847313613661e+00 -6.160197366697536259e-01 2.040970570263756301e+01
-9.504189265446399970e-02 -1.217922527799281340e+00 1.643626329563793931e+01
-2.125408707931340402e+00 -3.330203277871730982e+00 1.969480604797977819e+01
-7.224399808697959946e-01 -1.854389359929330183e+00 1.559675256733797610e+01
-2.245897822238995367e+00 4.004104505222637833e+00 1.479315262999971381e+01
-6.091656842634807223e-01 -1.775794315454771954e+00 1.565818673815878626e+01
-3.781843362659477181e-01 -2.009945439614617246e+00 1.623661360659564323e+01
-4.235853579458087381e+00 4.396668112450270449e+00 1.346411865927524687e+01
-7.636574503679599779e+00 4.286645473983451637e+00 1.764565728339031736e+01
-5.980485683292846577e-01 -2.149994206493871296e+00 1.604825662361838212e+01
-7.195482506923829291e-01 -2.053517153476316359e+00 1.580457069488509703e+01
-5.907466427637187323e+00 -2.260932806131890960e+00 1.888499775783362011e+01
-4.205446249896132471e+00 4.334590022363079775e+00 1.843955711229107308e+01
-4.401986855079769612e+00 3.888693187456602640e+00 1.876625793838023881e+01
-8.528891980959901531e+00 2.869931492232826287e+00 1.701569378235493346e+01
-4.230626899829301735e+00 3.875147354966528290e+00 1.872782986920302406e+01
-4.562022308896898970e+00 -1.129424940601569283e+00 2.056881561667231395e+01
-5.137857094733433883e+00 1.678275234061109789e+00 1.996535826833504856e+01
-2.189028449881814886e+00 3.826326717357979579e+00 1.476279461263971271e+01
-3.181613483116583208e+00 -4.146982828696206269e-01 1.608250715612768644e+01
-1.458835525439483360e+00 2.804827220577962965e+00 1.519691297744934744e+01
-5.013854772895509626e+00 -2.143260687708900658e+00 1.838937713175200273e+01
-2.403256351206247032e+00 1.284165352802206783e-01 1.333358416659096335e+01
-5.076998633179158560e+00 -2.019316549126318971e+00 1.834237851757376703e+01
-1.357518555119928472e+00 -6.964374828585145893e-01 1.965699236813955153e+01
-2.561852907738197516e+00 -1.876402140213202063e+00 1.743070988001116106e+01
-1.190941974503638423e-01 -2.239574014607226271e-03 1.587262582960505952e+01
-2.784103607458021212e+00 -1.899450134268998891e+00 1.756825227081748508e+01
-2.107579269336239403e+00 1.967153520853924586e+00 1.382730367856105502e+01
-8.885858263338931806e+00 1.045340508774542432e+00 1.794275677771157618e+01
-8.869989761559283536e+00 1.120688668731059545e+00 1.799163654333264972e+01
-2.213784174411551398e+00 3.982677633052236654e+00 1.828156304742406135e+01
-2.399182412517351093e+00 4.118116635817393067e+00 1.823677778561777174e+01
-2.050169853985050139e+00 2.039810683265578461e+00 1.394891826370783505e+01
-6.361009434687071584e-01 -7.828240094404811389e-01 1.490052240434195951e+01
-1.363270954708839300e+00 6.297670481684236599e-02 1.405920774737878887e+01
-3.537784127244671506e+00 -3.134466705086020877e-01 2.021801189515013064e+01
-3.352397062291584184e+00 -4.776761228597664610e-01 2.018160893257191546e+01
-3.286969527661527390e+00 6.513381378176197778e+00 1.572957074557587376e+01
-3.261064436318914073e+00 -6.931507810136238179e-01 2.018418185496951267e+01
-6.210930669371026447e+00 4.273077033157873794e-01 1.432072621155608871e+01
-2.692670432492760835e+00 4.342963351964547414e+00 1.447563504565121306e+01
-6.601891271555233587e+00 4.679524679148794331e-01 1.412942239427247060e+01
-2.041990171281304001e+00 -2.063663808525529664e+00 1.703091764055244184e+01
-2.359292520616410371e+00 8.994848697187645126e-01 1.956026308932326785e+01
-1.051887979271088458e+00 4.165552298496428385e+00 1.657991580709357393e+01
-5.396708512665084889e+00 4.306277006084985537e+00 1.861957484220117109e+01
-4.452902652715615694e+00 2.093342314024583040e+00 1.136134968818769764e+01
-5.912781998308886955e+00 -2.485308264144051815e+00 1.928758574309044960e+01
-3.982009294931425192e+00 4.663825298475375192e+00 1.815653916939274026e+01
-8.336980806831485680e+00 4.713738460127975261e-02 1.994967001129098705e+01
-5.737223367601579582e+00 -9.760647781030625803e-01 2.072603894940044356e+01
-9.661681961726820145e-01 1.724875065331881618e+00 1.897007039194682321e+01
-4.801033546334259050e+00 -3.939475785510527794e-01 1.692769654596940754e+01
-4.778813946493481346e+00 -5.088775712904417547e-01 1.705397516927707002e+01
-4.611413683680484432e+00 1.224722503197939849e+00 2.007555508596515281e+01
-7.382451381717560324e+00 4.935935044623081858e+00 1.567366327753670774e+01
-3.917104123143185568e+00 -2.139246354982450082e+00 2.041471231661369146e+01
-7.794161050113511457e+00 -1.598437658357912738e+00 1.821617227146342444e+01
-3.231048037143089413e+00 5.504552462141687919e+00 1.740688142318051135e+01
-4.774175939860743512e+00 4.374885943854104120e+00 1.350180552077840801e+01
-6.422100966737312788e+00 5.449997877906677113e-01 1.396272725611510523e+01
5.903725656960628898e-02 5.777661373041605986e-01 1.629838960219194277e+01
-5.327394917192445067e-01 -7.721452160713399016e-01 1.508405988819975718e+01
-3.150646685133761338e+00 -3.695795308071977425e-01 1.585955924025437369e+01
-2.233073419718638597e+00 5.983683346289540239e+00 1.605636764219165613e+01
-6.028577390722795748e+00 1.235396750061465987e+00 1.211931216251361931e+01
-5.965850326743344034e+00 -5.638712919903706711e-01 2.072374796498423777e+01
-5.944490296417857422e+00 -3.545584924252678238e-01 2.069332523795334211e+01
-5.975381976743981305e+00 -1.651599715458822448e-01 2.066551805769576688e+01
-2.386926345677437666e+00 1.489261867394495287e+00 1.939047856380212309e+01
-2.202921416621286710e+00 1.713065106931903614e+00 1.927019705869215116e+01
-5.339562043122545454e+00 -1.939617493216418964e+00 2.062500918946463102e+01
-1.434901098966945288e-02 3.839037217379510092e-01 1.609612831550865408e+01
-5.160624031909410547e+00 -1.737643094172549141e+00 2.063989697916149524e+01
-7.274574135981298761e-01 2.360599777959608403e+00 1.841574138914674208e+01
-1.376601943202676148e+00 -1.238897883736545413e+00 1.478460249399958926e+01
-1.379414439875108478e+00 -1.064783402009699120e+00 1.463029290899818946e+01
-1.589102705399363602e+00 -9.384942810628676968e-01 1.450523293279211501e+01
-1.279232521536880274e+00 2.401188110650679608e+00 1.524093758652184860e+01
-6.210523655945560328e+00 1.305135674151641112e+00 1.215677547371655365e+01
-6.360834610142469536e+00 1.450578746091164106e+00 1.220551313125868020e+01
-6.637767530714675068e+00 1.465818492405411178e+00 1.253193393328433913e+01
-6.541291908908697827e+00 1.457908090226905706e+00 1.242820432088667459e+01
-7.003977842931068842e+00 -2.474403086101905069e-01 1.532629972325345946e+01
-3.191118287972864120e+00 -8.939524368494212725e-01 1.683573355577996367e+01
-3.140431213013794132e+00 -7.987730291358815515e-01 1.668912080259542208e+01
-6.104781888422281533e+00 1.686641388267483777e+00 1.186844483016661300e+01
-3.376813900987130967e+00 -6.405978075509463077e-01 1.666307209822220514e+01
-5.061898259463198713e+00 1.403391915132195855e+00 1.109398224657946130e+01
-1.160198537265614505e+00 -8.284099620445417589e-02 1.955884777611678160e+01
-8.008355864189768525e+00 -2.805010142041591825e-01 1.551054411052053084e+01
-8.195844353815580519e+00 -1.816918027077422337e+00 1.911472854326433790e+01
-3.410281828917852032e+00 3.868453697230440635e+00 1.855611124061718087e+01
-8.119254733120977008e+00 -1.864849530835994251e+00 1.906621349709228141e+01
-8.655742265132190028e+00 1.502570710679503652e+00 1.880593649024976699e+01
-3.745269220752529105e+00 6.090504499987384968e+00 1.516568790365263553e+01
-8.533808800043628295e+00 1.654964046058134297e+00 1.897822506461165304e+01
-2.952509537370669790e+00 3.182727552655022496e+00 1.886729752437501517e+01
-7.004205360480109555e+00 4.959220315352599329e+00 1.526483348938505102e+01
-5.220664072551809198e+00 5.766946115630406489e+00 1.748558774444756736e+01
-6.821872746113855968e+00 5.716741793737946331e+00 1.574540943374503499e+01
-4.995302090247899507e+00 5.971801947216534678e+00 1.730921564663248446e+01
-3.550390519559444069e+00 -3.146196055774340472e+00 1.857876229480130448e+01
-4.369224293715651797e+00 -7.189142952462094227e-01 2.049581176964813878e+01
-8.436106648940269181e+00 2.161527511441470484e+00 1.518659084974078510e+01
-4.347772247979959204e+00 1.282246568272567666e+00 2.001241871465810718e+01
-6.405632316407206872e+00 3.778837062950825665e+00 1.380386000850772987e+01
-4.800160153248000050e+00 1.495643434951635875e+00 1.999606837971508000e+01
-6.575824974543492907e+00 3.887102956643991636e+00 1.878928904817184886e+01
-6.414085867968743138e+00 4.326619139404673575e+00 1.849801427475109605e+01
-6.213797879148986070e+00 4.723981888335123891e+00 1.823688231602818988e+01
-2.360011787613025991e+00 1.089383425522743032e+00 1.950512967848819201e+01
-5.457926701524291602e+00 3.712955035460483444e+00 1.312751041849008615e+01
-3.090698704325346657e+00 3.031653971202752373e+00 1.324725983380870176e+01
-1.549437250812748523e+00 3.360390114393529082e+00 1.844058576019804363e+01
-2.328190684166527635e+00 7.128171413173036708e-01 1.959842304560882909e+01
-1.108202980678624439e+00 -2.907346103163039874e+00 1.949202412924910632e+01
-3.396563345274519197e+00 1.051541671165255876e+00 1.186445029304484322e+01
-3.157097356411306954e+00 1.902905085367997629e+00 1.248496989678622171e+01
-5.664360433665843964e+00 1.675513745259668674e+00 1.132196176960896494e+01
-1.988756625924510413e+00 3.089452492900173208e+00 1.870450891073860689e+01
-2.776994342099928570e+00 -1.504615224202690893e+00 1.721424417515011029e+01
-3.416516020966765765e+00 5.277192703012182129e+00 1.456931293967251051e+01
-2.939657321934393330e+00 -1.150867864054362588e+00 2.013871892117925810e+01
-4.185329056268908943e+00 2.450150676548917161e+00 1.949010033344687187e+01
-3.768518183018793266e+00 5.483464967682816216e-01 1.260468874857368959e+01
-2.283104064215027318e+00 -1.333865124938316438e+00 1.531489206801272118e+01
-3.158012466814023256e+00 -9.161999534875752138e-01 2.017984325219994801e+01
-3.349095014516153768e+00 -9.231996345550724792e-01 2.024559095225859195e+01
-5.345411957224620814e+00 8.576062847241465725e-01 2.031027574121462820e+01
-7.422158933046560492e+00 2.782788256655616799e+00 1.420645768443108992e+01
-2.702560800580880773e+00 -3.606831346165343621e+00 1.936558168157973014e+01
-3.511477402685921234e+00 5.714927853456254425e+00 1.491884820552773405e+01
-7.671139153763405716e+00 4.757901806589944549e+00 1.664818635727746354e+01
-5.537886745388662213e+00 1.259860429377877900e+00 2.018527015332939456e+01
-5.369152844660641577e+00 1.642933447299689931e+00 2.000799794061865455e+01
-5.153071629362919737e+00 1.263399000441667530e+00 2.013281060135377132e+01
-5.158418528100767730e+00 -1.126107203199132378e+00 2.066194005521137811e+01
-2.383644311330145871e-01 2.579930668477778966e+00 1.716919176382731038e+01
-8.339172141831232565e+00 3.115404358923288708e+00 1.779760771983380963e+01
-2.323066889246295563e+00 2.536973340134172972e+00 1.901995593734094214e+01
-8.275592286380195617e+00 3.338689318300980258e+00 1.764787025968398027e+01
-4.035201822661784732e+00 4.988051380587290140e+00 1.406592798352093965e+01
-1.615789955215464424e+00 5.386775939381333700e+00 1.659293428186318309e+01
-7.444201431650626644e-02 -2.302586695214289492e+00 1.700824153013835272e+01
-1.865644830688181877e+00 5.597768487389223502e+00 1.624108153603594573e+01
-1.717318369061473948e+00 5.516178819111262399e+00 1.646496150117659951e+01
-5.172605475931741914e+00 3.477079601225979699e-02 1.634111987419237622e+01
-6.960037205812472649e+00 4.220020052223907747e+00 1.835919525977007893e+01
-1.835273096138205773e+00 4.087953613497363747e+00 1.812299002071475584e+01
-1.611781863044375651e+00 -1.654625613603245338e+00 1.518723386159713939e+01
-3.541753790311181760e+00 -1.313747782122560270e+00 2.034598499644907932e+01
-4.800133237148240362e+00 3.106894323953316217e+00 1.925534499050472093e+01
-1.988948359177098224e+00 1.909816510578171034e+00 1.916757037093957550e+01
-2.179201555115515276e+00 1.934295316873605675e+00 1.919437013264534286e+01
-2.330936992393302987e+00 1.961765482344377975e+00 1.922407713350190406e+01
-2.186555188838868347e+00 2.270358558436676777e+00 1.909115711294395012e+01
-4.969910571103247854e+00 -1.324151179197134098e+00 2.063714056769914507e+01
-3.275982468787128621e+00 6.715678433424153049e+00 1.593357432038976285e+01
-3.668424125875571651e+00 6.929726422053483326e+00 1.623806796804241870e+01
-3.408667930765867826e+00 6.830392906270014386e+00 1.603500255054981594e+01
-1.980594273412336070e+00 -5.152935021674985849e-01 1.411376443633260536e+01
-2.295244092375815226e-01 -2.169363290367908537e+00 1.664404844912724357e+01
-6.009075282536437967e+00 6.019999160630966628e-01 1.374382689718998662e+01
-7.347255372036142873e+00 5.276008617585056903e+00 1.661031128391381273e+01
-7.085337992668868878e+00 5.775281820607400363e+00 1.629944460282424856e+01
-1.138961808425220656e+00 -1.538720610851771475e-01 1.421595005249248445e+01
-1.335010215696347480e+00 2.818037681207572032e+00 1.861867780602272759e+01
-4.566649105379721796e+00 -1.461269793165076880e+00 1.784380699734264297e+01
-5.191524125850158100e+00 4.719129489616383566e+00 1.410400537550153999e+01
-3.070568915615834893e+00 5.389127071985304163e+00 1.488254577035138126e+01
-9.638663665798892222e-01 -2.241157336731291139e+00 1.581370676501773076e+01
1.653101871281049684e-01 -6.273060972681644420e-01 1.688360693540153434e+01
-5.958372374741686350e+00 -8.492516057119575690e-01 1.754409272861242286e+01
-5.992628179032006841e+00 -6.571448349866561012e-01 1.731945594060509208e+01
-3.542417097416408645e+00 3.349773185504041795e+00 1.888659160283518545e+01
-4.034361897674108022e+00 5.736062741209940086e+00 1.740387335962445903e+01
-6.446420617538695552e+00 4.536067607320198647e+00 1.831693778180460797e+01
-6.787774708126249834e+00 4.298765125865295467e+00 1.838143006216172992e+01
-1.951478713752491601e+00 3.629457550824662260e+00 1.494578609176052097e+01
-8.443069076714436960e+00 2.265235896611608624e+00 1.859284156354643969e+01
-1.727453277541627807e+00 3.003893235653929406e+00 1.490222936007075916e+01
-8.349341353498315854e+00 2.456052810345056070e+00 1.860611845677788168e+01
-3.225091350066188856e+00 2.848300421518518366e+00 1.908711454795868079e+01
-8.427516352440827418e+00 2.110426876833876975e+00 1.879633562968433225e+01
-2.898998618062701649e+00 -2.561778054048827524e+00 2.012780949634301564e+01
-6.015321592172305998e+00 4.750553692470510292e+00 1.826560573705465274e+01
-6.200285140061772005e+00 4.491797720708645691e+00 1.842611377114979021e+01
-7.820364774091077109e+00 2.383370976575372335e+00 1.440269273405792561e+01
-8.862591400943246711e+00 1.315526670024247835e+00 1.755932532869369211e+01
-7.163244601223588859e+00 2.729240874189022392e+00 1.946238794574678010e+01
-1.747881983161367225e+00 2.577800723879317690e-01 1.367971237529264172e+01
-1.894114646697498738e+00 7.524959009086334971e-01 1.361091434737852879e+01
-1.483480153917997368e+00 4.768565169802623238e+00 1.625496925465671083e+01
-1.799024361166281505e+00 4.156887738332276649e-02 1.368747565474029315e+01
-5.911985067956795348e+00 7.051782518670037803e-01 1.341226431320220414e+01
-6.620417955236450602e+00 3.393800552755960265e+00 1.361779943578659768e+01
-5.762845728659804045e+00 7.535070172593510973e-02 1.608290346128006476e+01
-2.589475406835462845e+00 4.293095076609309224e+00 1.815818892516586303e+01
-4.579356842325809751e+00 1.681224398945353027e+00 1.989506099851784526e+01
-5.997411093107612778e+00 1.738181097315636858e+00 2.004286320360703044e+01
-5.595743765353048182e+00 3.571339798954291211e+00 1.305556084833952823e+01
-5.963462712355658724e+00 1.857251024348331558e+00 1.998571352282424485e+01
-2.823692893091552136e+00 5.142125113645260370e+00 1.760142603464361244e+01
-2.665844665563906091e+00 4.932016123716710609e+00 1.773099933270037454e+01
-3.372330949876180206e+00 -3.166757232849635173e+00 1.855325873644553880e+01
-4.740893265136321588e+00 -6.118763487370671994e-01 1.715229809663676619e+01
-1.547215013159885633e+00 2.920846998807576367e-01 1.951643259308126588e+01
-3.959934251275888162e+00 -1.019573401561395531e+00 1.730401961404435340e+01
-4.587233299647323292e+00 -7.417196656370718122e-01 1.724874821259541235e+01
-1.085273412231129164e+00 1.134710703857363168e+00 1.479458334980165191e+01
-4.154635764926947417e+00 4.195261471932748343e+00 1.851339654071943741e+01
-2.511712104756242958e+00 3.607174124201606435e+00 1.424972883670949741e+01
-7.372753118307869613e+00 4.065807373899283483e+00 1.820293016493036831e+01
-1.233863266686085591e+00 1.819832030719881644e+00 1.906022487015255606e+01
-7.073085132834250999e+00 4.796116123193016278e+00 1.774334886380507825e+01
-7.161854429985071491e+00 4.459350015122008237e+00 1.800216697652838249e+01
-4.159076443801325240e+00 1.283871533571241841e+00 1.997634502498614140e+01
-4.203856400224248446e+00 2.306524524536383236e+00 1.956099447697316052e+01
-5.633988180401817480e+00 3.853792023189073213e+00 1.339422779050240919e+01
-7.361454646225759291e+00 -1.943527047782095618e+00 1.888049667433021384e+01
-7.349959866681467169e+00 -1.851049419408571595e+00 1.870625307995569031e+01
-5.245080569965393735e+00 5.782693195301732203e+00 1.523302557818217551e+01
-7.337478135221974007e+00 -1.791514248044389301e+00 1.860069421109563947e+01
-5.604186848607799476e+00 4.054363759406095724e+00 1.877750781168933614e+01
-7.962684982822952229e+00 -1.905895056424827816e-01 1.539020815786009067e+01
-4.346445145051139214e+00 -2.337984089399543386e+00 2.044110601665063953e+01
-4.134864367924005357e+00 -2.590614989923816225e+00 2.032884586281076977e+01
-3.371897762444800772e+00 -2.678823287224404215e+00 2.017955688694785366e+01
-6.015329459759295894e+00 7.476107163576104497e-01 1.333365712399448810e+01
-3.742496623935045452e+00 -2.704367240889710811e+00 2.022959335244067702e+01
-6.986279694738139590e+00 2.658962999529220106e+00 1.956152286475461111e+01
-6.002209445474503191e+00 4.725641628011273632e+00 1.451040502581985336e+01
-6.793364547651578711e+00 3.470708584063886715e+00 1.903624988609936608e+01
-4.831426194653944961e+00 6.178392436833236800e+00 1.547892840775785928e+01
-1.423845634158309670e+00 1.042479214378326136e+00 1.433211552579122028e+01
-7.003945456506662559e+00 3.116725653557835152e+00 1.923487800301815653e+01
-8.093516309246995277e+00 3.336010607683336016e+00 1.808548870179563650e+01
-6.600245069385464625e+00 3.158160439816925624e+00 1.929732387543155525e+01
-6.996778222652473289e+00 2.878661061329645943e+00 1.940962546665749855e+01
-6.580328946506052823e+00 2.916079911500684130e+00 1.945130463983927527e+01
-8.607861102092716266e+00 2.498955425688511589e+00 1.762314318520816059e+01
-3.054069141850745961e+00 2.846055131838317820e+00 1.318160972594006708e+01
-3.922472222009935727e+00 -1.323350080692947905e+00 2.044638007285327674e+01
-3.014758390843046421e+00 3.315236927287510849e+00 1.881073316014101593e+01
-2.802119629079013130e+00 3.927063716799742643e+00 1.842203223165817505e+01
-6.451783630989361029e+00 4.971397437788418472e+00 1.491457248726421980e+01
-6.158780336923272536e+00 4.603463945261553114e+00 1.834882090613193739e+01
-7.001894951230794639e+00 1.655294277214177878e+00 2.012489443984956594e+01
-7.359808662128790147e+00 2.471859520264611199e+00 1.957139130922970693e+01
-8.965169105272353889e+00 4.947273925660894411e-01 1.733897562359180355e+01
-8.582888935851634926e+00 5.832382466345834571e-01 1.560017577726796034e+01
-3.129388658038070758e+00 3.512142174686473606e+00 1.349991674947230891e+01
-8.062983572625725515e+00 3.544599343647421907e+00 1.787468620053793344e+01
-8.035898012197868923e+00 3.296313089310074051e+00 1.823067045084602356e+01
-8.013688691695481481e+00 3.488970874462435479e+00 1.803740317726695608e+01
-1.164394179159923937e+00 9.091274765408567937e-01 1.934375208956096870e+01
-9.946670343160933792e-01 1.090389373868510425e+00 1.925124635698255204e+01
-5.562004334118854310e+00 -1.037122138714354769e+00 1.771384047381382132e+01
-5.996825933047644774e+00 -1.228591314919103006e+00 1.794323839944133070e+01
-5.752845226726775785e+00 -9.545720365079369829e-01 1.765171389323306173e+01
-5.862613888936270001e+00 1.693523161544427502e+00 1.155503738668156544e+01
-3.134306494378125141e+00 -1.936969476895923137e+00 2.026048067519862528e+01
-3.522986917275271246e+00 -1.519435255418761788e+00 2.035494122053558996e+01
-8.919085779712483841e+00 -7.293745489240061053e-01 1.850391150435541832e+01
-8.950371877053397540e+00 -2.902306316108560491e-01 1.831272055252147268e+01
-3.837873486930321931e+00 3.247664319713953418e+00 1.260566280410392537e+01
-3.730387671305842368e+00 1.915024748283968847e+00 1.962256777787155571e+01
-3.753100264606203051e+00 1.675271806136041430e+00 1.972542828036796081e+01
-3.559765315877080116e+00 1.881486504616599831e+00 1.959017185096874769e+01
-1.564499287595647159e+00 4.434604419565395084e+00 1.591384547003440630e+01
-3.024561725105509247e+00 3.082949003267454913e+00 1.893166462326388100e+01
8.462169582309941873e-02 -1.641751994813811066e+00 1.703134547534181209e+01
-5.579249966334406174e+00 3.085563610821018710e+00 1.933840587646654186e+01
-5.375831485646109797e+00 3.156392442101595197e+00 1.928686699820023520e+01
-2.447111080104626080e+00 1.629885233450619086e+00 1.317324679181804115e+01
-5.222959289759158352e+00 3.062873733864527992e+00 1.932420735496589614e+01
-5.595461089495496587e+00 2.705161812163789481e+00 1.954175087806506994e+01
-7.507889867358251479e+00 1.570870506799285860e+00 2.008645183991398042e+01
-4.951227597007721748e+00 -1.665227662827917232e+00 1.808388661429070154e+01
-1.666795457400289449e+00 5.327179235702944382e+00 1.699199911895379600e+01
-1.677415952586430059e+00 5.529153133674030052e+00 1.666147726025141296e+01
-7.574863350532087480e+00 1.813713928593852831e+00 1.992585491192262381e+01
-7.562394525491773045e+00 4.878937944393332060e+00 1.685338140385756489e+01
-5.986109524143088834e+00 1.455034799554051572e+00 2.016156483235255692e+01
-4.661803056771491871e-01 3.180804211912396706e+00 1.697645550580756080e+01
-6.738494108112361936e+00 2.343618149684737695e+00 1.302791445014634419e+01
-1.352479574247510197e+00 2.950287437028975002e-01 1.950001120186970027e+01
-3.284929639377344723e-01 7.411003965863570686e-01 1.893892277856763329e+01
-7.882299139594255433e-01 1.041086210030670367e+00 1.510602603080251427e+01
-7.942433590199724947e+00 3.633755176476258786e+00 1.798082766195570414e+01
-7.944592648604350771e+00 3.898092129381671267e+00 1.761590253999970557e+01
-7.857262114235083139e+00 4.158015886671509342e+00 1.741857282801439410e+01
-7.752591989743916834e+00 4.292501263388082577e+00 1.743605634862700882e+01
-3.992006980185005993e+00 -1.950614589861259240e+00 1.798082563109046461e+01
-2.766913150184691084e-01 -2.290482054598362627e+00 1.862960838762742455e+01
-6.571289344618704398e+00 5.849771440194315275e+00 1.701796016142610668e+01
-4.039455934162339723e+00 5.195511095581722749e+00 1.426259092340551504e+01
-8.713894332444771962e+00 2.105166409517308157e+00 1.756105389005069739e+01
-2.526628427464734816e+00 -2.007971640642199240e+00 1.752714458052153290e+01
-2.910630559207016521e+00 2.738947855624853656e+00 1.906797553782820742e+01
-8.483155809366781597e+00 -1.421689650915096692e+00 1.777205722166518242e+01
-1.378632523230544971e+00 8.340746912597545304e-01 1.429682675930630964e+01
-3.353737670054302455e+00 2.016626918734925056e+00 1.948030180031198100e+01
-8.508910832532373902e+00 2.639101486334948898e+00 1.793337349945039350e+01
-5.763255471735655888e+00 -1.839342704032931319e-02 1.632395909210213247e+01
-4.304666165427505575e+00 -1.189185284481825366e+00 1.756116214085107785e+01
-2.285507885954678464e-01 -2.876417704188760638e-01 1.922212323952048862e+01
-6.147920792954296942e+00 -1.167730869000763061e+00 2.074899605477900266e+01
9.637054069777900578e-02 1.205090375357346755e+00 1.662379050954166715e+01
-6.143916090161547494e+00 -9.350524889678003548e-01 2.076013784584568711e+01
-4.574212668617282596e+00 2.468824902353428996e+00 1.955127816234807980e+01
-5.060795604245479140e+00 4.097805000200460235e+00 1.333640783319424017e+01
-4.965203365474103236e+00 2.074060709670876079e+00 1.978096922016787929e+01
-4.582333057201583237e+00 2.321559132888533661e+00 1.961979817344292698e+01
-4.374572534748735642e+00 2.483480817431253485e+00 1.951006517105831861e+01
-4.183907175359815156e+00 2.530906328889639845e+00 1.945191919709596462e+01
-5.457872426717757186e+00 3.895533630136959413e+00 1.333386917488673973e+01
-4.800135972812891616e+00 3.001763080504439074e+00 1.931086005124059923e+01
-8.683192514373354598e+00 1.983732307699185515e+00 1.594917791926539863e+01
-8.638848253152524137e+00 2.317316120049041750e+00 1.638162335138274628e+01
-8.725572857971549467e+00 1.895724006346955814e+00 1.621928778224723189e+01
-8.611818397776849210e+00 2.341597654627800562e+00 1.620025844187749087e+01
-7.878446749004149652e+00 4.380456017865921758e+00 1.684947617005852649e+01
-8.081657058246799252e+00 3.983807245620829551e+00 1.704333414185025575e+01
-2.369643846250878205e+00 5.230052130034030355e+00 1.536892269462500238e+01
-1.374608607312816311e+00 1.634587992804844347e+00 1.470462898593646273e+01
-2.976029109490567759e+00 2.896166065734024464e+00 1.901108383299834870e+01
-3.031215532617625552e+00 -1.118236249906636282e+00 1.698992147747255999e+01
-5.365780821773290299e+00 3.540782243301026089e+00 1.907075733222440661e+01
-2.783987861612633008e+00 2.915498322514696650e+00 1.896014970816556300e+01
-8.925380374758484336e+00 9.222871221805396535e-01 1.717271396603613098e+01
-5.022691015350393862e+00 6.260675271675864018e-01 1.333659096143417955e+01
-1.599448130783113653e+00 -1.252311795492151880e+00 1.481022209239555920e+01
-5.040739377278424804e+00 5.429432202408843722e+00 1.480347110281961065e+01
-2.818016047285024861e+00 1.085705079029453790e+00 1.965469427086598486e+01
-1.767540788690396214e+00 -9.366422826235009103e-01 1.452182416691544731e+01
-1.938014802015582294e+00 -9.057278139954044738e-01 1.453424032837977720e+01
-3.261669215268230726e+00 9.646799504553327242e-01 1.200730006673795103e+01
-5.947590387438530968e+00 -2.217099083215278377e+00 2.055299865624455791e+01
-3.476343557632485481e+00 1.317480159126112937e+00 1.181143768668214378e+01
-3.080445356631589249e+00 1.086793796437151238e+00 1.217127783437734578e+01
-3.148145787490858272e+00 1.113293879964271760e+00 1.210722353766572823e+01
-5.149738561897384770e+00 -1.948929356627771003e+00 2.061050904140286733e+01
-7.223012768187447641e+00 4.725302172022499470e+00 1.766656287878130982e+01
-7.154521714043482916e+00 4.654921976065481637e+00 1.781152662380688056e+01
-3.735512501342639791e+00 1.538278099739492255e+00 1.165932676148000624e+01
-4.394831539735530868e+00 3.339776773101873264e+00 1.907109714322456639e+01
-2.157772226334151000e+00 8.402758485007161271e-01 1.330379691209111925e+01
-7.571879023511364437e+00 1.457133520822227135e+00 2.012434318226269525e+01
-4.201174561046260969e+00 -3.606313413313761984e-01 2.041541795108061663e+01
-3.618596235689059526e+00 -1.465114625704977414e-01 2.022079524413551255e+01
-8.965703440585084394e+00 -1.169340460682227745e-01 1.774043380654956437e+01
-3.648694416177318711e+00 4.384270559765792719e+00 1.366901654688976109e+01
-4.217595835896130296e+00 4.923131450682814325e+00 1.802909048748611909e+01
-6.358833664052540691e+00 1.880460626828483583e+00 2.000560287110314661e+01
-6.359596371622591171e+00 1.659877583361277775e+00 1.219236426574088838e+01
-3.187418097615133838e+00 5.748182719733461177e+00 1.508633884804303094e+01
-6.362076933254029676e+00 1.043734630870709612e+00 2.036759583925539729e+01
-7.711022600111012260e+00 1.788080181866783303e+00 1.988798570427065115e+01
-6.712585827700038976e+00 9.302055343686066458e-01 2.042867447102807077e+01
-6.843097413349338076e+00 -6.073404535534748794e-01 1.609631768800500495e+01
-2.538260831121962546e+00 6.640012625704831972e-01 1.283821189930929663e+01
-7.597814133020861505e+00 4.749038442858761755e+00 1.583699276240702503e+01
-2.841843507411208503e+00 6.931735122724212994e-01 1.256164466033719052e+01
-7.985236098853107478e+00 1.195772523208819660e+00 1.433391189349842776e+01
-8.696241300506615701e+00 9.810419384353894490e-01 1.910079963199364883e+01
-8.520492617672145386e+00 1.457363365672471822e+00 1.916029628538486307e+01
-8.603152186924837963e+00 1.455601684559774345e+00 1.898052504948101316e+01
-8.642389134686734309e+00 1.069465101722272049e+00 1.917344827954172715e+01
-7.172034442566088686e+00 -2.951686545513340088e-01 1.528985871837388899e+01
-3.986347080227927719e+00 9.938772563774126434e-01 1.163920145831887609e+01
-3.218963280529551607e+00 6.396793949228050558e+00 1.669848969426639584e+01
-3.780786286196436308e+00 1.004915021378333329e+00 1.167270685753914350e+01
-7.794873909729475692e+00 1.479317237969504539e+00 2.001938289455763353e+01
-6.162554474950101557e-01 -1.585814888559729852e+00 1.546276330982589187e+01
-3.214036362237471245e+00 1.462254637153720616e+00 1.215651283718240805e+01
-6.260414994845573400e-01 -1.699298137655299801e+00 1.554509580737354568e+01
-6.680118323294421678e-01 2.966195400877099875e+00 1.639750562723923721e+01
-4.249691194319142884e-01 -1.389312576858707793e+00 1.568995640414919635e+01
-8.527793351445794201e+00 -1.442541359768447329e+00 1.794007757148894555e+01
-3.128942659039483654e-01 -2.251903956965809250e+00 1.885562860221135040e+01
-1.474518791484012992e-01 -2.058034265202622226e+00 1.844213745461344089e+01
-2.171046492259788852e-01 -2.251553386427574299e+00 1.842458982593818106e+01
-2.740359803290487450e-02 -1.833876619097307703e+00 1.824405193214278498e+01
-4.979272913590454763e+00 -3.688007574301512825e-01 2.056513579684594717e+01
1.365777914161508955e-02 -1.831661923897709876e+00 1.804780083095734611e+01
-3.098725713973465856e-02 -2.008109948895516972e+00 1.801011412416357516e+01
-3.574077556376280107e+00 1.480953049481500639e+00 1.975217496797056427e+01
-3.473577506749041088e+00 5.873509299690623742e+00 1.719022511926314323e+01
-1.632811773233195707e+00 4.395859331783155355e+00 1.579363797918820111e+01
-3.990685241051962429e+00 1.425479883979273499e+00 1.988311995105661723e+01
-3.482674455497011490e+00 -1.934171011263212225e+00 2.034405639247323805e+01
-3.106414764568711795e-01 -2.666335214625329630e+00 1.822395739011477289e+01
-3.210293134921000657e+00 6.078600874454579417e-01 1.246525022582569520e+01
-3.369926153885868469e+00 5.408010998327306140e-01 1.258080729743783976e+01
-5.056810253572737501e+00 6.245602210239676211e+00 1.558850296604124352e+01
-6.213568439586907743e+00 6.170401170160170201e-01 1.375190117424397229e+01
-4.633120812676071232e+00 5.989088660453719015e+00 1.727945429626806018e+01
-2.382398913486698966e+00 3.142166968166873353e+00 1.876599247909757295e+01
-2.592552621530521684e+00 2.917932563746949093e+00 1.891714997277950161e+01
-4.420026115975222325e+00 3.690820233925667271e+00 1.274765569557938605e+01
-1.775245392202650985e+00 2.904353654215914293e+00 1.873368150741297100e+01
-2.826736431551498452e+00 3.048747637235317054e+00 1.356135844359189591e+01
-2.185983631577160580e+00 2.687746428647255215e+00 1.892653423746158481e+01
-1.971753970587364346e+00 2.681281787414543594e+00 1.888145217514123786e+01
-1.775042041418217476e-01 -2.413575338891099875e+00 1.683993188189775836e+01
-3.336381565031171004e+00 5.182037533215413383e-01 1.999063295600641865e+01
-6.147856858582140482e+00 4.348886198802941472e-01 2.055330745950211124e+01
-6.380686251232391193e+00 8.113897128024922800e-01 2.045537167276282631e+01
-6.365660944644155883e+00 4.572276181108981818e-01 2.056877287728233128e+01
-7.753262745172380122e+00 -1.544853422751035765e-01 2.052715918671557560e+01
-5.820223138135398600e+00 -7.418634439463173136e-01 1.743174052229678850e+01
-1.366116407837114632e+00 1.087149526902287278e+00 1.931835651460466252e+01
-1.257245741251494131e+00 2.202650494346890753e+00 1.516313801255821758e+01
-1.400733499147396977e+00 8.883782664155397413e-01 1.937106216200115583e+01
-5.431347692098858815e+00 6.428064465448954046e+00 1.579403654225908937e+01
-9.706722671585091833e-01 4.174593110949643027e+00 1.678898384250313214e+01
-8.069424335747628074e-01 3.792231549969095283e+00 1.677694505823105331e+01
-8.318763357870772035e-01 3.963802397529882615e+00 1.700658943357062824e+01
-8.573128445331873237e+00 2.715937999319637086e+00 1.718133441580064513e+01
-8.666124060031863863e+00 2.289366723159073747e+00 1.759087442773186538e+01
-8.672974736369003068e+00 2.309370500507945678e+00 1.740267070080513534e+01
-1.654201635673586024e+00 1.140531587941616687e-01 1.377858450999674389e+01
-2.709104343291398376e+00 1.105856232519577542e+00 1.961182285044613494e+01
-5.572502933515770529e+00 2.284955677732954271e+00 1.974985161684143620e+01
-7.014478007403551096e+00 3.595829909984774808e+00 1.422634290120162959e+01
-5.366238341053894523e+00 2.707954337201671446e+00 1.952378806374280984e+01
-5.183541468985891854e+00 2.472490683530599753e+00 1.962309118480053272e+01
-5.015682989775087641e+00 2.891776737438151113e+00 1.939647569168313979e+01
-5.202506408020817652e+00 2.686152967123181412e+00 1.952141685643319491e+01
-3.275104966426144681e+00 4.803018961648255036e+00 1.427350368156455929e+01
-5.329492794729651095e+00 -2.871260521847933234e+00 2.020372216880474880e+01
-5.640337563714711955e+00 5.009763918504980929e+00 1.811289723231850601e+01
-1.118419781910084732e+00 8.982528276253016752e-01 1.463142300869660417e+01
-2.779445009428995750e+00 2.323770394647471260e+00 1.921149523924303182e+01
-3.373891360358715730e+00 2.328509519957405960e+00 1.935589400230052703e+01
-3.167440302701103327e+00 2.522770912235766438e+00 1.922082346590258695e+01
-7.024654987680286844e+00 2.611384962339260873e+00 1.359210557709782208e+01
-8.328928387843406611e+00 2.924909862245858250e+00 1.562551174741219384e+01
-4.178306439162435382e+00 -7.309537540095413233e-01 2.045417281023577871e+01
-3.917099854761395772e+00 -9.524574533310407043e-01 2.041296076354784006e+01
-7.966440519014871491e+00 1.004689547605968514e+00 1.436813302928807801e+01
-5.826793647117290753e+00 5.097370051613578923e+00 1.801613560571096784e+01
-2.044819091015052770e+00 1.680123567304580678e+00 1.924193769066359394e+01
-2.757708509921559692e+00 -8.299375048389024956e-01 1.567758395320801768e+01
-7.597794600621771366e+00 2.488902434201968106e+00 1.944505550790627169e+01
-7.569875379723133513e+00 2.853774645927629194e+00 1.916154668642557013e+01
-1.880591503331255909e+00 1.627861099385901511e+00 1.400364823323745256e+01
-8.901277774373363982e+00 1.113276412303301210e+00 1.717846235518132758e+01
-1.194658283470905635e+00 2.409893932940903927e+00 1.535679377397886824e+01
-2.992446409878310565e+00 -2.081320031343881993e+00 1.777645749782180573e+01
-3.194767781467877654e+00 3.060801768932005285e+00 1.314612935633286739e+01
-8.862969214762069114e+00 -3.029591296972640180e-01 1.688169585430901165e+01
-7.911449192983171841e+00 2.045073367473400960e+00 1.426406232446599986e+01
-3.821936979778731480e+00 5.703912705081977563e+00 1.738542687322851421e+01
-2.488606449560376355e+00 1.830573463467285666e+00 1.320931453825880553e+01
-1.751812595850296583e+00 -2.521925383561098855e+00 1.982604282034288090e+01
-1.768101986594603492e+00 -2.333685100549413693e+00 1.984878926323574078e+01
-2.405046994811567806e+00 5.750046842251413715e+00 1.704994932205812219e+01
-3.893248497042484324e+00 -1.602520418445279482e+00 1.773770152712673465e+01
-7.186025715783532775e+00 3.832389873199167685e+00 1.855861846396858184e+01
-4.190701843295886242e+00 6.095847573429224120e+00 1.515171166847493467e+01
-7.226224273527585673e+00 3.936771845224115829e+00 1.843756546497119686e+01
-5.792103296575286109e+00 4.646756830173442765e+00 1.838280297047076672e+01
-2.946958818874134689e+00 1.715937165954719568e+00 1.948323957905047266e+01
-2.818530754553318030e+00 -8.972651105073018440e-01 1.643238065055732378e+01
-2.740142974700320533e+00 -1.004526100531771604e+00 1.648962813333322330e+01
-6.812300961138547883e+00 3.143725031636019462e+00 1.926776539555013912e+01
-3.380014650738145665e+00 -1.027753663303430542e+00 1.707392131984257233e+01
-3.145775433828540635e+00 -2.523351618326958423e+00 2.018754677329445357e+01
-5.204413563760935446e+00 2.070139343647848129e+00 1.980981172261135370e+01
-5.605392040708658818e+00 2.106064531472916279e+00 1.983671316464334566e+01
-3.629329917071494105e+00 -2.545478400437435340e+00 1.816631585034377494e+01
-5.182559250411891583e+00 2.274338708575641466e+00 1.971729177609020311e+01
-8.937081688947268177e+00 7.037745459611504106e-01 1.778126516047131744e+01
-1.643731899674327757e+00 2.199044947809267736e-01 1.379496273410060425e+01
-5.368423410003986262e+00 6.686871944410451185e+00 1.597822854842608464e+01
-8.943396149900397774e+00 7.024031702289205148e-01 1.758510542591821846e+01
-7.192230331975663304e+00 3.078017156960251466e+00 1.919238319292230344e+01
-7.410858008319793022e+00 2.680584325206077256e+00 1.940016035405045258e+01
-5.629102741429019119e+00 3.799963036779943959e+00 1.892991797715916746e+01
-7.367699453113809582e+00 3.005468676276276785e+00 1.916219376566042243e+01
-6.680239552197392072e+00 1.836289219944865714e+00 1.269489103778086658e+01
-6.971387404681870237e+00 4.599773319879236211e-01 2.058674610918443548e+01
-7.162997989703665525e+00 4.128332441557535093e-01 2.059141714377507881e+01
-3.217142164712080366e+00 6.585231618575362766e+00 1.651909868733524078e+01
-3.386590067776428459e+00 3.097992499042762748e+00 1.899560750886921667e+01
-3.567660992044015877e+00 2.902098651737092361e+00 1.913071090176761757e+01
